ply
format ascii 1.0
comment PCL generated
element vertex 1298
property float x
property float y
property float z
element camera 0
property float view_px
property float view_py
property float view_pz
property float x_axisx
property float x_axisy
property float x_axisz
property float y_axisx
property float y_axisy
property float y_axisz
property float z_axisx
property float z_axisy
property float z_axisz
property float focal
property float scalex
property float scaley
property float centerx
property float centery
property int viewportx
property int viewporty
property float k1
property float k2
end_header
0.10424034 -0.043221604 0.046222359
0.10472507 -0.043072406 0.044190407
0.11101463 -0.045293972 0.028854311
0.065628543 -0.044951055 0.0050752759
0.070977949 -0.047958072 0.011063665
0.074218906 -0.049479272 0.016269386
0.075515598 -0.049681313 0.025258243
0.077815212 -0.050529357 0.028257042
0.072260223 -0.046320658 0.030159384
0.070530072 -0.044639286 0.03296718
0.069978081 -0.043736301 0.038767308
0.068190828 -0.042093102 0.04610303
0.069929324 -0.042639833 0.047483653
0.070132859 -0.042248711 0.048347503
0.071934566 -0.042818192 0.048315853
0.071162745 -0.041860439 0.0484716
0.075048566 -0.043632887 0.047969282
0.074638337 -0.042895596 0.047220826
0.076509915 -0.043471545 0.046301335
0.078154117 -0.043906808 0.045607775
0.077223904 -0.042902168 0.045307994
0.077883109 -0.04279292 0.045008689
0.079516031 -0.043215234 0.044612408
0.080905005 -0.043497313 0.044174194
0.081579067 -0.043393124 0.043843448
0.082907937 -0.043635756 0.043666452
0.083687857 -0.043587424 0.043702394
0.083873607 -0.043233819 0.044113457
0.084283434 -0.043001752 0.043817461
0.086013801 -0.043441314 0.043700248
0.087547362 -0.043773681 0.043427289
0.086800694 -0.042970639 0.043434024
0.089517795 -0.043881275 0.04329899
0.08920411 -0.043302964 0.043032318
0.09054327 -0.043530419 0.043024451
0.091327086 -0.043489087 0.042995125
0.092233777 -0.043506499 0.042696953
0.093184695 -0.043544251 0.042684466
0.094371699 -0.043690603 0.042671055
0.094537929 -0.043366022 0.042616755
0.095557921 -0.043435417 0.042896032
0.096827731 -0.043616094 0.043135554
0.096769109 -0.043200497 0.043210804
0.10001559 -0.044254687 0.043861151
0.09760657 -0.0428099 0.044115007
0.098822147 -0.04296615 0.044310749
0.10057269 -0.043350298 0.04458335
0.10076244 -0.043060873 0.045095682
0.10134114 -0.042941161 0.04595387
0.10307603 -0.043309256 0.046919137
0.10346464 -0.043110266 0.046962798
0.10183329 -0.042079873 0.047371238
0.10342161 -0.042385906 0.046489
0.10282041 -0.041796915 0.046551734
0.10486851 -0.042285688 0.045362324
0.10686115 -0.042744461 0.03691411
0.12541178 -0.049766582 0.0060143173
0.066039443 -0.044327844 0.0055513382
0.071824826 -0.047559679 0.013347656
0.073117703 -0.047770232 0.017792821
0.075729296 -0.048825469 0.025353372
0.074270464 -0.047263023 0.028814346
0.069622815 -0.043737411 0.031132936
0.071228616 -0.044179771 0.03440699
0.068289198 -0.041827131 0.042607993
0.069559485 -0.042079195 0.046438217
0.069007784 -0.04123636 0.047998935
0.070151709 -0.041414864 0.048175007
0.07216417 -0.042095765 0.048188567
0.072504863 -0.041796923 0.047969013
0.073392168 -0.041816466 0.047604352
0.076047003 -0.042831071 0.046710044
0.07690195 -0.042820405 0.045969367
0.076898083 -0.042337146 0.045395583
0.078652084 -0.04282169 0.044785619
0.078807078 -0.042434581 0.044223964
0.080362223 -0.042801619 0.044096828
0.081605345 -0.042996366 0.043954253
0.081700802 -0.042588718 0.043602437
0.081672989 -0.042126067 0.043602437
0.083373882 -0.042555418 0.043794155
0.08351627 -0.042188633 0.044110715
0.085558921 -0.042779461 0.043919563
0.085807711 -0.042470481 0.043704212
0.086067811 -0.042173229 0.043529391
0.087718904 -0.042556696 0.043543518
0.087817639 -0.042186908 0.043418556
0.087172061 -0.041470204 0.043113887
0.090517625 -0.042647727 0.04308477
0.091356926 -0.042633232 0.042924404
0.091283202 -0.042196952 0.042796493
0.093675062 -0.042897925 0.042865783
0.094116315 -0.04270092 0.042813957
0.095056035 -0.042731613 0.042713493
0.095731296 -0.042643942 0.042926967
0.096670046 -0.042674165 0.043189913
0.096938789 -0.04241072 0.043285996
0.09822458 -0.042592958 0.043845236
0.098587707 -0.042375416 0.043891042
0.099979699 -0.042600043 0.044399381
0.099620566 -0.042081099 0.044646442
0.099104449 -0.041505281 0.045150787
0.10340273 -0.042938422 0.046243817
0.10269923 -0.042287916 0.046859235
0.10457736 -0.042702418 0.047214001
0.1038581 -0.042058237 0.047417581
0.10153496 -0.040780436 0.046355754
0.10334202 -0.041168772 0.046626359
0.10441209 -0.041259613 0.04525876
0.10558682 -0.041390035 0.042654365
0.11368918 -0.044212461 0.0073038042
0.065784536 -0.043255582 0.0079464912
0.071509123 -0.046384294 0.013828993
0.074123606 -0.04743911 0.021396637
0.075396344 -0.047618747 0.027024895
0.075076334 -0.046800833 0.029601574
0.070013754 -0.043085389 0.031229556
0.069965996 -0.042510983 0.034894556
0.06863223 -0.04117934 0.04395178
0.068953209 -0.040861163 0.047563165
0.068751752 -0.040244926 0.04810527
0.071037173 -0.041081738 0.048197865
0.071360961 -0.040777691 0.048230797
0.073167495 -0.041318115 0.048114419
0.074528679 -0.041597404 0.047596782
0.075366743 -0.041581653 0.046297848
0.076528601 -0.041742872 0.045514256
0.078061864 -0.04210078 0.044808507
0.077034116 -0.04108486 0.044393837
0.07857845 -0.041447975 0.04385671
0.080464669 -0.041981563 0.043865383
0.081095874 -0.041855935 0.043647707
0.082167946 -0.041958101 0.043607056
0.082854778 -0.041863468 0.043667048
0.083702445 -0.041851223 0.043755919
0.084095158 -0.0416141 0.043720633
0.084466457 -0.041371323 0.04373014
0.085366748 -0.041389938 0.043668449
0.087024331 -0.04177168 0.043489188
0.087514326 -0.04159097 0.043499321
0.089039177 -0.041900791 0.043416947
0.08825881 -0.041130319 0.043071061
0.090338044 -0.041694481 0.043057859
0.090989977 -0.041595418 0.042910993
0.092218481 -0.041759312 0.042841703
0.092772275 -0.041617472 0.042910993
0.093701445 -0.041645087 0.042972833
0.094381124 -0.04156233 0.042841703
0.095251076 -0.041564107 0.042985409
0.097209506 -0.042036545 0.043272614
0.098120518 -0.042051651 0.043295503
0.096996322 -0.041201979 0.043833971
0.099829048 -0.042033285 0.043907493
0.098529205 -0.04112523 0.044621915
0.099958256 -0.041362036 0.044739693
0.10163547 -0.041696604 0.045332789
0.10121363 -0.041171648 0.04593116
0.10232874 -0.041275457 0.046481818
0.1046315 -0.041852601 0.046965957
0.10420208 -0.041336361 0.04710409
0.10384487 -0.040857002 0.046325773
0.10366957 -0.040456414 0.046359807
0.10505979 -0.040668305 0.045212716
0.10454453 -0.040145099 0.043474644
0.11352617 -0.043248065 0.023267597
0.12565035 -0.047489893 0.0052580535
0.066067725 -0.042536754 0.0089949071
0.073597394 -0.046744291 0.016411304
0.074877493 -0.046923228 0.023556948
0.076396652 -0.047245298 0.027696311
0.076600961 -0.046756431 0.029601574
0.070605025 -0.042544052 0.031215429
0.068830401 -0.040949732 0.037622571
0.067903586 -0.039893355 0.045798302
0.068912752 -0.039986409 0.04789862
0.069151536 -0.039635636 0.047910541
0.070594452 -0.03997517 0.047930986
0.071915478 -0.040238421 0.047928482
0.074615434 -0.041257944 0.047726303
0.074162953 -0.040530913 0.046932131
0.075095423 -0.040568791 0.04590252
0.076039486 -0.040611997 0.045513839
0.076778293 -0.04054584 0.044312358
0.077701338 -0.040577367 0.043954253
0.079999305 -0.041318323 0.043760687
0.07997629 -0.040857453 0.04385671
0.080983505 -0.040927149 0.04346031
0.081909381 -0.04095469 0.043527275
0.082452729 -0.040792402 0.043643594
0.084889926 -0.041560691 0.043705642
0.084403478 -0.040896531 0.043755352
0.084342517 -0.040449984 0.04373014
0.086425118 -0.041030109 0.04352504
0.087595977 -0.041170109 0.043489188
0.087559976 -0.040745731 0.043593407
0.089742087 -0.041351747 0.043483526
0.088901222 -0.040566575 0.043330014
0.090286776 -0.040802676 0.04322952
0.091322124 -0.040877521 0.043339819
0.092141308 -0.040855106 0.043057859
0.092391908 -0.040583361 0.043057859
0.094461992 -0.041108459 0.043149382
0.094519891 -0.040756281 0.042892605
0.095733732 -0.040904414 0.042991489
0.096333422 -0.040789828 0.043258339
0.096448056 -0.040473737 0.043368697
0.098167367 -0.040830676 0.043743163
0.100455 -0.041415658 0.043620646
0.099955238 -0.040851269 0.044288367
0.10112406 -0.040972676 0.044334799
0.10216018 -0.041038703 0.044892997
0.10147329 -0.040417328 0.045726031
0.10340404 -0.040840253 0.046106309
0.10357787 -0.040567998 0.046915919
0.10406533 -0.040422067 0.04686144
0.1047671 -0.040361095 0.046366572
0.10261319 -0.039209917 0.045950562
0.10501373 -0.039803591 0.045090765
0.10481086 -0.039408881 0.042654365
0.10646051 -0.03971146 0.02981475
0.12520552 -0.046335902 0.0054284036
0.065921456 -0.04153955 0.011156648
0.072251618 -0.044913165 0.018869191
0.073410779 -0.045025278 0.024423957
0.077546798 -0.046936218 0.028281182
0.075248629 -0.044953726 0.030020803
0.070845835 -0.041780878 0.032272339
0.068218797 -0.039722338 0.040883958
0.067432739 -0.038773824 0.046780765
0.068378173 -0.03883205 0.04789862
0.069291361 -0.038870767 0.047910541
0.070800349 -0.039238747 0.047910541
0.072163865 -0.039518308 0.0478383
0.073477767 -0.039764438 0.047674745
0.074739963 -0.039977189 0.046704978
0.074911751 -0.039608512 0.045597434
0.075942867 -0.039697409 0.045303375
0.077967726 -0.040297925 0.044244975
0.078378879 -0.040060315 0.043850482
0.078530878 -0.039696928 0.043587685
0.07979352 -0.03989676 0.043671489
0.081395313 -0.040260047 0.04346031
0.081605688 -0.039934698 0.043403715
0.082591139 -0.039991498 0.043450266
0.083305284 -0.039917115 0.043600708
0.084188312 -0.039924353 0.043563843
0.084960915 -0.039879613 0.043601185
0.086475313 -0.040180448 0.043607056
0.086806737 -0.039931096 0.043416023
0.088034987 -0.040095143 0.043577999
0.089148931 -0.040204421 0.043360889
0.089056641 -0.039772868 0.043245703
0.091149352 -0.04031606 0.043245703
0.089740448 -0.039314862 0.043345481
0.09172 -0.039803017 0.043061823
0.0935487 -0.040217198 0.043061823
0.09386801 -0.039980818 0.043167204
0.093241088 -0.039349452 0.042945921
0.094806165 -0.039646212 0.042991489
0.095808834 -0.039704565 0.043240517
0.096642375 -0.039692406 0.04334411
0.098661691 -0.040163167 0.043544561
0.099248901 -0.040047802 0.043861419
0.10057219 -0.040228873 0.044300914
0.10072029 -0.039940804 0.04446131
0.10143142 -0.03987902 0.04496938
0.10142189 -0.039537344 0.045576632
0.10170414 -0.039314203 0.045980811
0.10372888 -0.039762739 0.046619684
0.10529079 -0.040027905 0.047124803
0.10413778 -0.039265063 0.046525717
0.1039359 -0.038870335 0.046402603
0.10532814 -0.039073341 0.045231074
0.10442919 -0.038429942 0.043474644
0.10661831 -0.038924143 0.035417616
0.12439095 -0.045054991 0.0084487498
0.065437958 -0.040898722 0.00531739
0.066015601 -0.04069455 0.01213032
0.073789068 -0.044871733 0.021139711
0.075646982 -0.045388188 0.024303526
0.076256499 -0.045151874 0.028366655
0.077307239 -0.045179557 0.030183494
0.071300961 -0.04113517 0.033474624
0.067687087 -0.038555935 0.042251617
0.06811893 -0.038316898 0.046709061
0.068424001 -0.038013332 0.047826916
0.069758937 -0.038282346 0.0478383
0.070535108 -0.038241927 0.047811717
0.07304839 -0.039133064 0.047799051
0.073363587 -0.038839549 0.047558278
0.075772822 -0.03964857 0.045967311
0.075209647 -0.038901541 0.045548648
0.076815225 -0.039280515 0.045004874
0.076905608 -0.038884856 0.044070423
0.077787198 -0.038893599 0.043850482
0.07926923 -0.039199069 0.043544978
0.080381051 -0.039316818 0.04355967
0.080354124 -0.038881026 0.043463796
0.081948675 -0.039230749 0.043403715
0.083016492 -0.039323602 0.043394774
0.082437173 -0.038642425 0.043622285
0.084754318 -0.039319012 0.043615997
0.08498688 -0.039024588 0.043637276
0.08514218 -0.03870099 0.043734103
0.08657293 -0.038957819 0.043523163
0.087619886 -0.039038561 0.043684334
0.088085175 -0.038861107 0.043525219
0.08936967 -0.039045002 0.043360859
0.090213344 -0.03903462 0.0432854
0.090350166 -0.038721498 0.043390781
0.092172749 -0.039129943 0.043390781
0.093047522 -0.039132137 0.04358092
0.093190789 -0.038829498 0.043554246
0.095456243 -0.039408538 0.043510437
0.095423527 -0.0390369 0.043219507
0.095238015 -0.038610004 0.043390483
0.097520046 -0.03918216 0.043450981
0.096509993 -0.038433183 0.043602765
0.098830931 -0.039012209 0.044086903
0.099476963 -0.038925767 0.044322759
0.10081179 -0.039108023 0.044816166
0.10179065 -0.039150249 0.045141488
0.10302602 -0.039289586 0.045576632
0.10091455 -0.038160965 0.045972288
0.10389334 -0.038960002 0.046619684
0.10501872 -0.039056551 0.047124803
0.10498772 -0.038724978 0.046788633
0.10410403 -0.038086843 0.046378344
0.10493426 -0.038080979 0.045337915
0.10524721 -0.037888993 0.043420076
0.10712723 -0.038259726 0.037704587
0.12104418 -0.04288967 0.0093478858
0.0652842 -0.0398959 0.00718382
0.067050762 -0.040414162 0.016387224
0.073773324 -0.043865222 0.022071123
0.07472764 -0.043840215 0.025291413
0.076613665 -0.044355281 0.028207213
0.076290466 -0.04359455 0.030114919
0.069706455 -0.03932159 0.034479082
0.067419559 -0.037550136 0.043128014
0.06855125 -0.037703186 0.046869844
0.06834355 -0.037124895 0.04777506
0.070436731 -0.037795316 0.047811717
0.071265422 -0.03777926 0.047772825
0.073295966 -0.038393125 0.04775843
0.072544307 -0.037552346 0.047558278
0.074754678 -0.038246579 0.045963168
0.074309751 -0.037581943 0.045523971
0.076675795 -0.038337898 0.044938713
0.077760488 -0.03844339 0.043897003
0.078410313 -0.03833393 0.043565333
0.079309225 -0.038347315 0.043518782
0.079508521 -0.038025815 0.043463796
0.081957981 -0.038775817 0.043371439
0.082319111 -0.03853235 0.043202281
0.081767589 -0.037871305 0.04324612
0.084431477 -0.038697761 0.043339282
0.08391165 -0.038063016 0.04342553
0.084188223 -0.037798792 0.043434352
0.086070232 -0.038253434 0.043668598
0.086403683 -0.038017619 0.043597281
0.087293804 -0.038028982 0.043719143
0.089726672 -0.038705621 0.043556333
0.089809924 -0.038365405 0.043544859
0.089841343 -0.0380098 0.043494463
0.092600368 -0.038803961 0.043642402
0.091862798 -0.038131729 0.043605208
0.092444927 -0.038014736 0.043673217
0.093619183 -0.03814115 0.043723732
0.093958281 -0.037928112 0.043445736
0.095341951 -0.03813678 0.04336828
0.097320877 -0.038577646 0.043501616
0.095996946 -0.037713088 0.043559134
0.099297285 -0.03866443 0.043838024
0.099154368 -0.038270108 0.044300914
0.10011301 -0.038304109 0.044803858
0.099883772 -0.037886947 0.045152575
0.1010059 -0.037985124 0.045305401
0.10064103 -0.037527163 0.045448422
0.10207162 -0.037740767 0.045956761
0.10365074 -0.038005274 0.046808302
0.10389861 -0.037781313 0.047438085
0.10614308 -0.038281109 0.047033489
0.10392033 -0.03717475 0.046604574
0.10700233 -0.037968569 0.045348734
0.10642112 -0.037460234 0.0436728
0.10527609 -0.036763076 0.039382279
0.1166485 -0.040413655 0.011704832
0.12525715 -0.043057144 0.0052949488
0.065073863 -0.038863558 0.0087943673
0.06810309 -0.040115517 0.016977429
0.073841438 -0.042907864 0.022128046
0.074302219 -0.042599939 0.025138795
0.076064423 -0.04303645 0.02803421
0.073710285 -0.041162889 0.029789865
0.068853669 -0.037957791 0.036404043
0.067855738 -0.036934137 0.043520838
0.06752909 -0.036296885 0.04677102
0.069046885 -0.036654517 0.047586739
0.070203103 -0.036813822 0.047729105
0.070553347 -0.036551733 0.04775238
0.073999248 -0.03788057 0.04775238
0.073716894 -0.037292078 0.046869546
0.073202878 -0.036601439 0.045886397
0.074420162 -0.036782376 0.045483619
0.07685557 -0.037554424 0.044836968
0.076596744 -0.037007414 0.043899775
0.078336984 -0.037427671 0.043567896
0.078704901 -0.037190229 0.043518782
0.079630435 -0.037218574 0.043400615
0.081385255 -0.037629742 0.043266058
0.081762865 -0.03740216 0.043166786
0.083228946 -0.03767205 0.043173105
0.083129786 -0.037235215 0.04327929
0.083263867 -0.036910787 0.043323129
0.085484214 -0.03750838 0.043326169
0.085304394 -0.037051406 0.043668598
0.08622209 -0.037075501 0.043530464
0.088471882 -0.037666246 0.043806285
0.088239968 -0.037199203 0.043655455
0.089221813 -0.037247941 0.043554246
0.090886526 -0.037578084 0.043454856
0.091054142 -0.037288837 0.043345869
0.092145823 -0.037379909 0.043445736
0.092837572 -0.037308555 0.043635279
0.094186902 -0.03750034 0.043576956
0.094402641 -0.037241407 0.043484598
0.095337428 -0.037268266 0.043365121
0.095685914 -0.037067514 0.04336378
0.09711685 -0.037285931 0.043495029
0.097150996 -0.036968965 0.043811411
0.097137555 -0.036639605 0.04418835
0.10001395 -0.03739652 0.044856727
0.10076889 -0.037353985 0.045212299
0.099446796 -0.036548823 0.045305401
0.1032861 -0.037638158 0.045412719
0.10228926 -0.036961664 0.045956761
0.10350564 -0.037089523 0.046295971
0.10464925 -0.037189402 0.047380835
0.10764651 -0.037940983 0.046778828
0.098223411 -0.034338266 0.046363235
0.11528779 -0.039978828 0.045369774
0.10565212 -0.036344327 0.044183105
0.10623079 -0.036253367 0.039924294
0.11576515 -0.039196074 0.018567324
0.12233089 -0.041095532 0.0056970417
0.065316811 -0.038101476 0.010292679
0.070481829 -0.040551189 0.017543465
0.073988967 -0.041993737 0.022254914
0.07582707 -0.042463161 0.024053305
0.076347835 -0.042192224 0.028311968
0.070829876 -0.038634479 0.029655755
0.069088116 -0.037201293 0.036617666
0.067001402 -0.035620999 0.043575019
0.06873548 -0.036086127 0.046259493
0.068070099 -0.035295606 0.046915025
0.069929861 -0.035817735 0.047668755
0.071104452 -0.035980567 0.047530115
0.073113136 -0.036556568 0.047516286
0.072562113 -0.03585422 0.04629609
0.074803501 -0.03653194 0.045642406
0.075318038 -0.036360431 0.045334637
0.076400794 -0.036464013 0.044674426
0.077614941 -0.036627278 0.043915421
0.077754579 -0.036285471 0.043667048
0.079414845 -0.036653005 0.043688864
0.07961522 -0.036346078 0.043688864
0.080679476 -0.036435891 0.043524355
0.082043052 -0.036657535 0.043250114
0.082796223 -0.036604643 0.043300867
0.083079785 -0.036347404 0.043344706
0.084569886 -0.03661789 0.043403953
0.085247509 -0.036534648 0.043403953
0.08604984 -0.036505993 0.043678552
0.087737709 -0.036849838 0.043614984
0.088777713 -0.036917463 0.043820739
0.087554231 -0.036051743 0.043614984
0.088943347 -0.036268163 0.04363206
0.090752833 -0.036650185 0.043418288
0.090844929 -0.036337972 0.043319225
0.092859402 -0.036793347 0.043339491
0.09365198 -0.036760591 0.043451905
0.09259887 -0.036010671 0.043615878
0.0947567 -0.036511756 0.043392479
0.095513433 -0.036468763 0.043400526
0.095582947 -0.036166519 0.043468356
0.097775884 -0.036665957 0.043540537
0.097424261 -0.036210787 0.044189304
0.098322198 -0.036223967 0.04459095
0.099496476 -0.036337845 0.044842005
0.10000271 -0.036207877 0.045105457
0.099694729 -0.035787851 0.045153439
0.10199709 -0.036304049 0.045384407
0.10085109 -0.035594504 0.045779824
0.10444625 -0.036556188 0.046282053
0.10373269 -0.036006387 0.047145307
0.1076694 -0.037066516 0.046806604
0.11648336 -0.039774805 0.046322882
0.11060968 -0.03746457 0.045369774
0.10553721 -0.035460502 0.044183105
0.10690647 -0.03563549 0.041139483
0.11184024 -0.036986537 0.02306655
0.12419842 -0.040752608 0.0062954128
0.065533444 -0.037317656 0.010292679
0.07189247 -0.040377963 0.017543465
0.073239803 -0.040578812 0.022254914
0.074695066 -0.040833302 0.024173677
0.075360596 -0.040655058 0.027960658
0.06951654 -0.0370153 0.028861612
0.068449199 -0.035979707 0.036616355
0.066760994 -0.034648109 0.043575019
0.06756898 -0.034629103 0.046335638
0.068428926 -0.034636866 0.046981961
0.070449695 -0.035224847 0.047754675
0.071347915 -0.035244148 0.047663063
0.072407007 -0.035341516 0.047578663
0.072714858 -0.035074223 0.046563923
0.075214304 -0.035857983 0.04583326
0.073359281 -0.034571614 0.045400441
0.076301903 -0.035549752 0.044833779
0.077144183 -0.035538331 0.044040412
0.077739209 -0.035414528 0.043929964
0.079312757 -0.035734318 0.043846995
0.079539388 -0.035446901 0.043798953
0.080967411 -0.035695311 0.043525279
0.08187639 -0.035712041 0.043286681
0.082554601 -0.035628829 0.043359697
0.083325274 -0.035586838 0.043362737
0.084972993 -0.035916422 0.043444306
0.085074149 -0.035592247 0.043403953
0.086525232 -0.035833679 0.043369859
0.086301014 -0.035383414 0.043532372
0.087369308 -0.035466749 0.04373908
0.088989347 -0.035770226 0.04369995
0.090148382 -0.035884306 0.043441921
0.090004869 -0.035482686 0.043259352
0.091434024 -0.03570281 0.043322474
0.092048004 -0.035603475 0.043317229
0.093003616 -0.035636898 0.043559134
0.093839429 -0.035624228 0.043718338
0.092897899 -0.034943245 0.043534666
0.096678354 -0.036034659 0.043561339
0.095668562 -0.035337038 0.043703616
0.096533805 -0.035338268 0.044055492
0.097750016 -0.03546682 0.044290036
0.098998234 -0.03560463 0.044873744
0.098708861 -0.035191853 0.045083433
0.099860922 -0.035295669 0.045333534
0.10040086 -0.035183206 0.045412719
0.1008938 -0.035056319 0.04565382
0.10208297 -0.035171442 0.045933068
0.103494 -0.035360448 0.046406329
0.10388189 -0.03519965 0.04725948
0.10707974 -0.035985813 0.047170639
0.10408249 -0.034694165 0.046743304
0.10541087 -0.034853593 0.046105504
0.10505797 -0.034459013 0.043972343
0.10576422 -0.034415342 0.041273594
0.1103429 -0.035622511 0.023175895
0.12348586 -0.039554063 0.0070388317
0.064502254 -0.036339298 0.0053651333
0.067417517 -0.037454177 0.010764539
0.072593316 -0.03977716 0.017537951
0.072982684 -0.039450102 0.022162318
0.074223332 -0.039585777 0.023878008
0.072401568 -0.038106088 0.027696788
0.068954274 -0.035820398 0.029041499
0.069140293 -0.035456561 0.036616355
0.067479514 -0.034166843 0.043573707
0.067985334 -0.033992667 0.046278775
0.069503784 -0.034322858 0.046884686
0.069916002 -0.034105368 0.047567666
0.071090437 -0.034260452 0.047558278
0.073379673 -0.034942701 0.047480583
0.073374137 -0.034529004 0.046266377
0.073122822 -0.034010615 0.045488626
0.076780729 -0.035301484 0.045232385
0.075819999 -0.034463637 0.044345766
0.076847762 -0.034538321 0.043915421
0.078274831 -0.034788813 0.043908387
0.079448253 -0.034922309 0.043680131
0.079386555 -0.034515895 0.043571413
0.081867971 -0.035212029 0.043243855
0.081932433 -0.034864865 0.043211371
0.081557304 -0.034339916 0.043232948
0.083069384 -0.034612242 0.043280363
0.084226005 -0.034732372 0.043403953
0.084523022 -0.034499191 0.043362737
0.085640661 -0.034602288 0.043326169
0.085715637 -0.034286257 0.043600261
0.08876083 -0.035152804 0.043806285
0.08889921 -0.034862433 0.043525219
0.090452753 -0.035127282 0.043418288
0.08991307 -0.034581952 0.043258339
0.091694377 -0.03493119 0.043282211
0.09094242 -0.034317892 0.043276608
0.093293801 -0.03487619 0.043237269
0.094329245 -0.03493676 0.043559134
0.093231618 -0.034213439 0.043404847
0.09528818 -0.034650248 0.043446451
0.095577538 -0.034442358 0.043701321
0.097132534 -0.03469019 0.044114619
0.097756922 -0.034604222 0.044300914
0.096271023 -0.033779308 0.044822186
0.09918762 -0.034500044 0.045453072
0.10065603 -0.034708973 0.045538604
0.10146932 -0.034690365 0.045641363
0.10361313 -0.035123095 0.045715064
0.10026804 -0.033703547 0.046112031
0.10306677 -0.034355592 0.046312869
0.10521691 -0.034782451 0.047233224
0.10689505 -0.035047557 0.047106266
0.10426918 -0.033908676 0.046177834
0.10412566 -0.033588924 0.045792907
0.10417072 -0.033334628 0.043910205
0.10572055 -0.033562079 0.041139483
0.11401147 -0.035909127 0.023003012
0.12284692 -0.03838966 0.0068309903
0.064740762 -0.03556183 0.0053651333
0.065840222 -0.035663456 0.011091024
0.070675142 -0.037757952 0.017537951
0.07306233 -0.038505822 0.022098958
0.074731022 -0.038860131 0.023170471
0.070493773 -0.036174439 0.026968271
0.068677433 -0.034784675 0.028860301
0.069247454 -0.034623727 0.036597908
0.068065308 -0.033601861 0.042684644
0.066875398 -0.032601759 0.046305776
0.069280908 -0.033357471 0.046920896
0.068764739 -0.03270518 0.047390342
0.071050584 -0.033385213 0.047480583
0.07258746 -0.033701323 0.047329634
0.072730064 -0.033370268 0.04667744
0.07386598 -0.033497363 0.045642406
0.075002499 -0.03362181 0.045170844
0.075112306 -0.033288408 0.04426533
0.077504396 -0.0339626 0.043959379
0.07842987 -0.033986278 0.043866336
0.079393908 -0.034025963 0.043705076
0.080129825 -0.033968076 0.043569982
0.080807231 -0.033886902 0.043468446
0.081675522 -0.033886652 0.04324916
0.082898393 -0.034031972 0.043347746
0.083137438 -0.033774585 0.043347746
0.085013233 -0.034180578 0.043367296
0.085393362 -0.033983074 0.043326169
0.086050592 -0.033898719 0.043194771
0.08759059 -0.034160331 0.043280929
0.087566353 -0.03381275 0.043631554
0.087591164 -0.03349074 0.043416858
0.090294354 -0.034189124 0.043416858
0.090023279 -0.03375873 0.043042153
0.090827152 -0.033735797 0.043143719
0.093022652 -0.034225315 0.043130487
0.091963656 -0.033519465 0.043267608
0.093731344 -0.033847433 0.043441772
0.095405184 -0.0341358 0.043450981
0.095313773 -0.033793066 0.043365121
0.095264211 -0.033471208 0.043644786
0.096014276 -0.033433542 0.044068456
0.097531207 -0.033661213 0.044300914
0.09809576 -0.033559076 0.044873744
0.099510819 -0.033747148 0.045333534
0.098182984 -0.033009797 0.045438945
0.10109243 -0.033697475 0.045576632
0.10192896 -0.033688385 0.045634955
0.10279235 -0.033688251 0.046045065
0.10347997 -0.033630993 0.04636094
0.10390308 -0.033489421 0.047185391
0.1065532 -0.034062088 0.04708305
0.1045843 -0.033160876 0.046511054
0.10544697 -0.033164773 0.045722127
0.10456327 -0.032623742 0.043822616
0.107882 -0.033392046 0.040973961
0.11014362 -0.033823632 0.022795171
0.1232108 -0.037540793 0.0067189038
0.064249977 -0.034387313 0.0054866672
0.065882832 -0.034771495 0.010840535
0.070530005 -0.036714248 0.017990291
0.073740497 -0.037866745 0.020866126
0.075454004 -0.038230028 0.022307754
0.074850015 -0.037425008 0.026218325
0.069893964 -0.034493126 0.028619349
0.06885004 -0.033542328 0.036465287
0.067629926 -0.032530848 0.042153418
0.067683168 -0.032149505 0.045900792
0.068525121 -0.03214759 0.046760112
0.070052311 -0.032463264 0.04677248
0.07042557 -0.032243032 0.047174305
0.07305298 -0.033047777 0.047003061
0.073226243 -0.032736439 0.04629609
0.074649699 -0.032984748 0.045567393
0.074981093 -0.032750364 0.045002967
0.077469848 -0.033452891 0.044263184
0.07687334 -0.032822322 0.043953717
0.078081161 -0.032967601 0.043868005
0.079333693 -0.033128355 0.04386586
0.080681279 -0.033324875 0.043602407
0.080591105 -0.0329297 0.043539882
0.081831023 -0.033080626 0.043348789
0.082649685 -0.033059873 0.043446869
0.08364898 -0.033111054 0.043403953
0.0841043 -0.032948077 0.043238997
0.084881864 -0.032913376 0.04331547
0.086612366 -0.033245154 0.043238997
0.086134627 -0.032731157 0.043363243
0.087350622 -0.032864589 0.043552995
0.089669563 -0.033406306 0.043191791
0.089071073 -0.032861173 0.043191791
0.089967258 -0.032872651 0.042948276
0.090628192 -0.032798775 0.042982936
0.091359951 -0.032751679 0.042964488
0.09190613 -0.032639559 0.043052942
0.093399934 -0.032862939 0.043345869
0.094647683 -0.032996438 0.04326117
0.095416427 -0.032962039 0.043074191
0.097441651 -0.033358403 0.04345879
0.096572429 -0.032765646 0.043732017
0.098498426 -0.033123367 0.044167072
0.099378414 -0.033126138 0.044532061
0.099044956 -0.032727897 0.045299858
0.10057335 -0.032946441 0.045229286
0.10139968 -0.032933228 0.045355558
0.10092743 -0.032502055 0.045344651
0.10281233 -0.032830831 0.045939982
0.10330389 -0.032712899 0.046224266
0.10417759 -0.03271693 0.047221065
0.10598306 -0.03301112 0.04708305
0.10446154 -0.03227267 0.046236038
0.10447834 -0.032017559 0.045705795
0.1050789 -0.031943984 0.043720782
0.10632024 -0.032064836 0.040948272
0.11335329 -0.033916734 0.022004753
0.12149264 -0.036068127 0.0061422288
0.064270325 -0.033492986 0.0050314665
0.066771895 -0.034313332 0.010343999
0.068413988 -0.03467558 0.017162859
0.073388889 -0.036694445 0.020688593
0.074985415 -0.036992807 0.023419172
0.077416539 -0.03768963 0.025748134
0.071142316 -0.034185272 0.027121753
0.069544539 -0.032989077 0.034727901
0.068403915 -0.032037277 0.042082101
0.066103697 -0.03057296 0.045750916
0.067580171 -0.030869955 0.046610236
0.070776172 -0.031935588 0.046747565
0.070350178 -0.031360924 0.046984226
0.07363835 -0.032435939 0.046895593
0.073757455 -0.032106187 0.046192467
0.073956497 -0.03181849 0.045641959
0.07518214 -0.031974014 0.045168698
0.076059029 -0.031979363 0.044392318
0.077285372 -0.032129876 0.043991655
0.078272738 -0.032178793 0.043883085
0.078926727 -0.032091089 0.043883085
0.079597637 -0.032012094 0.043597907
0.080473915 -0.032016505 0.043518901
0.082398936 -0.032433622 0.043325961
0.083274029 -0.032433044 0.043336153
0.082412608 -0.031763192 0.043267608
0.083620228 -0.031896375 0.043122292
0.086279333 -0.032574851 0.043236434
0.086282946 -0.032247163 0.043124855
0.086653911 -0.032061946 0.04292962
0.08788076 -0.03219394 0.043379456
0.088499114 -0.032102618 0.042821139
0.089021109 -0.031978454 0.043076992
0.090555117 -0.032216724 0.042992175
0.09029866 -0.031819526 0.042935103
0.092052102 -0.032131393 0.042935103
0.093329184 -0.032272708 0.042978406
0.093322277 -0.031971522 0.043202251
0.095120817 -0.032288719 0.043134034
0.095880657 -0.032250766 0.043031156
0.095340259 -0.031780086 0.043637872
0.095873944 -0.031672645 0.043901354
0.097296871 -0.031858269 0.044571221
0.098434411 -0.031948011 0.044934094
0.10029699 -0.032269467 0.045229286
0.099749923 -0.031816784 0.045156121
0.099809699 -0.031563751 0.045275718
0.10112612 -0.031709038 0.045575052
0.10237966 -0.031832334 0.045812428
0.10444475 -0.032203797 0.046554953
0.10486817 -0.032067124 0.047422528
0.10502099 -0.031850629 0.047089696
0.10387939 -0.031248273 0.046595871
0.10449851 -0.031181008 0.045707732
0.1053102 -0.031171819 0.04369089
0.1055713 -0.031001095 0.040894449
0.11566921 -0.033698902 0.022004753
0.12252415 -0.035417136 0.006036669
0.065811314 -0.032905657 0.0071181357
0.066678584 -0.03288259 0.016579151
0.07391087 -0.035956636 0.020386696
0.075640045 -0.036307219 0.022671312
0.076645538 -0.036305781 0.025434583
0.074119039 -0.034653056 0.027023137
0.070219927 -0.032409199 0.033315182
0.068066962 -0.031017857 0.041848809
0.066604532 -0.029972039 0.045740098
0.066465423 -0.029540189 0.046610236
0.069682449 -0.030592294 0.046634763
0.070987932 -0.030789947 0.046752661
0.073631793 -0.031556483 0.04683426
0.072630487 -0.030761147 0.046377003
0.074447088 -0.031163897 0.045919269
0.074776262 -0.030941902 0.044946104
0.07634566 -0.031232314 0.044345587
0.076748766 -0.031044444 0.043982327
0.078094438 -0.031237777 0.043865651
0.078265034 -0.030961992 0.043784261
0.080569066 -0.031527027 0.043521851
0.081267588 -0.031458423 0.043340564
0.081409663 -0.031178169 0.043374449
0.083148323 -0.031508837 0.043374449
0.083862305 -0.031448364 0.043122292
0.084595636 -0.031396318 0.042991251
0.085418604 -0.031378262 0.043025643
0.085331939 -0.031029794 0.042935699
0.087823339 -0.031616401 0.042962313
0.087299772 -0.03111675 0.043173522
0.088527426 -0.031244973 0.042793244
0.089767344 -0.031374995 0.042893976
0.090424374 -0.031300746 0.042865902
0.090885088 -0.0311606 0.042770684
0.091962755 -0.031232635 0.042736441
0.091619298 -0.030825185 0.042765349
0.093441173 -0.031147057 0.043007255
0.094766214 -0.031298932 0.043031156
0.094371907 -0.030885352 0.042828888
0.096355684 -0.031250492 0.043633848
0.096601948 -0.031050626 0.043652356
0.096346751 -0.030694541 0.044502288
0.099762678 -0.031504005 0.044711262
0.098900013 -0.030960005 0.04505977
0.099917732 -0.031008951 0.045177341
0.10025958 -0.030849101 0.045552492
0.10279407 -0.031360906 0.045658767
0.10108408 -0.030580057 0.046006411
0.1040432 -0.031212959 0.046714425
0.10387743 -0.030905679 0.047417551
0.10443545 -0.030817019 0.047358245
0.10424291 -0.030510118 0.046806604
0.10412091 -0.03022865 0.045719594
0.10484979 -0.030196741 0.044515878
0.10638988 -0.03039711 0.042320967
0.11688468 -0.033132665 0.013853878
0.12404553 -0.034887806 0.0060876012
0.065360188 -0.031772312 0.0062761009
0.066002466 -0.031645015 0.015595227
0.07386449 -0.034935907 0.020290196
0.075588554 -0.035274658 0.022017866
0.076998539 -0.035459854 0.024798214
0.07670331 -0.034865141 0.025954843
0.07035806 -0.031570926 0.03123945
0.068277769 -0.030249642 0.041027993
0.068047181 -0.029770643 0.045200795
0.068007722 -0.029386053 0.046245426
0.070224226 -0.029973755 0.046621293
0.071005836 -0.02994222 0.046662718
0.073063426 -0.030443095 0.046688944
0.07333824 -0.030198099 0.046648055
0.074245162 -0.030216053 0.045953304
0.075183734 -0.030246329 0.045219243
0.076961949 -0.030609867 0.044409961
0.07730817 -0.03040209 0.043982327
0.078252956 -0.030431705 0.043831199
0.080188952 -0.030841906 0.043863028
0.079889059 -0.030392576 0.043469071
0.080602661 -0.030334335 0.043287367
0.081915207 -0.030500343 0.043470681
0.082312055 -0.030325493 0.043485463
0.082972184 -0.030250276 0.043260306
0.084875017 -0.030625006 0.043161094
0.085282855 -0.030458163 0.043161094
0.087304279 -0.03086515 0.043031931
0.086022824 -0.03010799 0.043045521
0.087942302 -0.030475054 0.04325673
0.088934869 -0.030516867 0.042865902
0.08918114 -0.030304272 0.043062568
0.090415858 -0.030428415 0.042919636
0.091588601 -0.030529534 0.042981356
0.092597567 -0.030574668 0.042771906
0.0930034 -0.030421674 0.042920738
0.094786458 -0.030717833 0.04281652
0.094558552 -0.030362837 0.042948842
0.09530066 -0.030322937 0.043037146
0.096698798 -0.030490611 0.043250769
0.095961563 -0.029987989 0.043606192
0.098134406 -0.030395612 0.044207036
0.097661138 -0.029983684 0.044665813
0.1005619 -0.030605797 0.045167297
0.099921934 -0.030148858 0.045042813
0.10135932 -0.030321162 0.045335859
0.10115597 -0.030003889 0.045693964
0.10243756 -0.030128693 0.046060145
0.10336074 -0.030146884 0.046659112
0.10487042 -0.030334421 0.047562122
0.10572056 -0.030329669 0.047231913
0.10286393 -0.029270224 0.046389788
0.10554807 -0.029791795 0.045763433
0.10628745 -0.029760486 0.044515878
0.10577166 -0.029381018 0.041481912
0.12173793 -0.033549823 0.010281622
0.12364841 -0.033810113 0.0055995584
0.066191837 -0.031257257 0.0056137443
0.066530056 -0.030986601 0.013217658
0.072877154 -0.033484098 0.018915892
0.074004032 -0.033548493 0.021739572
0.076750159 -0.034335598 0.024749637
0.076461054 -0.033762023 0.025723219
0.071475968 -0.031156192 0.030118495
0.069059893 -0.029721981 0.040707737
0.068695396 -0.029195543 0.044997245
0.068557262 -0.028777122 0.046225041
0.069712557 -0.028905207 0.046562642
0.069987744 -0.028669678 0.046743244
0.072289161 -0.0292599 0.046698362
0.07396441 -0.029585764 0.04665181
0.074155577 -0.029317319 0.045772016
0.075316034 -0.029433852 0.045185208
0.075413629 -0.029137084 0.044456691
0.076548204 -0.029243134 0.04392761
0.078068376 -0.029492497 0.043786556
0.07906647 -0.029541317 0.043776751
0.079580337 -0.029410124 0.043433964
0.080953494 -0.0295959 0.04323107
0.081276521 -0.02939789 0.04340902
0.082512245 -0.029530698 0.043305159
0.082701996 -0.029290289 0.043025643
0.084194064 -0.029511321 0.042991251
0.08595328 -0.029820526 0.043129265
0.085567139 -0.029386694 0.04291147
0.086280309 -0.029335303 0.042849362
0.0883753 -0.029750101 0.042959094
0.088546336 -0.029515445 0.042701483
0.089269482 -0.029467598 0.042849362
0.090492725 -0.02958416 0.042790681
0.091598041 -0.029660318 0.042760491
0.092856973 -0.029784312 0.042502135
0.094015062 -0.029873947 0.042325795
0.094046004 -0.029607076 0.042534024
0.095132589 -0.029674385 0.042534024
0.095944278 -0.029655505 0.042639524
0.096082725 -0.029430745 0.043126374
0.097405158 -0.029569423 0.043663323
0.098011941 -0.029490318 0.044594139
0.097283714 -0.029014442 0.044515282
0.099905074 -0.029537152 0.045207083
0.10018368 -0.029364182 0.045081735
0.10092478 -0.029328568 0.045420706
0.10140119 -0.029217292 0.045701206
0.10205881 -0.029159658 0.046145618
0.10323133 -0.029248878 0.047123045
0.10546026 -0.029633461 0.047450155
0.10355438 -0.028859416 0.047517955
0.10253097 -0.028341895 0.046389788
0.1044977 -0.028652595 0.045701206
0.10408004 -0.02830977 0.044515878
0.10777601 -0.029082416 0.040894449
0.12253118 -0.032803625 0.008498311
0.12318372 -0.032720674 0.005343914
0.066882081 -0.030234365 0.012077034
0.071237311 -0.03176799 0.017497867
0.075556107 -0.033244688 0.020761311
0.075909592 -0.032960743 0.023996443
0.076292105 -0.032696616 0.025635123
0.072850078 -0.030821187 0.027241945
0.069208406 -0.028909842 0.035915017
0.069233157 -0.028558675 0.04409945
0.068370663 -0.027854716 0.046040237
0.069293559 -0.027886432 0.046562552
0.070703447 -0.028111009 0.046392679
0.071484454 -0.028083177 0.046617866
0.073794261 -0.028649535 0.046648055
0.074542269 -0.028603429 0.045672834
0.075577438 -0.028667303 0.04519254
0.076421991 -0.028658247 0.044472545
0.077096082 -0.028586188 0.043995768
0.078161716 -0.028659295 0.043720394
0.078690149 -0.028535986 0.043866396
0.080080152 -0.028724402 0.043598562
0.080596924 -0.02859891 0.043329954
0.081797801 -0.028716249 0.043521851
0.082018822 -0.028490748 0.043376923
0.082556531 -0.028378809 0.043190897
0.082552873 -0.028084999 0.043157488
0.085340656 -0.028737161 0.04327628
0.08592125 -0.028640417 0.042931646
0.086797491 -0.028643172 0.042875975
0.087870434 -0.028710142 0.042966187
0.088326029 -0.028576069 0.042212963
0.089460686 -0.028662162 0.042634606
0.090047449 -0.028572747 0.042196929
0.091216862 -0.028668158 0.042192131
0.092790984 -0.028887758 0.042146653
0.093375012 -0.0287979 0.042229623
0.093292348 -0.028505994 0.042427182
0.094712242 -0.028674347 0.042433619
0.095546216 -0.028663864 0.04246062
0.095642209 -0.02843417 0.043080956
0.097842038 -0.028828457 0.043663323
0.097835876 -0.02857154 0.044571221
0.09991359 -0.028922355 0.044856369
0.10020455 -0.02875435 0.045335859
0.09864486 -0.028062761 0.045273334
0.10098946 -0.028484207 0.045512021
0.10244621 -0.028650213 0.045683742
0.10145 -0.028133193 0.046579272
0.10448884 -0.028734431 0.04704231
0.10465845 -0.028543215 0.047279716
0.10229127 -0.027668949 0.047460943
0.10461298 -0.028066898 0.046258062
0.10384394 -0.027635889 0.045692533
0.10517456 -0.027766082 0.043947965
0.11001407 -0.028813209 0.027078718
0.12277757 -0.031902835 0.0076847672
0.12471028 -0.032151867 0.0054275393
0.066502534 -0.029151795 0.012243092
0.072263248 -0.031248972 0.0176512
0.075188681 -0.032080505 0.020436853
0.074804612 -0.031496678 0.023084372
0.076781884 -0.031909354 0.025169611
0.071479276 -0.029324833 0.02690205
0.070202239 -0.02843635 0.032125384
0.068751797 -0.027500719 0.0435628
0.068919338 -0.027227392 0.045740098
0.069123931 -0.026975194 0.046698809
0.069768831 -0.026898826 0.046556652
0.070393711 -0.026816651 0.046724021
0.074373856 -0.027999569 0.04668799
0.073764943 -0.027447419 0.046463341
0.074832931 -0.027524756 0.045607924
0.077000156 -0.028000059 0.044931769
0.076790757 -0.02761016 0.044609636
0.077446289 -0.027536459 0.04400292
0.080141798 -0.02818173 0.04400292
0.079524525 -0.027660703 0.043617666
0.081101395 -0.027905857 0.043637633
0.081046641 -0.027590346 0.043829322
0.081958838 -0.027607188 0.043677568
0.084299996 -0.028099999 0.043637633
0.083727352 -0.027621396 0.043300331
0.085162804 -0.027808262 0.043496102
0.08658535 -0.027987184 0.042965055
0.086036623 -0.027531721 0.042862475
0.088559076 -0.028058322 0.042881101
0.09003339 -0.028245769 0.042254776
0.088465557 -0.027484445 0.042576969
0.090160087 -0.027741566 0.042196929
0.091280974 -0.027818963 0.042196929
0.091568835 -0.027643422 0.042196929
0.09308105 -0.027837323 0.042340666
0.095157087 -0.028194692 0.04246062
0.093816929 -0.027542586 0.042561799
0.094319962 -0.027438534 0.042802721
0.096837834 -0.027917214 0.043409079
0.095760047 -0.027360015 0.044191509
0.098395146 -0.027864112 0.044952005
0.098184839 -0.027560657 0.045171589
0.098475292 -0.027401822 0.045589924
0.099211127 -0.027368587 0.045420706
0.099335216 -0.027168607 0.045895159
0.10171732 -0.027584357 0.046073586
0.10238437 -0.027531931 0.047247112
0.10332116 -0.027552309 0.047516078
0.10269108 -0.027157972 0.047729045
0.10287736 -0.026984224 0.047741741
0.10326819 -0.026866522 0.046539962
0.1039767 -0.026832696 0.045763433
0.10653751 -0.027273603 0.043969244
0.11450062 -0.029079521 0.02248764
0.12194584 -0.030726511 0.0072017908
0.066875607 -0.028399231 0.0085866153
0.071780466 -0.030070195 0.014752209
0.074326515 -0.030721627 0.017860174
0.076489411 -0.031199628 0.022177637
0.077395611 -0.031159271 0.024889886
0.070103519 -0.027861655 0.026781201
0.07216882 -0.028319409 0.029116511
0.069212146 -0.026819708 0.041057795
0.068654478 -0.026275171 0.045518517
0.069012687 -0.026090162 0.046586007
0.070255749 -0.026240099 0.046520025
0.07073091 -0.026103074 0.046730846
0.072631583 -0.026489165 0.046750814
0.074012354 -0.026678873 0.046473533
0.075388834 -0.026862688 0.04586941
0.076451376 -0.026931733 0.04517135
0.076961637 -0.026806863 0.044691712
0.077431671 -0.026670909 0.04416424
0.078682669 -0.026803985 0.04414916
0.080296643 -0.027056478 0.043715
0.081334762 -0.027111588 0.043702215
0.080914252 -0.026684489 0.04372859
0.08227025 -0.026846083 0.04370454
0.083544604 -0.026977945 0.043694019
0.083539255 -0.026698114 0.043664873
0.08558213 -0.027071899 0.043568432
0.08681535 -0.027184606 0.043432415
0.086446315 -0.026798356 0.043259293
0.088339746 -0.027114179 0.042991817
0.088811807 -0.026991826 0.042618901
0.088309139 -0.026578479 0.042760491
0.090983957 -0.02712022 0.042287618
0.090682089 -0.026772806 0.042287618
0.091245733 -0.026685072 0.042295426
0.0933915 -0.027057352 0.042441428
0.09397012 -0.026972905 0.042595476
0.094382882 -0.026842838 0.042857736
0.096145101 -0.027095437 0.043012053
0.096018024 -0.026815845 0.043674827
0.097826391 -0.027076948 0.044351995
0.097170539 -0.026657404 0.044946164
0.097645335 -0.026552679 0.045171589
0.098713025 -0.026609598 0.045520991
0.099831104 -0.026679004 0.045434654
0.099864312 -0.026459776 0.046139121
0.10179515 -0.026742794 0.046992719
0.10255322 -0.026715543 0.047610909
0.10459137 -0.027019437 0.047701985
0.10201535 -0.026136164 0.047872424
0.10265894 -0.02608547 0.047761708
0.10386521 -0.026177412 0.046934247
0.10487418 -0.026218545 0.046009392
0.1060014 -0.026288345 0.042370975
0.11853185 -0.029162599 0.007956773
0.12453002 -0.030397091 0.0054965615
0.065917462 -0.027089367 0.0081858933
0.070600919 -0.028621994 0.013862342
0.074164979 -0.029665994 0.01748386
0.075966179 -0.02998665 0.021391511
0.075833306 -0.029545443 0.023970068
0.071793549 -0.027612904 0.025671065
0.071838722 -0.027280526 0.027635962
0.070078507 -0.026279438 0.035915017
0.06972973 -0.025825826 0.04517588
0.069978289 -0.025601814 0.046084255
0.069508664 -0.025123613 0.046499729
0.070621654 -0.02522202 0.046684504
0.071781069 -0.025334494 0.046601951
0.075371459 -0.026292369 0.046299607
0.074752338 -0.025776669 0.046046674
0.076483727 -0.026073996 0.045158297
0.077153228 -0.026006706 0.044863343
0.078144513 -0.02604817 0.044170976
0.078878351 -0.026003852 0.044234544
0.079849415 -0.026037853 0.043823034
0.079761997 -0.025729677 0.04362604
0.080597334 -0.025722554 0.043715
0.082676932 -0.026108505 0.043713987
0.082879826 -0.025899947 0.043757886
0.084913701 -0.026261969 0.043757886
0.084503919 -0.025868546 0.043653905
0.085814632 -0.026004434 0.043637186
0.086051174 -0.025815353 0.043504238
0.087928899 -0.026117496 0.043209642
0.088957481 -0.026163964 0.04284054
0.089514211 -0.0260721 0.042931646
0.08964134 -0.025858078 0.042769909
0.090355128 -0.025815751 0.042769134
0.09252733 -0.02618698 0.042769134
0.092478991 -0.025928689 0.04270938
0.093672559 -0.026020154 0.042949677
0.095332846 -0.026238399 0.043215603
0.094297186 -0.025717413 0.043251604
0.09523686 -0.025739692 0.043855906
0.097058386 -0.025997782 0.044374198
0.097297773 -0.025831267 0.044975042
0.10011942 -0.026347214 0.045067787
0.099691249 -0.026006414 0.045561343
0.098154977 -0.025384909 0.045482039
0.10094042 -0.025882158 0.046242774
0.10233461 -0.026017275 0.047147572
0.10293002 -0.025948746 0.047756106
0.10368183 -0.025920458 0.048243403
0.10141675 -0.02514465 0.048267186
0.10211276 -0.025109693 0.047746748
0.10394558 -0.02535258 0.046499193
0.10473855 -0.025339972 0.044866532
0.10715207 -0.025716497 0.028305709
0.12022505 -0.028625013 0.0070324242
0.066692434 -0.026494253 0.0074258745
0.067669161 -0.026518995 0.013310879
0.072439387 -0.028009897 0.017511934
0.075856708 -0.028945321 0.01893422
0.077377059 -0.029142009 0.023408383
0.074649557 -0.027754324 0.024906874
0.071323983 -0.026182221 0.026268601
0.071178637 -0.025802255 0.031864166
0.069062397 -0.024726044 0.041688591
0.070262775 -0.024849029 0.045501202
0.069851041 -0.024405785 0.046480507
0.070747495 -0.02442473 0.046614021
0.072627969 -0.024778953 0.046566874
0.073870264 -0.02490974 0.046370298
0.074317567 -0.024772523 0.046284288
0.076106988 -0.025080713 0.045739084
0.076846577 -0.025039896 0.045467734
0.078257382 -0.025216268 0.044641167
0.079371028 -0.025294064 0.044622093
0.080205142 -0.025282057 0.044267416
0.08012145 -0.024984108 0.044395387
0.082070425 -0.025319599 0.04440546
0.082322501 -0.025130026 0.044216186
0.083927341 -0.025353052 0.044223428
0.085040599 -0.025424508 0.044090301
0.083877884 -0.024821006 0.043757141
0.086541541 -0.025350552 0.043681085
0.086560331 -0.025102496 0.043517083
0.087278835 -0.025060259 0.043444008
0.088686921 -0.025214909 0.043039322
0.088766947 -0.024992635 0.043079019
0.09080153 -0.025319656 0.042949677
0.091185287 -0.025184508 0.042900115
0.092284337 -0.0252476 0.042949677
0.092416629 -0.025047498 0.042896509
0.093768515 -0.025178583 0.043268114
0.094525747 -0.025149051 0.043487191
0.095681392 -0.025225094 0.043434352
0.0958113 -0.025031781 0.044203937
0.094961934 -0.024588358 0.044517308
0.098259613 -0.025217067 0.045079142
0.097259827 -0.024741534 0.045096904
0.097253211 -0.024524724 0.045627177
0.099466473 -0.024866618 0.045674711
0.10081795 -0.024989065 0.046946466
0.10073484 -0.024756866 0.047471732
0.10271525 -0.025031447 0.048460037
0.10155977 -0.024543611 0.0485847
0.10125535 -0.024267811 0.048770159
0.10345098 -0.024590807 0.047837138
0.10378169 -0.024468856 0.046319902
0.10515101 -0.02459177 0.044197053
0.11502905 -0.026686739 0.014375508
0.11998347 -0.027615244 0.0056391358
0.06655211 -0.025526838 0.0066528022
0.067358449 -0.02548698 0.011910468
0.068763681 -0.025671773 0.013898283
0.075837791 -0.027940238 0.017401665
0.07785099 -0.02830945 0.021542609
0.077929363 -0.027974643 0.023796797
0.074871302 -0.026536664 0.025038928
0.072861493 -0.025501523 0.027442783
0.070020527 -0.024204627 0.038666815
0.070238344 -0.023983827 0.044640452
0.070455484 -0.023768116 0.045039296
0.071439087 -0.02381303 0.0466232
0.070935488 -0.023366984 0.04665181
0.073352739 -0.023882287 0.046518743
0.076467969 -0.02461038 0.046382725
0.07590273 -0.024150869 0.046098024
0.07724373 -0.024301399 0.045938969
0.078054026 -0.024283474 0.04533717
0.078597642 -0.02418389 0.045190275
0.07941822 -0.024170762 0.044712871
0.080590799 -0.024263896 0.044656366
0.080486447 -0.023974687 0.044607818
0.082311258 -0.024260161 0.04453814
0.082994238 -0.024206653 0.044413656
0.083207726 -0.024018725 0.044170052
0.086448066 -0.024699448 0.044146001
0.08574494 -0.024251094 0.043980569
0.086524911 -0.024226977 0.043821871
0.088317439 -0.024484044 0.043734133
0.088277325 -0.024232993 0.043329537
0.089241251 -0.024259757 0.043452263
0.091089889 -0.024524201 0.042954504
0.089544997 -0.023878666 0.043036819
0.091847219 -0.024261529 0.043112814
0.092517547 -0.024210198 0.043290675
0.094054572 -0.024384519 0.043561429
0.09403228 -0.02415508 0.043766409
0.095481068 -0.024304273 0.043900639
0.095641926 -0.024125893 0.044324458
0.097558759 -0.02438969 0.044556171
0.098789945 -0.024478924 0.045081019
0.09762089 -0.023977062 0.045299888
0.097832821 -0.023820166 0.045974582
0.10013214 -0.024169825 0.046474189
0.10075652 -0.024112672 0.04752019
0.10285975 -0.024407398 0.047940195
0.10171434 -0.023932787 0.048946738
0.10115377 -0.023602545 0.049289256
0.10148165 -0.023483356 0.049127847
0.10251245 -0.023527447 0.047828704
0.10440547 -0.023767101 0.045528561
0.10702105 -0.024166044 0.041416079
0.11980651 -0.026836658 0.0076057017
0.067334883 -0.024904683 0.0050614476
0.067065105 -0.024469702 0.0084295571
0.0688124 -0.024772463 0.0135957
0.070039444 -0.024882434 0.014141858
0.07730598 -0.027107291 0.019626915
0.078520723 -0.027180249 0.022990227
0.07966464 -0.027227156 0.024481297
0.074806638 -0.02524724 0.02670446
