ply
format ascii 1.0
comment PCL generated
element vertex 1269
property float x
property float y
property float z
element camera 0
property float view_px
property float view_py
property float view_pz
property float x_axisx
property float x_axisy
property float x_axisz
property float y_axisx
property float y_axisy
property float y_axisz
property float z_axisx
property float z_axisy
property float z_axisz
property float focal
property float scalex
property float scaley
property float centerx
property float centery
property int viewportx
property int viewporty
property float k1
property float k2
end_header
0.0043913703 -0.036887512 0.044750839
0.0052405642 -0.036683951 0.044582427
0.0061376421 -0.036825851 0.044546634
0.0069965618 -0.036731947 0.044546634
0.0078037805 -0.036417644 0.044603884
0.0087300902 -0.036666378 0.044918299
0.009551513 -0.036469415 0.045075119
0.010575597 -0.037014592 0.045053333
0.011410845 -0.036865808 0.045249969
0.012332781 -0.036998343 0.045221925
0.013104649 -0.036693018 0.045104653
0.014129014 -0.037088659 0.045368224
0.014797188 -0.03655776 0.045530587
0.015772257 -0.036801931 0.045646548
0.016676659 -0.036864195 0.045702755
0.017492564 -0.036734384 0.045740575
0.018470978 -0.036941957 0.045509011
0.019149721 -0.036558557 0.045790046
0.019814342 -0.036182709 0.046210974
0.020970805 -0.036698908 0.046467632
0.021857992 -0.036721427 0.046953291
0.022812549 -0.036851041 0.047584713
0.023497151 -0.036551125 0.049107403
0.023911921 -0.035867881 0.048575163
0.0243118 -0.035210192 0.047381073
0.025700061 -0.035980083 0.047320247
0.026677962 -0.036144335 0.046840161
0.027251132 -0.035767112 0.046448827
0.02981966 -0.037952293 0.036096752
0.03119201 -0.038531307 0.027976483
0.032691449 -0.039229739 0.013512313
-0.022967309 -0.037666388 0.020702034
-0.022323687 -0.0381363 0.026741356
-0.021064837 -0.03755036 0.030758232
-0.019278485 -0.035928085 0.047026157
-0.018104156 -0.03534621 0.047803551
-0.017134639 -0.035126008 0.047920018
-0.016299559 -0.035172731 0.047929645
-0.015433601 -0.035154313 0.048725784
-0.014999279 -0.036174729 0.048869133
-0.014039461 -0.035976119 0.048952162
-0.013159611 -0.035969604 0.048483223
-0.012178481 -0.035665549 0.047794372
-0.011261214 -0.035516135 0.047473669
-0.010464528 -0.035753805 0.04703933
-0.0095730582 -0.035681397 0.046900839
-0.0086820163 -0.035596266 0.04675132
-0.0079020606 -0.035998277 0.04672271
-0.00703223 -0.036040179 0.046741396
-0.0060672839 -0.035536949 0.046566635
-0.0052819503 -0.036093328 0.046428978
-0.0044432362 -0.036434535 0.046061933
-0.0035085939 -0.035963088 0.046236813
-0.002613028 -0.035711385 0.045862556
-0.0017581432 -0.036041934 0.045373261
-0.00087048236 -0.035689775 0.045559943
0 -0.035709891 0.045256704
0.00088036025 -0.03609477 0.045162737
0.0017431434 -0.035734441 0.044901401
0.0026128453 -0.035708886 0.044665217
0.0035327391 -0.036210574 0.044785023
0.0044093975 -0.03615706 0.044546008
0.0052962168 -0.036190815 0.044423193
0.0062025669 -0.036329322 0.044614583
0.0070663695 -0.036215145 0.044652849
0.0079130335 -0.036048263 0.044862717
0.0087051792 -0.035691235 0.045028061
0.0096146278 -0.035836339 0.045172751
0.010531814 -0.0359837 0.044942141
0.01147354 -0.036185779 0.045221955
0.012294506 -0.036005341 0.044909149
0.013049932 -0.035669815 0.045053482
0.014061881 -0.036033571 0.0452151
0.014905035 -0.035947435 0.045354158
0.015828323 -0.0360534 0.045615286
0.016576136 -0.035769556 0.045554638
0.017441571 -0.035755221 0.045596212
0.018344557 -0.035815563 0.045550048
0.019005243 -0.035418861 0.045805246
0.020228963 -0.036060326 0.046250612
0.02096954 -0.035822965 0.046605349
0.021633025 -0.035478164 0.046968013
0.022648232 -0.035714522 0.047562659
0.023594284 -0.035828359 0.049192786
0.023951314 -0.03507157 0.048589647
0.023998097 -0.033928342 0.047381073
0.025382901 -0.034689963 0.047320247
0.026393637 -0.034907714 0.04698351
0.027368087 -0.03506536 0.046611428
0.0293206 -0.036428623 0.036047041
0.030981598 -0.037360162 0.028035164
0.033072315 -0.038741853 0.013534337
-0.023037367 -0.036859784 0.02048558
-0.0220725 -0.036787499 0.02681309
-0.021465335 -0.037331019 0.0309017
-0.019115135 -0.03475479 0.046801805
-0.01808759 -0.03445255 0.047987312
-0.017138347 -0.034276694 0.047917604
-0.016148012 -0.033995815 0.048349172
-0.015489568 -0.034421261 0.049059749
-0.014876083 -0.035002548 0.049044162
-0.013958594 -0.034896486 0.04902184
-0.013106641 -0.034951042 0.048432708
-0.012222028 -0.034920081 0.047898561
-0.011352358 -0.034930333 0.047619373
-0.010509174 -0.035030581 0.047163486
-0.0095871678 -0.034862429 0.046915174
-0.0087094735 -0.034837894 0.046768218
-0.007917447 -0.035188653 0.04675132
-0.0069986004 -0.034993004 0.046741396
-0.0061287563 -0.035021465 0.046573967
-0.0052984282 -0.035322856 0.046458393
-0.0043703904 -0.034963124 0.046179533
-0.0034768991 -0.034768991 0.046336472
-0.0026549252 -0.035399005 0.04586184
-0.0017468074 -0.034936149 0.045473427
-0.00087877776 -0.035151113 0.045432121
0 -0.035109755 0.04526189
0.00087121676 -0.034848671 0.045121819
0.0017647342 -0.035294682 0.044892043
0.0026326086 -0.035101451 0.044744819
0.0034768991 -0.034768991 0.044779569
0.004424959 -0.035399672 0.044560313
0.0052548968 -0.035032645 0.044509411
0.0061449734 -0.035114136 0.044754863
0.0070098178 -0.035049088 0.044762462
0.0078669721 -0.034964319 0.045028955
0.0087612867 -0.035045147 0.045053333
0.0096910922 -0.035240337 0.045146137
0.010452127 -0.034840424 0.045097768
0.01138801 -0.035040032 0.045249969
0.012382418 -0.035378337 0.045221925
0.013102985 -0.034941293 0.045254976
0.013902053 -0.034755133 0.045375139
0.014780803 -0.03477836 0.045514584
0.015879905 -0.035288677 0.045476049
0.016732415 -0.035226136 0.045740575
0.017492782 -0.034985565 0.045655429
0.018375302 -0.035000578 0.045689255
0.019324087 -0.035134703 0.045948058
0.019897195 -0.034603816 0.046392441
0.020870272 -0.034783784 0.046586901
0.02194955 -0.03511928 0.046886355
0.022513831 -0.034636665 0.047559202
0.023436667 -0.034720991 0.049174339
0.024074018 -0.034391455 0.048336953
0.024410868 -0.033670161 0.04735902
0.025523435 -0.03403125 0.04731214
0.026365453 -0.03401994 0.046782911
0.027107539 -0.033884425 0.046099395
0.029517218 -0.035778444 0.035053968
0.031089112 -0.036575425 0.028035164
0.032740757 -0.037418004 0.013512433
-0.023060115 -0.03597378 0.019961029
-0.02227548 -0.036197655 0.026807755
-0.021297256 -0.036112737 0.029536933
-0.019153919 -0.033954676 0.046385825
-0.018252488 -0.033897478 0.047996104
-0.017305158 -0.033745058 0.048061132
-0.016228966 -0.03331209 0.048283964
-0.015413865 -0.03339671 0.049010992
-0.014634731 -0.033573795 0.048925638
-0.014095026 -0.034356628 0.049014241
-0.013117567 -0.034105673 0.048301876
-0.012072692 -0.033631068 0.047807425
-0.011311126 -0.033933379 0.047446698
-0.01052962 -0.034221265 0.047062725
-0.0096360836 -0.034164295 0.046654671
-0.0088423314 -0.034485091 0.046622932
-0.007790138 -0.033757266 0.046637923
-0.0070297914 -0.034270234 0.046509743
-0.0061671459 -0.034359813 0.046184659
-0.0052065928 -0.033842854 0.046053052
-0.0043965937 -0.034293432 0.045751095
-0.0034956676 -0.034082759 0.045872509
-0.002645588 -0.034392644 0.045614034
-0.0017508263 -0.034141112 0.045159549
-0.00087877497 -0.034272224 0.045159549
0 -0.033442397 0.044931263
0.00088109204 -0.034362588 0.045121819
0.0017568017 -0.034257632 0.044985682
0.0026382711 -0.034297526 0.044892043
0.0035156666 -0.034277748 0.044925421
0.0043600113 -0.034008086 0.044754863
0.0052003744 -0.033802435 0.044754863
0.0061534895 -0.034283727 0.044695288
0.0070410087 -0.034324918 0.044804066
0.0079075471 -0.034266036 0.044865608
0.0087917373 -0.034287777 0.044893026
0.0095482506 -0.03385289 0.044942141
0.010523769 -0.034202252 0.044860363
0.011411744 -0.034235232 0.045172751
0.012411385 -0.034574572 0.045146137
0.013044449 -0.033915564 0.044914663
0.014105749 -0.034382764 0.045322537
0.014659586 -0.033630814 0.045238763
0.01581626 -0.034268565 0.045360237
0.016521746 -0.033913057 0.045518637
0.017232079 -0.033602554 0.045561075
0.018347114 -0.034073215 0.045585811
0.019186065 -0.034011662 0.045886666
0.020004943 -0.033921424 0.046406865
0.0208965 -0.033956815 0.04653126
0.021724312 -0.033889923 0.046955109
0.02278745 -0.034181174 0.048207462
0.023776613 -0.034343995 0.049070954
0.023956425 -0.03336788 0.048184812
0.024772342 -0.03331453 0.047298193
0.025674762 -0.033377193 0.047110081
0.026261717 -0.033038933 0.046611428
0.027638441 -0.033684351 0.045912385
0.029513117 -0.034879137 0.033837527
0.030737843 -0.035258114 0.028012186
0.033274285 -0.037077062 0.013512313
-0.023306368 -0.035425678 0.01744023
-0.022057617 -0.034924563 0.025319695
-0.021658285 -0.035783254 0.029314518
-0.019388137 -0.033488601 0.044529557
-0.018152578 -0.032847524 0.047752172
-0.017225828 -0.032729071 0.047918022
-0.01630635 -0.0326127 0.048024565
-0.015375345 -0.032459062 0.048910886
-0.01472573 -0.032916337 0.048963338
-0.014087096 -0.033456851 0.048913926
-0.013207016 -0.033457775 0.048306376
-0.01238141 -0.033606686 0.047867984
-0.011397377 -0.033315409 0.047368288
-0.010457847 -0.033116516 0.04693377
-0.009511956 -0.032859482 0.04667592
-0.0086825443 -0.032993667 0.046545237
-0.0077050268 -0.032532334 0.046573967
-0.0070068035 -0.033282317 0.046502173
-0.0062042163 -0.033680029 0.046025664
-0.0052555627 -0.03328523 0.045875043
-0.0043700309 -0.033212233 0.045632631
-0.0034853916 -0.033111222 0.0457578
-0.0026128208 -0.033095729 0.045331001
-0.0017547122 -0.03333953 0.045012563
-0.0008747424 -0.03324021 0.045042068
0 -0.033717625 0.044751704
0.0008702912 -0.033071067 0.044916779
0.0017566633 -0.033376604 0.044808
0.0026212351 -0.033202309 0.044770569
0.0034646611 -0.032914281 0.044847578
0.0043017445 -0.032693259 0.044906229
0.0052127629 -0.033014163 0.045039505
0.00611417 -0.033191208 0.044942141
0.006999976 -0.033249885 0.04513523
0.0079431338 -0.033537678 0.045217693
0.008752034 -0.03325773 0.045056045
0.0095763206 -0.033081833 0.045241535
0.010650198 -0.033725627 0.045056045
0.011389454 -0.033292249 0.045337617
0.012226994 -0.033187557 0.045332849
0.013136639 -0.033279486 0.04532513
0.013803423 -0.032783132 0.04564935
0.014979461 -0.033483502 0.045471102
0.015743749 -0.033236802 0.045669913
0.016498448 -0.032996897 0.045761108
0.017624104 -0.033485796 0.045798302
0.018395534 -0.033287156 0.045862913
0.019160436 -0.0330953 0.046212226
0.020155966 -0.033301163 0.04660812
0.020932825 -0.03314364 0.046796501
0.021891464 -0.033275023 0.047194093
0.022776164 -0.03328824 0.048489243
0.023270477 -0.032751039 0.049041092
0.023974936 -0.032537416 0.04822433
0.024412327 -0.031988565 0.047342151
0.025592437 -0.032417085 0.047110081
0.026274664 -0.032207653 0.046392471
0.027486473 -0.032640189 0.045036435
0.029863779 -0.034388594 0.032805175
0.03068798 -0.034298331 0.026683003
0.033365391 -0.036225282 0.012156576
-0.023421628 -0.034664009 0.016628712
-0.022136154 -0.034126569 0.023947835
-0.022009367 -0.035406373 0.028008461
-0.019286042 -0.032435618 0.041690588
-0.018029541 -0.031766336 0.04641366
-0.017287675 -0.031982198 0.047544807
-0.015967038 -0.031093704 0.047793359
-0.015550533 -0.031964984 0.048456997
-0.01477728 -0.032162316 0.048688561
-0.014060555 -0.032515034 0.04862377
-0.013236056 -0.03264894 0.048171431
-0.012260076 -0.032401629 0.047772586
-0.011382147 -0.032395341 0.04734987
-0.010381622 -0.032010004 0.046831369
-0.0096572964 -0.032483634 0.046475708
-0.0087372679 -0.03232789 0.046324164
-0.0078969263 -0.032465141 0.046350718
-0.0069896253 -0.032327015 0.046214283
-0.0062011327 -0.032777414 0.04586184
-0.0052606016 -0.032440379 0.045709789
-0.0043995325 -0.032556541 0.045513481
-0.0035314315 -0.032665741 0.045641154
-0.0026530214 -0.032720599 0.045146883
-0.0017595626 -0.032551907 0.044750124
-0.00087631406 -0.032423623 0.045033962
0 -0.03202666 0.044649214
0.00087765552 -0.032473255 0.044887632
0.0017331004 -0.032062355 0.04479745
0.0026325346 -0.032467928 0.044844657
0.0035270415 -0.032625135 0.044983774
0.0043931305 -0.032509167 0.045039505
0.0053012059 -0.032690767 0.045061111
0.0061529092 -0.032522522 0.045053333
0.0070193741 -0.032464605 0.045257956
0.0079073496 -0.032507993 0.045241535
0.0087323925 -0.032309853 0.045192242
0.0095627615 -0.032165654 0.045339286
0.010507416 -0.032397866 0.045056045
0.011297376 -0.032154068 0.045314968
0.012243866 -0.032358788 0.045075625
0.013098047 -0.032308515 0.045253545
0.01404106 -0.032469951 0.045265287
0.015000976 -0.032649182 0.045354009
0.015570269 -0.032005552 0.045591921
0.016616225 -0.032357913 0.045613945
0.017415561 -0.032218788 0.045765102
0.017972 -0.031664953 0.045753539
0.019513741 -0.032818563 0.046392441
0.01997084 -0.032127004 0.04655984
0.021049358 -0.032451093 0.046814084
0.021752678 -0.032193962 0.047213405
0.022782136 -0.032420732 0.048552811
0.023316106 -0.031951699 0.049063593
0.024328809 -0.032148786 0.048315257
0.024182679 -0.030853763 0.047250301
0.025506305 -0.031457778 0.046965718
0.026328908 -0.031424828 0.046235442
0.027513277 -0.031812225 0.041520327
0.030260367 -0.03392829 0.032276481
0.03067098 -0.033377241 0.026293695
0.033849597 -0.035783861 0.0051535368
-0.023381565 -0.033669453 0.013734818
-0.022218931 -0.033328399 0.022279769
-0.021877283 -0.034242705 0.026712149
-0.019542782 -0.031979095 0.03716889
-0.018318126 -0.031402502 0.045896351
-0.017210567 -0.030979022 0.046976894
-0.01633467 -0.030949902 0.047745228
-0.01544494 -0.03088988 0.048456997
-0.014708608 -0.031147642 0.048583925
-0.01407682 -0.031672847 0.048557401
-0.013009109 -0.031221861 0.048239559
-0.012258954 -0.031523023 0.047772586
-0.011411209 -0.03160027 0.047379315
-0.010482321 -0.03144696 0.046878844
-0.009658426 -0.031609394 0.046369374
-0.0088108303 -0.031718988 0.046326786
-0.0078550586 -0.031420235 0.046148837
-0.0069685015 -0.031358257 0.046199173
-0.0061293035 -0.031522132 0.045967013
-0.0052736551 -0.03164193 0.045891345
-0.0043424312 -0.031265505 0.04566595
-0.0035001377 -0.031501237 0.04575491
-0.0026357695 -0.031629235 0.045393914
-0.0017642799 -0.031757038 0.045045078
-0.00087964832 -0.031667341 0.045147777
0 -0.031603787 0.044978082
0.00087848987 -0.031625636 0.044975877
0.0017475736 -0.031456325 0.045049369
0.0026310137 -0.031572167 0.045071751
0.0035174531 -0.031657077 0.045223206
0.0043826704 -0.031555224 0.045076162
0.0052908473 -0.031745084 0.045128107
0.0061331443 -0.031541884 0.045311242
0.0070084915 -0.031538215 0.045336574
0.0079351561 -0.031740624 0.045602024
0.0087187905 -0.031387646 0.045539856
0.0096557448 -0.031600617 0.045539856
0.010536441 -0.031609323 0.045332849
0.011442898 -0.031688027 0.045377553
0.012316111 -0.03167 0.045322329
0.013158996 -0.031581592 0.045138836
0.013936451 -0.031357013 0.045518011
0.014926084 -0.031608179 0.045587808
0.015755219 -0.031510439 0.045637846
0.01676861 -0.031772103 0.045668125
0.017394476 -0.031310055 0.045953602
0.018277209 -0.031332359 0.04613325
0.018831573 -0.030815303 0.046392381
0.020120213 -0.031492509 0.04674831
0.020861927 -0.031292893 0.047081351
0.021701997 -0.031250875 0.047243834
0.02269938 -0.031429913 0.048610002
0.023313954 -0.031085273 0.048907965
0.02368963 -0.030458095 0.048315257
0.024436107 -0.030334478 0.047865242
0.025722817 -0.030867379 0.047496766
0.026013624 -0.03020937 0.046189696
0.027903605 -0.031391557 0.038239032
0.030019078 -0.032748085 0.031469524
0.030595949 -0.032395713 0.024468333
-0.023960525 -0.033544734 0.0055921674
-0.022174489 -0.032337796 0.020278543
-0.02184307 -0.033239454 0.026261061
-0.019788669 -0.031481974 0.03105846
-0.018208928 -0.030348213 0.045238107
-0.017222263 -0.03013896 0.047184795
-0.016107412 -0.029671548 0.047730416
-0.015412712 -0.029969161 0.048294455
-0.014560109 -0.029976696 0.04853338
-0.013830788 -0.030254848 0.04853338
-0.01312481 -0.030624557 0.048078477
-0.012277377 -0.030693443 0.047794372
-0.011216799 -0.030199075 0.04741168
-0.010421326 -0.030395536 0.046910077
-0.0096340198 -0.0306537 0.046429634
-0.0087276883 -0.030546911 0.046326786
-0.0078219222 -0.030418584 0.046135575
-0.0070560863 -0.030870378 0.04622829
-0.0060774968 -0.030387484 0.046011537
-0.0052559492 -0.030659705 0.045959324
-0.004411506 -0.030880541 0.045708299
-0.0035190615 -0.030791787 0.045991719
-0.0026020405 -0.030357141 0.045614034
-0.0017739855 -0.031044746 0.045219064
-0.00087389234 -0.030586231 0.045122653
0 -0.030914962 0.044982165
0.00086700264 -0.030345092 0.045197457
0.0017602064 -0.030803612 0.045203298
0.0026404511 -0.030805264 0.045219064
0.0034963812 -0.030593336 0.045324266
0.0043773646 -0.030641552 0.045119643
0.0052665574 -0.030721584 0.045228571
0.0060890182 -0.030445091 0.04511556
0.0070248758 -0.030733831 0.045166731
0.0078855585 -0.030666063 0.045294791
0.0087855933 -0.030749576 0.045228571
0.0096112257 -0.030581174 0.045228571
0.010593918 -0.030898929 0.045104653
0.011337213 -0.030523267 0.045088649
0.012217662 -0.030544156 0.045289874
0.013223514 -0.030854866 0.045180708
0.013969203 -0.030557631 0.045456141
0.014766188 -0.030400975 0.045491934
0.015553046 -0.030242033 0.045516104
0.016493896 -0.030383494 0.045673579
0.017453663 -0.03054391 0.04595089
0.018238336 -0.030397227 0.046259046
0.018963639 -0.030169427 0.046476573
0.020023048 -0.030469855 0.046953291
0.020965053 -0.030574035 0.047177225
0.021775935 -0.030486308 0.047730863
0.022853769 -0.03076469 0.048523754
0.023004515 -0.029820668 0.048702031
0.024026165 -0.030032706 0.048177451
0.024826925 -0.029963531 0.047334194
0.025470382 -0.029715447 0.047017157
0.026314408 -0.029709814 0.045293152
0.028472669 -0.031141981 0.035831243
0.029599149 -0.031393036 0.030962229
0.031349029 -0.032271061 0.018927038
-0.022213167 -0.031468652 0.019138932
-0.021698125 -0.032075487 0.02403143
-0.020124152 -0.031100962 0.028243273
-0.018310592 -0.029645719 0.044334412
-0.017393392 -0.029568765 0.046597153
-0.016167028 -0.02893047 0.047663659
-0.015449457 -0.029182307 0.048311174
-0.014693195 -0.02938639 0.048583925
-0.013883921 -0.029503334 0.048604876
-0.013369284 -0.030303709 0.04833284
-0.012204448 -0.029639374 0.048146844
-0.01134237 -0.029664662 0.047393292
-0.01055114 -0.029894896 0.046934962
-0.0096256444 -0.029751992 0.046415299
-0.0087054465 -0.029598519 0.046359718
-0.0078079379 -0.029496655 0.046314657
-0.0070548691 -0.029983195 0.04630357
-0.0061447094 -0.029845731 0.046053052
-0.0052458928 -0.029726725 0.045911223
-0.0044098306 -0.029986847 0.045816988
-0.0035135753 -0.02986539 0.046056271
-0.0026195098 -0.029687777 0.04570061
-0.0017505127 -0.029758718 0.045156211
-0.00088239793 -0.03000153 0.04518199
0 -0.029516559 0.045348138
0.00086313189 -0.029346485 0.04526189
0.0017607555 -0.029932844 0.045355052
0.0026107305 -0.029588278 0.045219064
0.0034426113 -0.029262194 0.045469433
0.0043897121 -0.029850041 0.045188725
0.0052491846 -0.029745379 0.045390189
0.0061114253 -0.029684067 0.045280248
0.0070451158 -0.029941741 0.045294791
0.007891871 -0.029813735 0.045501649
0.0088078426 -0.029946664 0.045319855
0.0096484376 -0.029822445 0.045233846
0.010574541 -0.029961199 0.045069635
0.011420796 -0.029869774 0.045106411
0.012479126 -0.030306449 0.045265734
0.013031145 -0.029537261 0.045263588
0.014072042 -0.02990309 0.045516104
0.014796748 -0.029593496 0.045496136
0.015672013 -0.02960269 0.045645952
0.016610198 -0.029723512 0.045744658
0.017310577 -0.029427981 0.046160758
0.018077889 -0.029268963 0.04600504
0.018956292 -0.029296089 0.046368033
0.020200158 -0.029861102 0.046665132
0.020841641 -0.029525658 0.046840012
0.022109862 -0.030069413 0.047886729
0.022304086 -0.029166881 0.048709959
0.023146622 -0.029147599 0.048635066
0.023688154 -0.028764188 0.047468662
0.024840185 -0.029122977 0.046995103
0.025473159 -0.02886958 0.046189696
0.026635742 -0.029213393 0.043094665
0.028642837 -0.030433016 0.034533978
0.02987886 -0.030784281 0.029702574
0.031872593 -0.031872593 0.012471408
-0.022667965 -0.031168452 0.01776731
-0.021683246 -0.031110745 0.022624969
-0.020381812 -0.030572718 0.027222931
-0.018456882 -0.02900367 0.042789906
-0.017398775 -0.028707977 0.045066476
-0.016411668 -0.028504478 0.046585441
-0.015093636 -0.027671667 0.04817462
-0.01457041 -0.028283738 0.048412561
-0.013970104 -0.02881334 0.048456132
-0.013023305 -0.028651271 0.048305392
-0.012314843 -0.029027844 0.048161268
-0.011276954 -0.028626114 0.047939211
-0.010495867 -0.028863633 0.047146648
-0.0096024601 -0.028807381 0.046535641
-0.0088659944 -0.029257782 0.046449512
-0.0078564426 -0.028806956 0.046317577
-0.0070428788 -0.029051874 0.046141684
-0.0060885623 -0.028703222 0.045916885
-0.0052548237 -0.02890153 0.04598555
-0.004385571 -0.028944768 0.045855641
-0.0035348916 -0.029162856 0.046029747
-0.002626902 -0.028895922 0.045581073
-0.0017627567 -0.029085485 0.045210987
-0.00087986252 -0.029035462 0.045241356
0 -0.028983243 0.045348495
0.00087925285 -0.029015344 0.045373738
0.0017578796 -0.029005013 0.045497447
0.00262361 -0.028859708 0.045477629
0.0035007522 -0.028881205 0.045640528
0.0043182084 -0.028500177 0.045469016
0.0052197115 -0.028708411 0.045554042
0.0061453129 -0.028970761 0.045363665
0.006992653 -0.028844694 0.045469016
0.0079321433 -0.029084526 0.045568258
0.0088519771 -0.029211523 0.045521557
0.0096299462 -0.028889837 0.045544297
0.010559487 -0.029038588 0.045363009
0.011432215 -0.029020237 0.045267969
0.012277311 -0.028939374 0.045471579
0.013094585 -0.028808087 0.045359522
0.013942814 -0.028757052 0.045493305
0.014906945 -0.02893701 0.045540869
0.015711941 -0.028805224 0.045728743
0.016499603 -0.028657207 0.045765698
0.017492546 -0.0288627 0.046031028
0.018161539 -0.028539563 0.045965225
0.019157751 -0.028736625 0.046507478
0.019908158 -0.028563879 0.046797961
0.021058422 -0.028955331 0.0472911
0.021935552 -0.028954929 0.048379868
0.022534125 -0.028601004 0.048909456
0.02296667 -0.028070373 0.048609108
0.023455609 -0.027644109 0.048076004
0.024380701 -0.027743556 0.047253519
0.025709234 -0.028280158 0.045968235
0.026644086 -0.02836306 0.042667687
0.029361226 -0.030278763 0.032087862
0.029478643 -0.029478643 0.026262283
0.032342218 -0.031390976 0.0059583783
-0.022490185 -0.029986912 0.013769329
-0.02136307 -0.029722532 0.021720618
-0.020775916 -0.030219512 0.02613166
-0.018750066 -0.028571529 0.032866716
-0.017528262 -0.028045218 0.044944316
-0.016549742 -0.027873248 0.046509027
-0.015224479 -0.027065741 0.048125774
-0.014603899 -0.027489692 0.048297584
-0.013877837 -0.027755674 0.048392028
-0.013278562 -0.028327599 0.048204631
-0.012321943 -0.028164443 0.04791522
-0.011319992 -0.027864594 0.047950059
-0.010463201 -0.027901869 0.047232032
-0.0096529573 -0.02808133 0.046593636
-0.0086723855 -0.027751636 0.046493083
-0.0077414322 -0.027525092 0.046379834
-0.0070040282 -0.028016113 0.04635486
-0.0061497185 -0.028113 0.046034962
-0.0052253185 -0.027868366 0.04611963
-0.004364335 -0.027931744 0.046125829
-0.0034844945 -0.027875956 0.046330452
-0.0026220239 -0.027968254 0.045905799
-0.0017614549 -0.028183278 0.045396268
-0.0008726276 -0.027924083 0.045440823
0 -0.027972944 0.045408219
0.00087189599 -0.027900672 0.045485258
0.0017393865 -0.027830184 0.045520067
0.0026286077 -0.028038481 0.045485258
0.0034983933 -0.027987147 0.045718908
0.0043597631 -0.027902484 0.045522183
0.0052556749 -0.028030265 0.045563608
0.0061714794 -0.028212477 0.045410812
0.006996714 -0.027986856 0.045585871
0.0078621088 -0.027954165 0.045760632
0.0088223089 -0.02823139 0.045503467
0.0095302844 -0.027724463 0.04566893
0.010469782 -0.027919419 0.045608938
0.011275634 -0.027755408 0.045617372
0.012296354 -0.028105954 0.045707941
0.013052851 -0.027846083 0.045496136
0.01406789 -0.02813578 0.04583478
0.014919708 -0.028084157 0.045796037
0.015517172 -0.027586084 0.046019495
0.016598335 -0.027955091 0.04606846
0.017395526 -0.027832842 0.046198428
0.018082704 -0.027554598 0.046364605
0.019203726 -0.027932694 0.046861261
0.020138204 -0.02801837 0.047407955
0.020985873 -0.027981166 0.048023582
0.021727657 -0.027811402 0.048909456
0.022162953 -0.027277483 0.049428493
0.022998443 -0.027257415 0.048898697
0.02390746 -0.02732281 0.048221052
0.024892688 -0.027467793 0.046714962
0.025346927 -0.027036723 0.045523167
0.027311742 -0.028192766 0.037277222
0.029072054 -0.029072054 0.030633062
0.029884282 -0.028978698 0.025416195
-0.021555107 -0.029052537 0.019084513
-0.0204695 -0.028843384 0.023887217
-0.019142823 -0.028258452 0.028982282
-0.017674671 -0.02739574 0.042552084
-0.016318634 -0.02662514 0.046201587
-0.015345347 -0.026428098 0.047844708
-0.014281119 -0.026042042 0.048280805
-0.013678286 -0.02650168 0.048097372
-0.0130549 -0.026980126 0.048073769
-0.012359672 -0.027367845 0.048007637
-0.011309094 -0.02696784 0.048042506
-0.010562088 -0.027285395 0.047548115
-0.0096598184 -0.027223125 0.046805829
-0.0087828385 -0.0272268 0.046477884
-0.0078660799 -0.027094275 0.046362013
-0.0069919545 -0.027093824 0.045982808
-0.0060836873 -0.026942044 0.045802027
-0.0052725845 -0.027241688 0.046141028
-0.0043705041 -0.027097125 0.04590863
-0.0035055231 -0.027167803 0.046257764
-0.0026206046 -0.027079582 0.045871705
-0.0017478284 -0.027091341 0.045532435
-0.00087014289 -0.026974428 0.045371264
0 -0.026965063 0.04545638
0.00087325188 -0.027070809 0.045350075
0.0017653848 -0.027363464 0.045617551
0.0026383435 -0.027262883 0.045621395
0.0035160074 -0.027249059 0.045897752
0.0043366733 -0.026887374 0.045562208
0.0051720114 -0.026722059 0.045752406
0.0060747275 -0.026902365 0.045713484
0.0070041437 -0.027141057 0.045722604
0.0078013563 -0.026871338 0.045741886
0.008758462 -0.027151233 0.045750529
0.0096155787 -0.027098449 0.045899272
0.010423892 -0.026928389 0.045929939
0.011294045 -0.026931955 0.045793295
0.012315321 -0.027269637 0.045824438
0.013091451 -0.027055664 0.04566741
0.013924855 -0.026979407 0.046063781
0.014732548 -0.026865235 0.046042264
0.015668718 -0.026985016 0.046179354
0.016473664 -0.026878083 0.046243757
0.017193686 -0.026650215 0.046523154
0.018226208 -0.026905354 0.046632946
0.019228153 -0.027094215 0.0472911
0.020081148 -0.027065894 0.048042595
0.021311898 -0.027527867 0.048750669
0.021607867 -0.026793754 0.049393505
0.021983055 -0.026210567 0.049408048
0.023033356 -0.026445705 0.049138904
0.024096902 -0.026678715 0.047949046
0.024417065 -0.026101001 0.046271831
0.025706677 -0.026563566 0.044345349
0.0280338 -0.0280338 0.033209741
0.029008295 -0.028101785 0.029456586
0.030414002 -0.028570728 0.014093161
-0.021502044 -0.028046144 0.017590791
-0.020272791 -0.027644714 0.022718161
-0.019878006 -0.028397152 0.026485205
-0.017637098 -0.026455648 0.039067626
-0.016403275 -0.025899909 0.045407295
-0.015566948 -0.025944913 0.047566205
-0.014374488 -0.025366742 0.048032671
-0.013936698 -0.02613131 0.048030227
-0.012816562 -0.025633125 0.0480524
-0.01227024 -0.026293371 0.048169255
-0.011409011 -0.026328485 0.04825592
-0.010437166 -0.026092917 0.047715515
-0.0096096462 -0.026208125 0.047320694
-0.0087646451 -0.026293935 0.046739817
-0.0078837126 -0.026279042 0.046511829
-0.0069257198 -0.025971448 0.046126813
-0.0061238566 -0.0262451 0.046134084
-0.005248867 -0.026244335 0.046316653
-0.0044187014 -0.026512207 0.045976996
-0.0035265265 -0.026448948 0.046191812
-0.0026217292 -0.026217291 0.0460383
-0.0017406538 -0.026109807 0.04564786
-0.00087618688 -0.026285606 0.045535594
0 -0.026210712 0.045486033
0.00087344379 -0.026203314 0.045515895
0.0017497973 -0.026246959 0.045604348
0.0026337982 -0.026337983 0.045765281
0.0034919051 -0.026189288 0.046008557
0.0043641492 -0.026184894 0.045750409
0.0051856013 -0.025928007 0.045898795
0.0060743671 -0.026033003 0.045852602
0.0069739874 -0.026152454 0.045865446
0.0078387382 -0.026129127 0.045950532
0.0088060824 -0.026418248 0.046029449
0.0096089756 -0.026206298 0.046082407
0.010588515 -0.026471285 0.04609251
0.011298921 -0.026074432 0.04611063
0.012243801 -0.026236717 0.046220094
0.013174736 -0.026349472 0.046210736
0.013988349 -0.026228154 0.046286464
0.014839349 -0.026187086 0.046132088
0.015733557 -0.026222594 0.046499878
0.016571023 -0.026164772 0.0465976
0.017316867 -0.0259753 0.046753138
0.018328672 -0.026183818 0.0472911
0.019180149 -0.026154749 0.047953069
0.01998478 -0.026067104 0.048750669
0.020857936 -0.026072418 0.049442202
0.021434724 -0.025721669 0.049591631
0.02203395 -0.025423788 0.049589694
0.023086185 -0.025651315 0.049324512
0.023947351 -0.025657875 0.047949046
0.024606043 -0.025454527 0.045997709
0.026128232 -0.026128232 0.039764881
0.028092436 -0.027186228 0.031017572
0.029391576 -0.027554603 0.026143461
-0.021793155 -0.027478326 0.011548936
-0.020504441 -0.027028581 0.020988345
-0.01961978 -0.027093982 0.025559217
-0.018186267 -0.026370088 0.030031264
-0.016473923 -0.025144409 0.042901814
-0.01563498 -0.025189688 0.046521783
-0.01448639 -0.024712076 0.047336787
-0.013524564 -0.024513273 0.047612786
-0.012929929 -0.024997864 0.048007637
-0.012107402 -0.025079619 0.048213452
-0.011374209 -0.025373235 0.048129737
-0.01047523 -0.025315141 0.047693998
-0.0096230917 -0.025369968 0.047423989
-0.0086744986 -0.025156047 0.046695173
-0.0077822842 -0.02507625 0.046445757
-0.0069642672 -0.025245469 0.046133637
-0.0061008451 -0.025274929 0.045896351
-0.0052474258 -0.025362559 0.046016693
-0.0043659965 -0.02532278 0.045896351
-0.0034958208 -0.025344701 0.04611513
-0.0026255797 -0.025380604 0.045987159
-0.001752974 -0.025418123 0.045643657
-0.00087174086 -0.025280485 0.045535296
0 -0.025522729 0.045618504
0.00087753136 -0.025448408 0.045593798
0.0017510235 -0.025389839 0.045640022
0.0026365509 -0.025486659 0.045748383
0.0034885067 -0.025291674 0.045999855
0.0043617301 -0.025298035 0.045948625
0.0052880156 -0.025558742 0.046004236
0.0061332667 -0.025409248 0.045997262
0.0070364205 -0.025507024 0.046077549
0.0078365793 -0.0252512 0.046263963
0.0087281205 -0.025311548 0.046385854
0.009660624 -0.025468918 0.046552122
0.010511786 -0.025403483 0.046438992
0.011336194 -0.025288433 0.046524733
0.012096317 -0.025056656 0.046388954
0.013024035 -0.0251798 0.046328455
0.013901682 -0.025196798 0.046580344
0.014834236 -0.025305461 0.046411455
0.01557141 -0.025087271 0.046764553
0.016416084 -0.025056127 0.046782881
0.017192762 -0.024929505 0.047056079
0.018255893 -0.025210518 0.047845095
0.019094542 -0.025170079 0.048077792
0.020123433 -0.025373025 0.04908666
0.020526558 -0.024802923 0.049438208
0.021404427 -0.024829134 0.049550861
0.021869624 -0.024393043 0.049446434
0.022897489 -0.024593601 0.048679292
0.023847044 -0.024698723 0.047037244
0.025015214 -0.025015214 0.044345349
0.026569631 -0.025683977 0.032866895
0.028182916 -0.026364664 0.029511571
0.029329387 -0.026579758 0.02188015
-0.020551171 -0.026156036 0.018079638
-0.019292446 -0.02572326 0.02234593
-0.018872822 -0.026421949 0.026164502
-0.016810503 -0.024773372 0.038719445
-0.015647011 -0.024339795 0.044820487
-0.01478038 -0.024344156 0.046667069
-0.013381332 -0.023417331 0.047421753
-0.012708829 -0.023723146 0.04790467
-0.012132969 -0.024265938 0.048341304
-0.011234809 -0.02419805 0.048307776
-0.01052419 -0.024556445 0.047840953
-0.0095279058 -0.024252851 0.047571927
-0.0087098246 -0.024387509 0.047023147
-0.0078700166 -0.024484497 0.04645589
-0.0069481684 -0.024318589 0.046160132
-0.0060935821 -0.024374329 0.046046257
-0.0052273041 -0.024394086 0.046166599
-0.0043769572 -0.024510959 0.046006471
-0.0035211667 -0.024648167 0.04624033
-0.0026433095 -0.024670888 0.04598397
-0.0017387082 -0.024341915 0.045618504
-0.0008730191 -0.024444535 0.04562068
0 -0.024477035 0.045706987
0.0008669853 -0.02427559 0.045706987
0.0017612588 -0.024657624 0.045685202
0.0026078387 -0.024339829 0.045965284
0.003487281 -0.024410967 0.046028763
0.0043851845 -0.024557034 0.046047777
0.0052441237 -0.024472577 0.046176225
0.0061170436 -0.024468174 0.046176225
0.0069486555 -0.024320295 0.046283692
0.0078415005 -0.024395781 0.046512365
0.0087250564 -0.024430158 0.046605825
0.0096163685 -0.024478029 0.046777278
0.010476672 -0.024445569 0.046471715
0.011302122 -0.024343031 0.046396375
0.012296697 -0.024593394 0.046622068
0.012986557 -0.024241572 0.046693504
0.013945506 -0.024404636 0.04659602
0.014705846 -0.024221394 0.046485305
0.015553853 -0.024194883 0.047039419
0.016506288 -0.024325054 0.047085762
0.017105091 -0.023947127 0.047901124
0.018300598 -0.024400799 0.048073769
0.019434579 -0.024734918 0.048460275
0.019856088 -0.024172628 0.049373865
0.020411199 -0.023813067 0.049556524
0.021276673 -0.023829876 0.049602032
0.021861734 -0.023543404 0.049166262
0.023102729 -0.023958387 0.047269225
0.024117719 -0.024117719 0.046042651
0.024919994 -0.024060683 0.039304256
0.027320767 -0.025499381 0.030845046
0.027896456 -0.0251968 0.026578635
0.030297421 -0.026510242 0.0056322515
-0.020836059 -0.025571529 0.011144459
-0.019394467 -0.024935743 0.020958722
-0.01866075 -0.025192013 0.025337517
-0.017385192 -0.024705274 0.028343737
-0.015729079 -0.023593619 0.042348027
-0.014640525 -0.023252597 0.045819461
-0.01389278 -0.023444066 0.047015071
-0.012595478 -0.02267186 0.047811925
-0.011977687 -0.023099825 0.04802072
-0.011118323 -0.023091901 0.048169225
-0.010444423 -0.023499953 0.047986865
-0.0096564963 -0.023702309 0.04746598
-0.0087743336 -0.023690702 0.047332644
-0.0078951754 -0.023685526 0.046916932
-0.0070841117 -0.023908876 0.046603411
-0.0060914005 -0.023495402 0.046245247
-0.0051969155 -0.023386121 0.046181381
-0.004334568 -0.023406668 0.045977354
-0.0034738455 -0.023448458 0.046065807
-0.0026175079 -0.023557572 0.046001822
-0.0017563677 -0.023710964 0.045778215
-0.00087435264 -0.023607522 0.04579258
0 -0.023489121 0.045753241
0.00087886251 -0.023729287 0.04581219
0.0017485671 -0.023605656 0.045826465
0.0026357905 -0.023722114 0.04594326
0.0035113848 -0.023701848 0.046202004
0.0043796627 -0.023650177 0.046132416
0.0052170246 -0.023476612 0.046257764
0.0061246706 -0.023623729 0.046283692
0.0069456762 -0.023441656 0.046530604
0.007810181 -0.023430543 0.046387196
0.0087024439 -0.023496598 0.046374649
0.00951376 -0.023351956 0.046670765
0.01042761 -0.023462124 0.046756506
0.011321035 -0.02351292 0.046777755
0.012180626 -0.023491209 0.046638846
0.01302574 -0.023446333 0.046565086
0.013852833 -0.023376655 0.046603233
0.014669508 -0.023298629 0.046531528
0.015681956 -0.023522934 0.047237813
0.016440231 -0.023362435 0.047608227
0.01720967 -0.023233054 0.047724336
0.018346462 -0.023588309 0.048579365
0.01922958 -0.023599938 0.0491153
0.019672623 -0.023093948 0.04946357
0.020622775 -0.023200622 0.049744457
0.020843163 -0.022510616 0.049692273
0.022275887 -0.023132652 0.048564911
0.02311407 -0.02311407 0.046004623
0.023845188 -0.022993574 0.043867975
0.026144927 -0.024341829 0.032338053
0.027185552 -0.024466997 0.029361069
0.028297385 -0.024646109 0.022188425
-0.019394115 -0.024011761 0.016702056
-0.018524067 -0.024081288 0.022004247
-0.017822055 -0.024388075 0.025977284
-0.016056491 -0.023192707 0.031900793
-0.014883557 -0.022763088 0.044478804
-0.013781522 -0.022394974 0.045990199
-0.012754267 -0.022107396 0.047351927
-0.011861576 -0.02202864 0.047711492
-0.011241697 -0.022483394 0.047870636
-0.010317092 -0.022353699 0.047833264
-0.0096757859 -0.02287004 0.047783554
-0.0086901356 -0.022594353 0.047488093
-0.0078627095 -0.022714494 0.04719153
-0.0069996808 -0.022748962 0.047064811
-0.0060729743 -0.022556761 0.04681462
-0.0052743484 -0.022855509 0.046840519
-0.0043692393 -0.022720046 0.046427816
-0.0034696534 -0.022552747 0.04634586
-0.0025882206 -0.022431245 0.046281874
-0.001760851 -0.022891063 0.045864075
-0.0008710493 -0.022647282 0.045933366
0 -0.022775685 0.04593581
0.00086440705 -0.022474583 0.046086192
0.0017357446 -0.022564681 0.046047479
0.0026209434 -0.022714842 0.046276003
0.0034767219 -0.022598691 0.046480328
0.0043515689 -0.022628156 0.046408892
0.0052684988 -0.02283016 0.04676795
0.0061693634 -0.022914778 0.046644419
0.0068817278 -0.022365615 0.046594769
0.0078594191 -0.022704989 0.046614945
0.0086328723 -0.022445466 0.046646893
0.0095511535 -0.022575453 0.046817482
0.01044793 -0.022637181 0.046914786
0.011230612 -0.022461224 0.04688701
0.012166811 -0.022595506 0.046815842
0.013051133 -0.022621963 0.046690553
0.013805878 -0.022434553 0.047140509
0.014681729 -0.022454409 0.047158122
0.015491066 -0.022375984 0.047685653
0.016194824 -0.022161337 0.048179656
0.017497927 -0.022747304 0.048558056
0.018093165 -0.022401061 0.049217969
0.018677792 -0.022073753 0.049692273
0.019766122 -0.022344312 0.049744457
0.020092562 -0.021766942 0.04973492
0.021081652 -0.021924919 0.049329281
0.022172831 -0.022172831 0.04700014
0.023103921 -0.02224822 0.044792682
0.024440629 -0.022694869 0.035120308
0.026581617 -0.023831796 0.030262321
0.02703014 -0.023426121 0.026098847
-0.01850779 -0.023134736 0.019493848
-0.017562563 -0.023108635 0.024843335
-0.016643422 -0.023115862 0.026313007
-0.014860478 -0.021853644 0.035287887
-0.013838725 -0.021623008 0.045248866
-0.01296958 -0.021615965 0.047005385
-0.011909951 -0.02126777 0.047561735
-0.010821867 -0.020811282 0.047833264
-0.010320544 -0.021501135 0.047926962
-0.0094283475 -0.021428062 0.047926962
-0.0086040711 -0.021510178 0.047745794
-0.0078778965 -0.021883046 0.047472209
-0.0070204916 -0.021939036 0.04717207
-0.006111233 -0.021825833 0.047138751
-0.0052278112 -0.021782545 0.046692371
-0.0043874271 -0.021937134 0.046634763
-0.0034664145 -0.021665091 0.046598405
-0.0026026096 -0.021688413 0.046567529
-0.0017610573 -0.022013215 0.046304554
-0.00087023922 -0.02175598 0.04634127
0 -0.021852018 0.046290427
0.00086085557 -0.021521389 0.046445817
0.0017387562 -0.021734452 0.046412587
0.0026186956 -0.021822462 0.046450436
0.003466171 -0.021663569 0.046426326
0.0042932932 -0.021466468 0.046524853
0.0052431645 -0.021846518 0.046800882
0.0060233814 -0.021512076 0.046682924
0.0069732172 -0.021791304 0.046375632
0.0078082681 -0.021689633 0.046480834
0.0086564561 -0.021641141 0.046570271
0.0095516285 -0.021708246 0.046857446
0.01044333 -0.021756938 0.046844631
0.011283432 -0.021698909 0.04686898
0.01207108 -0.0215555 0.0469082
0.01299698 -0.021661634 0.047477603
0.013774432 -0.02152255 0.047635615
0.01470938 -0.02163144 0.047665626
0.015523634 -0.021560602 0.04813692
0.016547224 -0.021772664 0.048695296
0.017250486 -0.021563107 0.049242496
0.018078754 -0.021522326 0.04933551
0.018677441 -0.021224367 0.049766392
0.01943274 -0.021122543 0.04977262
0.020484885 -0.021338422 0.049615234
0.021183135 -0.021183135 0.048890948
0.022298887 -0.021441238 0.045890421
0.023169138 -0.021452906 0.039260924
0.025878288 -0.023105614 0.030789465
0.026209116 -0.022594064 0.027424335
0.027831595 -0.023192996 0.012526274
-0.018706812 -0.022448175 0.011171848
-0.017560868 -0.02218215 0.021090776
-0.017001163 -0.022668218 0.025099277
-0.015421988 -0.021772217 0.027024388
-0.014047785 -0.021071678 0.041165352
-0.013022209 -0.020835534 0.045400888
-0.012135553 -0.020803805 0.046534151
-0.01075274 -0.019851213 0.047303945
-0.010223082 -0.020446165 0.047332257
-0.0093410145 -0.020380395 0.04752776
-0.0085941022 -0.020625845 0.047464907
-0.0077521452 -0.020672387 0.047186017
-0.0069818022 -0.020945407 0.047147006
-0.0061311098 -0.021020947 0.047211736
-0.0052338843 -0.020935537 0.046828568
-0.0043650712 -0.020952342 0.046470463
-0.003462424 -0.020774543 0.046613455
-0.0026036373 -0.020829098 0.046613455
-0.0017419999 -0.020903997 0.046360463
-0.00086924125 -0.02086179 0.046520263
0 -0.020870628 0.04644984
0.00086016313 -0.020643916 0.046713263
0.0017345669 -0.020814802 0.046592623
0.0026178937 -0.02094315 0.046610087
0.003480701 -0.020884207 0.046396673
0.0043522771 -0.020890931 0.04662779
0.0051567596 -0.020627039 0.047027916
0.0061161849 -0.020969776 0.046904117
0.0069481777 -0.020844532 0.046487927
0.0077685914 -0.020716244 0.046601385
0.0086598834 -0.020783719 0.046784997
0.0095198881 -0.020770665 0.046868891
0.01043209 -0.020864179 0.047310889
0.011245135 -0.020760249 0.047588855
0.012193521 -0.020903178 0.04767856
0.012874259 -0.020598814 0.047781706
0.013941613 -0.02091242 0.048062146
0.014714168 -0.020772943 0.048367828
0.015802603 -0.021070136 0.048694283
0.016488969 -0.020828171 0.049201101
0.017032193 -0.020438632 0.049766392
0.017762693 -0.020300221 0.049766392
0.018501656 -0.020183625 0.049656212
0.01953719 -0.020386634 0.04973492
0.020503344 -0.020503344 0.048970878
0.021406088 -0.020549843 0.046919495
0.02252437 -0.020791726 0.043359727
0.024603041 -0.021869369 0.031526595
0.025428224 -0.021795621 0.028922707
0.026566096 -0.021985734 0.020487636
-0.01753594 -0.021227717 0.016389579
-0.016770465 -0.02142893 0.021686524
-0.015874645 -0.021477459 0.025488883
-0.014520656 -0.020873444 0.02759555
-0.013089357 -0.020070348 0.042389989
-0.012108735 -0.019892922 0.045279354
-0.011291472 -0.019977221 0.046021163
-0.010053966 -0.019270102 0.046839386
-0.0093226358 -0.019492785 0.047175705
-0.0084963841 -0.019541685 0.047175705
-0.007657615 -0.01956946 0.046955943
-0.0068729101 -0.019759616 0.047007531
-0.0061155553 -0.020093968 0.047247082
-0.0052567367 -0.020150824 0.047037691
-0.0043655355 -0.020081462 0.046541572
-0.0034681591 -0.019941915 0.046885937
-0.0026302345 -0.02016513 0.047029138
-0.0017507147 -0.02013322 0.046768516
-0.00086872524 -0.01998068 0.046781003
0 -0.019990552 0.046755224
0.00086037914 -0.01978872 0.046796173
0.0017251284 -0.019838978 0.046747416
0.0026020899 -0.019949356 0.046589762
0.0034749818 -0.019981146 0.046562046
0.0043688859 -0.020096876 0.046597958
0.0052581988 -0.020156428 0.046907961
0.0060315588 -0.01981798 0.046779513
0.0069084805 -0.019861881 0.046697378
0.0077732736 -0.019865032 0.046851128
0.0086303689 -0.019849848 0.047027588
0.0095068505 -0.019877961 0.047576189
0.010449286 -0.020027798 0.04767704
0.011259018 -0.019919803 0.047903568
0.012083164 -0.019850913 0.048063844
0.012870197 -0.019734303 0.048243433
0.013723963 -0.019728197 0.048591346
0.01496823 -0.020251134 0.048670322
0.015501917 -0.019808006 0.049114019
0.016032893 -0.019408239 0.049282998
0.017049914 -0.019607401 0.04969123
0.017252395 -0.018895479 0.049175739
0.018664358 -0.019512739 0.049149752
0.019725433 -0.019725433 0.049006492
0.020458918 -0.019606464 0.047217935
0.021691181 -0.019955885 0.043535024
0.023296559 -0.020608494 0.031994224
0.024579188 -0.020937826 0.028853655
0.025398392 -0.020862965 0.023653328
-0.01657038 -0.020252688 0.018956482
-0.015653579 -0.020257572 0.022334963
-0.015037159 -0.020676093 0.0252285
-0.013715209 -0.02011564 0.027578443
-0.012079289 -0.01898174 0.042094558
-0.011313194 -0.019145407 0.044798404
-0.010427687 -0.019117426 0.045373827
-0.0091648856 -0.018329771 0.045950949
-0.0083700139 -0.01841403 0.046474159
-0.0078244936 -0.01912654 0.046681911
-0.006897008 -0.018966772 0.046799004
-0.0059989262 -0.018853769 0.047117651
-0.0052682227 -0.019316817 0.046796173
-0.0043303403 -0.019053498 0.046545237
-0.0034777701 -0.019127736 0.046768516
-0.0026071055 -0.019118775 0.046849012
-0.0017273766 -0.019001143 0.04683733
-0.00087131065 -0.019168833 0.046848148
0 -0.0192359 0.046715051
0.00086430559 -0.019014722 0.046715051
0.001753082 -0.019283902 0.04683733
0.0026184351 -0.019201858 0.04677996
0.0034782577 -0.019130416 0.046851009
0.0043720631 -0.019237079 0.047050804
0.0052536051 -0.019263219 0.04724887
0.0060091582 -0.018885925 0.047240019
0.0069379346 -0.01907932 0.046993434
0.0078491578 -0.01918683 0.047465682
0.0087122442 -0.019166937 0.047935277
0.0094964365 -0.018992873 0.048352659
0.010347317 -0.018970082 0.04823333
0.011241172 -0.019023521 0.048382074
0.012162812 -0.019112991 0.04828763
0.013164628 -0.019308122 0.048404723
0.013841276 -0.019031756 0.048766673
0.014526893 -0.018799508 0.048882067
0.015345784 -0.018755959 0.04903993
0.015946753 -0.018464662 0.049149752
0.016758466 -0.018434314 0.049455673
0.017760215 -0.018605938 0.048899382
0.018786769 -0.018786769 0.048808515
0.019670136 -0.018814912 0.047217935
0.020620136 -0.018901791 0.043625385
0.022169108 -0.019508814 0.031921953
0.023682814 -0.020039303 0.029142588
0.024382886 -0.019867538 0.026784003
0.026676815 -0.020960355 0.0060850978
-0.015708672 -0.01940483 0.018932939
-0.014797837 -0.01942216 0.023152083
-0.014098899 -0.019738458 0.024805874
-0.012607099 -0.018910648 0.028582573
-0.011363329 -0.018356146 0.041839123
-0.010413335 -0.018223336 0.044337422
-0.0095053883 -0.018146651 0.044913471
-0.0084585547 -0.017762965 0.045317709
-0.0072300811 -0.016870189 0.045929074
-0.0068713673 -0.01803734 0.04615888
-0.0060481089 -0.018144326 0.046348274
-0.0051327823 -0.017964737 0.046312153
-0.0042604124 -0.017893733 0.046158016
-0.0034807797 -0.018274093 0.046305686
-0.0026367703 -0.01845739 0.046539873
-0.0017538543 -0.018415472 0.046498775
-0.0008710273 -0.018291574 0.046572149
0 -0.018304422 0.046572149
0.00086846924 -0.018237853 0.046577811
0.0017432566 -0.018304193 0.046655893
0.0025761086 -0.018032759 0.046709657
0.0034693298 -0.018213982 0.046727538
0.0043350179 -0.018207075 0.047062337
0.0051821112 -0.01813739 0.046976775
0.0060434202 -0.01813026 0.046917588
0.0068772133 -0.018052686 0.047281533
0.0078071505 -0.018216684 0.047672689
0.0087124575 -0.018296162 0.048042059
0.0094652046 -0.018069936 0.048148751
0.010503924 -0.018381868 0.048127651
0.011357789 -0.018347198 0.048165143
0.012175045 -0.018262569 0.04822737
0.012708455 -0.017791837 0.048443884
0.013536852 -0.017767118 0.048823506
0.014478669 -0.017885413 0.048905253
0.015241068 -0.017781245 0.048895806
0.015983064 -0.017665492 0.048740774
0.016965797 -0.017814087 0.048893303
0.017997023 -0.017997023 0.048429728
0.018862208 -0.018004837 0.046998501
0.019757383 -0.018039349 0.042967737
0.021487417 -0.01880149 0.031201154
0.023019118 -0.01933606 0.028903127
0.02378913 -0.019214297 0.025022179
0.025162727 -0.019571008 0.0067518651
-0.014824276 -0.018530345 0.018422604
-0.013887231 -0.018516308 0.02161479
-0.013154303 -0.018791862 0.024519891
-0.011836716 -0.018210331 0.026932001
-0.010580077 -0.017633462 0.039785206
-0.0095390547 -0.017343735 0.043763041
-0.0086821765 -0.017364353 0.044701695
-0.0078429151 -0.0174287 0.044980437
-0.006725864 -0.01681466 0.045407653
-0.0057042581 -0.016297881 0.045720518
-0.0052004806 -0.017334934 0.045850039
-0.0044648056 -0.017859222 0.045904696
-0.0034343188 -0.017171593 0.046075583
-0.0025569778 -0.017046519 0.04637292
-0.0017261148 -0.017261147 0.046378076
-0.00087086059 -0.017417211 0.04654339
0 -0.017417265 0.046572149
0.00087116507 -0.017423302 0.046588242
0.0017393908 -0.017393908 0.046826333
0.002607584 -0.017383892 0.046891153
0.0034693952 -0.017346976 0.047093898
0.0042991717 -0.017196687 0.04714331
0.0052041342 -0.017347112 0.047772616
0.0060772104 -0.017363459 0.04761675
0.0069952295 -0.017488074 0.047519207
0.0079229167 -0.01760648 0.047672689
0.0087266192 -0.017453238 0.048046798
0.0096823582 -0.017604288 0.048136026
0.010289351 -0.017148919 0.048176765
0.011080255 -0.017046545 0.048176765
0.011957993 -0.017082848 0.04818365
0.012852057 -0.017136076 0.048474252
0.013572206 -0.016965257 0.048620641
0.014260729 -0.016777327 0.048584491
0.015249074 -0.016943416 0.048478842
0.016102482 -0.016949981 0.0483661
0.017185139 -0.017185139 0.047883689
0.018047204 -0.017187813 0.046545237
0.019057913 -0.017325375 0.040972143
0.020958997 -0.018225215 0.030262142
0.021966275 -0.018305229 0.028597713
0.022761051 -0.018208841 0.023982137
0.024282388 -0.01867876 0.0068384111
-0.014035149 -0.017777855 0.018240422
-0.012865513 -0.017460339 0.021181524
-0.01218174 -0.017804081 0.024012625
-0.01105201 -0.017499015 0.026715219
-0.0096918344 -0.016740441 0.033875525
-0.0087175919 -0.016563423 0.041635573
-0.0078238333 -0.016516982 0.044327825
-0.0069909273 -0.016603451 0.044497192
-0.0061280015 -0.016633146 0.045040518
-0.0047928607 -0.015177392 0.045547873
-0.0040352861 -0.015334088 0.04550907
-0.0034273039 -0.016279694 0.045707881
-0.0026337379 -0.016680341 0.045905769
-0.0017272338 -0.016408721 0.04595536
-0.00085479574 -0.01624112 0.04622969
0 -0.01626778 0.046321601
0.0008525427 -0.016198311 0.046373993
0.0017283298 -0.016419133 0.046552479
0.0025824076 -0.016355248 0.046617746
0.0034365589 -0.016323656 0.04673031
0.00434855 -0.01652449 0.047016919
0.0052326932 -0.016570196 0.047054678
0.0060039838 -0.016296526 0.047054678
