ply
format ascii 1.0
comment PCL generated
element vertex 1291
property float x
property float y
property float z
element camera 0
property float view_px
property float view_py
property float view_pz
property float x_axisx
property float x_axisy
property float x_axisz
property float y_axisx
property float y_axisy
property float y_axisz
property float z_axisx
property float z_axisy
property float z_axisz
property float focal
property float scalex
property float scaley
property float centerx
property float centery
property int viewportx
property int viewporty
property float k1
property float k2
end_header
0.013143436 -0.1112811 0.044712722
0.013947879 -0.11071129 0.044799745
0.014842453 -0.11088186 0.045189887
0.015719259 -0.1109081 0.045366824
0.016564714 -0.11072203 0.045448691
0.017422613 -0.1106336 0.045700818
0.018081579 -0.1093505 0.045624226
0.019517422 -0.11266876 0.045480043
0.019876441 -0.10975253 0.045805216
0.020559294 -0.10879293 0.04721868
0.021751799 -0.11049914 0.047744513
0.02268647 -0.11081468 0.048714459
0.023654843 -0.11126537 0.048714459
0.02390611 -0.10843128 0.048523694
0.025002178 -0.10949229 0.047794402
0.025540691 -0.10812226 0.046969086
0.027059523 -0.11085676 0.045567214
0.027322723 -0.10843705 0.043524563
0.02974686 -0.11448034 0.032033682
0.031401284 -0.11729304 0.019990176
-0.02224952 -0.11680997 0.0085135102
-0.021612918 -0.11840121 0.019885987
-0.021146143 -0.12110973 0.025042355
-0.018638499 -0.111831 0.041206032
-0.0174566 -0.10997659 0.042951047
-0.016489526 -0.1093516 0.044506431
-0.015541906 -0.10879334 0.0450131
-0.01470025 -0.10895479 0.045132577
-0.014201923 -0.11184014 0.045255303
-0.013162728 -0.11056691 0.045015723
-0.012307962 -0.11077166 0.0444251
-0.011552902 -0.11197428 0.04379341
-0.010587072 -0.11116426 0.043067873
-0.0095822467 -0.10976028 0.042491287
-0.0088159712 -0.11108124 0.04203108
-0.0079139061 -0.11079468 0.041783243
-0.0071388851 -0.11243744 0.041752815
-0.0061892262 -0.11140607 0.041617155
-0.0052594789 -0.11044905 0.041411638
-0.0044796094 -0.11288616 0.041373819
-0.0035594627 -0.11212307 0.041549355
-0.0026551674 -0.11151703 0.041600674
-0.0017721648 -0.11164638 0.041348487
-0.00087625417 -0.11040802 0.041252315
0 -0.11022808 0.041175336
0.00088155968 -0.11107652 0.041316003
0.0017557117 -0.11060984 0.04147315
0.0026331705 -0.11059316 0.041583538
0.0035427718 -0.11159731 0.041512638
0.0044289422 -0.11160934 0.041940421
0.0052648433 -0.11056171 0.042366207
0.0062322011 -0.11217962 0.0425888
0.0070411377 -0.11089792 0.042660117
0.0080501484 -0.11270208 0.042942077
0.0088100117 -0.11100615 0.043142378
0.0095730694 -0.10965516 0.044067055
0.010475524 -0.109993 0.044131219
0.011475443 -0.11122353 0.04469198
0.012368018 -0.11131216 0.044744521
0.013268173 -0.11145265 0.044712722
0.013946496 -0.10982866 0.044826567
0.014970602 -0.11095858 0.044988006
0.015871013 -0.11109708 0.045376182
0.016392224 -0.10870633 0.045335203
0.017684054 -0.11140953 0.045624226
0.018304689 -0.10982813 0.045526654
0.019218409 -0.11006907 0.045538366
0.019836025 -0.10866693 0.045794874
0.021091195 -0.11072878 0.04698661
0.021224499 -0.10697148 0.047665834
0.022473851 -0.10891174 0.048677295
0.023442158 -0.10939674 0.048673451
0.024269776 -0.10921399 0.048380405
0.024816718 -0.10782436 0.047800303
0.025774982 -0.10825492 0.04697749
0.026502175 -0.10771852 0.045567214
0.027669571 -0.10894894 0.043524563
0.030117046 -0.11499236 0.03206706
0.030750832 -0.11395897 0.021486014
-0.02237946 -0.11655969 0.011036098
-0.021233581 -0.1153999 0.020364612
-0.021365255 -0.12139349 0.024385333
-0.018574201 -0.11056072 0.04113093
-0.017335633 -0.10834771 0.042772651
-0.016509257 -0.10861353 0.044393629
-0.015781507 -0.10959379 0.044966072
-0.014661151 -0.10780258 0.045231253
-0.013993665 -0.10932551 0.045358628
-0.013173918 -0.10978266 0.04519701
-0.012421066 -0.11090238 0.044467419
-0.011390631 -0.1095253 0.043972671
-0.010494467 -0.10931736 0.0431391
-0.0098639065 -0.11208985 0.042659819
-0.0088288225 -0.11036029 0.042282492
-0.0079426346 -0.11031438 0.042020559
-0.0071115238 -0.11111756 0.042001009
-0.0063009248 -0.11251651 0.041769952
-0.0052653872 -0.10969557 0.041586936
-0.0044321003 -0.11080251 0.041701674
-0.0035419585 -0.1106862 0.0416435
-0.0026262859 -0.10942858 0.041540712
-0.0017740249 -0.11087656 0.041348517
-0.00088505214 -0.11063152 0.041214108
0 -0.11037091 0.041074723
0.00087694061 -0.10961758 0.041218609
0.0017792734 -0.11120459 0.04115504
0.0026649339 -0.11103891 0.041269839
0.0035689161 -0.11152863 0.041276753
0.004407648 -0.1101912 0.041673601
0.0052396236 -0.10915883 0.042240143
0.0061531495 -0.10987767 0.042349994
0.0070910105 -0.11079704 0.042479217
0.0080386978 -0.11164858 0.042932391
0.0086827399 -0.10853425 0.043044657
0.0095799258 -0.10886279 0.044001043
0.010579602 -0.11020418 0.044086814
0.01140458 -0.10965943 0.044601023
0.012348462 -0.11025413 0.04470259
0.013348259 -0.11123549 0.044608265
0.014130026 -0.11039083 0.045062453
0.014744222 -0.1084134 0.04506442
0.015689267 -0.10895324 0.045497894
0.016370019 -0.10769749 0.045538783
0.017515542 -0.10947214 0.04572919
0.018253976 -0.10865462 0.04564774
0.019239997 -0.10931817 0.045785904
0.019787237 -0.10753933 0.04591164
0.020768983 -0.10817179 0.047008753
0.021873794 -0.10936898 0.047947437
0.02298208 -0.11049076 0.048937917
0.023364104 -0.10816715 0.04878071
0.024270462 -0.10835028 0.0487369
0.024698215 -0.10645782 0.048079699
0.02563105 -0.10679604 0.047501713
0.026541455 -0.10702199 0.046860337
0.028026128 -0.10947707 0.043709457
0.030144114 -0.11418225 0.032330662
0.03061083 -0.11253982 0.022154152
0.033258077 -0.11877885 0.0092456043
-0.022171991 -0.11455528 0.01188457
-0.021344321 -0.11507373 0.021370053
-0.021475658 -0.12104461 0.024378866
-0.018643642 -0.11008626 0.035849869
-0.01749577 -0.10847378 0.042298526
-0.016438307 -0.10728158 0.044205666
-0.015519054 -0.10690904 0.044426054
-0.014823629 -0.10812529 0.044887692
-0.013902464 -0.10774409 0.045188814
-0.013199355 -0.10911467 0.04472366
-0.012306272 -0.10899841 0.044285297
-0.011376226 -0.10851169 0.044022352
-0.010446802 -0.10795029 0.043152601
-0.0096766315 -0.10908203 0.042791605
-0.0087772077 -0.10883737 0.04242608
-0.0079396693 -0.109391 0.042323142
-0.0069647687 -0.10795392 0.042253107
-0.0061157472 -0.10833609 0.041959316
-0.0052988376 -0.10950931 0.041657001
-0.0044597005 -0.11060057 0.041701674
-0.0035635601 -0.11047036 0.0416435
-0.0026528554 -0.10965135 0.041547894
-0.0017607197 -0.10916462 0.041362196
-0.00088812533 -0.11012754 0.041335374
0 -0.10986149 0.041238636
0.00088711083 -0.11000174 0.041478932
0.0017767121 -0.11015616 0.04138273
0.0026680718 -0.11028031 0.041506529
0.0035420787 -0.10980444 0.041589648
0.0044307606 -0.10988287 0.042125553
0.0052777156 -0.10907278 0.042384326
0.00619009 -0.10965302 0.042600304
0.0070039076 -0.10856057 0.042659551
0.007955241 -0.10960554 0.043031991
0.0088082291 -0.10922203 0.043060899
0.0096825371 -0.1091486 0.043789923
0.010492612 -0.10842366 0.044020534
0.011402588 -0.10876314 0.044335634
0.012282894 -0.10879134 0.044499755
0.013422088 -0.11095592 0.044355005
0.013887198 -0.10762578 0.0447447
0.014773964 -0.10776303 0.044991583
0.015874246 -0.10935592 0.045142978
0.016797336 -0.10962472 0.04532373
0.017543452 -0.10876941 0.045574725
0.018156808 -0.10721163 0.045648366
0.019442406 -0.10958447 0.045841426
0.019979468 -0.10771539 0.045848072
0.021096846 -0.10900037 0.046938062
0.021927999 -0.10876288 0.047652006
0.022818685 -0.10882757 0.048667789
0.023565575 -0.10822709 0.0487369
0.024109311 -0.10676981 0.048399776
0.024620878 -0.10527548 0.04795593
0.025865335 -0.10691005 0.047044635
0.026547423 -0.10618969 0.045004338
0.027773689 -0.10762305 0.043171734
0.030844294 -0.11589977 0.032054812
0.030183405 -0.11008065 0.026378781
0.033108294 -0.11729796 0.0094731748
-0.022340389 -0.1144945 0.011927217
-0.021158908 -0.11315417 0.020389199
-0.021237168 -0.11873507 0.023901612
-0.018920897 -0.11082239 0.031465888
-0.017347071 -0.10668449 0.042252034
-0.016402319 -0.10618343 0.044393629
-0.015483856 -0.10580635 0.044579089
-0.014656609 -0.10604488 0.044871837
-0.01373091 -0.10555637 0.045093685
-0.013327663 -0.10928684 0.045072943
-0.012243086 -0.10756425 0.044588387
-0.011569643 -0.10946663 0.04410553
-0.010637502 -0.1090344 0.043113142
-0.0097044464 -0.10851336 0.042749703
-0.0088096485 -0.10835867 0.04236719
-0.0079049598 -0.10803445 0.042253107
-0.0071287048 -0.10960384 0.04167819
-0.0061986176 -0.10891856 0.041557789
-0.0052588638 -0.1078067 0.041508883
-0.0044243205 -0.10883829 0.041449517
-0.0035459998 -0.10903949 0.041563332
-0.0026756746 -0.10970266 0.041428775
-0.0017565853 -0.10803 0.041305661
-0.00088468892 -0.10881674 0.041413724
0 -0.10746583 0.041188896
0.00088313658 -0.1086258 0.041476488
0.0017637496 -0.1084706 0.04138273
0.0026439729 -0.10840289 0.041505724
0.0035557908 -0.10934056 0.041589648
0.0044592447 -0.10969742 0.041867286
0.0052298508 -0.10721194 0.042311221
0.0062333001 -0.10952799 0.042354554
0.0069830553 -0.10736448 0.042595744
0.0078840097 -0.10774813 0.042822808
0.0089355856 -0.1099077 0.042871773
0.0096466746 -0.10786736 0.043543994
0.010566604 -0.1083077 0.043954164
0.01134545 -0.10734541 0.044077545
0.012252275 -0.10764499 0.044308573
0.01328381 -0.10892724 0.044225842
0.013970496 -0.10739819 0.044470102
0.014744835 -0.10668322 0.044550449
0.015989535 -0.10926182 0.045063764
0.016429516 -0.10635949 0.045152485
0.01754505 -0.10790206 0.045465946
0.018223463 -0.10673742 0.045648366
0.019336682 -0.10810964 0.045791298
0.019985318 -0.106878 0.04586044
0.020984346 -0.10754477 0.04695043
0.0215188 -0.1058725 0.0477314
0.023002008 -0.10881719 0.048641056
0.023291001 -0.10610344 0.048594415
0.023936188 -0.10514826 0.048174083
0.024764391 -0.10503517 0.047794402
0.025590606 -0.10492149 0.046812773
0.026564317 -0.10540035 0.044723392
0.028054155 -0.10783316 0.038455516
0.031030476 -0.11565905 0.031887412
0.030637376 -0.11083522 0.027367264
0.033289213 -0.11698781 0.0092000961
-0.022425825 -0.11399794 0.010272235
-0.021442309 -0.11373747 0.020139694
-0.021195155 -0.11753677 0.023331702
-0.019150717 -0.11125654 0.028036922
-0.017490469 -0.10669185 0.040991962
-0.016577071 -0.10644224 0.043297917
-0.015553802 -0.10542022 0.044343323
-0.014675007 -0.10531476 0.044352144
-0.013942062 -0.10630822 0.044669837
-0.013248289 -0.10775275 0.044955999
-0.01236698 -0.1077694 0.044650078
-0.011539659 -0.10829526 0.044256538
-0.010581858 -0.10758223 0.043723553
-0.0096639227 -0.10718169 0.042907745
-0.0088444585 -0.10790239 0.042585969
-0.0079765907 -0.10812712 0.042314351
-0.007082541 -0.10800875 0.041959316
-0.0062280218 -0.10854552 0.041847527
-0.005246772 -0.10668436 0.041754246
-0.0044300924 -0.10809426 0.041847527
-0.0035176494 -0.1072883 0.041685998
-0.0026225233 -0.10664928 0.041503996
-0.0017796748 -0.10856017 0.041511059
-0.00088202039 -0.10760649 0.041539907
0 -0.10778899 0.041373789
0.00089109986 -0.10871419 0.041633874
0.0017459856 -0.10650512 0.041563213
0.0026461771 -0.1076112 0.041598916
0.0034956685 -0.10661789 0.04173544
0.0044169524 -0.10777364 0.042037338
0.0052546561 -0.10684467 0.042372316
0.006249343 -0.10891712 0.042479217
0.0071260189 -0.10867178 0.042601049
0.0079647657 -0.10796683 0.042822808
0.0086886017 -0.10600094 0.042856604
0.0096803429 -0.10736381 0.043390095
0.010597621 -0.10774248 0.043722779
0.011528016 -0.108186 0.043983966
0.012218212 -0.10647299 0.044210464
0.013138155 -0.10685699 0.044222921
0.013902907 -0.10600966 0.044709384
0.014920537 -0.1070768 0.04486689
0.015926534 -0.10794652 0.045215577
0.016376404 -0.10515375 0.045067698
0.017445125 -0.10641526 0.045460999
0.018342694 -0.10656232 0.045789987
0.019272737 -0.10687608 0.045966625
0.020199558 -0.10714547 0.046322137
0.021039058 -0.10694855 0.047277868
0.021791741 -0.10634369 0.048165768
0.022969944 -0.10778205 0.04873842
0.022763362 -0.10285667 0.04867062
0.024151547 -0.10523174 0.048470438
0.024845693 -0.10452326 0.048025995
0.025808726 -0.10495549 0.047000259
0.026278261 -0.10341767 0.043657303
0.028786371 -0.10974804 0.033945411
0.029851133 -0.11035873 0.03193444
0.030868987 -0.11076519 0.024249703
0.033609685 -0.11715376 0.0092456043
-0.02148982 -0.11305513 0.01954782
-0.020685596 -0.11377078 0.022561133
-0.019325502 -0.11135171 0.026476532
-0.017752094 -0.10740017 0.040915281
-0.016415024 -0.10453779 0.043117791
-0.015450703 -0.10386306 0.044295043
-0.014664917 -0.10437971 0.044287801
-0.013834216 -0.10462125 0.044955999
-0.013313886 -0.10739868 0.044963688
-0.012309472 -0.10638901 0.044920474
-0.011450563 -0.10657831 0.044344366
-0.010584879 -0.10673086 0.043996632
-0.0097008478 -0.10670932 0.043331146
-0.008855354 -0.10714979 0.042767197
-0.0079858676 -0.10736556 0.042483956
-0.0071008233 -0.10739996 0.042253107
-0.0061486666 -0.1062841 0.042011917
-0.0053199693 -0.10728605 0.041891515
-0.0043778797 -0.10594469 0.041867971
-0.0035674167 -0.10791435 0.041838914
-0.0026426308 -0.10658611 0.041402638
-0.0017475568 -0.10572719 0.041490555
-0.00087617687 -0.1060174 0.041508555
0 -0.10687824 0.041258544
0.00088974292 -0.10765889 0.041418731
0.0017493499 -0.10583567 0.041528046
0.0026591248 -0.10725137 0.041509151
0.0035377759 -0.10701772 0.041639984
0.0043763858 -0.10590853 0.04174155
0.0053357454 -0.1076042 0.042111695
0.0061419741 -0.10616841 0.042354554
0.0071395421 -0.10798558 0.042555094
0.0079966225 -0.10751014 0.042727441
0.0087693222 -0.10610879 0.042827368
0.0096154185 -0.1057696 0.043244988
0.010506026 -0.10593577 0.043475389
0.011330978 -0.10546526 0.043876678
0.012408142 -0.10724179 0.043976843
0.013212658 -0.10658211 0.044008076
0.013959382 -0.10556783 0.04468888
0.01481718 -0.10546346 0.044797331
0.015870905 -0.10668775 0.04502067
0.016570417 -0.10552739 0.045074522
0.017454833 -0.10560174 0.045446038
0.018162388 -0.10464995 0.045677751
0.019174481 -0.10545965 0.04611367
0.020111969 -0.10580644 0.046404749
0.021478863 -0.10828927 0.047052175
0.021726307 -0.10515533 0.04763329
0.022446148 -0.10446092 0.048028111
0.023241369 -0.10415576 0.048238635
0.024200033 -0.10457871 0.047810078
0.024582915 -0.10257009 0.047495008
0.025690755 -0.10361937 0.046692669
0.0268046 -0.10462441 0.042709649
0.028817525 -0.10896627 0.033456445
0.029847948 -0.10944248 0.03079775
0.030809063 -0.10964402 0.019690126
0.033432189 -0.11557986 0.009229213
-0.021382099 -0.11155878 0.014801145
-0.020616762 -0.11245506 0.021784425
-0.019662108 -0.1123549 0.024402142
-0.017903987 -0.10742392 0.03563422
-0.016542099 -0.10447642 0.042237967
-0.015721586 -0.10481057 0.04396832
-0.014593799 -0.10301505 0.044287801
-0.013824645 -0.10368484 0.044955999
-0.012886524 -0.10309219 0.045022756
-0.012401587 -0.10629933 0.044975758
-0.011497272 -0.10612866 0.044391334
-0.01060649 -0.1060649 0.044088036
-0.0096424185 -0.10519002 0.043516159
-0.0089056613 -0.10686793 0.042805165
-0.0078643756 -0.10485835 0.042580873
-0.0071788616 -0.10768293 0.042305708
-0.0062466348 -0.10708517 0.041885406
-0.0052529527 -0.10505905 0.04185617
-0.0044155694 -0.10597367 0.041831374
-0.0035038528 -0.10511558 0.041833073
-0.0026618459 -0.10647383 0.041702002
-0.0017714814 -0.10628888 0.041452616
-0.00088652602 -0.10638312 0.041490555
0 -0.10606773 0.041307628
0.0008865858 -0.10639029 0.041476488
0.001773036 -0.10638216 0.041528046
0.0026614869 -0.10645948 0.041509151
0.0035490531 -0.10647159 0.041642427
0.0043707294 -0.1048975 0.041725069
0.0053024543 -0.10604909 0.042164564
0.0062252921 -0.10671929 0.042345256
0.0070870398 -0.10630559 0.042416811
0.0078665279 -0.10488704 0.042823434
0.0087891025 -0.10546923 0.042903215
0.0097200004 -0.10603637 0.043326765
0.010487437 -0.10487437 0.043555558
0.011581176 -0.10690316 0.043893427
0.01231291 -0.10553923 0.043986231
0.013036202 -0.10428961 0.043913603
0.013971858 -0.10478893 0.044582218
0.014924876 -0.10535207 0.044640064
0.015800076 -0.10533383 0.044879317
0.01648082 -0.10408939 0.044859141
0.017451311 -0.10470787 0.045115978
0.018359242 -0.10490996 0.045584977
0.01934923 -0.10554126 0.04619059
0.020029671 -0.10450263 0.046748281
0.021337369 -0.10668685 0.047121316
0.022296272 -0.10702211 0.04763329
0.022069108 -0.10185742 0.048028111
0.023279944 -0.10346641 0.047878474
0.023775753 -0.10189608 0.047332048
0.025110165 -0.10390413 0.046882242
0.025484866 -0.10193946 0.044740736
0.026632668 -0.10309421 0.040183961
0.02973552 -0.1115082 0.03320998
0.029972425 -0.10899064 0.030258209
0.030333595 -0.10705975 0.014975756
-0.021388171 -0.11066053 0.012905538
-0.020815825 -0.11259469 0.02016905
-0.019519683 -0.11061154 0.024020076
-0.018155104 -0.10802287 0.029916108
-0.016763438 -0.10499205 0.041238517
-0.015550519 -0.10280621 0.043119371
-0.014619053 -0.10233337 0.043914378
-0.013938359 -0.10366654 0.044287801
-0.012742928 -0.1010939 0.04461804
-0.012300375 -0.10455319 0.045060724
-0.011474782 -0.10503838 0.044464856
-0.010664654 -0.10575782 0.044357121
-0.009668733 -0.10459811 0.044040233
-0.0088423397 -0.10522385 0.043136954
-0.0077873967 -0.10296669 0.042877048
-0.0071741585 -0.1067156 0.04258433
-0.0061989604 -0.10538233 0.042279869
-0.0052184984 -0.10350022 0.042276412
-0.0044416068 -0.10571025 0.041965336
-0.0034957177 -0.1039976 0.042203188
-0.0026776541 -0.10621361 0.04208073
-0.0017913509 -0.10658538 0.041821301
-0.00087995088 -0.10471416 0.041661114
0 -0.10539786 0.041373789
0.00088282226 -0.10505585 0.041509151
0.001756536 -0.10451389 0.041523486
0.002638174 -0.10464757 0.041563213
0.0035351971 -0.10517211 0.041625053
0.0043925582 -0.10454288 0.04174155
0.0052902745 -0.10492378 0.042101234
0.0061545805 -0.10462787 0.042230725
0.0070574125 -0.10497901 0.042550534
0.0080253026 -0.10611234 0.042838842
0.0087645967 -0.1042987 0.042975575
0.0096878083 -0.10480447 0.043363363
0.010539086 -0.10451259 0.04367575
0.011272692 -0.10318849 0.043774486
0.012292005 -0.10448205 0.043851078
0.013440558 -0.10662843 0.043924928
0.013982353 -0.10399375 0.044498593
0.014917775 -0.10442442 0.044706225
0.015659166 -0.10352449 0.044955671
0.016359253 -0.10246059 0.044899911
0.017562401 -0.10449629 0.045194834
0.018345417 -0.10395736 0.045613915
0.018923478 -0.10235881 0.046147466
0.020493906 -0.10603368 0.046702147
0.021003567 -0.10414269 0.047110498
0.021774 -0.10364424 0.047477633
0.022349691 -0.10229282 0.047495008
0.023374831 -0.1030224 0.047339708
0.023863934 -0.10142172 0.046645015
0.024940416 -0.10234171 0.044795245
0.025754713 -0.10216036 0.044269502
0.027536588 -0.10570496 0.036810786
0.029221028 -0.1086657 0.032521933
0.029728904 -0.10720423 0.028169423
0.031134414 -0.10897045 0.011709094
-0.021458713 -0.11009253 0.0086502731
-0.020692844 -0.11098889 0.019679099
-0.020131353 -0.11311904 0.022623926
-0.018486455 -0.10907008 0.026659012
-0.016694101 -0.10367915 0.038173348
-0.015549244 -0.10193393 0.042755216
-0.014899397 -0.10341934 0.043121815
-0.013706685 -0.1010868 0.044215113
-0.013019872 -0.10242299 0.044366121
-0.012043243 -0.10150734 0.045246959
-0.011470088 -0.10411311 0.044567257
-0.010765166 -0.10585747 0.044543356
-0.0095416792 -0.1023562 0.04417485
-0.0087130945 -0.10281451 0.043515563
-0.0078950059 -0.1035123 0.043148428
-0.0070684045 -0.10425897 0.042948246
-0.0062006316 -0.10452493 0.042474538
-0.0053168307 -0.10456434 0.04249388
-0.0043108524 -0.10173611 0.042345911
-0.0035512303 -0.1047613 0.042339921
-0.0026627609 -0.10473526 0.042315573
-0.0017845369 -0.10528768 0.042241544
-0.00086396834 -0.10194826 0.042132795
0 -0.10360109 0.041822195
0.00087958865 -0.10379146 0.042061418
0.0017766369 -0.10482158 0.042061418
0.002652168 -0.10431861 0.042067885
0.0034767827 -0.10256509 0.042170912
0.0044335322 -0.10463136 0.042154104
0.005344837 -0.10511512 0.042365253
0.0061331927 -0.10338811 0.042480141
0.0071421238 -0.10534632 0.0427652
0.0078761587 -0.1032652 0.042838842
0.0087101031 -0.10277921 0.042989075
0.0098279491 -0.10542709 0.043376178
0.010613695 -0.104368 0.043649733
0.011179253 -0.10147322 0.043735325
0.012567444 -0.1059256 0.04416123
0.013156233 -0.1034957 0.044151336
0.014057843 -0.10367659 0.044569224
0.014814008 -0.10282665 0.044859141
0.015451308 -0.10129191 0.044955671
0.016736129 -0.10394017 0.04504779
0.017329184 -0.10224219 0.045274079
0.018544843 -0.10420436 0.045868635
0.019338651 -0.10372549 0.046237379
0.020094009 -0.103091 0.046779782
0.021238575 -0.10442299 0.047064692
0.021655817 -0.10221545 0.047226757
0.022208026 -0.10079027 0.047207594
0.022984348 -0.10045011 0.046652436
0.024154352 -0.10179334 0.045434058
0.025021391 -0.10181118 0.044037074
0.025677286 -0.10099732 0.042031437
0.027965764 -0.10645033 0.033602655
0.028866263 -0.10644434 0.030783355
0.03008342 -0.10757101 0.021981031
0.030946245 -0.10740167 0.0090885162
-0.020538056 -0.10922512 0.015135914
-0.02108253 -0.11745981 0.020300806
-0.019071579 -0.11156874 0.02341494
-0.017009851 -0.10474487 0.031533778
-0.015873047 -0.1031748 0.04155004
-0.014810744 -0.10193276 0.043084711
-0.013822205 -0.10107487 0.043657631
-0.012887723 -0.10052424 0.044392347
-0.012070642 -0.10087609 0.04529658
-0.01125371 -0.10128339 0.044567257
-0.010623675 -0.10358083 0.044470459
-0.0097851297 -0.1040782 0.044283748
-0.0089955004 -0.10524736 0.044081122
-0.0078378115 -0.10189155 0.043489575
-0.0069538904 -0.10170065 0.043191046
-0.0062299282 -0.10412879 0.04312098
-0.0053009926 -0.10336936 0.043043345
-0.0044493726 -0.10411532 0.042479932
-0.0035469013 -0.10374686 0.042701364
-0.0026375994 -0.10286638 0.04258433
-0.0017883638 -0.10461928 0.042602718
-0.00087185617 -0.10200717 0.042536378
0 -0.10324046 0.042210639
0.00088598696 -0.10366048 0.042327851
0.0017537557 -0.10259471 0.04231739
0.00261353 -0.10192767 0.042195827
0.0034939731 -0.10219871 0.042280823
0.0043748319 -0.10237107 0.042339653
0.0052729733 -0.10282298 0.042829007
0.0062596821 -0.10462612 0.042829007
0.0071215117 -0.10415211 0.042884737
0.0078340406 -0.10184252 0.043136865
0.0090122605 -0.10544346 0.043060988
0.0095691746 -0.10178123 0.043381959
0.010575554 -0.10311166 0.043642133
0.011445097 -0.10300587 0.043774486
0.01218458 -0.10182827 0.044151336
0.013193782 -0.10291151 0.044125915
0.01401749 -0.1025029 0.044706225
0.014956175 -0.10293368 0.044849306
0.015680313 -0.10192204 0.045037478
0.016606422 -0.1022606 0.045124143
0.017285824 -0.10112207 0.045514286
0.018370144 -0.10234794 0.045971572
0.01914246 -0.10180308 0.046374679
0.019975491 -0.10161445 0.04683727
0.021044755 -0.10259318 0.047064692
0.021615092 -0.10115863 0.04732576
0.02225564 -0.10015038 0.046766132
0.023043428 -0.099854849 0.045939177
0.024190666 -0.10108242 0.044252574
0.024653703 -0.099464938 0.042930692
0.02636279 -0.10281488 0.036691934
0.028123111 -0.10614207 0.032463402
0.030594978 -0.11186289 0.029294908
0.029772414 -0.10555674 0.01751408
-0.020721212 -0.1092573 0.014076293
-0.021093488 -0.11651641 0.019725472
-0.019675085 -0.11411549 0.022660524
-0.017849917 -0.10897844 0.026630819
-0.015922368 -0.10261082 0.037204146
-0.014849108 -0.10132333 0.042364329
-0.013807502 -0.10010439 0.043518871
-0.012770642 -0.098759629 0.044384569
-0.012087939 -0.10015721 0.045499086
-0.011254227 -0.10042233 0.045441806
-0.010423789 -0.10076329 0.045237362
-0.009700059 -0.10229153 0.04481715
-0.0089721009 -0.10407637 0.044651866
-0.0078915525 -0.10171335 0.044383705
-0.007085986 -0.10274679 0.043552548
-0.0060801893 -0.10075742 0.043452799
-0.005276843 -0.10201897 0.043354005
-0.0044136881 -0.10239756 0.043224275
-0.0035638721 -0.10335229 0.043209225
-0.0026404334 -0.10209676 0.042926311
-0.0017435428 -0.10112549 0.042944342
-0.00088585663 -0.10275937 0.042537391
0 -0.10355879 0.042391866
0.00087998615 -0.10207839 0.042472869
0.0017648684 -0.10236236 0.042484522
0.0026576852 -0.10276383 0.04237622
0.0035502149 -0.10295623 0.042589277
0.0044328561 -0.10284226 0.042604923
0.005271812 -0.10192169 0.043194145
0.0061640423 -0.10214698 0.04328987
0.007073049 -0.10255921 0.043356419
0.0079168854 -0.10203987 0.043493569
0.0089463489 -0.10377765 0.043461561
0.0096651474 -0.10192338 0.043647319
0.010497798 -0.10147871 0.043809205
0.01133751 -0.10116547 0.043846905
0.012181812 -0.10093502 0.044091582
0.013111862 -0.1013984 0.044205219
0.01395978 -0.1012084 0.0446679
0.014588632 -0.099545963 0.044806063
0.015653063 -0.1008753 0.045127422
0.016529933 -0.10091959 0.045431972
0.01753909 -0.10172672 0.045863628
0.018255478 -0.10083979 0.046464086
0.019151265 -0.1009794 0.046856105
0.020248793 -0.10212434 0.047177583
0.020820491 -0.10063237 0.047332972
0.02183878 -0.10133195 0.047685921
0.021908371 -0.097745039 0.046766132
0.022942657 -0.098568454 0.045830548
0.02426536 -0.10052792 0.044250846
0.024924941 -0.099699765 0.041849643
0.026943035 -0.10417974 0.034221619
0.029641414 -0.11091626 0.03035143
0.030505814 -0.11058357 0.026204914
0.029533852 -0.10381597 0.011762738
-0.020150024 -0.10532968 0.0083879232
-0.020085 -0.10998929 0.017953694
-0.020189241 -0.11608814 0.020572186
-0.018631503 -0.11276963 0.023420662
-0.016242145 -0.10376926 0.029918551
-0.015071667 -0.10195539 0.040689021
-0.013870317 -0.099692896 0.043263018
-0.013010027 -0.099743545 0.043690443
-0.012095955 -0.099359632 0.045504749
-0.011039755 -0.097659372 0.045662999
-0.010388998 -0.099561237 0.046427369
-0.0096965684 -0.10137321 0.045982867
-0.0089090839 -0.10245447 0.045544088
-0.0079981443 -0.10219851 0.044956684
-0.0070431954 -0.10124593 0.044307947
-0.0062251552 -0.1022704 0.044077277
-0.0053062146 -0.10170244 0.043842196
-0.0043530758 -0.10012075 0.043759644
-0.0035415248 -0.10181884 0.043795913
-0.0026529636 -0.10169694 0.043268681
-0.0018029494 -0.10366959 0.043200165
-0.00087097794 -0.10016246 0.043197364
0 -0.10256811 0.042641759
0.00087900873 -0.10108601 0.042754233
0.0017554844 -0.10094035 0.042850405
0.0026533233 -0.10171073 0.042930335
0.0035283405 -0.10143979 0.043268949
0.0044318796 -0.10193323 0.043332249
0.0052893152 -0.10137855 0.043250591
0.0060913484 -0.10007215 0.0433487
0.0070221042 -0.10094275 0.043453753
0.0079803495 -0.10197113 0.043514669
0.0088383872 -0.10164145 0.043544501
0.0096445074 -0.10082894 0.043712378
0.010626224 -0.10183464 0.043776363
0.011339558 -0.10031147 0.043974906
0.012320685 -0.10120562 0.044508904
0.013215751 -0.10132076 0.044344217
0.013690181 -0.098398179 0.044669807
0.015070649 -0.10194851 0.044876963
0.015444642 -0.098674096 0.045424432
0.016432803 -0.099461704 0.045943886
0.017535092 -0.10082678 0.046116084
0.017969664 -0.098405302 0.04675439
0.019741891 -0.10319624 0.047125995
0.019605661 -0.09802831 0.047438651
0.020575801 -0.098592378 0.047332972
0.021459876 -0.098715432 0.047193855
0.022328844 -0.098762199 0.046207815
0.023440672 -0.099839903 0.044510692
0.024016879 -0.098640755 0.042810351
0.025333242 -0.1004594 0.036737114
0.028300051 -0.10848353 0.031896383
0.03060518 -0.11353534 0.027936339
0.028963344 -0.10408702 0.021965832
0.029608333 -0.10318056 0.010555774
-0.019505531 -0.10588717 0.013934523
-0.019444941 -0.11083616 0.019530565
-0.019223647 -0.11534189 0.022501707
-0.017159438 -0.10867643 0.024790764
-0.015260732 -0.10233667 0.033173382
-0.014098943 -0.10045497 0.042445064
-0.013068901 -0.099323653 0.043502957
-0.012078744 -0.098355487 0.044689894
-0.011149111 -0.097769134 0.044999838
-0.010320313 -0.09804298 0.045675188
-0.0095018214 -0.098473422 0.046427369
-0.0089232819 -0.10172541 0.046060145
-0.0079105692 -0.10020054 0.045221895
-0.0070286207 -0.10015784 0.044656187
-0.0061133928 -0.099560969 0.044838727
-0.0052424152 -0.099605888 0.044557095
-0.0044242819 -0.10087363 0.044447482
-0.0035275305 -0.10053462 0.044413775
-0.0026667486 -0.10133644 0.043834835
-0.0017527969 -0.099909425 0.043744981
-0.00089151587 -0.10163281 0.04377538
0 -0.09899471 0.043580055
0.00087430794 -0.099671103 0.043624818
0.0017662273 -0.10067496 0.043536007
0.0026176444 -0.099470481 0.043638289
0.0035889247 -0.10228436 0.043551654
0.0044398694 -0.10122903 0.043551654
0.0051499698 -0.097849429 0.043545455
0.0062308935 -0.10147455 0.043654412
0.0070185498 -0.10001434 0.043679506
0.0078420537 -0.099332675 0.043667406
0.0088459598 -0.10084394 0.043640375
0.009582255 -0.099307008 0.043830097
0.0106684 -0.10134979 0.043930918
0.011433469 -0.10026273 0.044298172
0.011993174 -0.097658701 0.0446527
0.012870274 -0.097814083 0.044536918
0.013843958 -0.098638199 0.04500556
0.014757643 -0.098963015 0.045603961
0.015876386 -0.10055045 0.045882523
0.016624536 -0.099747211 0.046467632
0.017195629 -0.098015085 0.046465337
0.018891897 -0.10255601 0.047239125
0.018827423 -0.097560287 0.047330379
0.019629605 -0.097294562 0.047649592
0.021070566 -0.10008519 0.04715097
0.021234607 -0.096829809 0.046658188
0.021993479 -0.096432947 0.045123845
0.023627246 -0.099759489 0.044279337
0.024464779 -0.099606596 0.041246772
0.026374811 -0.10368029 0.032571405
0.030013315 -0.1140506 0.028595418
0.030303806 -0.1114398 0.026047409
0.028746771 -0.10241038 0.016160369
-0.01936825 -0.10421963 0.008207202
-0.018675901 -0.10551883 0.015185148
-0.018780202 -0.11169278 0.019725472
-0.017448582 -0.10953832 0.022824138
-0.01557214 -0.10350893 0.026571691
-0.014116707 -0.099699244 0.03571108
-0.013117862 -0.09882123 0.042186856
-0.012162999 -0.098172784 0.043845028
-0.011179004 -0.097171336 0.044832587
-0.010402603 -0.097957842 0.04581973
-0.0094671259 -0.097253196 0.046603769
-0.0086657908 -0.097923435 0.046910793
-0.0079799294 -0.10019245 0.045842618
-0.0071329777 -0.10075331 0.045386106
-0.0061429786 -0.099165224 0.045495212
-0.0052836109 -0.099508002 0.045193464
-0.0043773637 -0.098928414 0.045238882
-0.0035067848 -0.099066675 0.045023739
-0.0026445403 -0.099611014 0.044569284
-0.0017672525 -0.099849768 0.044166028
-0.00087451655 -0.098820373 0.044084489
0 -0.099146031 0.043787956
0.00088477397 -0.09997946 0.043915391
0.0017550157 -0.099158384 0.043686807
0.0026407612 -0.099468671 0.043838173
0.0034921493 -0.09865322 0.043662429
0.0043944581 -0.099314757 0.043534994
0.0052998047 -0.099812992 0.043415964
0.0062151896 -0.10033092 0.043653637
0.0070255059 -0.099235274 0.043750376
0.0079669757 -0.10002981 0.043672442
0.008762937 -0.099021196 0.043598235
0.0095588081 -0.098195031 0.04402554
0.010562332 -0.099461965 0.044331372
0.011461928 -0.099630602 0.044430524
0.01237618 -0.099893451 0.044828504
0.013139443 -0.098983802 0.045157224
0.01397765 -0.098717153 0.045665205
0.01487117 -0.098849542 0.046295404
0.015859697 -0.099563658 0.046553761
0.016504399 -0.098157741 0.046893716
0.017820353 -0.10068499 0.047042131
0.018237302 -0.098134056 0.047399431
0.018789645 -0.096510455 0.047310799
0.019674115 -0.09665978 0.047230184
0.020341212 -0.095773213 0.046656132
0.021549355 -0.097403087 0.045830548
0.022228898 -0.096610211 0.044377595
0.023728199 -0.099306911 0.042247266
0.024933042 -0.10062263 0.034050554
0.028239619 -0.11003714 0.029532909
0.029131044 -0.10972693 0.026908398
0.028279491 -0.10308331 0.021935672
0.028830273 -0.1018069 0.011224568
-0.018861493 -0.10562436 0.011027634
-0.017885223 -0.10542868 0.016781121
-0.017729245 -0.11031531 0.020284325
-0.016062109 -0.10582095 0.023209691
-0.014590139 -0.10213097 0.026044607
-0.013522114 -0.10096512 0.037320465
-0.012312752 -0.098502018 0.042219669
-0.011314122 -0.097475514 0.04392612
-0.010389888 -0.096972287 0.045142889
-0.0095801568 -0.097543418 0.045700639
-0.0085802013 -0.096098252 0.046247244
-0.007809021 -0.097178929 0.045949638
-0.0070943469 -0.099320859 0.045700639
-0.0061683543 -0.098693669 0.045777172
-0.0052880887 -0.098710991 0.045565456
-0.004368783 -0.097860739 0.045565456
-0.0035109641 -0.098306991 0.045569718
-0.0026439005 -0.098705612 0.045401692
-0.0017392229 -0.097396478 0.044964731
-0.00088822271 -0.099480949 0.044897467
0 -0.09811011 0.044404894
0.0008713596 -0.097592279 0.04422453
0.0017771494 -0.09952037 0.043992996
0.0026628033 -0.099411324 0.044341922
0.003503283 -0.098091923 0.043984503
0.0043924856 -0.098391682 0.043916315
0.0052481261 -0.097965017 0.043898702
0.0061918753 -0.099070005 0.043918222
0.0070852274 -0.099193178 0.043835938
0.0077323448 -0.09622474 0.044056267
0.0087493816 -0.097993076 0.043907285
0.0095662987 -0.097402319 0.044421166
0.010613753 -0.09906169 0.044465482
0.011387418 -0.098106988 0.044889092
0.012283363 -0.098266907 0.045413524
0.013080432 -0.097667225 0.045739204
0.01383986 -0.096879013 0.046176434
0.01513047 -0.099683091 0.046694845
0.015572039 -0.096892685 0.046723425
0.016741699 -0.09868791 0.04699716
0.017291101 -0.096830167 0.046956748
0.017983506 -0.095912032 0.047343075
0.019047029 -0.096966699 0.047095269
0.01952011 -0.095054448 0.046415538
0.020282533 -0.094651818 0.045847714
0.021841794 -0.097851232 0.044447303
0.022327367 -0.096179426 0.042600065
0.023753118 -0.098531447 0.034411937
0.025879329 -0.10351732 0.030067176
0.028566146 -0.11032443 0.027161539
0.02752785 -0.10277064 0.022924036
0.028158268 -0.1017331 0.015908897
-0.018609397 -0.10328215 0.0075902641
-0.017644549 -0.10308132 0.015024185
-0.01746377 -0.10769324 0.018992901
-0.015982376 -0.10435551 0.020776391
-0.014955431 -0.10375331 0.023379922
-0.013653954 -0.10103927 0.029163867
-0.0123374 -0.09781795 0.037405849
-0.011323698 -0.096686959 0.042114139
-0.01053841 -0.097480297 0.043874234
-0.0095466729 -0.096334614 0.045133084
-0.0086481366 -0.095994316 0.045677751
-0.0077897119 -0.096073113 0.045734942
-0.0068592378 -0.095171921 0.045611382
-0.0061075753 -0.096848696 0.04582563
-0.0052529192 -0.097179011 0.045611382
-0.0044054943 -0.097801968 0.045661837
-0.0035261724 -0.097851284 0.045843661
-0.0026482877 -0.097986639 0.045793205
-0.0017327719 -0.096168838 0.045492738
-0.00088110287 -0.097802415 0.04533872
0 -0.098055951 0.044811457
0.00088470505 -0.098202258 0.044787228
0.0017373345 -0.096422069 0.044575632
0.0026173091 -0.096840441 0.044587553
0.0035307349 -0.097977892 0.044297934
0.0043748771 -0.097122274 0.04425022
0.005242114 -0.096979111 0.044129044
0.0061290055 -0.097188517 0.044135362
0.0069879321 -0.096957557 0.04448095
0.0079020746 -0.097458914 0.044475257
0.0087993843 -0.097673163 0.044473261
0.0095499745 -0.096367918 0.045027047
0.010488002 -0.097014017 0.04518643
0.011418869 -0.097499572 0.045502126
0.012243317 -0.097072005 0.045849919
0.013165285 -0.097423114 0.046093315
0.013931271 -0.096648194 0.04645732
0.014894314 -0.09725111 0.046612352
0.016018171 -0.098778725 0.04685843
0.01629087 -0.095172971 0.047166139
0.017044324 -0.094595999 0.04676342
0.018222947 -0.096321285 0.046812266
0.019007776 -0.095902868 0.046469122
0.019760149 -0.095364198 0.04565382
0.020717049 -0.095816351 0.04430747
0.02158156 -0.095822126 0.042546034
0.022798102 -0.097330362 0.034411937
0.025028195 -0.1028937 0.029686958
0.026380189 -0.10457861 0.027309537
0.026853954 -0.10278583 0.024107695
0.027467862 -0.10163109 0.017742097
0.028322568 -0.10141306 0.010838211
-0.017927941 -0.10379335 0.0095432997
-0.016783215 -0.10256409 0.016095281
-0.016703317 -0.10808029 0.019562602
-0.015077047 -0.1036547 0.021601617
-0.013983901 -0.10254861 0.023462415
-0.012756974 -0.10023337 0.029938847
-0.011465106 -0.097012438 0.037347198
-0.010462943 -0.095910311 0.041795284
-0.0095679229 -0.095679224 0.043954819
-0.0087358933 -0.096094824 0.044982404
-0.0077287289 -0.094462238 0.045278549
-0.0069741039 -0.095893927 0.045386106
-0.0061085033 -0.09599077 0.045621872
-0.0051766112 -0.094904535 0.045734942
-0.0044350037 -0.097570084 0.045802742
-0.0035973489 -0.098927096 0.045897305
-0.002612842 -0.095804207 0.045912325
-0.0017559757 -0.096578658 0.04569912
-0.00087739521 -0.096513472 0.04573828
0 -0.096401446 0.045286983
0.00088009803 -0.09681078 0.045263886
0.0017690692 -0.097298808 0.045290768
0.0026153645 -0.095896699 0.045226008
0.0035574695 -0.097830407 0.045028746
0.0043362081 -0.095396571 0.044865876
0.0052360669 -0.095994554 0.04490748
0.0061568469 -0.096750453 0.044833988
0.0070581753 -0.097049907 0.045023203
0.0079524685 -0.097196832 0.045123398
0.008721482 -0.095936298 0.045006633
0.0097138826 -0.097138822 0.045583755
0.010440609 -0.095705584 0.045956403
0.011287952 -0.095513433 0.046010137
0.012179633 -0.095697112 0.046564221
0.013210519 -0.096877143 0.046487242
0.013997714 -0.096234284 0.046800047
0.014753764 -0.095465541 0.046985775
0.015416925 -0.094214544 0.046734393
0.016154185 -0.093524225 0.046908587
0.017561506 -0.096588284 0.046667993
0.018118607 -0.094906986 0.046589583
0.018968375 -0.094841875 0.044805944
0.01975064 -0.094459578 0.043406427
0.020540241 -0.094142772 0.042422265
0.021794578 -0.095896147 0.034793526
0.023795858 -0.10067479 0.02968213
0.024618134 -0.1002961 0.027696609
0.026575966 -0.10440558 0.02457732
0.026531795 -0.10063784 0.021202147
0.027831748 -0.10204974 0.015989393
-0.017837409 -0.10233039 0.0079063177
-0.016683305 -0.10102668 0.015004307
-0.016910389 -0.10842544 0.018823713
-0.016087288 -0.10959465 0.020277232
-0.014759896 -0.10725525 0.021811873
-0.013288647 -0.10346161 0.023880064
-0.011749443 -0.098514557 0.029109508
-0.010550957 -0.095837861 0.037266105
-0.0096928673 -0.096047506 0.043424487
-0.0088284789 -0.096230417 0.044077545
-0.0077536134 -0.093904875 0.044818044
-0.0068751546 -0.093673982 0.044901788
-0.006106874 -0.095092751 0.045575261
-0.0051942943 -0.094363019 0.045560509
-0.0043203114 -0.094182789 0.045764267
-0.0034741289 -0.094670013 0.045905977
-0.002636296 -0.095785417 0.045921594
-0.0017540724 -0.095596939 0.046051562
-0.00087872666 -0.095781207 0.045963287
0 -0.095840439 0.045591921
0.0008754218 -0.095420979 0.045871586
0.0017527505 -0.0955249 0.045701772
0.0026177294 -0.095110834 0.045791864
0.0034734076 -0.094650358 0.045576751
0.0044350713 -0.096684553 0.045395225
0.0053283968 -0.09679921 0.045757204
0.0060492572 -0.094195582 0.045633942
0.007009726 -0.095507517 0.045627266
0.0079569025 -0.096366927 0.045582473
0.0087834261 -0.09573935 0.045605749
0.0095805442 -0.094934486 0.045968771
0.010476721 -0.095163547 0.04638207
0.011544107 -0.096792899 0.046395093
0.012473975 -0.09711881 0.046591282
0.013079177 -0.09504202 0.046549618
0.013900816 -0.094699308 0.046802372
0.014400723 -0.092334047 0.046936333
0.015582251 -0.094359189 0.046813518
0.016308097 -0.093556978 0.046496153
0.017181195 -0.093637519 0.045564532
0.018181676 -0.094371557 0.045143872
0.018891871 -0.093600638 0.04302302
0.020088717 -0.095203057 0.041039616
0.020920292 -0.095012993 0.035597444
0.023051206 -0.10050326 0.028751403
0.023741933 -0.099533483 0.027239323
0.025737349 -0.10390263 0.024633944
0.026164144 -0.10185328 0.02259621
0.026386496 -0.099176832 0.017851144
0.027577356 -0.10019772 0.0061899722
-0.01684049 -0.10104293 0.0095607042
-0.016381372 -0.10406989 0.016198695
-0.016243897 -0.10964631 0.019193351
-0.01518413 -0.10932573 0.020898849
-0.013892179 -0.10716824 0.022750795
-0.012423703 -0.10321231 0.023963869
-0.010954801 -0.098593205 0.028085619
-0.0097669642 -0.09589383 0.035823733
-0.0087648435 -0.094660304 0.041657627
-0.0078520328 -0.094224401 0.043785512
-0.0069530196 -0.093865767 0.043935448
-0.0060294745 -0.093026176 0.045148671
-0.0051957336 -0.093523204 0.045347631
-0.0043013715 -0.092909619 0.045526981
-0.0034681205 -0.093639247 0.045642227
-0.0025818497 -0.092946596 0.045750529
-0.0017346042 -0.093668632 0.045650959
-0.00086965447 -0.093922682 0.045602471
0 -0.094669573 0.045253664
0.00089123496 -0.096253373 0.045418352
0.0017700706 -0.095583811 0.045306176
0.0026563278 -0.0956278 0.045456946
0.0034984159 -0.094457231 0.045214653
0.0044297031 -0.095681585 0.045245588
0.005209438 -0.093769886 0.045624763
0.006187248 -0.095460393 0.045636505
0.0070145633 -0.094696604 0.045582473
0.0079921223 -0.095905475 0.045573384
0.0088970512 -0.096088156 0.045452833
0.0097167278 -0.095400602 0.045694381
0.010437814 -0.093940325 0.045928895
0.011232572 -0.093316749 0.045935273
0.012120016 -0.093497261 0.046197355
0.012710659 -0.091516748 0.046111375
0.013699962 -0.092474744 0.046491653
0.014484301 -0.092017911 0.046299011
0.01550981 -0.093058862 0.045635283
0.016402716 -0.093236491 0.04496491
0.017101867 -0.092350088 0.044377595
0.018366978 -0.094458736 0.04390344
0.019121561 -0.093869478 0.040989846
0.020257173 -0.095120639 0.035171479
0.02241813 -0.10088159 0.028903186
0.024187246 -0.10448891 0.026244402
0.026267633 -0.1091117 0.024658144
0.026648438 -0.10659375 0.023053885
0.025647717 -0.098926909 0.019611686
0.026279176 -0.097867273 0.01202935
-0.016865769 -0.10025764 0.005877018
-0.015846714 -0.099741086 0.014166772
-0.016187096 -0.10825121 0.018095851
-0.015200268 -0.10842858 0.019206434
-0.014399364 -0.11005228 0.020972311
-0.013221125 -0.10882003 0.022527665
-0.011442588 -0.10202974 0.023509413
-0.01018228 -0.099045813 0.026158005
-0.0088772532 -0.094986603 0.032269508
-0.0078952946 -0.093866281 0.038936466
-0.0070169596 -0.093851835 0.043235838
-0.0059755463 -0.091340497 0.043945521
-0.0052220379 -0.093126342 0.044740051
-0.0042998283 -0.092016324 0.045051068
-0.003414219 -0.091330364 0.045465171
-0.0026233206 -0.093565099 0.045446843
-0.001714749 -0.091739073 0.045492738
-0.00085678097 -0.091675565 0.045186549
0 -0.092190616 0.044915348
0.0008659219 -0.092653647 0.044993281
0.0017158316 -0.091796987 0.045120329
0.0025890428 -0.092342526 0.045218259
0.0034733918 -0.092913233 0.044908553
0.004310051 -0.092235096 0.04495281
0.0052375519 -0.093403012 0.045134455
0.006067303 -0.092743061 0.045444608
0.0068813148 -0.092037588 0.045482516
0.0077546071 -0.092193663 0.04539156
0.0087624248 -0.093757942 0.045336157
0.0093127061 -0.090587229 0.045506716
0.010352645 -0.092311092 0.045718968
0.011208264 -0.092252634 0.045721501
0.011955855 -0.091376893 0.045716763
0.013170199 -0.093947425 0.045716763
0.013654618 -0.091315255 0.045615047
0.014441203 -0.090894632 0.045357823
0.015383148 -0.091444269 0.044155926
0.016490469 -0.092867382 0.043587536
0.017030783 -0.091114692 0.042685866
0.018513223 -0.094329283 0.039821327
0.019678956 -0.095711283 0.030889422
0.021825932 -0.10153802 0.028302848
0.023868082 -0.10641187 0.025911272
0.024951933 -0.10679428 0.024115264
0.02625652 -0.10805568 0.022665173
0.025126673 -0.099576078 0.020816267
0.025481803 -0.09737689 0.015718818
-0.015876617 -0.098995373 0.0077817738
-0.014689306 -0.097316653 0.014259726
-0.014649988 -0.10352658 0.018095851
-0.013948943 -0.10561343 0.019280344
-0.013198327 -0.10761713 0.020366818
-0.012097402 -0.10686038 0.021358013
-0.010380889 -0.10003402 0.023159266
-0.0093114711 -0.098701596 0.025454611
-0.0081323404 -0.095780894 0.027613252
-0.0072012111 -0.095416047 0.036314428
-0.0061106016 -0.092531964 0.041251093
-0.0052591604 -0.092911839 0.043235838
-0.0043933075 -0.093138121 0.043965399
-0.0034266694 -0.090806738 0.044965565
-0.0026269082 -0.092817426 0.044975072
-0.0017124346 -0.090759031 0.04492566
-0.00085899257 -0.091053218 0.044492066
0 -0.091053493 0.044231176
0.00085249508 -0.090364479 0.044585317
0.0017395072 -0.092193879 0.044819087
0.0026386396 -0.093231931 0.044844121
0.0033802264 -0.089575998 0.044640541
0.0043424745 -0.092060454 0.044512749
0.0051288633 -0.090609916 0.044354916
0.0060924953 -0.092257783 0.045146763
0.0069861133 -0.092565998 0.045195758
0.0076900767 -0.090572014 0.045069993
0.0085061463 -0.090165146 0.045030385
0.0093892403 -0.090478137 0.045169979
0.010330852 -0.091255859 0.045247644
0.011312071 -0.092236884 0.045158774
0.012086109 -0.091509119 0.045264065
0.012791347 -0.090392187 0.044846773
0.013807294 -0.091473319 0.044350296
0.01472907 -0.091840081 0.043417603
0.015508361 -0.091327019 0.042177171
0.016651271 -0.092896566 0.041213453
0.017610906 -0.093337804 0.035937786
0.019048089 -0.0961475 0.029643714
0.021000585 -0.10118464 0.026341975
0.023290843 -0.10734041 0.024451405
0.02441966 -0.10785349 0.023280025
0.025353802 -0.10750012 0.022647023
0.025135368 -0.10247497 0.020532757
0.024477132 -0.096095406 0.016593397
0.025723975 -0.097383618 0.006457299
-0.01504252 -0.098716535 0.0076978505
-0.014110006 -0.098770045 0.014249533
-0.013129237 -0.09846928 0.016614258
-0.012796153 -0.10335355 0.018851489
-0.012202567 -0.10677246 0.019487262
-0.010983296 -0.10484055 0.020604789
-0.0094469506 -0.099192977 0.022628456
-0.0083446158 -0.097353853 0.02383101
-0.0073735323 -0.09677761 0.025588423
-0.0062541524 -0.093812287 0.030121803
-0.0053601926 -0.093803369 0.03620863
-0.0043923515 -0.09223938 0.039086998
-0.003590771 -0.094257742 0.041622937
-0.0026593723 -0.093078025 0.042726755
-0.0017434508 -0.091531165 0.044509709
-0.00086938619 -0.091285549 0.04428634
0 -0.090432681 0.043911248
0.0008614416 -0.090451367 0.043942064
0.0017309324 -0.090873949 0.04397136
0.0025893175 -0.090626113 0.044253498
0.003589808 -0.094232462 0.043528825
0.0043565435 -0.091487408 0.043504149
0.0053641642 -0.093872875 0.043071359
0.0060511148 -0.09076672 0.044018626
0.0069248723 -0.090888947 0.044049025
0.007761376 -0.090549387 0.043916076
0.00840725 -0.088276125 0.043350041
0.0093995994 -0.089723445 0.043916076
0.01022668 -0.089483455 0.044083804
0.011289205 -0.091182046 0.043997824
0.012167555 -0.091256663 0.043906242
0.01283343 -0.089834012 0.042868644
0.013834923 -0.09079168 0.041916966
0.014687908 -0.090719432 0.039642304
0.016111955 -0.093986399 0.037013054
0.016932044 -0.093571827 0.029643714
0.018405393 -0.096628308 0.025614172
0.019647645 -0.098238222 0.024608254
0.022221344 -0.10605641 0.022737235
0.02300987 -0.10504506 0.021013886
0.023470473 -0.10268332 0.02078408
0.022806313 -0.095786512 0.019740105
0.023555608 -0.095128424 0.016951263
0.025114344 -0.097666897 0.0064065456
-0.013812293 -0.095765233 0.0076978505
-0.013034142 -0.096825048 0.014022052
-0.012047797 -0.09638238 0.015026927
-0.011533546 -0.099957399 0.017680645
-0.011059112 -0.10455888 0.018885434
-0.0099845584 -0.1038394 0.019264758
-0.0083668558 -0.096683666 0.02099973
-0.0075748418 -0.098472945 0.022461206
-0.0065385299 -0.097143874 0.02383101
-0.0055367672 -0.095970631 0.025418043
-0.0045771012 -0.095203705 0.02840355
-0.0036042233 -0.093709804 0.035982579
-0.0026790216 -0.092872746 0.03813374
-0.0017435339 -0.090663761 0.039626807
-0.00088797131 -0.092349015 0.040712088
0 -0.090639815 0.041036308
0.00085021992 -0.088422872 0.040927291
0.0017136702 -0.089110851 0.041184723
0.0024770834 -0.085872218 0.041734219
0.003191445 -0.082977571 0.041386127
0.0040939539 -0.085154243 0.041157305
0.0048031309 -0.08325427 0.041157305
0.0059236991 -0.088009246 0.041443199
0.0068149013 -0.088593721 0.041119844
0.0077606328 -0.089678422 0.041036755
0.0086862287 -0.090336777 0.041004151
0.0094310967 -0.089166738 0.041122675
0.010428579 -0.090381019 0.041341305
0.011263127 -0.090105012 0.040940672
0.012304593 -0.091405548 0.039291501
0.013356517 -0.092605188 0.038314283
0.014163787 -0.092064619 0.036272287
0.015473964 -0.094664246 0.028809637
0.016571928 -0.095748916 0.025739491
0.017206082 -0.094180658 0.024322957
0.018765008 -0.097578041 0.022947997
0.021062003 -0.10430706 0.021315545
0.021697018 -0.10256772 0.020698279
0.021716474 -0.098196231 0.019579381
0.022071777 -0.09564437 0.019049406
0.02317431 -0.096405134 0.016890913
0.023727303 -0.094909213 0.006457299
-0.012983559 -0.095521897 0.0092255473
-0.012131504 -0.096118838 0.014082849
-0.011193383 -0.096076541 0.014743865
-0.0107064 -0.10025084 0.01772961
-0.0099559063 -0.10254584 0.018192381
-0.0091548581 -0.10477226 0.019081295
-0.0081284381 -0.10465363 0.019314975
-0.0069584139 -0.10238809 0.020743281
-0.0060036182 -0.10306212 0.021753252
-0.004849901 -0.099907957 0.023852766
-0.003750894 -0.09658552 0.025429279
-0.0027873912 -0.095700428 0.02579245
-0.0018010683 -0.09275502 0.030049652
-0.00090524059 -0.093239784 0.033032149
0 -0.091081075 0.035374105
0.00089572376 -0.092259549 0.036572993
0.00175481 -0.090372711 0.037231922
0.0026294643 -0.090278275 0.037157625
0.0035853814 -0.092323571 0.036968201
0.0044788932 -0.092265204 0.037186474
0.0053719627 -0.09221869 0.037177235
0.0062012766 -0.091247357 0.038328707
0.0070343358 -0.090567075 0.038324684
0.00785306 -0.08987391 0.037065923
0.0087172892 -0.089788079 0.038274467
0.0097996844 -0.091760688 0.038327515
0.010468736 -0.089856654 0.038324684
0.011519489 -0.091269799 0.030487508
0.012792252 -0.09411443 0.0286313
0.01382576 -0.094936885 0.026398838
0.015184239 -0.097748548 0.025555223
0.016385356 -0.099275976 0.024083197
