ply
format ascii 1.0
comment PCL generated
element vertex 1591
property float x
property float y
property float z
element camera 0
property float view_px
property float view_py
property float view_pz
property float x_axisx
property float x_axisy
property float x_axisz
property float y_axisx
property float y_axisy
property float y_axisz
property float z_axisx
property float z_axisy
property float z_axisz
property float focal
property float scalex
property float scaley
property float centerx
property float centery
property int viewportx
property int viewporty
property float k1
property float k2
end_header
222.76428 206.94412 435.63409
223.77963 206.75583 434.48938
224.93886 206.76266 434.31161
226.24973 206.96472 435.09976
227.25807 206.77679 433.94653
228.41806 206.78407 433.75906
229.57832 206.7915 433.56836
230.73886 206.79907 433.37439
231.89966 206.80679 433.17715
233.22769 207.00983 433.94308
234.56119 207.21303 434.70486
235.55595 207.02606 433.53128
237.06993 207.4248 435.25049
237.88544 207.04291 433.10614
239.05064 207.05157 432.88861
240.39867 207.25565 433.63135
241.56712 207.26465 433.40659
242.54825 207.07851 432.21591
244.09535 207.47844 433.90915
245.26746 207.48795 433.67377
246.63538 207.69296 434.39603
248.00885 207.89821 435.1138
249.78928 208.49448 437.74704
250.97585 208.50475 437.49521
252.36868 208.71063 438.19873
253.55862 208.72127 437.93936
254.74899 208.73209 437.67654
255.29865 208.15649 434.5387
256.6983 208.36313 435.22708
257.88467 208.37442 434.9548
259.07147 208.38586 434.67899
260.48285 208.59314 435.35434
262.12662 208.99625 436.97897
262.86386 208.61697 434.7836
264.05505 208.62915 434.49283
265.24667 208.64151 434.19846
266.43878 208.65405 433.90048
267.87115 208.86255 434.54968
269.55167 209.26709 436.14413
270.99808 209.47607 436.78268
272.20258 209.48946 436.46735
273.40756 209.50299 436.14825
274.61304 209.51672 435.82544
275.56351 209.33466 434.55212
277.02554 209.54471 435.16852
278.23254 209.55896 434.83438
279.96689 209.96548 436.38559
280.91418 209.78407 435.09857
282.39404 209.995 435.69531
283.60843 210.01003 435.34445
284.82336 210.02521 434.98972
285.76227 209.84436 433.69028
286.97565 209.85986 433.32855
288.47137 210.07179 433.90207
289.9729 210.28397 434.47009
291.19315 210.30002 434.09497
292.12427 210.11984 432.77914
293.92767 210.52901 434.26877
294.56229 210.15265 432.01074
295.7821 210.16928 431.62054
297.30273 210.38258 432.15976
298.22336 210.20296 430.82809
299.44479 210.22 430.42587
301.28314 210.63045 431.88107
302.51093 210.64783 431.46896
304.36621 211.05875 432.91071
305.60028 211.07642 432.48853
306.8349 211.09418 432.06223
308.39148 211.3089 432.55807
309.6297 211.32689 432.12253
311.19513 211.54187 432.60721
312.43695 211.56006 432.16238
313.67923 211.57831 431.71332
315.25659 211.79364 432.18155
316.83972 212.00909 432.64365
317.7485 211.83043 431.26041
319.68036 212.24315 432.63058
320.93253 212.26166 432.15738
322.185 212.28015 431.67993
323.43774 212.29865 431.19821
324.6908 212.31708 430.71222
325.58801 212.13809 429.3085
327.91467 212.7485 431.55212
329.17358 212.7668 431.05124
330.43259 212.78496 430.54599
334.62463 214.38293 437.30988
337.7514 215.38878 441.32785
343.13641 217.5802 450.77243
347.08148 218.98181 456.56482
341.63202 215.44275 439.71799
341.02557 214.47189 434.65448
338.47928 212.51183 425.08536
337.42047 211.34174 419.14029
342.53586 213.3354 427.60855
351.60953 217.30748 445.04025
354.10419 217.91711 447.15692
363.73987 222.08826 465.40344
360.73322 219.92715 454.93845
360.47559 219.15042 450.75583
364.63794 220.55049 456.40332
367.21027 221.15836 458.46191
366.93341 220.37958 454.27399
374.04584 223.16467 466.10291
374.60022 222.78058 463.68088
376.39349 222.98984 463.9209
379.02954 223.59445 465.92599
-39.604813 215.49484 425.49557
-39.16243 215.88518 427.86234
-37.484543 215.67294 427.55795
-35.810715 215.46008 427.24738
-34.543564 215.44717 427.82367
-33.675278 215.6342 429.29041
-31.2117 215.01869 427.17334
-29.946991 215.00418 427.73532
-28.681549 214.98923 428.29327
-27.415482 214.97382 428.8472
-26.148804 214.95802 429.397
-24.497665 214.74153 429.04129
-22.85141 214.52475 428.67914
-21.588776 214.508 429.21411
-20.325897 214.49095 429.74493
-19.06279 214.47366 430.27155
-18.170227 214.65628 431.70084
-16.904236 214.63855 432.22009
-14.907455 214.22047 430.91684
-13.283997 214.00243 430.51514
-11.305878 213.58435 429.19583
-10.410675 213.76613 430.60492
-9.1555481 213.74785 431.09851
-7.5485382 213.5296 430.67343
-6.6458893 213.71106 432.07291
-4.697876 213.29301 430.72083
-3.1048889 213.07484 430.27789
-2.2004089 213.25618 431.66559
-0.95214844 213.23776 432.13162
0.63189697 213.01971 431.67297
1.87677 213.00137 432.12955
2.7904358 213.18262 433.50424
4.3653259 212.96481 433.03003
5.6089478 212.94662 433.47403
7.1750031 212.72906 432.98859
7.7746429 213.10986 435.27545
9.3371124 212.8925 434.78073
10.893784 212.67532 434.28006
12.132401 212.65761 434.70224
13.060898 212.83926 436.05005
14.915131 212.42329 434.60361
16.149551 212.40598 435.0126
17.685196 212.18964 434.48511
18.915939 212.17261 434.8851
20.442566 211.95667 434.34695
21.963394 211.74092 433.80307
23.187271 211.7244 434.18927
24.122101 211.90698 435.50803
25.919266 211.49287 434.01233
27.138901 211.47685 434.3858
28.63858 211.26212 433.81635
29.854507 211.24646 434.18118
30.794556 211.42975 435.48264
32.012032 211.41437 435.84045
33.499077 211.20045 435.25229
34.445412 211.38416 436.54446
35.92614 211.17065 435.94708
37.401108 210.95737 435.34436
38.610718 210.94293 435.68146
39.819817 210.92868 436.01477
41.282753 210.71606 435.39777
42.488235 210.70219 435.72278
43.942291 210.49002 435.09619
45.144157 210.47653 435.41306
46.345535 210.46323 435.72623
47.787674 210.25171 435.08575
48.746864 210.43713 436.34146
49.946808 210.42438 436.64362
51.146278 210.4118 436.94214
52.114517 210.59766 438.18954
53.5439 210.38715 437.52814
54.967606 210.17688 436.86188
56.162682 210.16502 437.14523
57.357338 210.15335 437.42499
58.551567 210.14185 437.70117
59.745354 210.13054 437.97388
61.363815 209.72321 436.32922
62.551598 209.71228 436.5936
63.946304 209.50348 435.89645
65.130684 209.49292 436.15329
66.5168 209.28453 435.44748
67.298782 209.67029 437.61612
68.484627 209.66025 437.8631
69.475784 209.84827 439.06732
70.855232 209.64059 438.34659
71.850883 209.82892 439.54495
73.224426 209.62164 438.81635
74.408501 209.6124 439.04608
75.773575 209.40552 438.30914
76.954407 209.39661 438.53159
78.31105 209.19009 437.78638
79.315094 209.37932 438.96637
80.665939 209.17314 438.21344
81.842918 209.16492 438.422
82.853836 209.35455 439.59332
84.032829 209.34662 439.79559
85.372139 209.14111 439.0275
86.547974 209.13351 439.22275
87.878952 208.92839 438.44678
89.204498 208.72345 437.66666
90.224129 208.91394 438.81985
91.396339 208.90692 439.0015
92.713356 208.70247 438.21033
93.882484 208.69577 438.38504
95.051376 208.68921 438.55652
96.357346 208.48524 437.75406
97.388489 208.67651 438.88965
98.688843 208.47287 438.08008
99.854263 208.46689 438.23822
101.01949 208.46104 438.39319
102.1845 208.45534 438.54492
103.47111 208.25229 437.72076
104.51393 208.44434 438.83887
105.79501 208.24158 438.00766
106.84262 208.43387 439.12003
108.11817 208.2314 438.28189
109.38838 208.02908 437.43997
110.44066 208.22173 438.5434
111.60165 208.21707 438.6694
112.86363 208.0152 437.81723
114.02174 208.01082 437.93668
115.1797 208.00656 438.05301
116.33751 208.00244 438.16626
117.49518 207.99844 438.27634
118.65273 207.99457 438.3833
119.81013 207.99081 438.48712
120.96742 207.98715 438.58783
122.04405 208.18097 439.66251
123.28162 207.98026 438.77997
124.36318 208.17429 439.84885
125.59538 207.97382 438.95972
126.7521 207.97078 439.04489
127.97636 207.77057 438.14899
129.13029 207.76779 438.22791
130.28416 207.76511 438.30362
131.37801 207.95978 439.35486
132.59161 207.76007 438.44595
133.74521 207.75772 438.51245
134.95093 207.55826 437.59702
136.10181 207.55615 437.65726
137.29965 207.35692 436.73526
138.44783 207.35504 436.78925
139.55405 207.55048 437.81967
140.70468 207.54883 437.86774
141.85526 207.54727 437.91272
143.00578 207.54581 437.95462
144.15627 207.54449 437.99353
145.3067 207.54324 438.02933
146.48355 207.34494 437.08212
147.60747 207.54114 438.09186
148.7578 207.54024 438.11856
149.90811 207.53944 438.14221
151.05838 207.53876 438.16281
152.20865 207.53818 438.18036
153.3699 207.34052 437.2146
154.50912 207.53735 438.20636
155.65935 207.53711 438.21481
156.80956 207.53696 438.22018
157.95978 207.53693 438.22256
159.10812 207.33981 437.24152
160.25578 207.33998 437.23779
161.39642 207.14307 436.25073
162.54152 207.14346 436.24094
163.68663 207.14398 436.22818
164.86119 207.53897 438.17282
166.02878 207.73691 439.13412
167.18167 207.73773 439.11209
168.33459 207.73866 439.08704
169.46254 207.54251 438.07886
170.58537 207.34645 437.06781
171.70309 207.15048 436.0538
172.8157 206.95464 435.03696
173.92322 206.75888 434.01724
175.10141 206.95769 434.95395
176.28482 207.15662 435.88745
177.34431 206.76395 433.87943
178.576 207.16034 435.78604
179.76988 207.35959 436.7099
180.81671 206.96725 434.69339
182.01331 207.16673 435.61102
183.15923 207.1691 435.5466
184.24673 206.9743 434.50052
185.39024 206.9769 434.43018
186.59747 207.17685 435.33505
187.74374 207.17969 435.25839
188.89011 207.18262 435.17868
190.03658 207.18565 435.09592
191.18314 207.18881 435.01004
192.40633 207.3894 435.89847
193.47661 207.1955 434.82916
194.62352 207.19901 434.73407
195.8548 207.39996 435.61261
196.91771 207.20641 434.5347
198.065 207.21028 434.43036
199.39638 207.60899 436.27496
200.45454 207.41577 435.1882
201.60483 207.42001 435.07434
202.85498 207.62178 435.93259
203.90585 207.42889 434.83725
205.16147 207.63095 435.68875
206.20749 207.43828 434.58765
207.24854 207.24574 433.4841
208.3972 207.25073 433.35175
209.66125 207.45331 434.18982
210.69507 207.26114 433.07776
211.96465 207.464 433.90891
213.48549 208.06201 436.68143
214.51988 207.87021 435.55981
215.67743 207.87604 435.40756
217.09659 208.27707 437.19525
218.39304 208.48074 438.00714
219.4231 208.28949 436.87344
220.44823 208.09833 435.73727
221.7505 208.30246 436.53876
222.77094 208.11156 435.39688
223.78641 207.92078 434.25247
224.94577 207.92773 434.07462
226.10538 207.93481 433.89343
227.11128 207.74442 432.74097
228.4254 207.94946 433.52142
229.42664 207.75932 432.36328
230.58473 207.767 432.16953
231.90744 207.97256 432.9389
233.0687 207.98056 432.73822
234.39978 208.18646 433.49966
235.56421 208.19479 433.2919
236.90367 208.40109 434.04535
238.07132 208.40976 433.83044
239.05937 208.22072 432.64859
240.22507 208.22968 432.42743
241.57619 208.43668 433.16559
242.36975 208.05017 431.01309
243.91446 208.45544 432.70557
245.27701 208.66301 433.43149
246.44962 208.67282 433.19247
247.82068 208.8808 433.91
249.39803 209.28699 435.5824
250.57956 209.29736 435.33142
251.96738 209.50598 436.03528
253.36081 209.71483 436.73459
254.75983 209.92387 437.42911
255.73703 209.73688 436.20584
256.92578 209.7482 435.93628
257.896 209.56148 434.70764
259.52606 209.96953 436.34116
260.49454 209.78314 435.10605
262.13852 210.19165 436.72928
263.10526 210.00562 435.48761
264.06726 209.8197 434.24365
265.02444 209.63388 432.99728
266.68854 210.0433 434.60162
267.64407 209.85785 433.34869
269.3222 210.26776 434.94238
270.7662 210.47952 435.58072
272.21591 210.69153 436.21396
273.42108 210.70526 435.89459
274.62674 210.71916 435.57135
275.57736 210.53468 434.29825
277.03958 210.74753 434.91376
278.24677 210.76198 434.57928
279.71793 210.97527 435.185
281.19482 211.18878 435.7854
282.67749 211.40256 436.38049
283.35208 211.02028 434.14499
284.83847 211.23444 434.7316
285.77753 211.05115 433.43231
286.71185 210.86798 432.1308
288.48697 211.28159 433.64282
289.98865 211.49658 434.20984
290.922 211.31384 432.89734
292.43005 211.52924 433.45486
293.65158 211.54578 433.07141
294.57861 211.3634 431.74942
295.79858 211.38023 431.35883
297.01907 211.39719 430.9642
298.54303 211.61346 431.4975
299.76721 211.63074 431.09396
300.99194 211.64813 430.68634
302.21719 211.66565 430.27469
303.75647 211.8826 430.78729
304.98535 211.90036 430.36652
306.53363 212.11766 430.86826
307.76611 212.13565 430.43829
309.32327 212.35324 430.92892
311.21295 212.77051 432.3374
311.79596 212.38971 430.04642
313.36505 212.60765 430.52075
314.93985 212.82571 430.98892
316.52036 213.04388 431.45096
318.10657 213.26216 431.90683
319.69843 213.48051 432.35638
320.95056 213.49915 431.88281
322.55103 213.71761 432.32083
323.45572 213.53635 430.92276
324.70868 213.55487 430.43634
326.31784 213.7733 430.85852
327.9325 213.99173 431.27432
328.82996 213.81006 429.8623
330.81415 214.22839 431.17706
334.64227 215.64737 437.02615
337.76907 216.66638 441.0408
343.89825 219.28712 452.29132
346.72473 220.10654 455.36115
346.55386 219.32384 451.18417
344.84164 217.73935 443.39954
341.93869 215.55299 432.92282
343.21494 215.56963 432.37543
346.43048 216.58797 436.32208
350.45319 218.00714 442.04993
354.51251 219.4263 447.75723
358.60825 220.84546 453.44391
356.76193 219.2565 445.68555
359.28555 219.8727 447.77332
362.22794 220.68909 450.7424
365.19034 221.50507 453.69772
370.21835 223.32376 461.08994
372.82178 223.93814 463.12262
373.78177 223.74908 461.59311
375.56888 223.96056 461.83496
377.35944 224.17117 462.07047
-40.027313 216.95499 426.09305
-38.762115 216.9444 426.68204
-37.087601 216.72986 426.37714
-35.822281 216.71785 426.95737
-34.153183 216.50201 426.6412
-32.888199 216.48877 427.21249
-31.225021 216.27185 426.88498
-29.566177 216.05444 426.55103
-28.695892 216.24271 428.00537
-27.430237 216.22742 428.55948
-25.777298 216.00874 428.20993
-24.513184 215.99269 428.7547
-22.867249 215.77335 428.39343
-20.847534 215.35089 427.12271
-19.966324 215.5368 428.55582
-19.452911 215.92519 430.89209
-18.187241 215.90762 431.41589
-17.28952 216.09261 432.84293
-15.655563 215.87189 432.45074
-13.6642 215.44846 431.14267
-12.043564 215.22763 430.7366
-11.143219 215.41193 432.14761
-9.1733398 214.98842 430.81821
-8.2705994 215.17249 432.22174
-6.6638336 214.95148 431.79343
-5.0625763 214.73047 431.35873
-3.1227722 214.30716 430.00098
-2.2183685 214.491 431.38852
-0.97010803 214.47244 431.85495
0.27780151 214.45392 432.31717
1.1918182 214.63763 433.69598
2.1107788 214.82129 435.07245
4.0192566 214.3985 433.6785
5.2655945 214.3801 434.12378
6.8344116 214.15973 433.64032
7.7569275 214.34355 435.00189
9.637146 213.92139 433.5817
10.876343 213.90341 434.00848
12.427368 213.68362 433.50287
13.662949 213.66588 433.92047
15.205048 213.44641 433.40393
16.436966 213.42894 433.81244
17.970093 213.20984 433.2851
18.899216 213.39439 434.61731
20.426041 213.17563 434.08011
21.947037 212.95708 433.53723
23.462219 212.73874 432.98865
24.394516 212.9238 434.30649
25.903381 212.70584 433.74826
27.123154 212.68964 434.12216
28.342377 212.67358 434.49213
29.005081 213.06058 436.73654
30.228531 213.04477 437.10019
31.451424 213.02914 437.45996
32.943916 212.81235 436.87427
34.163147 212.7971 437.22546
35.911583 212.37947 435.68668
37.386734 212.16339 435.08493
38.596519 212.14877 435.42239
39.805771 212.13434 435.7561
41.014542 212.12007 436.08597
42.474571 211.90485 435.46536
43.679718 211.89098 435.78705
45.130882 211.67621 435.15689
46.332443 211.66272 435.4704
47.774773 211.44843 434.83084
48.495422 211.83727 437.03647
49.934227 211.62332 436.38879
50.900444 211.81149 437.63901
52.102257 211.79886 437.93481
53.531837 211.58557 437.27429
54.730148 211.57333 437.56216
55.928009 211.56131 437.84647
57.125435 211.54944 438.12717
58.322449 211.53775 438.40424
59.734207 211.3255 437.72202
61.140312 211.11348 437.03513
62.330864 211.10239 437.30038
63.728371 210.89078 436.60461
64.91552 210.88004 436.86227
66.506569 210.46826 435.19928
67.488228 210.65851 436.40796
68.474693 210.84888 437.61429
69.466003 211.03937 438.81824
70.845612 210.82895 438.09836
71.652267 211.22025 440.25772
73.028595 211.01018 439.53036
74.399384 210.80032 438.79858
75.583282 210.79111 439.02518
76.945618 210.58163 438.2851
78.302437 210.37238 437.54065
79.306625 210.56407 438.72031
80.657639 210.35516 437.96817
81.834785 210.3468 438.17688
82.84584 210.53891 439.34787
84.188194 210.33054 438.58429
85.364456 210.32265 438.78305
86.540451 210.31491 438.97845
87.871597 210.10706 438.20322
89.197296 209.89941 437.42386
90.217072 210.09238 438.57669
91.38942 210.08525 438.75848
92.706596 209.87808 437.96808
93.87587 209.87128 438.14294
95.184814 209.66446 437.34485
96.213715 209.85809 438.48297
97.517029 209.65158 437.67761
98.814949 209.44524 436.86835
99.977921 209.43918 437.02634
101.14069 209.43326 437.18109
102.30325 209.42746 437.33264
103.46562 209.42181 437.48105
104.50858 209.61636 438.59872
105.67314 209.61096 438.74103
106.72346 209.80576 439.85333
108.11321 209.40057 438.04269
109.27466 209.3956 438.1752
110.43596 209.39075 438.30447
111.59708 209.38602 438.4306
112.75804 209.38144 438.55362
114.01743 209.177 437.69867
115.17551 209.1727 437.81512
116.33345 209.16849 437.92844
117.49124 209.16443 438.0386
118.56064 209.36041 439.12152
119.72075 209.35658 439.22568
120.88072 209.35287 439.32675
121.96005 209.54921 440.40115
123.20033 209.34584 439.51947
124.35995 209.3425 439.61115
125.59227 209.1394 438.72266
126.74911 209.13629 438.80792
127.9735 208.93346 437.91266
129.12756 208.9306 437.99158
130.28152 208.92789 438.06744
131.37549 209.12511 439.11813
132.5892 208.92276 438.20984
133.74292 208.92038 438.27643
134.94876 208.71828 437.36154
136.05013 208.91595 438.40042
137.25067 208.71408 437.4791
138.446 208.51236 436.5545
139.55234 208.71036 437.58441
140.70306 208.70868 437.63254
141.85376 208.70709 437.67755
143.00439 208.70563 437.71948
144.15498 208.70425 437.75842
145.30553 208.703 437.79428
146.45604 208.70187 437.82712
147.60651 208.70085 437.85687
148.77826 208.50014 436.90396
149.9261 208.49933 436.92758
151.09007 208.29886 435.96851
152.22171 208.49806 436.9657
153.36949 208.49759 436.98026
154.50882 208.69702 437.9715
155.65329 208.89655 438.95975
156.80948 208.69662 437.98535
157.95979 208.69659 437.9877
159.11012 208.69666 437.98703
160.26044 208.69684 437.98331
161.41078 208.69713 437.9765
162.56113 208.69754 437.96674
163.71149 208.69804 437.95383
164.87659 208.89847 438.91766
166.04686 209.099 439.87839
167.18257 208.90004 438.87665
168.3356 208.901 438.85153
169.46364 208.70224 437.84384
170.55899 208.3038 435.85382
171.70441 208.30508 435.81979
172.81712 208.10666 434.80344
173.92474 207.90834 433.78421
175.14095 208.3096 435.69946
176.28656 208.31131 435.65323
177.38921 208.11331 434.62515
178.6236 208.51492 436.53049
179.77197 208.51697 436.47504
180.92043 208.51917 436.41653
182.06895 208.52145 436.35501
183.16165 208.32401 435.3121
184.30777 208.32654 435.2446
185.45395 208.32916 435.17398
186.60025 208.33191 435.10031
187.74663 208.33478 435.02362
188.8931 208.33774 434.94382
189.96831 208.14096 433.88379
191.11243 208.14417 433.798
192.25664 208.14749 433.7092
193.40097 208.15094 433.61737
194.54543 208.15451 433.52243
195.77425 208.35812 434.40057
196.92152 208.36194 434.29922
198.15836 208.56584 435.17056
199.30847 208.56992 435.06277
200.55331 208.77406 435.92709
201.60915 208.57843 434.83789
202.7597 208.58289 434.72086
203.91043 208.58746 434.60062
205.06129 208.59216 434.47726
206.21233 208.59702 434.3508
207.36353 208.60196 434.22116
208.62753 208.8071 435.06171
209.8969 209.01239 435.89853
210.936 208.81772 434.78619
212.0905 208.82321 434.64365
213.61411 209.42914 437.41412
214.77675 209.43494 437.26428
215.81146 209.24078 436.13986
217.10266 209.44699 436.95496
218.39925 209.65337 437.76614
219.29355 209.25945 435.66251
220.31622 209.06578 434.52707
221.75713 209.47278 436.29776
222.77768 209.27939 435.15625
223.93953 209.28633 434.98102
224.95279 209.09317 433.83411
226.26398 209.30066 434.62085
227.11859 208.9075 432.50073
228.27628 208.91501 432.31329
229.43423 208.92265 432.12268
230.75424 209.13077 432.89499
231.91536 209.13873 432.69736
233.41068 209.54755 434.42722
234.7471 209.75626 435.18701
235.74475 209.56436 434.01361
237.26172 209.9738 435.72983
238.43469 209.98264 435.51373
239.24815 209.59073 433.36819
240.4166 209.59985 433.14636
241.77051 209.8096 433.88318
242.37906 209.21756 430.76947
244.11429 209.8287 433.42166
245.2867 209.8385 433.18576
246.26395 209.64789 431.98651
247.63261 209.85861 432.70377
248.80612 209.8689 432.45761
250.18333 210.08002 433.16635
251.77206 210.49202 434.82831
252.95454 210.5029 434.5701
254.34857 210.71468 435.26501
255.7482 210.92668 435.95526
256.9371 210.93814 435.68533
257.90747 210.74899 434.45703
259.31619 210.96161 435.1348
260.2822 210.77277 433.9006
261.9238 211.18665 435.52307
262.65869 210.79724 433.32993
264.07962 211.01068 433.99091
265.03699 210.82245 432.74484
266.46405 211.03629 433.39725
267.65698 211.04938 433.09497
269.33533 211.46469 434.68719
270.53442 211.47818 434.37622
271.98175 211.69296 435.00928
272.93411 211.50572 433.74316
273.88177 211.3186 432.47473
275.08023 211.33279 432.14954
276.79559 211.74959 433.71042
278.00037 211.76419 433.37631
279.99597 212.38283 435.86874
281.20963 212.39789 435.52481
282.6925 212.61447 436.11893
283.63852 212.42851 434.82532
284.85379 212.44409 434.46982
285.51636 212.05695 432.23111
286.72742 212.07278 431.86938
288.22089 212.29031 432.44177
289.72015 212.50809 433.00867
290.93811 212.52449 432.63361
292.44635 212.74268 433.19012
293.96045 212.96109 433.74106
295.18524 212.978 433.35229
296.41061 212.99509 432.95959
297.93683 213.21408 433.49506
299.16595 213.23148 433.09344
300.08994 213.04715 431.7572
301.62567 213.26663 432.27789
302.2345 212.88055 430.00656
303.14679 212.6964 428.66251
304.68671 212.91626 429.17004
306.23239 213.13629 429.67163
307.14081 212.95235 428.31708
309.34109 213.57687 430.65692
310.90411 213.79739 431.14053
311.8139 213.61366 429.77353
313.05093 213.63214 429.32553
314.28839 213.65063 428.87335
316.20105 214.07381 430.25565
317.78464 214.2948 430.71146
319.03113 214.31346 430.24362
320.96875 214.737 431.60434
322.56921 214.95819 432.04138
323.12305 214.57188 429.72919
324.72668 214.79303 430.15668
326.33578 215.01416 430.57785
327.59164 215.03265 430.08145
328.8476 215.05103 429.58078
330.10367 215.06926 429.07587
334.29327 216.70934 435.83057
338.1561 218.14705 441.65671
342.05606 219.58508 447.4632
348.24121 222.24057 458.67801
349.5899 222.25906 458.11292
346.75839 220.045 447.61642
349.99054 221.07732 451.56149
353.63409 222.31264 456.39096
353.81738 221.72064 453.11102
358.28094 223.36177 459.71021
357.28046 222.15953 453.7326
357.03915 221.36267 449.55576
352.78992 218.53339 436.44067
348.46555 215.70274 423.35483
350.93201 216.32544 425.46176
360.32419 220.40283 442.70032
362.45575 220.82169 443.87482
367.89093 222.86621 452.147
375.44952 225.92697 464.82608
375.99506 225.53073 462.40491
376.94785 225.33685 460.86942
-40.036346 218.21448 425.79849
-39.18248 218.4101 427.27579
-37.506088 218.19324 426.97281
-36.2388 218.18146 427.55426
-34.165115 217.75746 426.34811
-34.100677 218.36176 429.599
-32.032745 217.93658 428.38144
-30.369141 217.71667 428.05066
-29.49408 217.90767 429.50693
-28.223572 217.89246 430.06357
-26.179031 217.46561 428.81818
-24.912659 217.44962 429.36438
-22.883011 217.02216 428.10388
-21.24231 216.80002 427.73712
-19.982681 216.7831 428.26743
-19.096222 216.97134 429.69824
-17.83345 216.95383 430.22131
-16.938629 217.14145 431.64691
-14.942093 216.71284 430.34683
-13.681702 216.69476 430.85608
-11.70108 216.26602 429.54099
-10.446091 216.24774 430.03967
-9.1911774 216.22931 430.53403
-7.9364166 216.2108 431.02417
-6.3323364 215.98712 430.59583
-5.0806274 215.96851 431.07642
-2.7966156 215.33481 428.80402
-1.8948975 215.52121 430.19037
-0.98822021 215.70755 431.57455
0.59593201 215.48398 431.11792
1.5072632 215.67023 432.49561
2.4235535 215.85641 433.87094
4.3294983 215.42825 432.47763
5.5732269 215.40976 432.92242
6.8165283 215.39134 433.36307
8.0594025 215.37297 433.7995
9.6194458 215.15009 433.30597
10.858719 215.13194 433.73318
12.409897 214.90935 433.22855
13.335861 215.09593 434.57516
14.880737 214.87363 434.06052
16.419846 214.65152 433.53998
17.349564 214.83838 434.8761
18.882355 214.61661 434.3457
20.409317 214.39505 433.80957
21.342789 214.58224 435.13519
23.154648 214.15678 433.65469
24.089676 214.34424 434.97318
25.601349 214.12344 434.41681
27.107224 213.90286 433.8548
28.326614 213.88663 434.22519
29.267441 214.07462 435.53024
30.488411 214.05865 435.89349
31.43605 214.24686 437.19308
32.928764 214.02725 436.60834
34.415672 213.80789 436.01822
35.631897 213.79266 436.3652
37.109909 213.57373 435.76508
38.582123 213.35507 435.1597
39.791557 213.34042 435.49374
41.254898 213.12222 434.8786
42.712502 212.90424 434.25827
43.915199 212.8902 434.57959
45.363953 212.67267 433.94968
46.319145 212.86267 435.21103
47.761696 212.64555 434.5723
48.721153 212.83588 435.82764
49.921448 212.82275 436.13046
50.887833 213.01334 437.3804
52.089821 213.00053 437.67651
53.291367 212.98792 437.96896
54.718094 212.77203 437.30505
56.139153 212.5564 436.63629
57.113731 212.7478 437.87067
58.528717 212.53256 437.19348
59.722862 212.52092 437.46674
60.916603 212.50945 437.73639
62.319916 212.29485 437.04614
63.717606 212.08049 436.35126
64.90493 212.0696 436.60919
66.496208 211.65244 434.94754
67.477989 211.84512 436.15598
68.661568 211.83478 436.40292
69.84478 211.8246 436.64636
70.835876 212.01773 437.84656
71.642639 212.41409 440.0051
73.019142 212.20128 439.27859
74.206146 212.19174 439.50931
75.574188 211.97931 438.77438
77.115479 211.56409 437.07239
78.293716 211.55508 437.29138
79.471619 211.54626 437.50711
80.820221 211.33466 436.75525
81.826515 211.52911 437.92838
82.837715 211.72371 439.099
84.017021 211.71552 439.30173
85.356659 211.50458 438.53516
86.690834 211.29385 437.7644
87.864113 211.28616 437.9563
89.189995 211.07578 437.17761
90.510422 210.86557 436.39487
91.382393 211.26401 438.51212
92.69973 211.05412 437.72241
93.869148 211.04721 437.89746
95.03833 211.04044 438.06927
96.207275 211.03381 438.23785
97.510742 210.82458 437.4332
98.676659 210.81827 437.59491
99.971939 210.60938 436.78278
101.13484 210.60336 436.93771
102.29755 210.59747 437.08942
103.58186 210.38907 436.2663
104.50311 210.7888 438.35526
105.78448 210.58067 437.52542
106.94641 210.57535 437.66437
108.10817 210.57016 437.80017
109.26976 210.56509 437.93277
110.43117 210.56017 438.06223
111.59242 210.55536 438.18848
112.75352 210.55069 438.31161
114.11163 210.14102 436.483
115.17125 210.3392 437.57382
116.32932 210.33493 437.68729
117.48723 210.33081 437.79758
118.55675 210.52933 438.88004
119.71698 210.52542 438.98431
120.79396 210.72418 440.06122
121.95653 210.72055 440.15948
123.19693 210.51451 439.27841
124.35667 210.51111 439.37018
125.58913 210.30536 438.48227
126.81631 210.09973 437.59088
127.97059 210.09671 437.67294
129.12477 210.09381 437.75195
130.21635 210.29349 438.80515
131.37292 210.29083 438.87817
132.52942 210.2883 438.94809
133.7406 210.08342 438.03711
134.94655 209.87869 437.12283
136.09766 209.8765 437.18317
137.29575 209.67201 436.26236
138.39967 209.87247 437.29474
139.55058 209.87064 437.34592
140.70143 209.86891 437.39404
141.85223 209.86731 437.43915
142.9688 210.06822 438.45987
144.15369 209.86444 437.52008
145.30434 209.86316 437.556
146.48141 209.65961 436.60986
147.60555 209.86096 437.61862
148.7774 209.65764 436.66629
149.94409 209.45444 435.71082
151.07327 209.65611 436.71051
152.22119 209.65552 436.72806
153.36908 209.65503 436.74258
154.50851 209.85706 437.73334
155.65309 210.05919 438.7211
156.80609 210.05904 438.7265
157.95981 209.85663 437.74957
159.10838 209.6543 436.76956
160.26068 209.85687 437.74515
161.40413 209.65479 436.75912
162.552 209.65518 436.74927
163.69991 209.65572 436.73648
164.86255 209.85873 437.69977
166.01306 209.85948 437.68082
167.18347 210.06273 438.63788
168.31416 209.8613 437.63373
169.43974 209.65999 436.62662
170.53261 209.25636 434.63766
171.6454 209.05527 433.62485
172.78583 209.05666 433.58789
173.9263 209.0582 433.54797
175.10472 209.26224 434.48349
176.28835 209.4664 435.41583
177.43414 209.46826 435.36655
178.62561 209.67267 436.29242
179.8223 209.8772 437.21503
180.92267 209.67697 436.17838
182.07132 209.67932 436.11676
183.22003 209.68175 436.05203
184.36884 209.68433 435.98431
185.51773 209.68701 435.91348
186.6667 209.6898 435.83957
187.74956 209.49025 434.78555
188.82735 209.2908 433.72885
189.97147 209.29395 433.64606
191.11569 209.29721 433.56027
192.26004 209.30058 433.47134
193.40448 209.30409 433.37943
194.63074 209.51024 434.26025
195.86227 209.71652 435.13754
197.01227 209.72043 435.03592
198.16238 209.72446 434.93118
199.40462 209.93112 435.79819
200.55759 209.93541 435.68698
201.51639 209.53467 433.62372
202.76422 209.74176 434.48099
203.81274 209.54382 433.38672
204.96117 209.5486 433.26352
206.10974 209.5535 433.13724
207.2585 209.55853 433.00778
208.52008 209.76634 433.84796
209.90221 210.17696 435.6568
210.94144 209.97977 434.54489
212.21646 210.18803 435.37402
213.61984 210.59917 437.1709
214.65707 210.40237 436.04977
215.81747 210.40842 435.89688
216.9781 210.4146 435.74084
218.27225 210.62366 436.55167
219.16409 210.22461 434.44931
220.32278 210.23123 434.284
221.62277 210.44073 435.08441
222.78455 210.44765 434.91226
223.94653 210.45468 434.73685
224.95993 210.25906 433.59039
226.4227 210.67209 435.34372
227.12599 210.07101 432.25708
228.44043 210.28149 433.03604
229.76035 210.49219 433.81094
230.92392 210.50015 433.61597
232.08778 210.50827 433.41766
233.4189 210.71948 434.18091
234.58594 210.72794 433.97559
235.58112 210.53354 432.80295
237.09567 210.94832 434.51831
238.08888 210.75424 433.33948
239.07721 210.56029 432.15829
240.42578 210.77258 432.89874
241.77985 210.98511 433.63477
242.57626 210.58847 431.48346
243.93362 210.80136 432.21225
245.29654 211.01443 432.93658
246.27394 210.82137 431.73761
247.24651 210.62842 430.53632
248.41498 210.63882 430.29099
249.99052 211.05591 431.95779
251.37093 211.26999 432.66171
252.96548 211.68759 434.31766
254.35968 211.90213 435.01172
255.75952 212.11691 435.70114
256.73224 211.92517 434.47601
257.91913 211.93695 434.20282
258.88483 211.74548 432.97241
260.29419 211.96106 433.64584
261.7092 212.17686 434.31439
262.67102 211.98589 433.07446
264.09216 212.20212 433.73459
265.04965 212.01144 432.48871
266.23969 212.02448 432.1904
267.43015 212.03772 431.88843
268.86362 212.25479 432.5314
270.05765 212.2684 432.22141
271.49994 212.4859 432.85495
272.19687 212.09244 430.64395
273.64276 212.31035 431.26938
274.83878 212.32469 430.94458
276.29352 212.54305 431.56033
277.75406 212.76163 432.1709
279.74731 213.38828 434.66196
280.9585 213.40349 434.31836
282.43896 213.62285 434.91229
283.38248 213.43445 433.61963
284.86926 213.65422 434.20435
285.53195 213.26202 431.96643
286.74316 213.27806 431.60428
287.9549 213.29425 431.23822
289.73627 213.71898 432.74161
290.66721 213.53136 431.43024
292.17297 213.7523 431.98657
293.6846 213.9735 432.53735
294.90695 213.99057 432.14908
296.42755 214.21216 432.6893
298.25433 214.63837 434.15546
299.48615 214.65598 433.75247
300.71854 214.67371 433.34546
301.95142 214.69156 432.93433
302.5629 214.30045 430.66281
303.47791 214.11386 429.31802
304.70435 214.13193 428.89725
305.93124 214.1501 428.47241
307.48016 214.37305 428.96796
309.03488 214.59618 429.45755
310.59534 214.81943 429.94104
311.83197 214.83798 429.49677
313.06903 214.8566 429.04834
314.97614 215.28505 430.43521
316.55676 215.50874 430.8952
318.14301 215.73251 431.34897
319.73492 215.95636 431.79651
320.987 215.97522 431.32208
322.23935 215.99405 430.84332
323.84271 216.21796 431.27408
324.74475 216.03149 429.87314
325.99768 216.05011 429.38165
327.96826 216.47916 430.70709
329.22675 216.4976 430.20499
330.48529 216.51591 429.69861
335.04443 218.38248 437.35437
338.9126 219.83867 443.17368
342.07379 220.88428 447.16299
346.38556 222.54648 453.84915
348.4754 222.9758 455.09525
351.33563 223.8161 458.13614
353.83408 224.45071 460.26279
353.65057 223.64572 456.08121
359.65332 226.13071 466.27911
361.42194 226.35335 466.57498
355.72217 222.66666 449.83829
355.8656 222.06473 446.56332
349.21576 217.96365 428.09787
344.86658 215.09573 415.03116
344.48132 214.2849 410.90759
350.172 216.56128 420.14188
353.05524 217.39627 423.12335
365.0184 222.76088 445.62057
368.4133 223.80107 449.43445
373.08408 225.45845 455.88785
376.11606 226.29124 458.78162
-40.458191 219.68243 426.38663
-40.013062 220.08951 428.7522
-38.332169 219.8703 428.4523
-36.655106 219.65039 428.14621
-34.982025 219.42979 427.83386
-34.513046 219.83377 430.19287
-32.443039 219.40356 428.97791
-31.566711 219.59785 430.43884
-29.508102 219.16666 429.21002
-28.627502 219.35989 430.66415
-26.193954 218.71964 428.52298
-24.927994 218.70377 429.06943
-22.898682 218.27118 427.81049
-22.015854 218.46275 429.2482
-20.375107 218.23772 428.87817
-19.486328 218.42859 430.30978
-17.850357 218.20306 429.92914
-16.955841 218.39334 431.35455
-14.959442 217.95947 430.05603
-13.336411 217.73346 429.65729
-11.358536 217.29947 428.34274
-10.821365 217.69685 430.66171
-9.2090912 217.47055 430.246
-7.954422 217.45197 430.73654
-7.049469 217.64102 432.13644
-5.4456329 217.41457 431.70486
-3.158905 216.77287 429.43576
-2.2546082 216.96176 430.82291
-0.66749573 216.73543 430.37256
0.91400146 216.50917 429.91602
1.8226624 216.69797 431.29254
2.7362518 216.8867 432.66678
4.3113708 216.6606 432.19571
5.5551453 216.64197 432.64093
7.1214905 216.41606 432.1586
8.3617706 216.39758 432.59457
9.601593 216.3792 433.02637
11.471024 215.94647 431.60165
12.392258 216.1355 432.95041
13.628006 216.11743 433.36893
15.17041 215.89236 432.8544
16.402542 215.87454 433.26379
17.634155 215.85684 433.66913
19.164474 215.63229 433.13885
20.095886 215.82182 434.46753
21.619858 215.59764 433.92755
23.138062 215.37366 433.38177
24.073196 215.56354 434.7001
25.871017 215.13315 433.20911
27.09111 215.11656 433.58377
28.310654 215.10013 433.95456
29.807739 214.87718 433.38333
30.748161 215.06775 434.68427
31.693329 215.25842 435.98285
33.183594 215.03604 435.39832
34.132957 215.22699 436.6907
35.351997 215.21155 437.03882
36.832802 214.98978 436.44046
38.307854 214.76828 435.83676
39.777153 214.54701 435.22781
41.240707 214.32597 434.61359
42.446693 214.31154 434.9397
43.901382 214.09097 434.31586
45.103767 214.07693 434.63379
46.061722 214.26935 435.8956
47.507103 214.04941 435.25848
48.469337 214.2421 436.51422
49.672417 214.22879 436.81805
50.875053 214.21562 437.11813
52.077217 214.20267 437.41461
53.278938 214.18988 437.7074
54.705856 213.97122 437.0444
56.127121 213.75278 436.3765
57.322296 213.7406 436.6572
58.734871 213.52261 435.98029
59.711372 213.71678 437.20782
61.117897 213.49921 436.52258
62.308784 213.48779 436.78845
63.706688 213.27065 436.09436
64.894173 213.2596 436.3526
66.485672 212.83705 434.69235
67.467606 213.03221 435.90051
68.651352 213.0217 436.14771
69.640343 213.21713 437.35056
70.825974 213.20695 437.59134
71.822052 213.40266 438.78882
73.196159 213.1871 438.06256
74.380722 213.17746 438.29309
75.746353 212.96231 437.55847
76.927666 212.953 437.78162
78.461044 212.53264 436.07614
79.636528 212.52368 436.2915
80.640678 212.7205 437.46719
81.986549 212.50632 436.71234
82.995285 212.70341 437.88223
84.008919 212.90063 439.04965
85.348732 212.68697 438.28384
86.52504 212.67899 438.47964
87.701065 212.67114 438.67212
89.182564 212.25258 436.92801
90.352882 212.24509 437.11307
91.375244 212.44318 438.26233
92.692749 212.23059 437.47336
93.719795 212.42892 438.61682
95.031647 212.21667 437.82056
96.200737 212.20993 437.98929
97.369598 212.20337 438.15479
98.670418 211.99161 437.34729
99.965843 211.78003 436.53589
101.0019 211.97919 437.66132
102.29173 211.76791 436.8428
103.57622 211.55681 436.02039
104.61682 211.75639 437.13699
105.77908 211.75082 437.27927
106.82707 211.95065 438.39038
107.88004 212.15057 439.4989
109.15585 211.9402 438.65964
110.21364 212.14038 439.76239
111.48393 211.9303 438.9162
112.74892 211.72037 438.06622
114.00859 211.51059 437.21259
115.16692 211.50613 437.32928
116.32511 211.5018 437.44281
117.3923 211.70273 438.52774
118.64108 211.4935 437.66046
119.79885 211.48956 437.76465
120.87338 211.69086 438.84085
122.03349 211.68713 438.93893
123.19347 211.68356 439.034
124.35335 211.68011 439.12585
125.58592 211.47171 438.23859
126.743 211.46851 438.32401
127.96763 211.26038 437.43002
129.18701 211.05237 436.53253
130.27614 211.25461 437.58505
131.43025 211.25191 437.65796
132.64165 211.04428 436.7507
133.79301 211.04181 436.81729
134.94431 211.03949 436.8808
136.14516 210.83223 435.96375
137.24669 211.03516 436.99857
138.44225 210.82816 436.07513
139.5488 211.03131 437.10413
140.69977 211.02954 437.15228
141.85068 211.02792 437.19742
142.96736 211.23138 438.21762
144.12074 211.22998 438.25671
145.30313 211.02368 437.31433
146.45386 211.02252 437.34726
147.58067 211.22646 438.35556
148.77654 210.81552 436.42529
149.92459 210.8147 436.44897
151.08879 210.60899 435.49097
152.24782 210.4034 434.52982
153.37967 210.60791 435.52304
154.51663 210.8125 436.51318
155.65875 211.01723 437.5004
156.806 211.22206 438.48456
157.95912 211.22202 438.48691
159.11038 211.01711 437.50742
160.26537 211.22229 438.48251
161.41148 211.01759 437.49692
162.55247 210.81303 436.50839
163.70049 210.81357 436.49551
164.84851 210.81419 436.47961
166.01385 211.01996 437.4393
167.18439 211.2258 438.39581
168.31519 211.02179 437.39215
169.46591 211.02289 437.36398
170.58905 210.81911 436.35443
171.70711 210.61542 435.34195
172.82004 210.41187 434.32663
173.96321 210.41341 434.2865
175.14432 210.62009 435.22141
176.29016 210.62186 435.17508
177.43607 210.62376 435.12579
178.62766 210.83081 436.05109
179.77628 210.83295 435.99554
180.97572 211.04022 436.91434
182.1804 211.24763 437.8298
183.27847 211.04509 436.78763
184.37146 210.84267 435.74268
185.58154 211.05043 436.64856
186.60591 210.64316 434.62109
187.68629 210.44106 433.56775
188.83043 210.44412 433.48795
189.90329 210.24225 432.42899
191.11902 210.45064 433.31921
192.34003 210.65918 434.20596
193.48718 210.66275 434.11374
194.79784 211.07669 435.96906
196.03467 211.28564 436.84528
197.18993 211.28961 436.74304
198.34532 211.29372 436.6377
199.50085 211.29794 436.52924
200.56194 211.09715 435.44351
201.71518 211.10162 435.32901
202.76883 210.90106 434.23782
203.81746 210.70059 433.14398
205.07092 210.91064 433.99374
206.22221 210.91565 433.86703
207.26361 210.71555 432.76465
208.63797 211.13127 434.57635
209.90762 211.34195 435.4118
211.06479 211.34749 435.27179
212.34256 211.55847 436.10001
213.74867 211.9749 437.89526
214.91418 211.98093 437.74478
215.95175 211.78177 436.62079
216.98434 211.58273 435.49432
218.27866 211.79449 436.30441
219.30652 211.59573 435.17221
220.32944 211.39706 434.03751
221.91179 212.02008 436.77414
223.07886 212.02713 436.60101
223.95364 211.62347 434.48932
225.11603 211.6308 434.31049
226.27869 211.63824 434.12836
227.13353 211.23492 432.01007
228.60477 211.65366 433.75439
229.60901 211.45605 432.59683
230.93195 211.66965 433.36719
232.09595 211.67789 433.1687
233.42726 211.89185 433.93124
234.76404 212.106 434.68945
235.76193 211.90916 433.51669
236.92975 211.91806 433.30447
238.27524 212.13278 434.05133
239.26633 211.93637 432.86996
240.25252 211.74008 431.68619
241.78937 212.16104 433.38287
242.9614 212.17078 433.15329
244.1338 212.18073 432.92035
245.69246 212.60233 434.60269
246.6752 212.40686 433.40298
247.65311 212.2115 432.20087
249.02774 212.42795 432.91199
250.20457 212.43878 432.66132
251.38179 212.44975 432.40717
252.97656 212.87274 434.06168
254.37097 213.09006 434.75488
255.55722 213.10165 434.48856
256.74387 213.11343 434.2186
257.71191 212.91937 432.99142
259.11844 213.13751 433.66809
260.30634 213.14981 433.38745
261.72156 213.36841 434.05515
262.91302 213.38112 433.76678
264.33698 213.60016 434.42535
265.06253 213.2009 432.22913
266.25272 213.21413 431.93045
267.68329 213.43378 432.57678
268.87704 213.44739 432.27014
270.31641 213.66748 432.9071
271.76154 213.88785 433.53906
272.71161 213.69571 432.27405
273.90991 213.71008 431.9519
274.85309 213.51822 430.68152
276.56631 213.94583 432.24014
278.02966 214.1673 432.84906
279.7623 214.59547 434.39493
281.50598 215.02399 435.93405
282.99188 215.24622 436.52551
283.6694 214.84885 434.29153
284.88498 214.86481 433.93521
285.54773 214.46754 431.698
286.4798 214.27704 430.39774
287.97101 214.50018 430.96906
289.46802 214.72351 431.5347
290.68362 214.74026 431.15961
292.18961 214.96402 431.71497
293.70139 215.18802 432.26471
295.21899 215.41223 432.80881
296.74237 215.63666 433.34711
297.97119 215.6543 432.9487
299.5036 215.8791 433.47638
301.04178 216.10413 433.99826
301.66071 215.7079 431.72885
303.20255 215.9332 432.24167
304.12289 215.74423 430.89523
305.03842 215.5553 429.54648
306.58701 215.78094 430.04514
307.81976 215.79944 429.61386
309.05298 215.81799 429.17847
310.94037 216.25143 430.58292
312.17975 216.27017 430.13733
313.75168 216.49646 430.60757
315.32932 216.72284 431.07172
317.25012 217.15689 432.44781
319.18192 217.59109 433.81573
320.43896 217.61015 433.34308
321.35086 217.42151 431.95108
322.95395 217.64818 432.38504
324.21179 217.66711 431.8996
324.76288 217.27032 429.58572
326.37183 217.49684 430.00485
328.34503 217.93123 431.32764
329.60602 217.94977 430.82407
331.23114 218.17609 431.22406
335.06216 219.65039 437.05826
338.93036 221.125 442.87292
342.83566 222.59991 448.66797
346.40323 223.86694 453.53964
350.75726 225.55043 460.1983
354.39337 226.81775 465.03204
353.46826 225.5864 459.04669
359.83301 228.31122 470.15057
360.44568 227.91202 467.75317
358.70288 226.26221 459.97607
358.4903 225.44484 455.79517
359.04755 225.04343 453.40793
347.23547 218.18036 423.33478
346.08234 216.94284 417.41794
342.47278 214.45354 406.16739
343.67755 214.46494 405.61621
350.20078 217.1864 416.60925
358.8504 220.95044 432.00229
365.52087 223.67154 442.91827
373.50928 227.01801 456.45218
376.54291 227.86081 459.34235
-40.879654 221.15558 426.96979
-39.611694 221.14606 427.56119
-38.342148 221.13571 428.14899
-37.47641 221.33562 429.6225
-35.396118 220.90163 428.42264
-34.925217 221.3111 430.78168
-33.250488 221.08685 430.46234
-31.974777 221.073 431.03094
-29.914032 220.63672 429.80472
-29.031326 220.83273 431.25958
-26.208755 219.97385 428.22397
-24.943237 219.95813 428.77069
-22.914246 219.52037 427.51324
-22.031815 219.71466 428.95056
-20.767563 219.69783 429.4838
-19.876434 219.89136 430.9162
-17.867249 219.45255 429.63315
-16.972992 219.64548 431.05823
-14.976746 219.20636 429.76132
-13.353912 218.97771 429.36359
-11.736343 218.74896 428.95947
-11.554291 219.362 432.18851
-9.5818939 218.92252 430.86499
-8.6769409 219.11424 432.26895
-7.4172363 219.09543 432.75772
-5.4638824 218.65594 431.41422
-3.8656158 218.42679 430.97739
-2.2728882 218.19769 430.53433
-0.6857605 217.96863 430.08505
0.22315979 218.15994 431.46561
1.4707336 218.14107 431.9249
2.7179565 218.12219 432.37994
4.2931519 217.89331 431.90985
5.5369415 217.87454 432.35556
7.1033783 217.64587 431.87427
8.3437042 217.62726 432.31067
10.219055 217.18896 430.89359
11.453186 217.17059 431.31989
12.68689 217.15228 431.74197
13.92009 217.13409 432.16006
15.152817 217.116 432.57397
16.385071 217.09799 432.9838
17.918671 216.87048 432.4595
19.147263 216.85278 432.86035
20.375351 216.83521 433.25711
21.602936 216.81778 433.64987
23.121277 216.59099 433.10519
24.056519 216.78333 434.42334
25.854599 216.34747 432.93387
27.074799 216.33072 433.30902
28.29451 216.31409 433.68018
29.235565 216.50693 434.98486
30.732346 216.28134 434.41071
31.677628 216.47444 435.70911
33.168083 216.24927 435.12561
34.117577 216.44264 436.41779
35.60173 216.21788 435.82501
36.555481 216.41153 437.1109
38.29306 215.97812 435.56616
39.762566 215.75404 434.95816
41.226318 215.53021 434.34491
42.684319 215.30663 433.72647
43.88739 215.29221 434.04846
45.089943 215.27798 434.36679
46.29203 215.26395 434.68134
47.252251 215.45895 435.93994
48.456017 215.44524 436.24768
49.895409 215.22295 435.60284
50.862083 215.4184 436.85233
51.833527 215.61398 438.09943
53.266335 215.3923 437.44223
54.467789 215.37952 437.73169
55.891861 215.15828 437.06537
57.310287 214.93727 436.39413
58.723053 214.71651 435.71811
59.699715 214.91312 436.94537
61.10643 214.69278 436.26105
62.297508 214.68118 436.52716
63.695602 214.46127 435.83395
64.88327 214.45006 436.0925
66.272758 214.23059 435.39059
67.457069 214.21973 435.64148
68.44397 214.41748 436.84698
69.630135 214.40697 437.09149
70.815926 214.39664 437.33255
71.812149 214.59482 438.52975
73.186447 214.3765 437.80435
74.555191 214.15842 437.07446
75.737 214.14879 437.30127
77.097282 213.93111 436.56311
78.452057 213.71362 435.82056
79.627708 213.70456 436.03619
80.803024 213.69565 436.2485
82.146492 213.47874 435.49396
83.152779 213.67834 436.66302
84.327202 213.66992 436.8653
85.50135 213.66167 437.06421
86.675217 213.65356 437.2598
87.848808 213.64563 437.45206
89.175011 213.42981 436.67496
90.34549 213.42221 436.8602
91.515701 213.41476 437.04218
92.685654 213.40747 437.22089
93.855377 213.40033 437.3963
95.164795 213.18536 436.60037
96.194092 213.38651 437.73737
97.363098 213.37982 437.90302
98.399704 213.58121 439.03458
99.570854 213.57481 439.19415
100.86883 213.36064 438.38049
102.16141 213.14667 437.56302
103.32677 213.14072 437.71216
104.49194 213.13492 437.85809
105.65692 213.12926 438.00089
106.70761 213.33157 439.11191
107.87481 213.32617 439.24857
109.04182 213.32094 439.38205
110.20867 213.31583 439.51233
111.47913 213.10306 438.66675
112.64307 213.09821 438.79037
113.90544 212.88577 437.93771
115.16252 212.67346 437.08133
116.22739 212.8768 438.1687
117.38815 212.87253 438.27951
118.63706 212.66064 437.41287
119.70926 212.86435 438.49158
120.78648 213.06816 439.56757
122.02985 212.85669 438.69113
123.11198 213.06075 439.76132
124.34995 212.84955 438.87823
125.50984 212.84616 438.96704
126.73985 212.63522 438.07712
127.96462 212.42444 437.18369
129.11905 212.42145 437.26288
130.27338 212.41856 437.3389
131.42761 212.41582 437.41187
132.63913 212.20555 436.50522
133.79062 212.20306 436.5719
134.99425 211.99304 435.65863
136.14301 211.99078 435.71899
137.2917 211.98866 435.77631
138.48482 211.77902 434.85333
139.5889 211.98474 435.88168
140.7374 211.98297 435.92981
141.88585 211.98132 435.97488
143.00008 212.18736 436.99445
144.1194 212.39355 438.01123
145.27286 212.39221 438.04724
146.42628 212.39102 438.08026
147.60355 212.18236 437.13226
148.75433 212.1814 437.15903
149.92383 211.97296 436.20471
151.08813 211.76465 435.24728
152.23369 211.76404 435.26483
153.37923 211.76353 435.27936
154.51631 211.97073 436.26901
155.65268 212.38562 438.23386
156.80591 212.38547 438.23926
157.95914 212.38544 438.24167
159.11237 212.38551 438.24097
160.26117 212.17813 437.25903
161.41185 212.17844 437.25223
162.56253 212.17885 437.24234
163.70107 211.9718 436.25131
164.84921 211.97246 436.23538
166.01468 212.18082 437.19449
167.16544 212.1817 437.17245
168.31624 212.18269 437.14734
169.46707 212.18381 437.11914
170.59033 211.97745 436.11011
171.73866 211.97879 436.0759
172.85429 211.77264 435.06094
174.00014 211.77423 435.02072
175.22185 212.19113 436.93237
176.33249 211.98535 435.90848
177.48108 211.98729 435.85901
178.67537 212.19696 436.7836
179.77847 211.99152 435.75082
180.92728 211.99379 435.69214
182.1295 212.20383 436.60712
183.28104 212.20638 436.54218
184.43265 212.20903 436.47412
185.64543 212.41946 437.3793
186.67249 212.00705 435.35269
187.75555 211.8024 434.29962
188.90239 211.80553 434.21957
189.97794 211.6011 433.16086
191.19638 211.81216 434.05029
192.42009 212.02338 434.93622
193.56995 212.02701 434.84366
194.88333 212.4462 436.69754
196.03857 212.45012 436.59833
197.28082 212.66188 437.47031
198.34949 212.45831 436.39056
199.50516 212.46262 436.28198
200.66095 212.46706 436.17029
201.81691 212.47162 436.05545
202.87325 212.26852 434.96439
204.02693 212.27335 434.84351
205.18079 212.27829 434.71954
206.33479 212.28339 434.59241
207.48897 212.2886 434.4621
208.756 212.5018 435.30029
210.02837 212.71518 436.13474
211.18826 212.72086 435.99435
