ply
format ascii 1.0
comment PCL generated
element vertex 1591
property float x
property float y
property float z
element camera 0
property float view_px
property float view_py
property float view_pz
property float x_axisx
property float x_axisy
property float x_axisz
property float y_axisx
property float y_axisy
property float y_axisz
property float z_axisx
property float z_axisy
property float z_axisz
property float focal
property float scalex
property float scaley
property float centerx
property float centery
property int viewportx
property int viewporty
property float k1
property float k2
end_header
300.23151 97.720749 435.96005
302.06345 97.625359 437.46274
303.59198 97.577164 438.00986
305.4436 97.48175 439.49847
307.3064 97.386314 440.97952
307.89066 97.479752 438.67139
309.44025 97.431519 439.19632
310.34033 97.47773 437.82816
311.89651 97.429489 438.34311
312.79266 97.475693 436.96869
314.01981 97.474686 436.53275
314.57101 97.56813 434.21301
315.79416 97.567131 433.77075
317.01794 97.566132 433.32431
318.93488 97.47065 434.74771
320.5141 97.422424 435.22693
322.45087 97.32695 436.63504
324.39883 97.231483 438.03482
326.00122 97.183266 438.49341
326.53098 97.276817 436.14975
328.13721 97.228645 436.59863
329.38452 97.227737 436.11127
330.99988 97.179604 436.54843
332.99127 97.084236 437.90686
337.97632 96.610809 446.67029
341.88876 96.279175 452.63086
346.21716 95.900291 459.49631
350.58868 95.521431 466.33966
354.61984 95.189865 472.23831
356.37195 95.14193 472.58929
357.74097 95.141327 472.01306
359.11029 95.140785 471.43201
361.26831 95.045776 472.68179
363.43726 94.950836 473.92218
365.61713 94.855972 475.15302
368.20996 94.713928 477.28867
370.81897 94.571976 479.41235
372.22156 94.571938 478.78815
373.62408 94.572021 478.15891
375.02658 94.572212 477.52484
376.84442 94.525261 477.79422
378.24915 94.525711 477.14917
-38.850052 97.996086 436.03104
-37.571274 97.99572 436.60687
-35.480057 98.084785 435.35287
-34.206573 98.084618 435.91739
-32.13147 98.173859 434.6474
-30.465332 98.218529 434.28445
-29.200256 98.218597 434.83209
-27.935364 98.21875 435.37524
-26.280563 98.263626 434.99432
-25.406464 98.219231 436.44824
-24.912231 98.130234 438.82187
-23.643341 98.130615 439.34946
-21.995346 98.175705 438.94852
-20.72995 98.176178 439.46609
-19.09082 98.221359 439.05292
-17.085983 98.311226 437.70587
-15.092331 98.401123 436.35019
-14.208481 98.357071 437.77432
-12.229187 98.447021 436.40463
-10.621979 98.49234 435.95798
-9.0207062 98.537666 435.50507
-8.4920807 98.449066 437.84647
-6.5417023 98.539085 436.44934
-6.0037079 98.450523 438.78629
-5.4557037 98.361984 441.12292
-4.5527802 98.3181 442.52176
-2.9605103 98.36351 442.0412
-2.0535278 98.319656 443.43338
-0.80491638 98.320435 443.88297
0.77746582 98.365868 443.3869
2.6856689 98.455933 441.94244
3.924408 98.456726 442.37668
5.1624603 98.457512 442.80682
6.7237396 98.50293 442.28769
8.6002502 98.592972 440.81683
9.5099182 98.549126 442.17883
9.7923279 98.416031 445.43402
11.343048 98.461426 444.89612
13.198547 98.551437 443.40292
15.96701 98.775299 439.05127
19.624756 99.132996 431.83374
23.542633 99.535278 423.64682
27.412628 99.937523 415.4411
30.639732 100.2505 409.12424
32.944817 100.42961 405.65576
34.643784 100.51947 404.08786
36.621399 100.65394 401.55713
38.008659 100.69916 400.93198
39.39016 100.74437 400.30182
39.920479 100.65575 402.54199
41.298325 100.70094 401.90421
41.840698 100.61231 404.14142
42.666977 100.56828 405.41754
43.498001 100.52423 406.69174
44.602486 100.52478 407.00186
44.908089 100.39153 410.19736
45.755913 100.34745 411.46655
46.8694 100.34797 411.76944
48.499031 100.43766 410.13892
49.862061 100.48274 409.46802
51.725632 100.617 406.85962
53.322647 100.70663 405.21094
54.908829 100.79626 403.55627
55.748299 100.75211 404.80106
57.320625 100.84171 403.13666
58.642067 100.88671 402.43619
59.48291 100.84252 403.67206
60.798355 100.8875 402.96399
62.108215 100.93246 402.25153
63.1828 100.93282 402.50699
64.257027 100.93317 402.75928
65.106377 100.88893 403.9819
65.960541 100.84469 405.20267
66.600212 100.75585 407.39615
67.683403 100.75616 407.63834
68.980385 100.80105 406.90173
70.271851 100.84592 406.16092
71.348846 100.8462 406.39282
72.838303 100.93562 404.66672
73.9095 100.93588 404.89142
74.980392 100.93614 405.11313
76.249611 100.98096 404.35275
77.1213 100.93661 405.54745
78.191322 100.93684 405.76016
79.451935 100.98163 404.98926
80.707115 101.02641 404.21432
81.956856 101.07117 403.43552
83.20118 101.11594 402.65274
84.440079 101.16068 401.86612
85.495621 101.16086 402.05862
86.200172 101.07188 404.21524
87.260406 101.07204 404.40283
88.150177 101.02762 405.57199
88.877251 100.93863 407.72394
89.944527 100.93877 407.90421
90.849121 100.89433 409.0672
91.918556 100.89445 409.24203
92.830452 100.85001 410.40054
93.902054 100.85012 410.57004
94.821289 100.80566 411.72394
95.895065 100.80576 411.88806
96.674622 100.71672 414.02542
97.464279 100.62769 416.1615
98.40593 100.5832 417.30731
99.213257 100.49415 419.44019
99.757225 100.31596 423.55075
100.72409 100.27147 424.69141
101.56436 100.1824 426.82007
102.15671 100.0042 430.92847
102.89592 99.870567 434.04559
103.89816 99.826057 435.17914
104.54147 99.64785 439.2851
105.32393 99.514198 442.39868
106.12167 99.380547 445.51111
106.93469 99.246895 448.62225
107.65196 99.068672 452.72495
108.82349 99.06871 452.85437
110.10077 99.113304 451.9874
111.4761 99.202454 450.12314
112.84105 99.291611 448.25476
114.19559 99.380753 446.38235
115.34853 99.380768 446.49469
116.40831 99.33622 447.59872
117.5636 99.336235 447.70529
118.71878 99.336243 447.80884
119.87386 99.336258 447.90939
121.11163 99.380821 447.01135
122.26397 99.380829 447.10565
123.49386 99.425392 446.20102
124.79362 99.514526 444.29678
126.01051 99.559082 443.38522
127.2222 99.603653 442.47025
128.3613 99.603645 442.54874
129.50032 99.603638 442.62427
130.57703 99.559074 443.69388
131.77817 99.60363 442.76648
132.91699 99.603622 442.83319
134.05577 99.603607 442.89697
135.19449 99.603607 442.95776
136.38258 99.648163 442.01782
137.51863 99.648148 442.07266
138.65463 99.64814 442.12451
139.83232 99.692696 441.17535
141.00485 99.737244 440.22305
142.1356 99.737236 440.26596
143.23227 99.692657 441.30444
144.36551 99.69265 441.34161
145.49873 99.692642 441.37585
146.65826 99.73719 440.40857
147.76508 99.692612 441.43567
148.91943 99.737167 440.46243
150.04999 99.737152 440.48499
151.16443 99.692581 441.50351
152.28398 99.648003 442.51929
153.4306 99.692558 441.53424
154.56366 99.692551 441.54523
155.69089 99.647972 442.55231
156.82649 99.647957 442.55753
157.96355 99.737076 440.5618
159.09404 99.737068 440.5611
160.21571 99.826187 438.5596
161.34109 99.82618 438.55316
162.46648 99.826172 438.54385
163.60397 99.781593 439.53064
164.74661 99.737022 440.5144
165.89438 99.692444 441.49524
167.02753 99.692436 441.47421
168.13832 99.736992 440.45157
169.26894 99.736984 440.4248
170.34462 99.826111 438.39786
171.50021 99.781532 439.36398
172.59575 99.826088 438.33011
173.75653 99.781517 439.29031
174.92249 99.736938 440.24741
176.013 99.781494 439.20502
177.09843 99.82605 438.15991
178.17879 99.870605 437.11212
179.30205 99.87059 437.05957
180.32425 99.959717 435.00864
181.54874 99.870575 436.94568
182.61647 99.915123 435.88696
183.67914 99.959671 434.82568
184.85838 99.9151 435.75604
186.1062 99.825951 437.68021
187.1665 99.870499 436.61032
188.35876 99.82592 437.53113
189.62733 99.736771 439.44522
190.75894 99.736755 439.36304
191.89063 99.736732 439.27789
193.1012 99.692146 440.18576
194.15427 99.736687 439.09885
195.28622 99.736664 439.00488
196.33179 99.781197 437.91269
197.37233 99.825729 436.81812
198.49945 99.825699 436.71576
199.53249 99.870232 435.61594
200.65724 99.870193 435.5079
201.78212 99.870155 435.397
202.9071 99.870117 435.28311
204.03221 99.870071 435.16629
205.26447 99.825455 436.03979
206.50198 99.780838 436.9097
207.74478 99.736221 437.77615
208.87813 99.73616 437.64664
210.0116 99.736099 437.51407
211.26509 99.691467 438.37033
212.27899 99.735962 437.23999
213.41292 99.735886 437.09851
214.4194 99.78038 435.9631
215.55107 99.780296 435.81589
216.68289 99.780212 435.66562
217.8149 99.780121 435.51239
219.08496 99.735458 436.34558
220.50079 99.646217 438.16409
221.49803 99.690674 437.01193
222.78149 99.645996 437.83411
223.92215 99.645874 437.66455
225.063 99.645752 437.49194
226.35739 99.601044 438.30341
227.65714 99.556335 439.11096
228.64529 99.600761 437.94196
229.95062 99.556038 438.74246
230.77045 99.64502 436.58249
231.74638 99.68943 435.40622
232.8862 99.689255 435.21234
234.02628 99.689072 435.01538
235.16658 99.688889 434.81528
236.13062 99.733261 433.62875
237.80618 99.599335 436.37128
238.58907 99.688271 434.19617
240.28326 99.554329 436.92908
241.61951 99.509521 437.69315
242.58234 99.553856 436.49127
243.54028 99.598183 435.2872
245.07719 99.508774 437.02057
245.83597 99.597656 434.83127
246.7845 99.641953 433.6196
248.53766 99.507935 436.31897
249.89674 99.463051 437.0564
251.26135 99.418159 437.78946
252.63147 99.37326 438.5181
254.00711 99.328339 439.24234
255.17297 99.327995 438.9866
256.55713 99.283051 439.70255
257.50583 99.327271 438.46518
258.89594 99.282303 439.17325
259.84021 99.3265 437.93033
260.77972 99.370682 436.6853
261.94531 99.37027 436.41003
263.1113 99.369843 436.13141
264.74985 99.280228 437.79077
265.92188 99.27977 437.50406
267.33563 99.234718 438.18335
268.26727 99.278831 436.92029
269.6871 99.233749 437.59131
270.36539 99.322433 435.35522
271.53705 99.321922 435.05185
273.21777 99.232208 436.67715
274.65253 99.187065 437.33084
275.57397 99.23111 436.05017
277.01495 99.185936 436.69534
278.19687 99.185364 436.37219
279.64667 99.140167 437.00809
280.83231 99.139557 436.67709
282.56354 99.049728 438.26465
284.03061 99.004486 438.88522
285.50345 98.959229 439.50061
286.70172 98.958565 439.15198
288.18353 98.913284 439.75766
289.3855 98.912598 439.40073
290.58807 98.911903 439.0401
291.50037 98.955811 437.71997
292.995 98.910477 438.30746
293.90326 98.954361 436.98135
295.10559 98.953629 436.60632
296.60992 98.908257 437.17996
297.51215 98.952126 435.84482
298.40973 98.995987 434.50748
300.53967 98.861336 436.96768
302.37421 98.771294 438.46976
303.90533 98.725876 439.0162
305.44244 98.680443 439.55695
306.98541 98.635002 440.09195
307.88947 98.678825 438.73004
309.11398 98.678017 438.31055
310.01141 98.72184 436.94324
311.89532 98.631744 438.40213
313.12442 98.630936 437.96945
314.35419 98.630119 437.53268
315.24634 98.67395 436.15179
316.47479 98.673149 435.70776
317.36029 98.717003 434.32138
319.27985 98.626907 435.74414
320.86176 98.581474 436.22263
323.15271 98.446739 438.56512
324.7518 98.401321 439.02917
326 98.400574 438.55383
326.88928 98.444504 437.14212
328.13599 98.443794 436.65912
329.3833 98.443108 436.17188
330.6312 98.442451 435.68024
332.61993 98.352486 437.04007
337.60229 97.90522 445.80588
341.88757 97.547295 452.69434
345.83783 97.234062 458.63623
350.20673 96.87619 465.48178
355.0022 96.473679 473.22748
356.37079 96.473251 472.65613
358.12866 96.428207 473.00024
359.50079 96.427902 472.41815
361.6615 96.338318 473.66718
363.43634 96.293488 473.9899
365.61627 96.204048 475.2211
367.80707 96.1147 476.44272
370.00864 96.025452 477.65479
371.40594 96.025642 477.03296
372.80325 96.02594 476.40622
374.2005 96.026352 475.77463
376.01306 95.982216 476.0466
376.57617 96.07222 473.58954
-38.438324 99.28302 435.17996
-37.57103 99.240387 436.6662
-35.885941 99.281982 436.32477
-34.609711 99.281601 436.89038
-32.53186 99.365448 435.62125
-30.862976 99.407303 435.25925
-28.804123 99.491302 433.97302
-27.541855 99.491234 434.51495
-25.499496 99.575363 433.21295
-24.630692 99.533348 434.6647
-24.141739 99.449318 437.03622
-23.26033 99.40741 438.48468
-21.614944 99.449684 438.0824
-20.352219 99.449936 438.59885
-19.08992 99.450226 439.11081
-17.456604 99.49263 438.69092
-14.722504 99.661255 435.47891
-14.20752 99.577515 437.8316
-12.228226 99.662056 436.46164
-10.621033 99.704567 436.0148
-9.3779755 99.705032 436.49435
-8.4911041 99.663452 437.90329
-6.8936462 99.706017 437.44052
-6.3529816 99.622421 439.77863
-5.4546814 99.580902 441.17972
-4.5517578 99.539398 442.57858
-2.9594727 99.582016 442.09781
-2.0525208 99.540527 443.49011
-0.80389404 99.541107 443.93958
0.7784729 99.58374 443.44333
2.3548889 99.626381 442.94104
3.5962677 99.626968 443.3761
5.1634521 99.669617 442.86276
6.7247009 99.71225 442.34351
8.280014 99.754883 441.81839
9.1923065 99.713432 443.1813
9.4773254 99.587891 446.43771
11.030685 99.630516 445.90042
12.888809 99.715179 444.40778
15.967896 99.967987 439.10596
19.625626 100.30486 431.88739
23.846237 100.72577 422.74725
28.013748 101.14665 413.58658
30.640503 101.35734 409.17477
32.945557 101.52597 405.70575
34.644524 101.61052 404.13751
36.622124 101.73709 401.60641
37.722313 101.73756 401.93811
39.106422 101.78004 401.30853
39.92115 101.73846 402.59113
41.019798 101.73891 402.91248
41.841339 101.69731 404.19055
42.941574 101.69774 404.50592
43.769958 101.65613 405.77948
44.603088 101.61452 407.05109
45.17482 101.53088 409.28381
46.02002 101.48924 410.5524
46.869972 101.44761 411.81897
48.499565 101.53201 410.1882
49.862602 101.5744 409.51709
51.473061 101.65878 407.87485
53.323158 101.78517 405.25934
54.909317 101.86954 403.60443
55.994064 101.86985 403.88071
57.321075 101.91217 403.18463
58.642509 101.95448 402.48398
59.483337 101.91276 403.71991
60.798759 101.95505 403.01172
61.876312 101.95532 403.27084
62.953484 101.95558 403.52682
64.030281 101.95583 403.77972
65.106735 101.95607 404.02945
65.960884 101.91429 405.25031
66.819893 101.87251 406.46915
67.900467 101.87273 406.71078
69.194847 101.91494 405.97345
70.483719 101.95715 405.2319
71.767082 101.99934 404.48621
73.04496 102.04153 403.73633
74.113556 102.0417 403.96048
75.181854 102.04186 404.18161
76.249855 102.04202 404.39972
77.317581 102.04218 404.61478
78.385002 102.04231 404.82693
79.643013 102.08446 404.05542
80.895607 102.12659 403.27982
82.142761 102.16871 402.50034
83.384491 102.21083 401.71698
84.440262 102.21094 401.91238
85.495796 102.21104 402.10489
86.37571 102.16913 403.27808
87.433342 102.16921 403.46524
88.320541 102.1273 404.63397
89.212662 102.08537 405.80075
90.274788 102.08544 405.9801
91.011719 102.00151 408.1282
92.078568 102.00157 408.30264
92.830559 101.91763 410.44742
93.902161 101.91768 410.61685
94.821381 101.87572 411.77087
95.74556 101.83377 412.92276
96.527672 101.7498 415.06079
97.464355 101.70784 416.20883
98.406006 101.66587 417.35471
99.074005 101.53989 420.47714
99.894012 101.45592 422.6091
100.85831 101.41393 423.74948
101.56441 101.28796 426.86841
102.15675 101.11996 430.9772
103.02241 101.03597 433.10361
104.02207 100.99398 434.23688
104.66281 100.82599 438.34296
105.32397 100.65799 442.44858
106.1217 100.53198 445.56134
106.93472 100.40598 448.67279
107.54096 100.19597 453.76883
108.71505 100.19596 453.89859
110.10078 100.27995 452.03827
111.3728 100.32194 451.16748
112.84105 100.44792 448.30515
114.1956 100.53191 446.43246
115.44415 100.57388 445.55029
116.50136 100.53187 446.65411
117.65408 100.53185 446.76044
118.71878 100.48982 447.85901
119.87386 100.4898 447.95956
121.11163 100.53178 447.06137
122.26396 100.53175 447.1557
123.49385 100.57373 446.25089
124.79361 100.6577 444.34641
125.93799 100.65768 444.43118
127.15224 100.69965 443.51633
128.42867 100.78362 441.60129
129.50031 100.74159 442.67365
130.63927 100.74157 442.74622
131.77815 100.74154 442.81589
132.91699 100.74152 442.88254
134.05576 100.74149 442.94632
135.19447 100.74146 443.00711
136.38257 100.78343 442.06708
137.51862 100.78341 442.12189
138.69891 100.82539 441.1756
139.87405 100.86736 440.2262
141.04401 100.90934 439.27368
142.1722 100.90932 439.31653
143.2663 100.86729 440.35495
144.36549 100.82526 441.39069
145.49872 100.82524 441.42493
146.6319 100.82523 441.4563
147.76506 100.8252 441.48477
148.89819 100.82518 441.51031
150.03131 100.82516 441.53293
151.16443 100.82515 441.55264
152.28398 100.78313 442.56845
153.43059 100.82512 441.58328
154.56366 100.8251 441.59433
155.69672 100.8251 441.60239
156.82977 100.82508 441.60754
157.96355 100.86707 440.61075
159.09404 100.86707 440.61005
160.21571 100.95107 438.60831
161.34108 100.95105 438.6019
162.46646 100.95105 438.59259
163.60396 100.90904 439.57947
164.7466 100.86703 440.56335
165.87715 100.86703 440.54532
167.00772 100.86703 440.52438
168.11597 100.90903 439.50165
169.24402 100.90903 439.47495
170.34462 100.95103 438.44666
171.50021 100.90903 439.41284
172.62836 100.90903 439.3775
173.7917 100.86703 440.33771
174.92249 100.86703 440.29642
176.0533 100.86704 440.25223
177.1413 100.90905 439.20691
178.22421 100.95106 438.15891
179.35004 100.95107 438.1062
180.3748 101.03507 436.05499
181.49561 101.03508 435.99673
182.61647 101.03509 435.93561
183.67914 101.0771 434.87418
184.85837 101.0351 435.80463
186.10619 100.95111 437.729
187.16649 100.99312 436.65906
188.35876 100.95113 437.57999
189.62732 100.86713 439.49429
190.68527 100.90913 438.41574
191.81441 100.90914 438.33081
193.0224 100.86714 439.23898
194.15425 100.86715 439.14798
195.2023 100.90916 438.05844
196.33177 100.90916 437.96176
197.3723 100.95117 436.867
198.49942 100.95117 436.76468
199.53246 100.99317 435.66476
200.65721 100.99317 435.55679
201.78209 100.99316 435.44592
203.00896 100.95116 436.32596
204.03218 100.99316 435.21527
205.37146 100.90915 437.08221
206.61154 100.86713 437.952
207.85692 100.82512 438.8183
208.87808 100.86711 437.69598
210.01155 100.86709 437.56345
211.26505 100.82507 438.41983
212.40137 100.82505 438.28101
213.53786 100.82503 438.13913
214.67451 100.825 437.99429
215.81131 100.82497 437.84641
216.81555 100.86693 436.70526
217.95012 100.8669 436.55167
219.08487 100.86685 436.39511
220.36024 100.8248 437.22461
221.49792 100.82475 437.06158
222.7814 100.78269 437.88394
223.92204 100.78263 437.71442
225.06288 100.78257 437.54178
226.35725 100.7405 438.35333
227.657 100.69843 439.16107
228.64514 100.74034 437.99194
229.78941 100.74026 437.80655
230.77029 100.78217 436.63251
231.74622 100.82408 435.45612
232.88603 100.82398 435.26227
234.02609 100.82388 435.06534
235.34035 100.78175 435.84912
236.30695 100.82364 434.66202
237.806 100.7395 436.42157
238.77054 100.78137 435.22867
240.28304 100.69722 436.97949
241.43243 100.69707 436.76227
242.39264 100.73892 435.56082
243.34799 100.78077 434.35715
244.68768 100.73859 435.11124
245.63849 100.78042 433.90225
246.58443 100.82224 432.69107
248.33498 100.69602 435.39136
249.89642 100.6118 437.10733
251.46857 100.52757 438.81784
252.84126 100.48533 439.54614
254.21948 100.44308 440.26996
255.38794 100.44285 440.01367
256.55676 100.4426 439.75409
257.50543 100.48434 438.51669
258.89551 100.44206 439.22488
260.06549 100.44178 438.95526
261.00757 100.48351 437.7095
262.40662 100.44119 438.40573
263.11084 100.52491 436.18298
264.74939 100.44056 437.84265
265.92139 100.44023 437.55597
267.33511 100.39787 438.23538
268.02289 100.48155 436.00342
269.44009 100.43917 436.67532
270.11572 100.52284 434.43961
271.28482 100.52246 434.13699
272.96292 100.43803 435.76334
274.39502 100.3956 436.41782
275.31387 100.43721 435.13776
277.01428 100.35273 436.74792
278.19623 100.35229 436.42487
279.64603 100.30982 437.06091
281.10156 100.26733 437.69193
282.83536 100.18281 439.27899
284.5802 100.09827 440.8595
286.05829 100.05574 441.47357
286.98132 100.09727 440.16446
288.18274 100.09675 439.81137
289.3847 100.09622 439.45456
290.01077 100.17976 437.18069
290.91779 100.22127 435.86206
292.4072 100.17868 436.45139
293.60632 100.17812 436.08109
294.806 100.17757 435.70691
296.60907 100.09291 437.23416
297.81525 100.09233 436.85065
298.71545 100.13379 435.51245
300.84802 100.00706 437.9722
302.37326 99.964417 438.52454
303.90442 99.921768 439.0712
305.44147 99.879105 439.61215
307.30423 99.794395 441.09384
307.88849 99.877884 438.78534
309.11298 99.877266 438.36591
310.33813 99.876656 437.94238
311.89429 99.833984 438.45776
312.79041 99.875427 437.08319
314.35318 99.832764 437.5885
315.24536 99.874214 436.20758
316.47375 99.873619 435.76352
317.35925 99.915092 434.37717
319.27881 99.830391 435.80017
320.86072 99.787758 436.27884
323.15167 99.660995 438.62186
324.75076 99.618385 439.08609
326.35577 99.57579 439.54398
326.52872 99.701485 436.26678
328.13498 99.65892 436.71613
329.01749 99.700531 435.2988
330.63019 99.65802 435.73737
332.98907 99.531395 438.02551
337.60138 99.152344 445.86465
341.88663 98.815399 452.75412
345.83691 98.520546 458.69696
349.44418 98.267815 463.69617
354.23431 97.888893 471.44519
355.21155 97.930786 469.95474
356.96146 97.88858 470.30246
358.71704 97.846436 470.64304
360.8725 97.762283 471.89459
362.64206 97.720276 472.21985
366.01517 97.51004 476.20099
368.20868 97.426125 477.42175
370.81787 97.300224 479.54639
372.22058 97.300644 478.92221
373.62332 97.301178 478.29315
374.61316 97.34388 476.74939
375.59747 97.386703 475.20313
376.57623 97.429642 473.65442
-38.026825 100.56475 434.32507
-36.75322 100.56398 434.89841
-35.479614 100.56331 435.46735
-34.609497 100.52325 436.94583
-32.531586 100.60169 435.67642
-30.464493 100.68021 434.39786
-28.803726 100.71933 434.02771
-27.541428 100.71904 434.56964
-25.108856 100.83723 432.34747
-24.630173 100.75813 434.71912
-24.14119 100.67906 437.09085
-23.259735 100.63953 438.53931
-21.614304 100.67899 438.13684
-20.728409 100.63955 439.57864
-19.46344 100.63962 440.09167
-17.455917 100.71867 438.74512
-15.459534 100.79776 437.38983
-14.573013 100.75846 438.81512
-12.227478 100.87708 436.51514
-10.620285 100.91678 436.06818
-9.0189514 100.9565 435.61478
-8.4903107 100.87782 437.95657
-6.892868 100.91759 437.49365
-6.0019073 100.87842 438.89612
-5.4539032 100.7998 441.23309
-4.2059631 100.80014 441.69415
-2.9586639 100.80049 442.151
-2.0517426 100.76138 443.5434
-0.80310059 100.76176 443.99277
0.77926636 100.80161 443.49634
2.3556976 100.84145 442.99387
3.5970459 100.84184 443.42886
5.1642303 100.88169 442.91534
6.7254791 100.92155 442.3959
8.2807922 100.96141 441.87057
9.1930389 100.92234 443.23361
9.4780731 100.80435 446.49026
11.031418 100.84421 445.95282
12.889526 100.92352 444.4599
15.968613 101.16066 439.15732
19.931702 101.51615 430.98642
24.452438 101.95053 420.892
28.014374 102.26654 413.63464
30.938644 102.50361 408.26831
32.946167 102.62231 405.75272
34.645111 102.70155 404.18423
36.333015 102.78078 402.60907
37.435837 102.78109 402.94147
39.106956 102.86031 401.35464
39.921669 102.82115 402.6373
41.020287 102.82145 402.95865
41.84185 102.7823 404.23672
42.94207 102.78258 404.55206
44.041809 102.78286 404.86395
44.872307 102.74368 406.13492
45.441391 102.66505 408.36716
46.283989 102.62587 409.63501
47.13131 102.58667 410.90097
48.758301 102.6658 409.26923
50.118698 102.70548 408.59732
51.726547 102.78459 406.95407
53.323532 102.86369 405.30484
54.909668 102.94279 403.64969
55.9944 102.94299 403.92596
57.078728 102.94318 404.19897
58.402725 102.9828 403.4989
59.48365 102.98299 403.76489
60.564171 102.98315 404.02777
61.644318 102.98331 404.28745
62.724068 102.98347 404.54404
64.030556 103.02306 403.82443
64.882469 102.98375 405.04785
65.961136 102.98389 405.29504
66.820129 102.94458 406.51401
68.117424 102.98413 405.78021
69.195061 102.98425 406.01813
70.272369 102.98435 406.25299
71.767281 103.06332 404.53058
72.838768 103.06342 404.75824
73.90995 103.0635 404.98288
74.980827 103.06358 405.2045
76.250023 103.10309 404.44385
77.317726 103.10315 404.65894
78.385147 103.10321 404.87103
79.643158 103.1427 404.09933
80.895729 103.18219 403.32367
82.142868 103.22166 402.54407
83.201477 103.22171 402.74286
84.259827 103.22174 402.93872
85.495895 103.26121 402.14838
86.375801 103.22179 403.32169
87.433434 103.22182 403.50879
88.490829 103.22183 403.69302
89.212738 103.14297 405.84445
90.439903 103.18241 405.03833
91.174271 103.10355 407.18616
92.238533 103.10355 407.36011
92.987938 103.02467 409.50473
93.902199 102.98523 410.66089
94.669243 102.90635 412.80255
95.595993 102.86691 413.95493
96.380676 102.78801 416.09357
97.319916 102.74856 417.24207
98.406021 102.74854 417.39929
99.213333 102.66964 419.53256
100.03077 102.59074 421.66434
100.85832 102.51184 423.79465
101.56441 102.3935 426.91385
102.02773 102.19629 432.01395
102.76952 102.07794 435.13202
103.65044 101.99903 437.25757
104.4202 101.88068 440.37317
105.20522 101.76233 443.48773
105.88936 101.60455 447.59344
106.82111 101.52562 449.71307
107.42992 101.32839 454.80991
108.60658 101.32834 454.93991
109.99487 101.40717 453.07968
111.37277 101.48598 451.21518
112.84103 101.60423 448.35254
114.29376 101.72249 445.48523
115.44412 101.72244 445.59726
116.50133 101.68295 446.70126
117.74452 101.72233 445.81244
118.89458 101.72227 445.9155
120.04453 101.72222 446.01556
121.27715 101.7616 445.11688
122.42435 101.76155 445.21075
123.57146 101.76149 445.30167
124.79357 101.80088 444.39316
126.01047 101.84026 443.48132
127.1522 101.84021 443.56293
128.36124 101.87959 442.64462
129.50027 101.87955 442.72012
130.57697 101.84006 443.78998
131.77812 101.87946 442.8623
132.85982 101.83997 443.92664
134.00116 101.83992 443.99048
135.14244 101.83987 444.05139
136.38254 101.91871 442.1134
137.51859 101.91867 442.16818
138.69888 101.95806 441.22186
139.83228 101.95802 441.27066
141.00481 101.99742 440.31815
142.13556 101.99739 440.36102
143.26627 101.99735 440.40103
144.36548 101.95789 441.43686
145.49869 101.95786 441.47113
146.63188 101.95782 441.50247
147.78883 101.99724 440.53198
148.87695 101.91833 442.55548
150.01263 101.9183 442.57813
151.1483 101.91828 442.59784
152.28395 101.91826 442.61472
153.4196 101.91824 442.62863
154.56364 101.95767 441.64047
155.6967 101.95765 441.64859
156.83304 101.99708 440.65451
157.96353 101.99707 440.65677
159.09218 102.0365 439.65692
160.2157 102.07594 438.65417
161.33411 102.11537 437.64859
162.46646 102.07593 438.63846
163.59186 102.07593 438.62628
164.73193 102.03648 439.61032
165.87715 101.99706 440.59137
167.00772 101.99706 440.57043
168.11597 102.0365 439.54761
169.2191 102.07595 438.522
170.34462 102.07596 438.49246
171.50021 102.03653 439.45883
172.62836 102.03654 439.42346
173.75653 102.03656 439.38519
174.92249 101.99714 440.34247
176.01302 102.0366 439.2999
177.09845 102.07606 438.25458
178.22423 102.07608 438.20483
179.35005 102.0761 438.15213
180.42537 102.11556 437.09857
181.54874 102.11559 437.04022
182.72786 102.07618 437.97659
183.79565 102.11565 436.91483
184.9192 102.11568 436.84775
186.1062 102.07626 437.77496
187.1665 102.11574 436.70486
188.29025 102.11577 436.62909
189.48517 102.07636 437.54709
190.61165 102.07639 437.46533
191.7382 102.07643 437.38058
192.94363 102.03702 438.28909
194.07292 102.03706 438.19827
195.11839 102.07653 437.10892
196.2453 102.07657 437.01242
197.37231 102.0766 436.91309
198.59105 102.0372 437.80576
199.62665 102.07668 436.70551
200.75397 102.07671 436.59732
201.88141 102.07674 436.48618
203.11086 102.03734 437.36609
204.13664 102.07681 436.25497
205.37146 102.0374 437.12842
206.61154 101.99799 437.99835
207.8569 101.95859 438.86475
208.76334 102.03749 436.74969
210.01154 101.99809 437.6098
211.26503 101.95867 438.46634
212.40137 101.95869 438.32751
213.66286 101.91928 439.17706
214.92967 101.87987 440.02298
215.94145 101.91933 438.88376
217.08099 101.91934 438.73251
218.2207 101.91936 438.57825
219.22272 101.95881 437.43127
220.50066 101.91937 438.26062
221.78394 101.87995 439.08612
222.78136 101.91939 437.93076
223.922 101.91939 437.76123
225.21356 101.87995 438.57642
226.35721 101.87994 438.40042
227.65692 101.8405 439.20819
228.64507 101.87993 438.03897
229.78934 101.87991 437.85364
230.77019 101.91933 436.67944
231.74612 101.95873 435.50302
232.88593 101.9587 435.3092
234.02599 101.95866 435.11234
235.34023 101.91919 435.89621
236.48335 101.91915 435.69257
237.80585 101.87966 436.46881
238.77042 101.91904 435.27588
240.2829 101.84011 437.02692
241.43227 101.84004 436.80969
242.39249 101.87941 435.60818
243.53986 101.87933 435.38504
244.68753 101.87926 435.15869
245.83551 101.87917 434.9292
246.9838 101.87907 434.69647
248.53714 101.80009 436.41751
249.89621 101.76054 437.15518
251.46832 101.68154 438.86597
252.63089 101.68142 438.61752
254.0065 101.64185 439.34204
255.17236 101.64171 439.0864
256.33856 101.64156 438.82739
257.50516 101.64141 438.56509
258.67212 101.64125 438.29944
259.83948 101.64108 438.03036
260.55066 101.71979 435.81244
261.94452 101.68016 436.51004
263.11047 101.67997 436.23148
264.27686 101.67976 435.94955
265.92102 101.60067 437.60477
267.09348 101.60045 437.31473
267.77859 101.67912 435.08316
269.19321 101.63943 435.75586
270.36438 101.63919 435.45605
271.28436 101.67839 434.18582
272.96246 101.59924 435.81235
274.39459 101.55952 436.46704
275.31339 101.59869 435.18692
277.01379 101.51951 436.79733
278.19574 101.51921 436.47433
279.64551 101.47946 437.11057
280.83109 101.47915 436.77963
282.83484 101.36047 439.32907
284.30447 101.32069 439.94925
285.77991 101.2809 440.56424
286.70032 101.32001 439.25586
287.89911 101.31966 438.90359
288.81284 101.35875 437.59006
289.72189 101.39784 436.27438
290.62628 101.43693 434.95648
292.40652 101.35764 436.50186
293.60562 101.35725 436.13162
295.40277 101.27794 437.66455
296.90973 101.23808 438.23776
298.11853 101.23769 437.85345
298.71472 101.3162 435.56332
301.15656 101.15794 438.97366
302.3725 101.15752 438.57599
303.90363 101.11765 439.12283
305.44067 101.07776 439.66394
307.30344 100.99841 441.14594
308.21014 101.03745 439.78308
309.76233 100.99757 440.30765
310.99274 100.99715 439.88239
312.5542 100.95726 440.39609
313.45557 100.99632 439.01956
314.68799 100.99591 438.58203
315.58276 101.03499 437.20007
316.4729 101.07407 435.81589
317.35846 101.11317 434.4295
319.27798 101.03385 435.85281
320.51105 101.03349 435.39539
322.79932 100.91472 437.73975
324.74994 100.83543 439.1395
326.35498 100.79564 439.59763
326.88745 100.87431 437.25244
328.13416 100.87404 436.76962
329.38153 100.87379 436.2825
330.99692 100.8341 436.72018
332.61823 100.79443 437.15146
337.60062 100.39946 445.9198
341.88586 100.08348 452.81024
346.21432 99.76754 459.67886
349.82428 99.530609 464.67773
354.61713 99.175278 472.42682
355.59705 99.214813 470.93518
357.34967 99.175446 471.28189
358.32507 99.215096 469.7829
360.87201 99.096893 471.9541
362.24481 99.097198 471.36246
365.21582 98.939667 474.4295
367.40405 98.861176 475.65289
369.60312 98.782776 476.86676
370.99792 98.783432 476.24622
372.80292 98.744705 476.53198
374.20032 98.74556 475.90045
375.18207 98.785995 474.35535
376.15826 98.826546 472.80783
-37.203964 101.87816 432.55563
-35.935638 101.8772 433.12656
-34.667252 101.87632 433.69299
-33.398941 101.87552 434.25507
-31.729813 101.91168 433.89722
-30.066177 101.94792 433.53259
-28.012527 102.0211 432.24344
-26.755524 102.02061 432.78305
-25.108612 102.05704 432.39822
-24.629883 101.9829 434.76999
-24.140854 101.90881 437.14188
-23.641556 101.83476 439.51376
-21.993469 101.87141 439.1123
-20.727982 101.87122 439.62967
-19.088791 101.90794 439.21597
-17.455444 101.94471 438.79578
-14.721313 102.09216 435.58276
-14.206268 102.01835 437.93573
-12.226944 102.09209 436.56516
-10.980621 102.0921 437.0499
-9.3766479 102.12901 436.59741
-8.4897461 102.09219 438.00644
-6.8923035 102.12914 437.54333
-6.7018738 102.01859 440.81766
-5.4532928 102.0187 441.28293
-4.5503693 101.98194 442.68188
-3.300415 101.98208 443.13965
-2.3908081 101.94535 444.53296
-1.1395569 101.94551 444.98328
0.44546509 101.98257 444.48761
2.3562622 102.0565 443.0433
3.5976257 102.05669 443.47824
5.4912872 102.13064 442.02005
6.7260284 102.13084 442.44498
8.6025391 102.20479 440.97318
8.8750458 102.09436 444.22971
9.1627045 101.98393 447.48749
10.718689 102.02102 446.95074
12.890076 102.13185 444.50861
15.969131 102.35332 439.20538
20.23761 102.72227 430.08197
24.755722 103.1281 419.98547
28.014832 103.38641 413.67969
30.939087 103.60783 408.31265
33.241486 103.75551 404.84189
34.645538 103.79256 404.22794
36.333427 103.86648 402.65253
37.723267 103.90352 402.02768
39.107346 103.94055 401.3978
39.922058 103.90384 402.68048
41.020668 103.90399 403.0018
41.842194 103.86726 404.28
42.668465 103.83054 405.55624
43.770798 103.83068 405.86887
44.603882 103.79395 407.14066
45.175598 103.72034 409.37372
46.284294 103.72046 409.67847
47.131607 103.68372 410.94446
48.500282 103.7207 410.2778
49.863289 103.75767 409.60645
51.473709 103.8315 407.96368
53.323792 103.94221 405.34747
54.90992 104.01604 403.69208
55.994644 104.01611 403.96826
57.321648 104.05306 403.27185
58.643044 104.09 402.57095
59.721352 104.09007 402.8363
60.799263 104.09013 403.09851
61.876793 104.09018 403.35757
62.953949 104.09023 403.61349
64.030731 104.09027 403.8663
64.882637 104.05344 405.08975
65.961296 104.05347 405.33694
67.258926 104.09037 404.60605
68.33429 104.09039 404.84653
69.40934 104.09041 405.08383
70.484032 104.09042 405.31815
71.767387 104.12729 404.57214
72.838867 104.1273 404.79977
73.706245 104.09042 406.00272
74.779701 104.09042 406.22485
76.051483 104.12727 405.46457
77.121765 104.12726 405.68015
78.191765 104.12724 405.89273
79.452347 104.16408 405.12143
80.895782 104.23779 403.36472
81.957222 104.23775 403.56689
83.201515 104.27459 402.78372
84.259865 104.27455 402.97955
85.495911 104.31137 402.18918
86.551193 104.31133 402.37869
87.433449 104.27441 403.54959
88.490845 104.27436 403.73383
89.380371 104.23744 404.9003
90.439911 104.23738 405.07916
91.174263 104.16359 407.22717
92.078621 104.12666 408.38757
92.830597 104.05286 410.53275
93.747429 104.01592 411.68939
94.669212 103.97898 412.84402
95.595963 103.94204 413.99646
96.527664 103.9051 415.14682
97.464355 103.86815 416.29498
98.405991 103.83121 417.44101
99.07399 103.72052 420.56406
99.893997 103.6467 422.69635
100.72411 103.57288 424.82718
101.43277 103.46218 427.94711
101.89867 103.27774 433.04797
102.76947 103.20392 435.17532
103.65038 103.13008 437.30109
104.29883 102.98251 441.40894
105.20517 102.90868 443.53174
105.8893 102.76111 447.63788
106.70746 102.6504 450.75052
107.42986 102.50282 454.85504
108.60651 102.50273 454.98499
109.99481 102.57638 453.12451
111.37271 102.65002 451.25989
112.84097 102.76055 448.39688
114.29369 102.87108 445.52927
115.44406 102.87099 445.64133
116.59431 102.8709 445.75043
117.83495 102.90768 444.86124
118.8945 102.87073 445.95953
120.04446 102.87064 446.05957
121.19431 102.87056 446.15668
122.5045 102.94422 444.25854
123.64905 102.94414 444.34924
124.94367 103.01781 442.44391
126.08292 103.01773 442.52829
127.29204 103.05453 441.61282
128.36118 103.01758 442.68817
129.50021 103.01751 442.76364
130.63916 103.01743 442.83624
131.83775 103.05424 441.90833
132.9169 103.0173 442.97253
134.05566 103.01723 443.03625
135.19438 103.01717 443.09705
136.33305 103.01711 443.15491
137.47166 103.01705 443.20981
138.65454 103.05387 442.26346
139.7905 103.05382 442.31241
141.00476 103.12752 440.36133
142.09891 103.09059 441.40289
143.23218 103.09055 441.44299
144.33395 103.05363 442.47894
145.49866 103.09046 441.5144
146.63184 103.09042 441.54575
147.7888 103.12727 440.57516
148.89815 103.09036 441.5997
150.03128 103.09033 441.62231
151.16438 103.0903 441.64206
152.28394 103.0534 442.65805
153.41959 103.05338 442.67197
154.56363 103.09023 441.68372
155.70253 103.1271 440.6925
156.83302 103.12708 440.69766
157.96423 103.16395 439.70059
159.09218 103.16394 439.69998
160.2157 103.20081 438.69708
161.33411 103.23769 437.69141
162.46646 103.20081 438.68143
163.59186 103.20081 438.66925
164.71727 103.20082 438.65414
165.85992 103.16396 439.63535
167.00774 103.12709 440.61362
168.11598 103.16398 439.5907
169.24403 103.164 439.56396
170.37212 103.16402 439.53442
171.50023 103.16404 439.50192
172.62837 103.16406 439.46652
173.75656 103.16409 439.42828
174.92252 103.12724 440.38568
176.01303 103.16415 439.34296
177.09846 103.20107 438.29761
178.26968 103.16423 439.24609
179.35008 103.20114 438.19513
180.42542 103.23806 437.14154
181.54878 103.23811 437.08313
182.72791 103.20127 438.01971
183.7957 103.2382 436.95773
184.91925 103.23825 436.89072
186.10625 103.20142 437.81805
187.16655 103.23836 436.74786
188.29031 103.23841 436.67209
189.48523 103.20159 437.59021
190.53804 103.23853 436.51181
191.66203 103.23859 436.42725
192.8649 103.20177 437.33609
194.07297 103.16496 438.24152
195.11844 103.2019 437.15201
196.24536 103.20197 437.0556
197.37236 103.20204 436.95621
198.49948 103.2021 436.85391
199.62669 103.20218 436.74869
200.75401 103.20225 436.64044
201.98077 103.16544 437.52368
203.1109 103.16551 437.40936
204.13669 103.20246 436.29819
205.37151 103.16566 437.17178
206.502 103.16573 437.04852
207.74478 103.12893 437.91531
208.64865 103.20274 435.80042
210.01158 103.12907 437.65332
211.26508 103.09227 438.50995
212.4014 103.09235 438.37115
213.6629 103.05554 439.22079
214.9297 103.01875 440.0668
215.81133 103.09256 437.93671
216.94829 103.09263 437.78583
218.08542 103.0927 437.63193
219.08485 103.12963 436.48526
220.21977 103.1297 436.32565
221.64093 103.05602 438.14105
222.63576 103.09296 436.98596
223.922 103.05614 437.80511
225.21358 103.01933 438.62042
226.35721 103.01939 438.44443
227.50102 103.01945 438.26529
228.64505 103.0195 438.08307
229.78932 103.01955 437.89774
230.77017 103.05647 436.72345
231.74609 103.09338 435.54697
233.05469 103.05656 436.3381
234.02594 103.09346 435.15628
235.34018 103.05663 435.94028
236.48331 103.05666 435.73669
237.62668 103.05669 435.52991
238.58865 103.09358 434.33734
240.09856 103.01987 436.08917
241.24533 103.01988 435.87241
242.77129 102.94615 437.61493
243.92383 102.94617 437.39084
245.07666 102.94617 437.16351
246.2298 102.94617 436.93301
247.18347 102.98303 435.72006
248.53702 102.94616 436.46222
250.10104 102.87241 438.17813
251.4682 102.83551 438.91104
252.84088 102.79861 439.63962
254.21907 102.76172 440.36368
255.38751 102.76169 440.10751
256.33838 102.79852 438.87268
257.28448 102.83533 437.63577
258.44885 102.83528 437.37073
259.61359 102.83523 437.10233
260.55048 102.87203 435.85767
261.94427 102.83509 436.55542
263.11023 102.83501 436.27689
264.5127 102.79807 436.96603
265.92078 102.7611 437.65048
267.0932 102.76101 437.36044
268.02222 102.79778 436.09787
269.19293 102.79767 435.80157
270.36411 102.79755 435.50183
271.53577 102.79744 435.19861
272.96216 102.76044 435.85831
274.65112 102.68656 437.47885
275.57254 102.7233 436.19797
276.75134 102.72314 435.8793
278.19537 102.68613 436.52066
279.37781 102.68596 436.19412
280.56073 102.6858 435.86395
282.56186 102.575 438.41449
284.0289 102.53796 439.03555
285.50168 102.5009 439.65143
286.69989 102.50071 439.30298
288.18167 102.46364 439.90915
289.09802 102.50031 438.59482
290.29791 102.50011 438.23508
291.20755 102.53679 436.91559
292.40607 102.53658 436.54916
293.30902 102.57324 435.22452
294.80481 102.53615 435.80493
296.60785 102.46217 437.33264
297.51001 102.49883 435.99734
298.71417 102.4986 435.61096
300.84674 102.38773 438.07153
302.06006 102.3875 437.6748
304.21759 102.27663 440.11972
305.44012 102.2764 439.71243
307.30286 102.2024 441.1947
308.20953 102.23906 439.83179
309.43665 102.23884 439.41153
310.33673 102.27551 438.04318
312.22321 102.20152 439.50201
313.12198 102.2382 438.12643
314.35175 102.238 437.68988
315.58215 102.23781 437.24915
316.47232 102.27451 435.86496
317.70142 102.27434 435.41693
319.27734 102.2373 435.90204
320.51044 102.23715 435.4447
322.44714 102.16325 436.85397
324.39514 102.08936 438.255
325.99753 102.05238 438.71426
326.88684 102.0892 437.30243
328.85797 102.01537 438.68246
330.11063 102.01534 438.1933
331.73135 101.97846 438.62906
333.35797 101.9416 439.05835
337.97293 101.60967 446.89856
342.63635 101.27779 454.71494
346.59198 101.01971 460.65729
350.20465 100.79858 465.65579
354.6167 100.50372 472.48196
355.59668 100.54091 470.9903
357.34937 100.50438 471.33719
358.71625 100.50479 470.75754
361.26593 100.39462 472.92801
363.03827 100.35828 473.25238
365.61517 100.24825 475.40161
367.80615 100.1752 476.62415
370.00797 100.10223 477.83707
371.40552 100.10311 477.21539
373.21326 100.06721 477.50012
374.6134 100.0683 476.8674
375.59793 100.10635 475.32101
377.4133 100.07079 475.58743
-36.381287 103.18119 430.78214
-35.527115 103.14575 432.26257
-33.855164 103.17894 431.9147
-32.995621 103.14367 433.38861
-31.329102 103.17702 433.02945
-29.668076 103.21045 432.66351
-28.012619 103.24394 432.29089
-26.755539 103.24323 432.83038
-25.498749 103.24257 433.36545
-24.629807 103.20767 434.81735
-24.140747 103.13855 437.18936
-23.259232 103.10376 438.63797
-21.993301 103.1033 439.15979
-20.727798 103.10288 439.67712
-19.088577 103.1368 439.26328
-17.083664 103.20503 437.9151
-15.089905 103.27332 436.55826
-13.839767 103.27305 437.05264
-11.863083 103.34139 435.68079
-10.6194 103.34118 436.16443
-9.0180664 103.37529 435.71075
-8.1338196 103.34083 437.1188
-6.8919373 103.34069 437.58957
-6.3512421 103.27198 439.92816
-5.1053009 103.27187 440.39236
-4.2049866 103.2375 441.79034
-3.3000488 103.20313 443.18607
-2.3904419 103.16878 444.57947
-1.1391602 103.16873 445.02966
0.11146545 103.16869 445.47565
1.6931458 103.20296 444.97479
2.9398041 103.20294 445.41147
4.8387146 103.27152 443.95493
6.4025879 103.30582 443.43607
8.281723 103.37441 441.96497
8.5568542 103.27153 445.22263
8.8471527 103.16866 448.48154
10.71904 103.23727 446.99646
12.890427 103.34017 444.55402
15.661438 103.51167 440.2009
20.237946 103.88892 430.12567
24.756027 104.26619 420.02811
27.714996 104.47198 414.67484
30.641853 104.67776 409.30804
32.651978 104.78066 406.79251
34.353531 104.84927 405.22437
36.044029 104.91788 403.64951
37.436485 104.95219 403.0253
38.823166 104.9865 402.39609
39.922302 104.98651 402.72073
41.020905 104.98652 403.04199
41.84243 104.95223 404.32022
42.942635 104.95224 404.63544
44.042351 104.95224 404.94727
45.141563 104.95224 405.25577
45.708054 104.88364 407.48755
46.547981 104.84934 408.75488
47.3927 104.81504 410.0202
48.758743 104.84931 409.35275
50.119133 104.88359 408.68057
51.473869 104.91786 408.00366
53.073433 104.98642 406.35468
54.662155 105.05498 404.69971
55.749474 105.05495 404.97656
57.079071 105.0892 404.28067
58.403046 105.12346 403.58032
59.721443 105.15771 402.87546
60.564453 105.12336 404.10907
61.876862 105.1576 403.3967
62.95401 105.15755 403.65259
64.257896 105.19178 402.93207
65.107208 105.15742 404.155
65.961334 105.12306 405.37604
67.258965 105.15729 404.64502
68.33432 105.15721 404.88547
69.195213 105.12283 406.09894
70.484062 105.15705 405.35699
71.76741 105.19127 404.61087
72.632507 105.15688 405.81635
73.502464 105.1225 407.0199
74.779709 105.1567 406.26358
76.051468 105.1909 405.50323
77.12175 105.1908 405.71878
78.19175 105.1907 405.9313
79.452332 105.22489 405.15988
80.895752 105.29338 403.40298
82.142883 105.32758 402.62314
83.201477 105.32747 402.82187
84.620903 105.39596 401.0517
85.495872 105.36154 402.22711
86.55114 105.36143 402.41669
87.433388 105.32701 403.58768
88.490791 105.32689 403.77182
89.380318 105.29247 404.93839
90.439842 105.29235 405.11725
91.011703 105.18932 408.25156
92.078545 105.18919 408.4259
92.987846 105.15477 409.58429
93.747353 105.08604 411.72797
94.669136 105.05161 412.88266
95.595879 105.01717 414.03519
96.380562 104.94844 416.1741
97.319809 104.91401 417.32278
98.264023 104.87957 418.46927
99.073898 104.81083 420.60324
99.893898 104.74209 422.73575
100.85818 104.70765 423.87637
101.30109 104.536 428.97757
102.02759 104.43295 432.09714
102.76936 104.32989 435.21579
103.52641 104.22684 438.33331
104.29874 104.12379 441.4498
105.20506 104.05504 443.57288
105.8892 103.91767 447.67935
106.70734 103.81461 450.79227
107.42975 103.67725 454.89706
108.6064 103.67712 455.0271
109.99471 103.7456 453.16641
111.3726 103.81408 451.30151
112.84087 103.91688 448.43823
114.39178 104.05399 444.57578
115.53957 104.05386 444.68759
116.68726 104.05374 444.79639
117.83484 104.05362 444.90219
118.98232 104.0535 445.00507
120.12971 104.05338 445.10489
121.27699 104.05327 445.20172
122.58463 104.12178 443.30316
123.7266 104.12167 443.39368
124.94357 104.15587 442.48459
126.15535 104.19008 441.57214
127.36191 104.22429 440.6564
128.42848 104.18988 441.73166
129.56494 104.18979 441.80698
130.70134 104.18969 441.87936
131.89737 104.22392 440.95117
132.97394 104.18951 442.01535
134.11015 104.18943 442.07892
135.24631 104.18935 442.13956
136.38242 104.18927 442.19727
137.51846 104.1892 442.25204
138.69878 104.22344 441.30551
139.79044 104.18906 442.35287
140.96553 104.22331 441.40024
142.06224 104.18893 442.44199
143.23213 104.22319 441.48334
144.33391 104.18882 442.51944
145.4697 104.18877 442.55374
146.60545 104.18873 442.58514
147.78876 104.25731 440.61542
148.89812 104.22295 441.64005
150.0499 104.25723 440.66345
151.18045 104.2572 440.68314
152.31097 104.25717 440.69986
153.43053 104.22283 441.71307
154.57201 104.25713 440.7247
155.70251 104.25711 440.73273
156.83301 104.2571 440.73788
157.96352 104.25708 440.74014
159.09216 104.29139 439.74011
160.2157 104.3257 438.73718
161.34108 104.3257 438.7308
162.46648 104.32571 438.7215
163.59187 104.32571 438.70926
164.71729 104.32572 438.69421
165.82549 104.36005 437.67697
166.96817 104.32576 438.65543
168.09364 104.32578 438.63168
169.21915 104.32581 438.6051
170.34467 104.32584 438.57553
171.50026 104.29155 439.54208
172.62842 104.29159 439.50671
173.75659 104.29163 439.46848
174.92255 104.25735 440.42596
176.05338 104.2574 440.38177
177.09851 104.32608 438.33774
178.31516 104.25751 440.28467
179.39813 104.29188 439.23349
180.47601 104.32625 438.17966
181.54883 104.36063 437.12314
182.78365 104.29206 439.05768
183.79576 104.36076 436.9978
184.91931 104.36083 436.93073
186.10631 104.32659 437.85822
187.16661 104.36098 436.78793
188.29037 104.36106 436.71213
189.48529 104.32683 437.6304
190.53812 104.36123 436.55191
191.58589 104.39563 435.47089
192.86496 104.3271 437.37628
193.9917 104.32719 437.28571
195.03461 104.3616 436.19632
196.15895 104.36169 436.10013
197.2834 104.36179 436.00104
198.40794 104.36189 435.89899
199.62677 104.32768 436.78894
200.85086 104.29348 437.67545
201.98087 104.29359 437.56409
203.11099 104.29369 437.44977
204.24123 104.29381 437.33246
205.26456 104.32823 436.21851
206.50208 104.29404 437.08893
207.74487 104.25983 437.95584
208.64873 104.32858 435.84073
210.01166 104.26007 437.69385
211.14528 104.26019 437.55838
212.40149 104.226 438.4118
213.53796 104.22612 438.27002
214.80219 104.19193 439.11646
215.68124 104.26067 436.98651
216.94836 104.22649 437.82654
218.08549 104.2266 437.6727
218.94705 104.29533 435.5361
220.07939 104.29546 435.37683
221.49797 104.22697 437.19284
222.63583 104.22709 437.02679
223.7739 104.2272 436.85773
225.0629 104.19302 437.67352
226.35727 104.15884 438.48547
227.50108 104.15896 438.30637
228.64511 104.15907 438.12415
229.78937 104.15919 437.93884
230.77022 104.19362 436.76447
231.74615 104.22803 435.58792
232.88594 104.22814 435.39413
233.85461 104.26256 434.21268
235.16626 104.22836 434.99725
236.30682 104.22847 434.79419
237.4476 104.22858 434.58786
238.40698 104.26299 433.39572
239.91429 104.19448 435.14819
241.24536 104.16028 435.91379
242.58185 104.12608 436.67517
243.92383 104.09187 437.4324
245.27127 104.05766 438.18536
246.42697 104.05775 437.95435
247.38324 104.09214 436.74084
248.73938 104.05792 437.48264
250.10101 104.0237 438.22003
251.46817 103.98948 438.95306
252.84082 103.95526 439.6817
254.00632 103.95533 439.42947
255.17213 103.9554 439.17386
256.12042 103.98976 437.93961
257.28442 103.98982 437.67792
258.22568 104.02417 436.43869
259.38782 104.02422 436.17096
260.77866 103.98997 436.87283
261.94418 103.99002 436.59772
263.11014 103.99006 436.31927
264.51257 103.9558 437.00848
265.92065 103.92153 437.69308
267.09308 103.92155 437.40305
268.02206 103.95588 436.14044
269.19278 103.9559 435.84418
270.61304 103.92162 436.51236
271.78726 103.92163 436.20847
272.96198 103.92163 435.90109
274.39407 103.88734 436.55606
275.05334 103.95593 434.3107
276.22693 103.95592 433.99344
277.66571 103.92162 434.63635
278.84293 103.92161 434.31134
280.29059 103.88729 434.94495
282.56161 103.75008 438.45807
283.75348 103.75005 438.11847
284.94589 103.75003 437.77524
286.41922 103.7157 438.38754
287.89838 103.68137 438.99466
