ply
format ascii 1.0
comment PCL generated
element vertex 1591
property float x
property float y
property float z
element camera 0
property float view_px
property float view_py
property float view_pz
property float x_axisx
property float x_axisy
property float x_axisz
property float y_axisx
property float y_axisy
property float y_axisz
property float z_axisx
property float z_axisy
property float z_axisz
property float focal
property float scalex
property float scaley
property float centerx
property float centery
property int viewportx
property int viewporty
property float k1
property float k2
end_header
310.62384 251.97478 431.03204
312.20709 252.27312 431.48297
312.81958 251.73541 429.21701
313.74942 251.47595 427.85342
315.00455 251.49484 427.38947
316.92609 252.07086 428.72275
317.51428 251.5316 426.44937
318.76886 251.54942 425.97327
320.36438 251.84572 426.39087
321.62097 251.86275 425.90579
322.87714 251.87926 425.41672
324.83118 252.45317 426.71286
326.44348 252.7477 427.10742
328.06046 253.04166 427.49597
328.96786 252.77693 426.0957
332.02765 254.18596 430.03583
336.20001 256.43182 436.62915
341.50861 259.51471 445.86581
346.13885 262.039 453.30045
351.18561 264.84186 461.59741
354.04626 265.96899 464.55908
356.55106 266.81592 466.62424
356.80124 265.98645 463.38297
358.5571 266.27267 463.67075
359.16632 265.71985 461.31146
360.53516 265.72424 460.71158
361.90198 265.7272 460.10818
364.04904 266.28723 461.25516
366.20419 266.8457 462.3941
367.57455 266.84409 461.77606
369.74023 267.39923 462.90152
371.91348 267.95258 464.01926
373.69 268.22479 464.25824
374.65509 267.93658 462.75232
378.0675 269.32166 466.45792
379.03094 269.02924 464.94418
381.22885 269.57214 466.02911
382.59918 269.55441 465.3768
384.80441 270.09247 466.44983
-44.960312 257.98413 426.08569
-42.883911 257.43555 424.94299
-40.814331 256.88477 423.79312
-39.562698 256.89551 424.37543
-37.099518 256.05905 422.34277
-36.25 256.3479 423.78839
-35.392654 256.6351 425.2337
-34.132462 256.63882 425.80417
-32.477356 256.35913 425.49625
-31.215134 256.3598 426.05972
-29.176132 255.79533 424.86441
-27.530273 255.51137 424.54041
-26.269836 255.5079 425.09091
-25.387146 255.78502 426.51938
-24.120743 255.77913 427.06436
-23.227051 256.05389 428.48938
-21.955078 256.04581 429.0285
-20.681839 256.03674 429.56412
-19.041 255.74495 429.20926
-17.404312 255.45233 428.84857
-15.049652 254.59554 426.70401
-13.785278 254.58304 427.21936
-11.45256 253.72495 425.05765
-10.194504 253.71109 425.56219
-8.9357605 253.69658 426.06296
-7.6763916 253.68147 426.55978
-6.0712433 253.38431 426.1575
-5.8414001 254.21251 429.33444
-4.2353516 253.91431 428.92422
-2.9715424 253.89708 429.40628
-2.04216 254.16083 430.78375
-0.775177 254.14276 431.25879
1.1508331 253.5618 429.92715
2.4128876 253.54312 430.39212
3.9991455 253.24297 429.94977
5.5801849 252.94261 429.50143
7.4747925 252.36098 428.14194
8.7264404 252.34145 428.58682
10.29158 252.0407 428.12057
11.540436 252.02086 428.5564
12.7892 252.00089 428.98813
14.037857 251.98076 429.41571
15.286285 251.96059 429.83936
16.534561 251.94028 430.25885
18.080292 251.63914 429.76181
19.32547 251.61879 430.1723
19.985657 252.15981 432.40704
20.945862 252.41995 433.7261
22.198135 252.39944 434.12695
23.16568 252.6595 435.4404
24.701782 252.35846 434.91638
26.232269 252.05754 434.38663
27.757141 251.75676 433.85117
29.002487 251.73653 434.23004
30.247467 251.71635 434.60486
31.223434 251.97661 435.89728
32.470284 251.95659 436.26483
33.980095 251.65645 435.70532
35.223518 251.6367 436.06412
36.724617 251.33694 435.49432
38.47551 250.75726 433.99365
39.709793 250.73802 434.33835
41.193878 250.43892 433.75226
42.672264 250.14005 433.16083
44.145012 249.84138 432.564
45.369751 249.82288 432.89093
47.073441 249.24481 431.35461
48.055054 249.50655 432.60275
49.275917 249.48859 432.91742
50.264595 249.75053 434.15988
51.258095 250.01262 435.39987
52.482956 249.99513 435.70438
53.483498 250.25745 436.93866
54.931458 249.96072 436.30194
56.373779 249.66425 435.6601
57.594368 249.64758 435.94885
58.814575 249.6311 436.23376
60.456032 249.05592 434.64148
61.878395 248.76051 433.98044
62.883957 249.02412 435.19031
64.300308 248.72919 434.52066
65.71106 248.43452 433.84616
66.918442 248.41942 434.10654
67.930298 248.68378 435.30344
68.947021 248.94827 436.49774
70.348419 248.65456 435.80701
71.556938 248.64026 436.05331
72.765083 248.62619 436.29602
73.972878 248.61232 436.53513
75.35981 248.31961 435.82727
76.387436 248.58522 437.0025
77.768463 248.293 436.2865
79.143936 248.00104 435.56595
80.344826 247.9883 435.78616
81.545395 247.97577 436.00287
82.581787 248.24237 437.16226
83.945572 247.95137 436.42566
84.986557 248.21834 437.57895
86.188484 248.20663 437.78201
87.543549 247.91635 437.03357
88.893135 247.62631 436.28073
90.088974 247.61533 436.47253
91.430191 247.32579 435.71155
92.622887 247.31522 435.89597
93.674873 247.58354 437.02701
94.593948 248.13069 439.1058
95.658401 248.39931 440.23187
96.993095 248.11087 439.45288
98.192291 248.10127 439.62128
99.518707 247.81331 438.83432
100.83971 247.5256 438.04321
102.15527 247.23813 437.24808
103.34576 247.22943 437.40179
104.53602 247.22092 437.55212
105.72606 247.21262 437.6991
106.804 247.48296 438.79654
107.99622 247.47502 438.93707
109.18825 247.4673 439.07425
110.38007 247.45978 439.2081
111.47018 247.73083 440.29358
112.76318 247.44531 439.46564
113.95446 247.43839 439.58939
115.05179 247.71001 440.66577
116.06296 248.26012 442.69537
117.26151 248.25372 442.80991
118.45988 248.24753 442.92108
119.65812 248.24153 443.0289
120.85619 248.23573 443.13345
122.13237 247.95184 442.27728
123.4789 247.38991 440.45987
124.66879 247.38474 440.5538
125.85857 247.37971 440.64441
127.11611 247.09666 439.77362
128.36838 246.81383 438.89914
129.4899 247.08762 439.93796
130.67662 247.08337 440.01532
131.86324 247.07932 440.08929
133.10474 246.79726 439.20111
134.23619 247.07175 440.22751
135.42253 247.06825 440.29175
136.65599 246.78677 439.39331
137.88422 246.50548 438.49133
139.02309 246.78067 439.50513
140.24599 246.49979 438.5965
141.42679 246.49719 438.64417
142.57321 246.77293 439.64856
143.78818 246.49261 438.72992
145.02705 245.93433 436.84772
146.17592 246.21059 437.84247
147.35385 246.20892 437.87393
148.53177 246.20743 437.90219
149.69084 246.48421 438.88751
150.83884 247.03931 440.83026
152.03802 246.76022 439.88846
153.20993 247.03754 440.86438
154.40393 246.75885 439.91608
155.59273 246.48032 438.96451
156.77307 246.48007 438.97018
157.9534 246.48001 438.97272
159.13 245.92392 437.05084
160.30963 246.20232 438.00745
161.4874 246.20279 438.00024
162.66518 246.20343 437.98981
163.83078 245.92615 437.01575
165.00601 245.92715 436.99896
166.18129 245.92834 436.97894
167.33664 245.6516 435.99539
168.48685 245.375 435.0087
169.68217 245.65482 435.93939
170.82732 245.3786 434.94647
171.96735 245.10255 433.95047
173.13512 245.1048 433.91144
174.37386 245.66348 435.78894
175.54692 245.66608 435.74329
176.72005 245.66887 435.69437
177.93645 245.94998 436.60184
179.1581 246.23131 437.50586
180.28827 245.9565 436.48776
181.41335 245.68185 435.46667
182.58688 245.68555 435.4017
183.76051 245.68942 435.33344
184.87553 245.41527 434.30322
186.04678 245.41953 434.22873
187.15427 245.14571 433.19254
188.32315 245.1503 433.11169
189.49217 245.15509 433.02768
190.58966 244.88181 431.98251
191.83055 245.16519 432.84979
193.15356 245.72708 434.67087
194.32828 245.73265 434.57343
195.50313 245.73839 434.47269
196.67812 245.74432 434.36871
197.7661 245.47211 433.30493
198.93881 245.47841 433.19461
200.11169 245.48491 433.08105
201.37967 245.76994 433.91995
202.653 246.05524 434.75507
203.93169 246.34071 435.5863
205.01033 246.06961 434.50375
206.29459 246.35553 435.32785
207.47632 246.36325 435.1937
208.76872 246.64963 436.01019
209.84038 246.37927 434.91525
211.13838 246.66605 435.72446
212.32355 246.67459 435.57657
213.26721 246.12622 433.51971
214.44762 246.1351 433.36572
215.50223 245.8656 432.25632
216.55188 245.59628 431.14426
217.7278 245.60574 430.98093
219.17163 246.1727 432.71628
220.48967 246.46124 433.49606
221.81317 246.75008 434.27176
223.14212 247.03915 435.04324
224.33232 247.04974 434.86099
225.5228 247.06055 434.67535
226.86298 247.35034 435.43488
228.20863 247.6404 436.19012
229.25055 247.37305 435.04538
230.28757 247.10587 433.8981
231.79913 247.67549 435.58899
232.83417 247.40871 434.43512
233.69925 246.86314 432.33264
235.05716 247.15457 433.06519
236.42059 247.44627 433.7933
237.27103 246.90118 431.68311
238.63774 247.19334 432.40369
239.83194 247.2067 432.17612
241.02649 247.22026 431.94498
242.40465 247.51317 432.65286
243.60251 247.52718 432.41406
244.80072 247.54141 432.17169
246.1904 247.83508 432.86673
247.58569 248.12903 433.55713
248.5939 247.86467 432.36292
249.79622 247.87978 432.1055
250.79736 247.61574 430.9057
251.58946 247.07242 428.76514
252.9919 247.36749 429.43619
254.19052 247.38336 429.16534
255.38956 247.39941 428.89084
256.80365 247.69522 429.54846
258.22336 247.99129 430.20114
259.20898 247.72844 428.97974
260.63477 248.02498 429.62375
262.06619 248.32178 430.26276
263.27551 248.33911 429.96399
264.48529 248.35666 429.66153
265.92847 248.65419 430.28662
266.90607 248.3923 429.0452
268.1171 248.41037 428.73132
269.8103 248.98845 430.27228
271.02744 249.00696 429.9494
271.99884 248.74562 428.6947
273.21417 248.7644 428.36481
275.18414 249.62355 430.81042
276.15417 249.36264 429.54489
278.146 250.2224 431.97687
279.6355 250.52217 432.552
281.13062 250.82213 433.12161
282.36688 250.84203 432.763
283.87073 251.14235 433.32239
285.11041 251.16249 432.95505
285.80548 250.6219 430.74289
287.04065 250.64214 430.36911
288.27615 250.66246 429.99133
289.51205 250.68282 429.60953
289.89911 249.8615 426.47229
291.98483 250.72369 428.83386
293.22174 250.74417 428.44
294.16791 250.48393 427.12741
295.98999 251.06589 428.55383
297.52667 251.3672 429.05988
298.76996 251.38773 428.64807
300.61658 251.96999 430.0545
301.8656 251.99043 429.63272
302.80792 251.72984 428.29758
304.05469 251.75011 427.86865
305.92584 252.33231 429.25058
306.86328 252.07126 427.90503
308.74783 252.65335 429.27417
309.68274 252.39186 427.92136
311.25787 252.69252 428.3739
312.18744 252.43048 427.01492
313.4397 252.44937 426.5556
315.02252 252.74933 426.9931
317.2771 253.61177 429.22421
318.20349 253.34839 427.85001
319.80151 253.64746 428.2695
321.06329 253.66464 427.78607
322.32465 253.68137 427.29871
323.23904 253.416 425.9126
325.19525 253.99483 427.20587
326.8096 254.29155 427.59836
327.71967 254.02438 426.20163
328.98077 254.03815 425.69366
332.39966 255.74153 430.51895
336.93649 258.28967 437.99286
342.61475 261.68274 448.10541
347.25217 264.23004 455.52924
352.67621 267.34039 464.69965
355.17346 268.19543 466.76962
356.93396 268.48581 467.0632
357.18555 267.64758 463.82358
358.94269 267.93549 464.10959
359.93655 267.65833 462.63065
361.69519 267.94354 462.90723
361.90259 267.09973 459.66907
364.43927 267.9458 461.69095
366.9892 268.79019 463.70251
368.7594 269.06915 463.95642
371.33002 269.9101 465.94995
373.51175 270.46725 467.06207
374.48834 270.17688 465.55591
375.86328 270.16638 464.91833
378.46259 270.99915 466.88144
379.42639 270.70251 465.36841
381.21014 270.96722 465.58624
382.57806 270.94772 464.93512
384.3613 271.20746 465.14481
-44.529343 258.97482 424.81223
-42.868164 258.70688 424.53531
-41.208649 258.43677 424.25378
-39.95639 258.44901 424.83636
-37.895401 257.89053 423.67657
-37.042511 258.18335 425.12296
-35.784012 258.19003 425.69672
-34.127838 257.91058 425.39426
-32.866837 257.91388 425.96127
-31.213593 257.63123 425.64954
-29.176041 257.06262 424.45551
-27.91626 257.06149 425.01001
-26.654541 257.05902 425.56134
-25.770477 257.33966 426.98978
-24.879532 257.61908 428.41721
-23.607498 257.61292 428.96078
-21.962372 257.32123 428.61716
-21.428146 257.88165 430.9223
-19.416611 257.30359 429.68448
-18.141968 257.29333 430.21274
-15.782822 256.4292 428.07288
-14.155502 256.133 427.70123
-12.176682 255.5518 426.43344
-10.560837 255.2542 426.04889
-8.9495392 254.95598 425.65848
-7.6908112 254.94133 426.15552
-6.7767944 255.21024 427.54312
-6.1996613 255.76262 429.82431
-4.9314728 255.7462 430.31271
-3.6628418 255.72928 430.79706
-3.0634003 256.27994 433.07446
-1.4567719 255.9781 432.65326
0.80368042 255.10811 430.42514
2.0680237 255.08968 430.89145
3.6566925 254.78705 430.4512
5.2401276 254.48422 430.00504
7.137207 253.89745 428.64856
8.3912811 253.87805 429.09476
9.9588928 253.57478 428.63074
11.210236 253.55504 429.06787
12.461502 253.53513 429.50092
13.712631 253.51509 429.92993
14.963623 253.49493 430.35486
16.514801 253.19119 429.86493
18.060501 252.88748 429.3692
19.010559 253.15056 430.69263
19.673248 253.69684 432.92703
20.346252 254.24295 435.16083
21.890945 253.93909 434.6488
23.145584 253.91853 435.04684
24.681763 253.61482 434.52411
26.212311 253.31125 433.9957
27.737289 253.00777 433.46149
28.982666 252.9875 433.84091
30.499016 252.68428 433.29626
31.472404 252.94716 434.58752
32.450676 253.21005 435.87634
33.960609 252.90721 435.31815
35.20417 252.88734 435.67737
36.705429 252.58484 435.10886
38.201004 252.28256 434.53491
39.690933 251.98047 433.95551
41.175179 251.67862 433.37073
42.65377 251.37698 432.78055
43.881714 251.35815 433.11249
45.109245 251.33949 433.44055
46.815788 250.75598 431.90707
47.800156 251.02019 433.15552
49.023819 251.00208 433.47131
50.015259 251.26651 434.71408
51.240723 251.2487 435.02283
52.465775 251.23108 435.32779
53.466454 251.49594 436.56174
54.914642 251.19643 435.92624
56.357178 250.89717 435.28568
57.57798 250.88034 435.5748
58.79837 250.86374 435.86014
60.229233 250.56522 435.20581
61.654449 250.26698 434.54657
62.868416 250.25105 434.81955
64.285004 249.95332 434.15109
65.49559 249.93784 434.41608
66.705788 249.92255 434.6774
67.720451 250.18936 435.87436
68.93251 250.17447 436.12891
70.334152 249.87796 435.43933
71.542862 249.86353 435.68607
72.751221 249.84932 435.92914
73.959236 249.8353 436.16858
75.166893 249.82152 436.40445
76.374207 249.80792 436.63666
77.406876 250.07622 437.80893
78.787811 249.78142 437.09045
79.994118 249.76848 437.31198
81.200104 249.75577 437.52997
82.405762 249.74327 437.74438
83.772385 249.44948 437.00934
84.816162 249.7189 438.16254
86.020889 249.70706 438.36642
87.378799 249.41397 437.61945
88.731216 249.12115 436.86816
90.078133 248.8286 436.11255
91.273911 248.81769 436.30115
92.469414 248.80696 436.48624
93.524193 249.07776 437.61713
94.583893 249.34874 438.74539
95.783798 249.33861 438.92093
96.983444 249.3287 439.09302
98.312927 249.03775 438.31085
99.509491 249.02827 438.47571
100.9556 248.4566 436.73416
102.14651 248.44759 436.89148
103.33719 248.43878 437.04544
104.41054 248.71129 438.1485
105.7179 248.42174 437.34317
106.79601 248.69463 438.44009
107.98843 248.68658 438.58084
109.28739 248.39771 437.76447
110.58098 248.10905 436.94418
111.76763 248.10167 437.07428
113.05307 247.81346 436.24643
114.33315 247.52548 435.4147
115.4203 247.79968 436.48938
116.51248 248.07408 437.56128
117.60966 248.34863 438.63037
118.71187 248.62335 439.69659
119.81909 248.89824 440.75998
121.01219 248.89238 440.8642
122.2834 248.60582 440.00854
123.54929 248.31947 439.14914
124.66371 248.59511 440.19995
125.85368 248.59001 440.29068
127.11142 248.30428 439.42078
128.29855 248.29961 439.50476
129.48558 248.2951 439.58542
130.67249 248.2908 439.66284
131.85928 248.2867 439.73697
133.10097 248.00194 438.84958
134.285 247.99821 438.91702
135.41913 248.27548 439.9397
136.65279 247.99132 439.04211
137.8812 247.70735 438.14099
139.02025 247.98515 439.15414
140.20387 247.98236 439.20529
141.42432 247.69897 438.29407
142.57092 247.97731 439.29779
143.75435 247.97504 439.33914
144.996 247.41148 437.45859
146.14761 247.69035 438.45276
147.35228 247.40791 437.52484
148.53036 247.40639 437.5531
149.68962 247.68579 438.53778
150.854 247.96539 439.51932
152.03717 247.9644 439.53796
153.20926 248.24434 440.51312
154.41188 247.68228 438.6059
155.59241 247.68185 438.61484
156.77621 247.40089 437.6608
157.95415 247.40082 437.66327
159.13022 247.12021 436.7027
160.30556 247.1205 436.69879
161.48796 247.40169 437.65134
162.66592 247.40236 437.64096
163.8317 247.12247 436.6676
165.00711 247.12347 436.65079
166.18256 247.12468 436.63077
167.33809 246.84531 435.64792
168.48848 246.56613 434.66199
169.68399 246.8486 435.59186
170.85699 246.85052 435.55899
171.99979 246.57187 434.56363
173.17032 246.57414 434.52441
174.34091 246.5766 434.48206
175.51158 246.57925 434.4364
176.6823 246.58205 434.38751
177.93951 247.14664 436.25308
179.16136 247.43062 437.15622
180.34007 247.43401 437.09732
181.46791 247.15678 436.07681
182.64421 247.16055 436.0116
183.82062 247.16446 435.94305
184.99712 247.16858 435.87131
186.11243 246.89209 434.83859
187.15877 246.33485 432.84525
188.32785 246.33951 432.76431
189.49704 246.34436 432.68011
190.5947 246.06851 431.63565
191.8358 246.35461 432.50201
193.15903 246.92184 434.32141
194.33392 246.92746 434.22382
195.50894 246.93329 434.12292
196.59955 246.65836 433.06281
197.77229 246.66454 432.9556
198.94519 246.67091 432.84512
200.11826 246.67749 432.73138
201.38644 246.96524 433.56934
202.65999 247.25323 434.40347
203.93889 247.54147 435.23376
205.12042 247.54889 435.10605
206.30217 247.5565 434.97501
207.4841 247.5643 434.84055
208.66621 247.57228 434.70276
209.84856 247.58051 434.56174
211.0311 247.58891 434.41727
212.21387 247.59752 434.26947
213.27597 247.32516 433.16629
214.33313 247.05296 432.06046
215.38531 246.78094 430.9519
216.56119 246.79028 430.79166
217.86858 247.08112 431.57867
219.04755 247.09091 431.41138
220.36322 247.38223 432.19058
221.82339 247.95511 433.91507
223.01093 247.96558 433.73633
224.34299 248.25766 434.50296
225.68051 248.54999 435.26529
227.0235 248.84258 436.02335
228.37201 249.13542 436.77713
229.4167 248.8656 435.63245
230.45651 248.59595 434.48523
231.65125 248.60796 434.28146
232.68384 248.33864 433.12851
233.54649 247.7879 431.02774
234.73438 247.80049 430.81488
236.26309 248.37654 432.48712
237.28397 248.10796 431.32245
238.47542 248.1212 431.09854
240.02341 248.69809 432.75677
241.22076 248.71182 432.52478
242.60178 249.00755 433.23102
243.43062 248.45813 431.1088
245.00348 249.03615 432.74808
246.39603 249.33264 433.44141
247.6004 249.34752 433.1904
248.6088 249.08064 431.99658
250.01028 249.37785 432.67737
251.01422 249.11134 431.47739
251.80908 248.56294 429.33746
253.21434 248.86081 430.00668
254.4158 248.87688 429.73486
255.82971 249.17526 430.39499
256.81992 248.90956 429.18015
258.45715 249.49063 430.76605
259.66547 249.50755 430.47815
261.09668 249.80695 431.11963
262.30844 249.82428 430.82361
263.5206 249.84181 430.5238
264.50275 249.57712 429.289
265.71307 249.59497 428.98227
266.68817 249.33052 427.74188
267.89676 249.34868 427.42825
269.34668 249.64958 428.03934
271.04578 250.23332 429.57297
271.77112 249.6868 427.39151
272.98395 249.70564 427.06183
274.7001 250.29008 428.57965
275.91907 250.30931 428.24084
277.65179 250.89426 429.74643
279.65485 251.76236 432.16858
280.88818 251.78218 431.81424
282.38651 252.08504 432.37784
283.8905 252.38809 432.93591
285.13025 252.40829 432.56808
286.09784 252.14552 431.27667
287.6109 252.44897 431.8204
288.57391 252.18625 430.52252
289.53204 251.92349 429.22229
289.91904 251.09424 426.08707
291.71915 251.68112 427.53018
292.95337 251.70154 427.13666
294.18793 251.72198 426.73911
296.30371 252.59264 429.07635
297.84302 252.89659 429.5802
299.0889 252.91711 429.16708
300.6366 253.22108 429.66016
301.8855 253.24149 429.23798
302.82767 252.97815 427.9032
304.38379 253.28195 428.38141
305.63315 253.30196 427.94699
306.88257 253.32182 427.50854
308.76697 253.90906 428.87561
310.02179 253.92857 428.42715
310.95374 253.66397 427.07169
312.20578 253.68294 426.61609
313.78577 253.98553 427.05734
314.70947 253.71991 425.69272
316.96118 254.58997 427.922
318.22046 254.60765 427.44733
319.81812 254.90901 427.86569
321.07935 254.92584 427.38202
323.02811 255.51051 428.68436
324.29376 255.52634 428.19073
325.90811 255.82584 428.58609
327.17529 255.84052 428.08368
327.73273 255.28592 425.79581
328.99316 255.29915 425.28778
332.77121 257.30212 430.99661
337.67239 260.15771 439.34927
343.72034 263.86615 450.336
348.36481 266.43652 457.74893
353.42557 269.29059 466.02252
355.18115 269.58383 466.3215
356.94046 269.87592 466.61444
357.1907 269.02881 463.37753
359.32736 269.60287 464.54285
360.32239 269.32205 463.06396
362.85419 270.17783 465.09406
363.45642 269.60956 462.73181
364.82834 269.6087 462.12131
366.98538 270.17523 463.25574
368.75381 270.45547 463.50946
370.92358 271.01837 464.62946
373.90381 272.14825 467.48294
375.28503 272.13818 466.84662
377.0697 272.41052 467.07578
378.85596 272.6806 467.2999
379.40833 272.09534 464.92188
380.77533 272.07648 464.27542
382.55511 272.33954 464.49014
383.49701 272.03156 462.9761
-44.922867 260.53278 425.2662
-43.261307 260.26389 424.99017
-41.601364 259.9928 424.70966
-39.943176 259.71954 424.4245
-38.286972 259.44434 424.13464
-37.43335 259.74115 425.58057
-36.571747 260.03625 427.02628
-35.307159 260.04248 427.59891
-33.255096 259.47299 426.42123
-31.990723 259.47595 426.9859
-30.336792 259.19031 426.67151
-28.685928 258.9032 426.35175
-27.038254 258.61469 426.02655
-26.532394 259.18604 428.3345
-25.260574 259.18195 428.88232
-23.987106 259.17664 429.42679
-22.340469 258.88318 429.08493
-21.804703 259.44965 431.38934
-19.425156 258.58008 429.26917
-17.787643 258.28357 428.91113
-15.793137 257.69922 427.66003
-13.808121 257.11414 426.40091
-11.832687 256.52826 425.13382
-10.573441 256.5155 425.63965
-8.9628143 256.21521 425.25018
-8.0527039 256.48785 426.63989
-6.7913666 256.47308 427.13428
-5.8721771 256.74445 428.51935
-4.6071472 256.72849 429.00693
-3.6790924 256.99866 430.38718
-2.7453918 257.26831 431.76547
-1.1417999 256.96423 431.34442
0.78623962 256.37323 430.01779
2.0502167 256.35507 430.48444
3.9627838 255.76355 429.14383
5.5433044 255.45837 428.69794
7.1186523 255.15298 428.24603
8.372467 255.13379 428.69266
9.626297 255.11436 429.13516
10.880081 255.09474 429.57364
12.442154 254.78868 429.10083
13.69313 254.76877 429.53027
14.944016 254.7487 429.95557
16.495132 254.44241 429.46695
17.743011 254.4222 429.8833
18.695618 254.68794 431.20718
19.653275 254.95357 432.52878
20.326157 255.505 434.76135
21.870865 255.19853 434.25064
23.410034 254.89211 433.7341
24.943619 254.58578 433.21185
26.471603 254.27959 432.68393
27.717392 254.25923 433.06778
28.96286 254.23892 433.4476
30.207947 254.21869 433.82346
31.18399 254.48412 435.11514
32.431007 254.46399 435.4837
33.941101 254.15842 434.92676
35.184738 254.13852 435.28653
36.686142 253.83328 434.71936
38.18187 253.52826 434.14673
39.419067 253.5088 434.49307
41.15638 252.91884 432.98514
42.38752 252.89972 433.32211
43.863243 252.59554 432.72864
45.090927 252.57677 433.05719
46.797707 251.98784 431.52579
47.782204 252.25459 432.7739
49.006035 252.23636 433.09012
50.229454 252.21829 433.40253
51.452484 252.20038 433.71103
52.448463 252.46765 434.94714
53.673294 252.45007 435.24869
55.119064 252.14784 434.61386
56.340462 252.13068 434.90717
57.561455 252.11372 435.19672
58.995544 251.81221 434.548
60.213135 251.79567 434.82938
61.846848 251.20995 433.23569
62.852745 251.47858 434.44476
64.269569 251.17807 433.77753
65.680779 250.87784 433.10547
66.888573 250.86246 433.36661
67.705574 251.41635 435.50125
69.110451 251.11679 434.81699
70.129753 251.38649 436.00742
71.341293 251.37189 436.25504
72.552467 251.3575 436.49902
73.945442 251.05891 435.7981
74.97377 251.32935 436.97607
76.36084 251.03127 436.26691
77.3937 251.30205 437.43866
78.946594 250.72021 435.77811
79.981392 250.99141 436.94324
81.354088 250.69435 436.21735
82.229553 251.25011 438.32095
83.599022 250.95349 437.58749
84.804276 250.94128 437.7951
86.165314 250.64519 437.05325
87.520851 250.34938 436.30701
89.02179 249.76976 434.6095
90.215462 249.75851 434.80139
91.554535 249.46349 434.04218
92.601959 249.73666 435.17484
93.654312 250.01001 436.30487
94.711609 250.28352 437.43219
95.773819 250.55722 438.55688
96.973679 250.54718 438.72922
98.303391 250.25348 437.94815
99.62767 249.96004 437.16287
101.07143 249.38301 435.42279
102.38226 249.09009 434.62894
103.32851 249.64877 436.68524
104.40205 249.9238 437.78769
105.70963 249.63153 436.9834
106.67598 250.19069 439.03217
107.87119 250.18253 439.1734
109.27972 249.60721 437.4054
110.46936 249.59949 437.53928
111.6588 249.592 437.66989
112.94704 249.30104 436.84326
114.13353 249.29396 436.96689
115.41365 249.00346 436.13281
116.506 249.2804 437.2041
117.51476 249.84108 439.22739
118.79178 249.55121 438.38312
119.89661 249.82866 439.44568
121.00645 250.10628 440.50534
122.27786 249.81699 439.65057
123.61963 249.24442 437.83615
124.73165 249.52261 438.88611
125.98972 249.23399 438.02042
127.17458 249.22906 438.1076
128.35931 249.22432 438.1915
129.4812 249.50325 439.22906
130.72845 249.21544 438.34949
131.85529 249.49474 439.38083
133.09717 249.20731 438.49438
134.28137 249.20354 438.56192
135.4655 249.19994 438.62613
136.64954 249.19653 438.68713
137.87813 248.90988 437.78687
139.01736 249.19028 438.79932
140.20117 249.18744 438.85052
141.38492 249.18478 438.89847
142.56859 249.18231 438.94315
143.7522 249.18004 438.98462
144.99405 248.61118 437.10565
146.17239 248.60927 437.14044
147.37466 248.32419 436.21329
148.52896 248.60602 437.20032
149.70718 248.60468 437.22543
150.86917 248.88687 438.20615
152.04993 248.88588 438.22482
153.2196 249.16844 439.19919
154.41138 248.88446 438.25244
155.59207 248.88402 438.26138
156.76947 249.16714 439.22617
157.95346 248.88371 438.26962
159.13229 248.60046 437.30984
160.31041 248.60077 437.30591
161.48853 248.60126 437.29871
162.66667 248.60193 437.28827
163.84483 248.60278 437.27463
165.02301 248.60381 437.25772
166.20122 248.60501 437.23761
167.33955 248.03967 435.29666
168.51266 248.04126 435.2702
169.71094 248.3264 436.19919
170.85901 248.04495 435.20758
171.97168 247.48032 433.25443
173.13982 247.48262 433.21527
174.30801 247.48511 433.17291
175.47626 247.48776 433.12729
176.64459 247.49062 433.07846
177.89941 248.06049 434.94254
179.07306 248.06371 434.88699
180.24678 248.06714 434.82831
181.42059 248.07076 434.76636
182.5945 248.07454 434.70114
183.76851 248.07855 434.63275
185.00134 248.36618 435.51822
186.11682 248.08707 434.48608
187.22723 247.80814 433.45105
188.39908 247.81288 433.36984
189.50197 247.53427 432.3288
190.74313 247.82291 433.19757
191.98959 248.11171 434.06259
193.16455 248.11723 433.96814
194.41905 248.40648 434.82605
195.51486 248.12885 433.76941
196.60562 247.85133 432.70987
197.69138 247.57401 431.64755
198.86188 247.58047 431.53717
200.03256 247.58711 431.42349
201.29836 247.87759 432.26077
202.56952 248.16829 433.09424
203.94618 248.7429 434.87753
205.02519 248.46672 433.79617
206.30984 248.7581 434.61826
207.49197 248.76599 434.48364
208.67432 248.77411 434.3457
209.85684 248.78241 434.20435
211.03958 248.79092 434.05969
212.22255 248.79964 433.91168
213.16394 248.24094 431.85782
214.21869 247.96619 430.75281
215.26846 247.69162 429.6452
216.44196 247.70108 429.48511
217.74696 247.99463 430.27148
219.05742 248.28844 431.05371
220.50978 248.86644 432.78088
221.83374 249.1608 433.55447
223.16315 249.4554 434.32382
224.49802 249.75024 435.08893
225.69151 249.76132 434.90231
226.88528 249.77261 434.71219
228.07935 249.78413 434.51862
229.27371 249.79587 434.32156
230.3111 249.52367 433.1752
231.66331 249.81996 433.91693
232.69611 249.54814 432.76453
233.724 249.27647 431.60944
234.91467 249.28922 431.39578
236.27599 249.58646 432.1221
237.46994 249.59966 431.90091
238.66422 249.61307 431.67618
240.03696 249.91107 432.38995
241.41525 250.20934 433.09912
242.7991 250.50786 433.80365
243.81665 250.23778 432.62262
245.20645 250.5368 433.31891
246.79303 251.12064 434.94998
247.80905 250.85117 433.75861
248.82024 250.58183 432.56467
250.22458 250.88187 433.24365
251.02966 250.32825 431.10635
251.82465 249.77469 428.96762
253.23016 250.07535 429.63565
254.43182 250.09154 429.36343
255.63385 250.10791 429.08743
257.05103 250.40933 429.74207
258.69116 250.99585 431.32526
259.90225 251.01295 431.03632
261.33636 251.31516 431.67596
262.5509 251.33267 431.37888
263.53802 251.06534 430.14685
264.52029 250.79813 428.91241
265.73083 250.81612 428.60532
266.47037 250.26401 426.43622
267.91479 250.56741 427.05118
269.36487 250.87106 427.66092
270.82065 251.17497 428.2655
271.78964 250.90852 427.01224
273.25146 251.21278 427.60764
274.97046 251.80266 429.12259
276.44629 252.10742 429.70663
277.92776 252.41241 430.28531
279.93369 253.28859 432.70374
281.16977 253.30852 432.34818
282.14154 253.04297 431.06754
283.3757 253.06305 430.70471
284.88022 253.36891 431.25751
286.11777 253.38919 430.88596
287.08051 253.12379 429.5925
288.59396 253.42996 430.13083
289.83258 253.45044 429.74728
290.50519 252.89915 427.52872
292.3107 253.49142 428.96805
293.83865 253.79791 429.48618
294.79001 253.53241 428.17264
296.61749 254.125 429.59305
297.56671 253.85941 428.27231
299.10886 254.16595 428.76996
300.05322 253.90013 427.44287
301.29669 253.92033 427.02203
302.2334 253.65414 425.68948
303.78412 253.96037 426.16818
305.34024 254.26654 426.64108
306.90167 254.57259 427.10803
308.78595 255.16493 428.47299
310.04047 255.18425 428.02414
311.29492 255.20329 427.57126
312.54932 255.22203 427.11429
314.13165 255.52707 427.55347
315.38837 255.54518 427.08749
316.97824 255.84958 427.51566
318.23709 255.86691 427.04071
319.49561 255.8838 426.56183
320.75372 255.90018 426.07892
322.69931 256.48969 427.38034
323.61514 256.2182 425.99454
325.2236 256.51978 426.39096
326.83667 256.82077 426.78146
327.7453 256.54724 425.3862
328.64777 256.27289 423.98926
333.50192 259.15463 432.35648
338.77014 262.323 441.58517
344.46021 265.77798 451.67188
349.10907 268.37128 459.07504
354.54443 271.53793 468.22141
355.18793 270.97165 465.86935
356.57043 270.9783 465.28043
356.81674 270.12238 462.04758
359.71097 271.27481 464.97055
361.09055 271.2774 464.36957
364.01196 272.427 467.27191
365.39761 272.42654 466.65952
366.78085 272.42444 466.04382
368.5553 272.7077 466.29816
369.93588 272.70203 465.67499
371.71252 272.9816 465.91968
374.29431 273.83331 467.89862
375.27197 273.53464 466.39352
376.24115 273.23389 464.88818
377.61078 273.21796 464.24881
378.15323 272.62582 461.87717
379.09589 272.31839 460.37186
380.44623 272.29547 459.72937
381.79227 272.26999 459.0849
-45.727554 262.38397 426.57901
-44.063202 262.11426 426.30508
-42.40036 261.84225 426.02673
-40.333832 261.2785 424.87671
-38.677063 261.0022 424.58792
-37.422546 261.01349 425.16385
-36.562759 261.31256 426.60791
-34.904892 261.03052 426.30804
-32.857101 260.45706 425.13019
-31.986847 260.75092 426.56723
-29.947189 260.17419 425.3779
-28.3004 259.88556 425.05737
-27.420929 260.17487 426.48654
-26.913818 260.75247 428.79352
-25.263794 260.45972 428.46237
-23.991577 260.45538 429.00659
-22.717743 260.44983 429.54739
-21.811462 260.73279 430.96786
-19.432877 259.85611 428.85007
-18.160156 259.84735 429.37814
-15.80275 258.96887 427.24341
-14.177109 258.66876 426.87347
-12.199829 258.07825 425.60919
-11.292023 258.35559 427.00577
-9.3261871 257.76367 425.7287
-8.0661163 257.75006 426.22696
-7.1508026 258.02521 427.61423
-5.5441437 257.72089 427.21213
-4.6224213 257.99475 428.59366
-3.694931 258.26801 429.9733
-2.4269257 258.2514 430.45416
-0.82643127 257.94507 430.03333
1.0986176 257.34912 428.7077
2.6864624 257.04214 428.2739
4.2692108 256.73486 427.83414
5.5252228 256.71643 428.29016
6.7813721 256.69769 428.7421
8.0375824 256.67868 429.18994
9.6074524 256.37045 428.72937
10.550018 256.63995 430.07364
12.114594 256.33136 429.603
13.368057 256.31152 430.03372
14.621429 256.29156 430.46039
16.175095 255.98271 429.974
17.723328 255.67381 429.48172
18.675797 255.94228 430.80521
19.633347 256.21063 432.1264
20.595947 256.47882 433.44525
22.138046 256.16974 432.93497
23.390015 256.14929 433.33313
24.923645 255.84033 432.81219
26.451706 255.53145 432.28552
27.69751 255.51111 432.66992
28.942993 255.4908 433.05023
30.188141 255.47054 433.42654
31.164215 255.73857 434.71786
32.411301 255.7184 435.08691
33.921501 255.41013 434.53134
35.165222 255.3902 434.89163
36.666771 255.08223 434.32574
37.907112 255.06253 434.67728
39.147049 255.04295 435.02484
40.636902 254.73553 434.44415
41.873428 254.71625 434.78308
43.59964 254.12132 433.26651
45.07251 253.81458 432.66971
46.779526 253.22025 431.14044
47.764122 253.48955 432.38821
49.222656 253.18347 431.77634
50.211716 253.45302 433.01773
51.664177 253.14737 432.39688
52.657677 253.41718 433.63193
53.880058 253.39954 433.93332
54.880623 253.66962 435.16269
56.10482 253.6523 435.45709
57.328613 253.63519 435.74771
58.765564 253.33084 435.10086
60.407814 252.73936 433.51468
61.830879 252.43559 432.8573
63.042618 252.41943 433.13052
64.457069 252.11615 432.4639
65.464973 252.3877 433.6658
66.675583 252.37212 433.92786
67.690582 252.64395 435.12405
69.09568 252.34163 434.44104
70.305183 252.32669 434.69214
71.326912 252.59908 435.879
72.538307 252.58453 436.12335
74.113701 251.99615 434.48315
74.96003 252.55611 436.60114
76.347336 252.25525 435.89316
77.554733 252.24162 436.12253
78.93354 251.94128 435.40588
80.137657 251.92812 435.62766
81.341461 251.91515 435.84579
82.38102 252.18922 437.00424
83.748116 251.88989 436.27148
84.950981 251.87756 436.47897
86.153542 251.86546 436.68295
87.509308 251.56688 435.93784
88.859596 251.26854 435.18829
89.907768 251.54381 436.32739
91.252274 251.24597 435.5701
92.448196 251.235 435.75577
93.503334 251.51085 436.88565
94.701332 251.50027 437.06476
95.899055 251.48993 437.24048
97.096519 251.4798 437.41272
98.423866 251.18336 436.63229
99.490723 251.46016 437.74683
100.81239 251.16418 436.95886
102.12864 250.86848 436.16675
103.19998 251.14586 437.27176
104.27631 251.42342 438.37399
105.5867 251.12837 437.57104
106.66777 251.4063 438.66714
107.86319 251.39806 438.80862
109.16518 251.10368 437.99457
110.56596 250.52324 436.22409
111.75302 250.51566 436.35458
112.8409 250.79456 437.43469
114.12659 250.5011 436.60547
115.3131 250.49414 436.72595
116.40822 250.77361 437.79691
117.50836 251.05325 438.86496
118.78561 250.76064 438.02164
119.97406 250.75446 438.12903
121.08151 251.03464 439.18784
122.27226 251.02885 439.28879
123.53857 250.73706 438.43121
124.72645 250.7317 438.52542
125.98473 250.44037 437.66064
127.16977 250.43536 437.74796
128.35469 250.43059 437.83203
129.53951 250.42596 437.91272
130.78438 250.13547 437.03387
131.85123 250.70343 439.02084
133.1483 250.12724 437.17865
134.33011 250.12343 437.24612
135.56166 249.83374 436.35345
136.69348 250.11635 437.37128
137.91968 249.82704 436.4718
139.05652 250.11002 437.48337
140.23792 250.10716 437.53458
141.41925 250.10448 437.58249
142.60054 250.10199 437.62717
143.81348 249.81364 436.71088
145.05034 249.23953 434.83344
146.22369 249.23759 434.86807
147.39702 249.23587 434.89957
148.5703 249.23431 434.9278
149.72473 249.51895 435.91086
150.88432 249.80377 436.89081
152.04904 250.08875 437.86752
153.2189 250.37393 438.84119
154.41086 250.08733 437.89526
155.58586 250.37286 438.86243
156.76932 250.3726 438.86816
157.95349 250.08656 437.91245
159.13251 249.80069 436.95349
160.31081 249.80099 436.94949
161.48911 249.80148 436.94229
162.66743 249.80215 436.93182
163.84578 249.80301 436.91815
165.00935 249.51805 435.94312
166.18517 249.51929 435.923
167.32109 248.9487 433.98364
168.49179 248.9503 433.95718
169.66254 248.95207 433.92752
170.83334 248.95404 433.89465
172.00418 248.95619 433.85855
173.17508 248.95853 433.81921
174.34605 248.96104 433.77667
175.51707 248.96376 433.73093
176.68817 248.96666 433.68195
177.90256 249.2558 434.58694
179.07639 249.25908 434.53143
180.25031 249.26254 434.47256
181.37332 248.98013 433.45367
182.59839 249.27003 434.34521
183.71643 248.98799 433.32013
184.94687 249.27832 434.2049
186.05994 248.99661 433.17361
187.10405 248.429 431.18341
188.2709 248.43376 431.10239
189.36879 248.15257 430.06238
190.60498 248.44388 430.9306
191.84648 248.73538 431.79517
193.17014 249.31331 433.61115
194.42485 249.60526 434.46811
195.52084 249.32504 433.41205
196.61179 249.04498 432.35318
197.69771 248.76509 431.29144
198.95821 249.05788 432.13483
200.03928 248.77837 431.06708
201.40027 249.35783 432.85678
202.67424 249.65129 433.689
203.95355 249.94496 434.51733
205.03275 249.66624 433.43658
206.21228 249.67403 433.30539
207.39203 249.68201 433.17087
208.57196 249.69019 433.03296
209.75211 249.69858 432.89175
211.04817 249.99361 433.6983
212.23135 250.00243 433.55008
213.29382 249.72501 432.448
214.47484 249.73422 432.29337
215.40388 249.17065 430.23578
216.58018 249.18027 430.0751
217.75671 249.19005 429.91098
218.9335 249.20007 429.74353
220.38351 249.78345 431.46924
221.70511 250.08054 432.2421
223.03215 250.37787 433.0108
224.36465 250.67546 433.77524
225.70265 250.97331 434.53537
226.89664 250.98474 434.34497
228.09091 250.99638 434.15109
229.28549 251.00826 433.95377
230.63765 251.30708 434.69788
231.67552 251.03261 433.54855
232.87099 251.0451 433.34064
233.90167 250.77098 432.18564
234.92746 250.49699 431.02798
236.289 250.797 431.75314
237.48315 250.81033 431.53162
238.67764 250.8239 431.30658
240.05063 251.12468 432.01917
241.42917 251.42572 432.72714
242.81328 251.72704 433.43054
243.64502 251.16736 431.31027
245.22104 251.75627 432.94504
246.42548 251.77119 432.69687
247.43645 251.49916 431.50702
248.63901 251.51448 431.25211
249.84192 251.53001 430.99353
250.84357 251.25845 429.79495
251.84036 250.98705 428.59384
253.24609 251.29048 429.26065
254.65747 251.59421 429.92261
255.8623 251.61075 429.6456
257.06757 251.62752 429.36493
258.70795 252.21947 430.94608
260.13928 252.52425 431.5889
261.5762 252.82927 432.22659
262.79355 252.84694 431.92844
264.01129 252.86479 431.6264
264.99899 252.59514 430.39105
266.2149 252.61331 430.08209
266.95981 252.05611 427.91287
268.1713 252.07452 427.59763
269.38321 252.09311 427.27856
270.83917 252.39977 427.88181
271.56201 251.84282 425.70346
273.02136 252.1498 426.29828
274.9895 253.03305 428.73587
276.46545 253.34055 429.31857
277.69031 253.36014 428.97339
279.43439 253.95615 430.46783
281.18942 254.55246 431.95532
282.16125 254.2843 430.67502
283.39551 254.30444 430.31177
284.90012 254.61298 430.86319
285.86511 254.34494 429.57327
286.8252 254.07686 428.28094
288.61401 254.67412 429.73511
290.13315 254.98306 430.26648
291.09155 254.71506 428.96292
292.61658 255.02412 429.48462
294.43567 255.6219 430.91357
295.39224 255.35382 429.59875
296.93127 255.66302 430.10403
298.17944 255.6835 429.69321
299.72681 255.99269 430.18771
300.37457 255.43536 427.95068
301.62064 255.45551 427.52853
302.25281 254.89764 425.28873
303.49377 254.91742 424.86032
305.04706 255.22601 425.33286
306.60568 255.53447 425.79944
308.16959 255.84277 426.26016
309.73874 256.15091 426.715
311.31311 256.45886 427.16388
312.24164 256.18811 425.8064
313.82104 256.49545 426.24533
315.07468 256.51318 425.78003
316.6615 256.81982 426.20804
318.25336 257.12616 426.63016
319.85007 257.43201 427.0463
321.45166 257.73743 427.45642
323.05801 258.04236 427.86063
324.32245 258.05725 427.3667
325.93555 258.36102 427.76004
327.20132 258.37457 427.25735
327.7572 257.80829 424.97275
329.37329 258.10989 425.35266
334.23203 261.01733 433.70905
339.50482 264.21405 442.92615
345.19937 267.69989 453.0004
349.85254 270.31604 460.39365
354.55151 272.93134 467.76337
355.56668 272.64856 466.29474
356.19937 272.07477 463.94424
357.198 271.78937 462.47385
360.85498 273.5307 467.1488
362.24091 273.53217 466.54489
365.55457 274.98077 470.31671
366.94891 274.979 469.70026
367.1673 274.10638 466.46008
368.9425 274.39084 466.71304
370.72009 274.67346 466.96069
371.3031 274.08502 464.59293
373.47873 274.65332 465.70251
374.85321 274.64014 465.06934
375.41098 274.04547 462.70056
376.36411 273.73831 461.19946
377.30832 273.42886 459.69843
378.24347 273.11707 458.19763
380.00296 273.38177 458.42062
380.92456 273.06497 456.91837
-45.291534 263.36789 425.29752
-44.04245 263.38934 425.88589
-42.381851 263.11646 425.60724
-40.722824 262.84131 425.3241
-39.065582 262.56403 425.03638
-37.810471 262.57684 425.61255
-36.949966 262.87994 427.05603
-35.291397 262.59677 426.75748
-33.242798 262.01947 425.58179
-32.371597 262.3172 427.01843
-30.330963 261.73651 425.83139
-28.683121 261.44647 425.51233
-27.42041 261.4472 426.06464
-26.914703 262.03116 428.36951
-25.266006 261.73682 428.03882
-24.369324 262.02576 429.46274
-23.094101 262.02112 430.00439
-22.186371 262.30762 431.4249
-19.806244 261.42395 429.3107
-18.168106 261.12372 428.95526
-15.811615 260.2381 426.82303
-13.828323 259.64386 425.56735
-12.210419 259.341 425.19138
-11.303436 259.62164 426.58707
-9.6889954 259.31717 426.20163
-8.427063 259.30411 426.70108
-7.8551788 259.87445 428.98041
-5.9010925 259.27594 427.68854
-4.6372375 259.26086 428.17651
-3.7103119 259.53723 429.55542
-2.4428558 259.52106 430.03659
-0.51060486 258.92059 428.71994
0.75231934 258.9035 429.19113
2.3424225 258.59418 428.75949
3.9274902 258.28452 428.32184
5.1858215 258.26636 428.77908
6.7632446 257.95612 428.33063
8.0191803 257.93735 428.77884
9.5888367 257.62668 428.31946
10.842178 257.60745 428.75873
12.403931 257.29645 428.28845
13.348801 257.56836 429.62509
14.905136 257.25705 429.14487
15.855118 257.52856 430.47516
17.703735 256.92572 429.07608
18.360886 257.48828 431.30905
19.906036 257.1767 430.80908
20.865906 257.44763 432.12668
22.118088 257.42725 432.52939
23.370041 257.4068 432.92798
24.903687 257.09525 432.40839
26.152435 257.07483 432.7981
27.677597 256.76343 432.26794
28.923126 256.7431 432.64871
30.16832 256.72278 433.02551
31.41317 256.70258 433.39832
32.923859 256.39154 432.84799
34.16539 256.37149 433.21201
35.40657 256.35153 433.57196
36.647362 256.33167 433.92798
37.887794 256.31189 434.28003
39.380836 256.00159 433.70529
40.617874 255.9821 434.04865
41.854507 255.96275 434.38809
43.335861 255.65298 433.79861
45.054001 255.05295 432.27823
46.521408 254.74368 431.67743
47.745956 254.72507 431.99844
48.970116 254.7066 432.31558
50.193871 254.68831 432.62888
51.187889 254.96051 433.86743
52.413467 254.94254 434.17374
53.638657 254.92473 434.47617
54.863426 254.9071 434.77484
56.306633 254.59952 434.13803
57.528 254.58231 434.42844
58.962555 254.27522 433.78223
60.180511 254.25844 434.06448
61.60643 253.95184 433.40894
62.615257 254.22548 434.61783
64.238281 253.62944 433.0184
65.449463 253.61356 433.28461
66.660286 253.59784 433.54709
67.675446 253.87219 434.74286
69.273445 253.27728 433.12357
70.290489 253.55202 434.31256
71.499832 253.53717 434.56042
72.708824 253.52252 434.8046
74.09967 253.21843 434.10553
75.125748 253.4939 435.2821
76.510689 253.19029 434.5748
77.541306 253.46613 435.74515
79.092125 252.87347 434.08807
80.293861 252.86018 434.30966
81.495262 252.84712 434.52771
82.368454 253.41318 436.6282
83.735794 253.11105 435.89658
84.938858 253.09863 436.10446
86.14164 253.0864 436.30875
87.497658 252.78503 435.5647
88.697227 252.77328 435.7616
89.896515 252.76173 435.95496
91.095535 252.7504 436.14478
92.294266 252.73929 436.33115
93.492737 252.72838 436.51401
94.690933 252.7177 436.69345
96.024208 252.41805 435.92175
97.219292 252.40781 436.09387
98.544273 252.10864 435.31415
99.736267 252.09886 435.47903
101.05298 251.80017 434.69138
102.36426 251.50175 433.89966
103.19109 252.35985 436.90302
104.26759 252.63992 438.0047
105.5782 252.34215 437.20279
106.65947 252.6226 438.29828
107.85509 252.61424 438.43994
109.26409 252.02818 436.67557
110.66252 251.44237 434.90659
111.74558 251.72365 435.98892
112.83363 252.00513 437.06851
114.11954 251.70892 436.24026
115.30626 251.70186 436.36087
116.40157 251.98389 437.43121
117.59055 251.97722 437.54541
118.86541 251.6819 436.70279
120.05148 251.67566 436.81012
121.15651 251.95842 437.86807
122.26659 252.24136 438.92316
123.5331 251.9469 438.06656
124.64806 252.23024 439.11548
125.90913 251.93617 438.25177
127.1649 251.64235 437.38446
128.35002 251.63748 437.46863
129.53502 251.63283 437.5495
130.78009 251.33963 436.67157
131.90471 251.62408 437.70135
133.14439 251.3313 436.81656
134.3264 251.32742 436.88412
135.55814 251.03506 435.99234
136.69014 251.32025 437.00946
137.87189 251.31697 437.06726
139.01149 251.60254 438.07828
140.19566 251.59961 438.12964
141.37978 251.59689 438.17776
142.56383 251.59435 438.22253
143.77956 251.30334 437.30722
145.0192 250.72392 435.43146
146.22188 250.43333 434.50922
147.39539 250.43158 434.54074
148.54745 250.71863 435.52621
149.72348 250.71724 435.5513
150.88324 251.00468 436.53049
152.04814 251.2923 437.5065
153.22925 251.29147 437.52197
154.41879 251.00221 436.57681
155.58553 251.57901 438.50061
156.76917 251.57877 438.50638
157.95354 251.29007 437.55145
159.13272 251.00157 436.59326
160.30675 250.71324 435.63184
161.48267 250.71375 435.62463
162.65858 250.71442 435.6142
163.82233 250.42667 434.64316
165.0105 250.71634 435.58359
166.16911 250.42896 434.6062
167.32259 250.14177 433.62567
168.47093 249.85474 432.64197
169.63928 249.85654 432.61234
170.80768 249.85851 432.57947
171.97614 249.8607 432.54346
173.11176 249.5744 431.54724
174.3132 249.86562 432.46161
175.51988 250.15701 433.37256
176.69116 250.15996 433.32349
177.90575 250.45175 434.22763
179.03395 250.1664 433.21567
180.25386 250.45859 434.11307
181.37706 250.1736 433.09488
182.60233 250.4662 433.98557
183.7767 250.47029 433.9169
185.00993 250.76332 434.80063
186.12578 250.47905 433.76984
187.17264 249.9062 431.78085
188.27576 249.62228 430.74445
189.37384 249.33855 429.70517
190.53854 249.34377 429.61774
191.77765 249.63795 430.48154
193.09894 250.22121 432.29602
194.35127 250.51587 433.15225
195.52689 250.5219 433.0509
196.61803 250.23929 431.99265
197.79135 250.24574 431.88501
198.96484 250.25235 431.77399
200.13849 250.25917 431.6597
201.31233 250.26624 431.54218
202.68149 250.8513 433.32602
203.86086 250.85876 433.20126
205.04041 250.86646 433.07321
206.11479 250.58534 431.9903
207.40009 250.88242 432.8071
208.46967 250.60167 431.71805
209.76057 250.89919 432.52756
210.94113 250.90788 432.38272
212.35858 251.49495 434.13455
213.42383 251.21501 433.03271
214.60765 251.22435 432.87744
215.66559 250.94479 431.76993
216.71857 250.66537 430.65961
217.76659 250.38615 429.54669
218.94357 250.39629 429.37897
220.25734 250.69583 430.15527
221.57655 250.99565 430.92752
223.04294 251.58499 432.64215
224.37569 251.88535 433.40549
225.86084 252.47528 435.11044
226.90813 252.19754 433.97391
228.1026 252.2093 433.77972
229.29739 252.22128 433.58203
230.49246 252.23349 433.38086
231.68784 252.24591 433.17615
232.88353 252.25854 432.96796
234.07953 252.27139 432.75623
235.10812 251.99493 431.5986
236.4725 252.29776 432.32217
237.66949 252.31126 432.09982
238.69122 252.03539 430.93304
239.88626 252.04927 430.70398
241.44322 252.64275 432.35123
242.64417 252.65717 432.11407
243.65947 252.38203 430.93442
245.23575 252.97636 432.56717
246.63164 253.28125 433.25644
247.45154 252.71687 431.12918
248.65431 252.73235 430.8739
250.05652 253.0379 431.55103
250.85925 252.47392 429.41672
252.06052 252.49001 429.15106
253.46912 252.79625 429.81601
254.67377 252.81274 429.54236
256.091 253.11952 430.19815
257.29904 253.13643 429.91641
258.72491 253.44371 430.56293
260.15643 253.75124 431.20441
261.5936 254.05905 431.84091
262.58585 253.78656 430.61218
264.02905 254.09482 431.23981
265.24738 254.11296 430.93353
266.69928 254.42166 431.55151
267.44949 253.85934 429.38214
268.42798 253.58748 428.13837
269.88373 253.89671 428.74414
270.85779 253.62509 427.49408
271.58066 253.06293 425.31693
272.79126 253.08202 424.9866
274.75699 253.97325 427.42184
275.97629 253.99272 427.08157
277.45282 254.30307 427.65909
279.19446 254.9044 429.15213
280.68491 255.21516 429.71802
281.65149 254.94432 428.43958
282.88055 254.96442 428.07742
284.65002 255.56653 429.54691
285.88507 255.58682 429.17523
287.12042 255.60719 428.79953
289.18991 256.50089 431.16608
290.71442 256.81256 431.69449
291.1116 255.95958 428.56216
292.35077 255.98003 428.16956
294.16727 256.58301 429.59717
295.41226 256.60352 429.19482
296.65747 256.6239 428.78845
