ply
format ascii 1.0
comment PCL generated
element vertex 1592
property float x
property float y
property float z
element camera 0
property float view_px
property float view_py
property float view_pz
property float x_axisx
property float x_axisy
property float x_axisz
property float y_axisx
property float y_axisy
property float y_axisz
property float z_axisx
property float z_axisy
property float z_axisz
property float focal
property float scalex
property float scaley
property float centerx
property float centery
property int viewportx
property int viewporty
property float k1
property float k2
end_header
181.89178 157.69415 441.71402
183.08754 157.78145 442.64624
184.17184 157.69624 441.58603
185.43375 157.86993 443.50644
186.51564 157.78482 442.44049
187.72452 157.87234 443.36005
188.80142 157.78734 442.28848
189.94443 157.78867 442.20801
191.08752 157.79004 442.12451
192.30701 157.87776 443.03146
193.53171 157.96555 443.93497
194.68021 157.96709 443.8421
195.99681 158.1413 445.73175
197.15065 158.14294 445.63245
198.30461 158.14465 445.53015
199.45866 158.14642 445.4248
200.70712 158.23456 446.30823
201.86398 158.23645 446.19659
203.12039 158.32471 447.07321
204.48407 158.49937 448.93729
205.75359 158.58777 449.8064
207.13553 158.76257 451.66241
208.52789 158.93747 453.51422
209.70613 158.93973 453.38193
210.88452 158.94205 453.24649
211.82819 158.77168 451.1293
212.64172 158.51501 448.02121
213.43997 158.25836 444.91193
214.47327 158.1745 443.7782
215.24611 157.91792 440.66595
216.00366 157.66136 437.55261
216.61308 157.31844 433.4509
217.20207 156.97552 429.34897
218.04669 156.80544 427.22012
218.59998 156.46255 423.11716
219.4192 156.29254 420.98599
220.2283 156.12256 418.85336
221.17564 156.03903 417.70444
221.66527 155.69624 413.59903
222.44147 155.52635 411.46259
223.36362 155.44296 410.30881
224.12218 155.27315 408.16934
224.87064 155.10336 406.02859
225.7728 155.0201 404.86938
226.50363 154.8504 402.7258
227.56233 154.85373 402.54477
228.10658 154.5976 399.41669
228.98386 154.51453 398.25021
230.03293 154.51801 398.06219
231.2616 154.60811 398.85135
232.31377 154.61174 398.65704
234.10416 154.96164 402.37589
235.9155 155.31168 406.08786
237.17883 155.40218 406.8588
238.44763 155.49275 407.62573
239.72191 155.58344 408.38861
240.6068 155.50101 407.1944
241.48682 155.41864 405.9982
242.76718 155.50955 406.75089
244.05304 155.60057 407.49942
244.92885 155.51842 406.29514
245.79977 155.43631 405.08884
246.66586 155.35426 403.88055
247.5271 155.27228 402.67035
248.16534 155.10367 400.48615
248.79353 154.93507 398.30121
249.63507 154.85324 397.08643
250.92369 154.94489 397.81024
251.98933 154.94992 397.56012
253.05536 154.95503 397.30692
254.58926 155.13373 398.98734
255.89764 155.22581 399.6944
257.21161 155.31799 400.39694
258.77274 155.4971 402.06152
260.10059 155.58952 402.75449
261.68082 155.76889 404.40805
263.02252 155.86156 405.09113
264.3699 155.95435 405.76959
265.21375 155.87354 404.51715
266.31003 155.87965 404.22522
267.14697 155.79897 402.9682
267.71671 155.63144 400.74823
268.80658 155.63779 400.44846
269.62927 155.5573 399.18579
270.44724 155.47687 397.92117
272.07916 155.65741 399.52902
273.44653 155.75113 400.17319
274.5415 155.75797 399.8558
275.91776 155.85193 400.49081
277.58316 156.03304 402.0759
279.25958 156.21432 403.65442
280.65845 156.3087 404.27286
282.06311 156.40321 404.88614
284.64905 156.84628 409.3017
287.2619 157.28964 413.70557
289.30328 157.55899 416.19708
293.47351 158.43867 425.32568
297.39252 159.23166 433.48514
299.51736 159.50188 435.93927
301.96829 159.85953 439.33121
304.12866 160.13022 441.76624
304.41577 159.87756 438.52148
305.00531 159.71219 436.2222
306.86584 159.89601 437.69565
307.44614 159.73076 435.39191
308.66748 159.74019 434.97067
309.8895 159.74973 434.54535
311.11215 159.75935 434.11597
312.33545 159.76907 433.6824
314.2316 159.95374 435.12033
315.80023 160.05113 435.61343
316.69196 159.97374 434.22876
318.26715 160.07135 434.71158
319.84827 160.1691 435.18817
320.73654 160.0919 433.79282
321.97217 160.10231 433.32712
323.56305 160.20036 433.78799
324.44513 160.12332 432.38281
326.40253 160.3092 433.76196
328.37109 160.49521 435.1326
329.9855 160.59372 435.56802
333.44574 161.13078 440.62531
338.42111 162.01903 449.36395
341.58362 162.4691 453.45889
346.27728 163.27049 461.22827
350.26205 163.89679 467.13065
353.52194 164.34782 471.17233
354.50488 164.27211 469.68323
355.48285 164.19638 468.19162
358.01318 164.47212 470.36502
359.3837 164.4843 469.77948
360.75446 164.49646 469.18921
362.52271 164.59656 469.50748
364.69644 164.78464 470.7309
364.86737 164.53278 467.38934
367.0491 164.72081 468.59955
369.64954 164.99693 470.70898
370.62286 164.92082 469.17633
372.00403 164.93266 468.54764
373.8009 165.03252 468.81924
376.02142 165.22043 469.98752
-38.294724 162.63992 432.45441
-37.021393 162.62888 433.03207
-34.934296 162.43648 431.78729
-33.26181 162.3347 431.44351
-31.193146 162.14233 430.18152
-29.932678 162.1311 430.7356
-28.672256 162.11986 431.28531
-27.805328 162.19907 432.74548
-26.542465 162.18773 433.28745
-25.279785 162.17638 433.82498
-23.631973 162.0746 433.43985
-22.372467 162.06329 433.96741
-21.113281 162.05197 434.49051
-19.477051 161.95033 434.08759
-17.846558 161.84875 433.67807
-16.593872 161.83759 434.18582
-14.602814 161.64587 432.83942
-13.356354 161.63484 433.33627
-12.474487 161.7141 434.75577
-10.864944 161.61293 434.31693
-9.6200409 161.60207 434.80081
-8.3756561 161.59126 435.2803
-6.7783966 161.49039 434.82443
-4.8362274 161.2995 433.43015
-3.2534027 161.19888 432.96069
-2.0219727 161.18849 433.41919
-0.79112244 161.17816 433.87338
0.098922729 161.25797 435.25949
0.9936676 161.33781 436.64331
1.558197 161.50771 438.96283
3.1293488 161.4077 438.4653
4.365036 161.39777 438.90149
5.927002 161.298 438.39279
7.483017 161.19838 437.8782
9.0331268 161.09891 437.3577
10.258316 161.08943 437.77475
11.482864 161.08006 438.18777
12.706757 161.0708 438.5968
14.241119 160.97183 438.05566
15.461136 160.9628 438.45578
16.374664 161.04366 439.79984
17.899261 160.94507 439.24417
19.417969 160.84662 438.68289
20.334915 160.92773 440.01675
22.142426 160.73985 438.4949
23.353485 160.73151 438.86981
24.563919 160.72325 439.24088
25.773773 160.71512 439.60815
26.983032 160.70708 439.97159
28.191711 160.69916 440.33124
29.958954 160.51215 438.77518
31.16124 160.50447 439.12573
32.911629 160.31778 437.55765
34.107582 160.31036 437.89926
35.303009 160.30301 438.23709
36.231392 160.3853 439.53101
37.956085 160.19917 437.9415
39.408554 160.10269 437.30658
40.596642 160.09581 437.62842
42.040237 159.99957 436.98422
43.478149 159.90347 436.33496
44.408714 159.98634 437.60861
45.344009 160.06927 438.88004
46.284042 160.15228 440.14923
47.714821 160.05661 439.48447
48.899536 160.05042 439.78137
50.321609 159.95497 439.10754
51.738007 159.85966 438.42905
53.148781 159.76447 437.74576
54.55394 159.66939 437.05774
55.726082 159.66373 437.33481
56.89782 159.65816 437.60843
58.069145 159.65268 437.87863
59.240082 159.64731 438.14548
60.410645 159.642 438.40887
61.366402 159.72604 439.64163
62.326981 159.81013 440.8721
63.920044 159.62666 439.17905
64.882492 159.71092 440.40338
66.053802 159.70605 440.6506
67.426224 159.61209 439.91907
68.991997 159.42905 438.20718
70.154541 159.42447 438.44284
71.510437 159.33081 437.69824
73.051933 159.14812 435.97186
74.205772 159.14381 436.19623
75.173386 159.2287 437.39587
76.329208 159.22455 437.61429
77.484756 159.22046 437.82947
78.283676 159.39465 440.0014
79.619408 159.30162 439.23065
80.949715 159.20868 438.45578
82.104156 159.2049 438.6582
83.426193 159.11212 437.87561
84.57756 159.10851 438.0712
85.728676 159.10495 438.26364
86.879562 159.10149 438.45291
88.030205 159.09808 438.63907
89.335556 159.00571 437.83817
90.635536 158.91344 437.03329
91.930138 158.82124 436.22455
92.924973 158.90714 437.38214
94.069389 158.90408 437.55185
95.2136 158.90111 437.71851
96.218155 158.98718 438.86832
97.364555 158.98433 439.02917
98.376465 159.0705 440.17383
99.656815 158.97881 439.34161
100.80269 158.97614 439.49319
101.94838 158.97354 439.64175
103.09391 158.97099 439.78726
104.36072 158.87958 438.94107
105.62222 158.78824 438.09125
106.76213 158.78589 438.22699
107.9019 158.7836 438.35965
109.15266 158.69246 437.49951
110.28957 158.69031 437.62589
111.42636 158.6882 437.74921
112.45956 158.77505 438.86023
113.59866 158.77307 438.97784
114.83591 158.68224 438.10129
115.9722 158.68036 438.21262
117.01521 158.76743 439.31265
118.15383 158.76566 439.41833
119.38036 158.67506 438.52878
120.43076 158.76228 439.62061
121.65195 158.67181 438.72464
122.8679 158.58139 437.82532
124.00089 158.5799 437.91565
125.20894 158.48959 437.00977
126.26659 158.57707 438.08731
127.46935 158.48689 437.1752
128.59943 158.48561 437.25345
129.72943 158.48438 437.32883
130.79706 158.57205 438.39532
131.98924 158.48209 437.4707
133.06186 158.56984 438.53165
134.19417 158.56882 438.5954
135.32642 158.56784 438.65616
136.4586 158.56691 438.71402
137.54384 158.65486 439.76385
138.6785 158.65402 439.81598
139.8131 158.65326 439.86517
140.94766 158.65253 439.91141
142.11884 158.563 438.95932
143.28482 158.47354 438.00418
144.41414 158.47296 438.04138
145.51448 158.56125 439.07132
146.6463 158.56076 439.10287
147.75427 158.64914 440.12717
148.86737 158.73755 441.14871
150.04161 158.55957 439.17981
151.17334 158.55927 439.19955
152.3186 158.4702 438.22052
153.44774 158.47 438.23444
154.57686 158.46983 438.24542
155.70013 158.55853 439.24957
156.8318 158.55847 439.25473
157.96349 158.55846 439.25702
159.09517 158.5585 439.25641
160.22685 158.55856 439.25281
161.35155 158.46988 438.25031
162.48068 158.47005 438.24094
163.62195 158.55908 439.22458
164.75366 158.55936 439.20938
165.90265 158.64848 440.18704
167.03699 158.64885 440.16595
168.14896 158.56044 439.14609
169.28078 158.5609 439.11911
170.44012 158.65022 440.0849
171.54448 158.56195 439.05652
172.67639 158.56256 439.02078
173.84355 158.65204 439.9776
174.9781 158.65274 439.93591
176.1127 158.65347 439.89133
177.24734 158.65428 439.84378
178.42751 158.74396 440.78833
179.51677 158.65602 439.73993
180.70218 158.7458 440.67831
181.89279 158.83563 441.61346
183.08859 158.92554 442.54544
184.17296 158.83778 441.48547
185.43492 159.01663 443.4054
186.58031 159.01784 443.33362
187.72578 159.0191 443.25897
188.80273 158.93155 442.18756
189.9458 158.93292 442.10709
191.08894 158.93433 442.02359
192.38477 159.11353 443.92328
193.53323 159.11505 443.83344
194.76321 159.20551 444.73331
195.99844 159.29602 445.6297
197.23892 159.3866 446.52267
198.30635 159.29945 445.42801
199.55219 159.39015 446.31445
200.80327 159.48091 447.19739
201.96277 159.48283 447.08545
203.12238 159.48482 446.9704
204.48611 159.66467 448.83398
205.75569 159.75569 449.70288
207.03056 159.84677 450.56812
208.53014 160.11578 453.4097
209.70844 160.11809 453.27734
210.77202 160.03152 452.1525
211.71317 159.85608 450.03595
212.76419 159.76962 448.9064
213.56506 159.50531 445.79739
214.47581 159.32999 443.67538
215.37643 159.15471 441.55154
216.00632 158.80153 437.45102
216.74866 158.53734 434.33731
217.20479 158.09521 429.24905
218.04945 157.92006 427.12064
218.74339 157.65594 424.00464
219.56525 157.48083 421.87347
220.2312 157.21677 418.75552
221.1786 157.13075 417.60678
221.81918 156.86674 414.48676
222.4445 156.60275 411.36621
223.21063 156.42783 409.22879
224.12532 156.34196 408.07346
225.03506 156.25616 406.91602
225.77605 156.08134 404.77405
226.67334 155.99564 403.61288
227.56569 155.90997 402.44971
228.10999 155.64621 399.32227
228.9873 155.56062 398.15594
229.85973 155.4751 396.98767
231.08586 155.56784 397.77689
232.31744 155.66068 398.56229
234.10793 156.02097 402.28012
235.91939 156.38141 405.99109
237.1828 156.47458 406.76172
238.25943 156.47867 406.55099
239.72604 156.66118 408.29086
240.61099 156.57628 407.0968
241.49107 156.49142 405.90073
242.77151 156.58502 406.65305
244.05746 156.67873 407.40125
244.93333 156.59409 406.19705
245.80434 156.50952 404.99091
246.88348 156.51424 404.75574
247.5318 156.34055 402.57272
248.38828 156.25613 401.36069
249.2399 156.17178 400.14673
250.0867 156.08751 398.93085
251.3806 156.18188 399.65314
252.22295 156.09775 398.43225
253.29164 156.103 398.17828
254.5945 156.19766 398.88934
256.13934 156.38179 400.56357
257.21701 156.38733 400.29822
258.77829 156.57172 401.96222
260.1062 156.66687 402.65475
261.68655 156.85153 404.30768
262.77899 156.85751 404.02621
264.12384 156.953 404.70496
264.71054 156.78027 402.49042
265.8017 156.78651 402.19971
266.63345 156.70335 400.94418
267.46051 156.62027 399.6868
268.28278 156.53725 398.42752
269.36801 156.54381 398.1257
270.18341 156.46092 396.86191
272.08575 156.73634 399.42773
273.72876 156.92238 401.02856
275.10461 157.01898 401.66663
276.20544 157.02611 401.34415
278.15698 157.30222 403.88266
279.55276 157.39923 404.50488
281.24298 157.58604 406.07529
282.94427 157.77304 407.63904
285.5383 158.22928 412.05072
287.56616 158.50639 414.54913
289.61035 158.78371 417.03894
293.78345 159.68951 426.16397
297.40094 160.41626 433.37189
299.52594 160.69446 435.8251
301.97705 161.06268 439.21585
303.82523 161.25153 440.70422
303.7948 160.90143 436.51602
304.69672 160.82089 435.16275
306.55475 161.0101 436.63641
307.13245 160.83984 434.33383
308.67676 160.93939 434.85452
309.89886 160.94914 434.42902
311.12164 160.95898 433.99939
312.34503 160.96892 433.56567
314.24127 161.159 435.00281
315.81 161.2592 435.49545
317.04321 161.26949 435.04636
318.62115 161.36995 435.52774
319.85828 161.38043 435.06927
320.74664 161.30086 433.67392
321.9823 161.31148 433.20795
322.86389 161.23199 431.8071
323.74072 161.15256 430.40408
325.69284 161.34378 431.78445
327.65619 161.53519 433.15646
328.89999 161.5462 432.66696
332.7204 162.18932 438.65106
337.32001 163.01346 446.46463
341.22141 163.65739 452.40784
345.53656 164.39207 459.25348
350.27356 165.21756 466.99817
352.38953 165.41061 468.27832
353.74847 165.4229 467.71149
355.10779 165.43521 467.13989
358.02484 165.80946 470.23001
359.0033 165.73135 468.72876
360.76605 165.83423 469.05368
362.53427 165.93715 469.37143
365.10803 166.22124 471.5061
365.68427 166.05238 469.07474
367.87128 166.2459 470.28183
370.06891 166.43942 471.47937
371.04483 166.36093 469.94562
371.60168 166.19157 467.50342
372.5636 166.11273 465.96622
374.35727 166.21521 466.23389
-37.48082 163.69839 430.51071
-36.212936 163.68723 431.08615
-34.131241 163.48949 429.83972
-32.464157 163.38498 429.49402
-30.802322 163.28044 429.14157
-29.544601 163.26906 429.69473
-27.890762 163.16449 429.32996
-27.029266 163.24617 430.78778
-26.162537 163.32777 432.2435
-24.902557 163.31625 432.78012
-23.642822 163.30472 433.31238
-22.383316 163.29318 433.84015
-21.124161 163.28168 434.36356
-19.487885 163.17722 433.96109
-18.232117 163.16577 434.47458
-16.976746 163.15436 434.98367
-14.61351 162.8643 432.71451
-13.36702 162.85304 433.21158
-11.756897 162.74899 432.77762
-10.152603 162.64505 432.33719
-9.2717438 162.72681 433.74799
-8.0299683 162.71582 434.22675
-6.4352722 162.61215 433.77036
-4.8464813 162.50859 433.30771
-3.9598846 162.59058 434.70444
-2.723053 162.5799 435.16507
-1.4868469 162.56932 435.62152
-0.25123596 162.55882 436.07373
0.98374939 162.54842 436.52179
1.8832397 162.63069 437.90329
3.4518738 162.52789 437.40527
4.684967 162.51776 437.84082
5.9174347 162.50775 438.27222
7.1492615 162.49783 438.69949
9.0238037 162.30304 437.23801
10.249084 162.29337 437.6553
11.473724 162.28378 438.06857
13.011475 162.1819 437.53278
14.543335 162.08015 436.99121
15.452332 162.16333 438.3374
16.671783 162.15421 438.7338
18.193863 162.05286 438.17776
19.40947 162.04396 438.5654
20.326492 162.12749 439.89926
22.13414 161.93423 438.37805
23.638016 161.8334 437.80139
24.845901 161.825 438.17194
26.053253 161.8167 438.53854
27.544815 161.71628 437.94724
28.466141 161.80042 439.26044
30.230896 161.60808 437.70432
31.430679 161.60023 438.05426
33.178581 161.40822 436.48611
34.643761 161.3085 435.86911
35.834015 161.30104 436.20575
36.490784 161.47787 438.45749
37.949104 161.37851 437.82809
39.401688 161.27928 437.19357
40.589874 161.27223 437.51559
42.033607 161.17326 436.87173
43.218163 161.16644 437.18588
44.402245 161.15973 437.49646
45.337646 161.24509 438.76776
46.277748 161.33054 440.03693
47.708649 161.23213 439.3725
48.893448 161.2258 439.66959
50.31562 161.12764 438.99619
51.496925 161.12152 439.28564
53.143021 160.93169 437.6351
54.31826 160.9258 437.91638
55.720512 160.82811 437.22467
57.117134 160.73055 436.52838
58.063759 160.8168 437.76877
59.234779 160.81131 438.03574
60.405403 160.80589 438.29935
61.361244 160.89238 439.53195
62.321907 160.97894 440.76227
63.705841 160.88197 440.04337
64.877602 160.87691 440.29401
66.253052 160.78015 439.56671
67.421509 160.77527 439.81021
68.987389 160.58698 438.09888
70.150002 160.58229 438.33469
71.312302 160.57768 438.5672
72.856491 160.38971 436.84189
74.012985 160.3853 437.06689
74.983261 160.47266 438.26688
76.141747 160.4684 438.4859
77.480713 160.37253 437.72238
78.279701 160.55177 439.89389
79.615517 160.45607 439.1235
80.945885 160.36047 438.34903
82.100418 160.3566 438.55148
83.254684 160.35281 438.75079
84.408714 160.34909 438.94687
85.562477 160.34546 439.13986
86.876106 160.25029 438.34683
88.026825 160.2468 438.53305
89.177322 160.24338 438.71609
90.632309 160.05685 436.92789
91.926987 159.96202 436.11945
92.92189 160.05042 437.27686
94.066368 160.0473 437.44666
95.068604 160.1358 438.599
96.215256 160.13283 438.76306
97.224838 160.22145 439.91028
98.239372 160.31013 441.05518
99.522385 160.21579 440.22354
100.67088 160.21306 440.37558
101.81921 160.21039 440.52451
103.09139 160.11627 439.68237
104.35826 160.02222 438.83652
105.61984 159.92825 437.98691
106.75981 159.92584 438.12271
108.01336 159.83202 437.26614
109.15047 159.82974 437.3956
110.39601 159.73605 436.53217
111.42427 159.82538 437.64542
112.45753 159.91476 438.75623
113.59668 159.91272 438.8739
114.834 159.81927 437.99762
115.87462 159.90883 439.10022
117.0134 159.90695 439.20886
118.15208 159.90515 439.31454
119.37866 159.81195 438.42532
120.42912 159.9017 439.51691
121.56749 159.90005 439.61362
122.78607 159.80704 438.71475
123.9994 159.71407 437.81253
125.20752 159.62115 436.90692
126.33782 159.61975 436.99115
127.46803 159.61839 437.07245
128.59818 159.61708 437.15076
129.72823 159.61581 437.2261
130.7959 159.70604 438.29242
131.92838 159.7049 438.36209
133.00362 159.7952 439.42297
134.08392 159.88556 440.48117
135.27341 159.79314 439.54782
136.40822 159.79219 439.60583
137.54297 159.79129 439.66092
138.67767 159.79044 439.71298
139.81233 159.78964 439.76224
140.94695 159.78888 439.80847
142.11816 159.69679 438.85666
143.28421 159.60474 437.90167
144.41357 159.60414 437.93893
145.54291 159.60359 437.97336
146.64583 159.69449 439.00027
147.77766 159.69403 439.02881
148.86699 159.8764 441.04562
150.04129 159.69327 439.07715
151.17307 159.69296 439.09698
152.31837 159.60132 438.11813
153.43657 159.6925 439.12784
154.56831 159.69234 439.13889
155.69418 159.78362 440.14279
156.82848 159.78354 440.14798
157.96277 159.78354 440.15027
159.09706 159.78357 440.14963
160.23137 159.78365 440.14603
161.36566 159.78377 440.13956
162.49998 159.78395 440.13013
163.63431 159.78418 440.1178
164.76865 159.78445 440.10248
165.903 159.78477 440.08426
167.03737 159.78514 440.06311
168.1494 159.69417 439.04346
169.28125 159.69464 439.01651
170.44066 159.78654 439.98209
171.57515 159.78711 439.94922
172.70967 159.78773 439.91339
173.87944 159.87979 440.86987
175.0166 159.88051 440.82806
176.11348 159.78989 439.78836
177.24817 159.7907 439.74081
178.3829 159.79156 439.69034
179.5177 159.79248 439.63687
180.70316 159.88486 440.57504
181.89383 159.97728 441.50998
183.08968 160.06978 442.44171
184.1741 159.97949 441.38196
185.43611 160.1635 443.30133
186.58154 160.16473 443.22952
187.72708 160.16602 443.15479
188.87268 160.16736 443.07709
190.01836 160.16876 442.99637
191.16412 160.1702 442.91269
192.38626 160.26314 443.81879
193.53479 160.26469 443.72891
194.6834 160.26631 443.63599
195.91612 160.35944 444.53238
197.15408 160.45261 445.42529
198.30814 160.45441 445.32288
199.55403 160.54771 446.20905
200.80518 160.64108 447.09171
201.96472 160.64305 446.97964
203.02496 160.5536 445.87381
204.4882 160.83012 448.72766
205.75784 160.92377 449.59628
207.03278 161.01749 450.46124
208.42271 161.20276 452.31232
209.71078 161.29662 453.16962
210.65956 161.11603 451.05579
211.59819 160.93549 448.94
212.76672 160.93802 448.7995
213.56763 160.66605 445.69107
214.60359 160.57716 444.55737
215.37909 160.30527 441.44608
216.26965 160.12494 439.32092
217.01718 159.8531 436.20715
217.4785 159.39819 431.11932
218.19032 159.12639 428.00439
218.88689 158.85461 424.88864
219.56816 158.58287 421.77206
220.23418 158.31116 418.65475
221.18163 158.22263 417.5062
221.82225 157.95096 414.38684
222.60112 157.77092 412.25079
223.36987 157.59091 410.1134
224.12854 157.41095 407.97473
225.03833 157.32263 406.81744
225.94321 157.23439 405.65811
226.67671 157.05453 403.51489
227.56914 156.96638 402.3519
228.11346 156.69496 399.22507
228.81668 156.51523 397.07846
230.04007 156.61053 397.87073
231.08954 156.61427 397.67969
232.3212 156.70976 398.46469
234.11179 157.08046 402.18152
235.92336 157.45131 405.89142
237.18686 157.54715 406.66171
238.45584 157.64307 407.42798
239.92511 157.83084 409.16669
240.81271 157.74347 407.97223
241.69547 157.65614 406.77582
242.77597 157.66066 406.55231
243.85678 157.66527 406.32578
244.7301 157.57814 405.12222
245.5986 157.49109 403.91681
246.46222 157.40408 402.70935
247.53659 157.40897 402.47214
248.39314 157.3221 401.26025
249.46562 157.32715 401.0174
250.53847 157.33228 400.77142
251.83768 157.42938 401.49219
252.6853 157.3428 400.2702
253.75928 157.34819 400.01486
254.83363 157.35367 399.75632
256.14481 157.45117 400.46201
257.22256 157.45685 400.19656
258.78394 157.64653 401.85989
260.11197 157.7444 402.55209
261.44562 157.84238 403.23972
262.53552 157.84846 402.95871
264.12991 158.0387 404.60114
264.71664 157.86093 402.3869
265.80792 157.86731 402.09607
266.89963 157.87379 401.80194
267.72934 157.78827 400.54388
268.28925 157.61073 398.32416
269.10684 157.52533 397.06308
270.46036 157.62427 397.71689
272.0925 157.81546 399.32343
273.73566 158.00684 400.92361
275.38977 158.19836 402.51736
276.77411 158.29787 403.14923
278.44763 158.48973 404.73071
280.1322 158.68176 406.30554
281.82782 158.87396 407.87369
283.82574 159.1586 410.38727
286.13394 159.53575 413.84381
288.46375 159.91315 417.29016
290.81516 160.2908 420.72623
295.30087 161.31516 430.79413
297.71402 161.69345 434.20337
300.14886 162.07204 437.60196
302.60541 162.45088 440.98972
304.14667 162.55272 441.53015
303.48892 162.00758 435.45273
304.70593 162.01711 435.0441
306.2438 162.11922 435.57422
306.81891 161.94395 433.27286
308.36072 162.0463 433.79395
309.90845 162.14877 434.3092
311.46216 162.2514 434.81851
312.35477 162.16899 433.44543
313.91501 162.27185 433.94458
315.1424 162.28223 433.50137
316.37042 162.29268 433.05402
317.94312 162.3959 433.5368
319.17502 162.40656 433.08008
320.40753 162.4173 432.61914
321.99271 162.52087 433.08533
323.229 162.5318 432.61484
324.10855 162.44998 431.21078
326.06342 162.64667 432.58936
327.66684 162.75067 433.03232
328.91064 162.7619 432.54254
331.99524 163.23767 436.67429
336.58972 164.08543 444.48727
340.48596 164.74777 450.43054
344.41998 165.41049 456.35406
348.39178 166.07361 462.25766
351.2572 166.45801 465.38199
352.99219 166.56349 465.73685
354.34613 166.57599 465.16724
356.86853 166.86774 467.34195
358.62308 166.9734 467.67456
359.9884 166.98595 467.08603
362.14865 167.1848 468.31851
363.91956 167.29051 468.62976
365.29315 167.30301 468.02338
367.88293 167.59515 470.14032
369.26428 167.60756 469.52072
371.05621 167.71317 469.80328
372.02637 167.63208 468.26721
372.99078 167.55081 466.72882
373.94937 167.46936 465.1882
-37.079117 164.8425 429.47046
-36.223495 164.92706 430.95215
-34.54866 164.81979 430.61493
-32.474869 164.61665 429.3613
-30.813126 164.50934 429.0094
-29.55545 164.49777 429.56274
-27.901657 164.39041 429.19849
-26.646744 164.37878 429.74191
-26.173538 164.55852 432.11188
-24.913574 164.54678 432.64877
-23.653839 164.53506 433.18124
-22.777176 164.61896 434.6282
-21.51532 164.60719 435.15289
-19.498901 164.40431 433.83099
-18.243134 164.39267 434.34476
-16.615601 164.28551 433.93079
-14.993835 164.17845 433.51028
-13.377869 164.07149 433.08331
-11.767685 163.96461 432.64984
-10.16333 163.85785 432.20996
-9.2824402 163.94199 433.62076
-8.0406036 163.93079 434.0997
-6.7993317 163.91965 434.57443
-5.558609 163.90857 435.04483
-4.6666565 163.99289 436.44354
-3.0789185 163.88666 435.97287
-1.8399811 163.87585 436.43054
-0.60163879 163.86511 436.88397
0.63609314 163.85446 437.33316
1.8731689 163.84392 437.77823
3.1096497 163.83347 438.21906
4.0158691 163.91824 439.59506
5.5807037 163.81285 439.08832
7.1396027 163.7076 438.57559
9.0142975 163.5074 437.11484
10.558701 163.40247 436.58945
11.780807 163.3927 437.00198
13.002258 163.38306 437.41055
14.534241 163.27852 436.86948
15.443314 163.36407 438.21564
16.662872 163.35477 438.61224
17.881836 163.34555 439.00485
19.100174 163.33646 439.39355
20.317886 163.32745 439.77832
22.125687 163.12881 438.25781
23.336929 163.12009 438.63318
24.837677 163.01663 438.05234
26.045105 163.00815 438.41919
27.536789 162.90497 437.82834
28.458221 162.9915 439.14145
30.223099 162.79381 437.58603
31.422997 162.7858 437.93616
32.896683 162.68317 437.32562
34.364571 162.58067 436.7099
35.557549 162.57303 437.04745
36.217003 162.75485 439.29956
37.941956 162.55804 437.71143
39.133377 162.55072 438.03793
40.065605 162.63814 439.32211
41.258591 162.63101 439.64215
42.704552 162.52939 438.99579
43.893959 162.52249 439.30786
45.082863 162.51569 439.61642
46.271301 162.509 439.92139
47.945343 162.31332 438.29196
49.127632 162.30687 438.58856
50.309494 162.30051 438.88159
51.726128 162.19974 438.2038
53.137108 162.09912 437.5213
54.312447 162.09308 437.8027
55.487373 162.08716 438.08063
56.886711 161.98686 437.38531
58.05822 161.98114 437.65579
59.229332 161.97549 437.92288
60.400063 161.96997 438.18658
61.355972 162.05891 439.41907
62.528542 162.05356 439.67661
63.909996 161.9539 438.95743
64.872589 162.04309 440.18155
66.248138 161.94365 439.45459
67.618164 161.84431 438.72321
68.783783 161.83942 438.96298
70.14537 161.7403 438.22339
71.114044 161.8299 439.43256
72.660927 161.63666 437.70834
73.820091 161.63213 437.93396
74.978958 161.62769 438.15625
76.137535 161.62332 438.37534
77.295799 161.61905 438.59128
78.27562 161.70909 439.78336
79.611519 161.61072 439.01334
80.941986 161.51245 438.23914
81.926163 161.60272 439.42255
83.083084 161.59883 439.62238
84.405014 161.50082 438.83734
85.558868 161.4971 439.03036
86.712479 161.49344 439.22021
87.86586 161.48987 439.40689
89.173943 161.3922 438.60709
90.476646 161.29462 437.80328
91.624191 161.29128 437.97977
92.771515 161.28801 438.1532
94.063278 161.19067 437.33847
95.207626 161.18755 437.50522
96.212296 161.27863 438.65472
97.358826 161.27565 438.8157
98.37085 161.36685 439.96005
99.5196 161.36398 440.11523
100.66817 161.36118 440.26727
101.81656 161.35846 440.41635
102.9648 161.3558 440.56223
104.11285 161.35321 440.70514
105.49852 161.16251 438.86807
106.64113 161.16005 439.00421
107.89731 161.06358 438.14828
109.14822 160.96719 437.2887
110.39383 160.87086 436.42557
111.52815 160.86867 436.54871
112.5589 160.96059 437.65909
113.49379 161.14661 439.75742
114.83205 160.95648 437.89099
115.87271 161.04855 438.99335
117.01156 161.04666 439.10205
118.15029 161.0448 439.20779
119.28893 161.04301 439.31049
120.342 161.1353 440.40213
121.48299 161.13362 440.49908
122.70419 161.03798 439.60071
123.84243 161.03641 439.6915
125.05574 160.94089 438.78659
126.26382 160.84544 437.87836
127.39666 160.84406 437.95984
128.59688 160.7487 437.04504
129.72699 160.74742 437.12045
130.85703 160.74619 437.1929
131.987 160.74501 437.26242
133.00253 160.93185 439.31689
134.08289 161.02477 440.37491
135.22037 161.02374 440.436
136.35779 161.02277 440.49417
137.44826 161.11581 441.54388
138.58815 161.11494 441.59622
139.72798 161.11412 441.64566
140.907 161.01938 440.69739
142.08084 160.9247 439.74594
143.28358 160.73608 437.7963
144.41299 160.73547 437.83359
145.54237 160.73492 437.86798
146.64536 160.82837 438.89462
147.80106 160.73395 437.92792
148.88785 160.92145 439.94424
150.04095 160.82713 438.97162
151.17278 160.82681 438.99146
152.33168 160.63863 437.01736
153.44737 160.73238 438.02676
154.57658 160.73221 438.03778
155.69411 160.92001 440.03702
156.82845 160.91995 440.04227
157.96207 161.01389 441.04007
159.09897 161.01393 441.03943
160.23589 161.01401 441.03583
161.36581 160.92018 440.03378
162.50018 160.92036 440.02435
163.63455 160.92059 440.01196
164.76894 160.92087 439.99664
165.90335 160.9212 439.97852
167.03778 160.92159 439.95731
168.14984 160.82805 438.93793
169.28175 160.82852 438.91092
170.44121 160.92302 439.87622
171.57574 160.9236 439.84335
172.71031 160.92422 439.80753
173.84492 160.92491 439.76877
175.01736 161.01962 440.72195
176.11427 160.92642 439.68246
177.24901 160.92726 439.63486
178.3838 160.92815 439.58441
179.51865 160.92908 439.53088
180.65355 160.93007 439.47452
181.89488 161.11908 441.4035
183.03503 161.12018 441.34088
184.17525 161.12132 441.27533
185.37643 161.21652 442.20053
186.51936 161.21777 442.12891
187.66237 161.21909 442.05429
188.87405 161.31447 442.96994
190.01978 161.31589 442.88913
191.1656 161.31737 442.80542
192.38782 161.4129 443.71127
193.53638 161.41451 443.62137
194.68506 161.41615 443.52844
195.91783 161.51189 444.4245
197.15585 161.60768 445.31711
198.22081 161.51547 444.22311
199.37247 161.51736 444.11786
200.61855 161.61334 445.0007
201.86987 161.7094 445.88
202.92758 161.61742 444.77463
204.49034 161.99576 448.61826
205.86462 162.18607 450.47662
207.1422 162.28241 451.341
208.53477 162.4729 453.19125
209.8255 162.56938 454.048
210.77689 162.38371 451.93433
211.83559 162.29218 450.80728
212.88931 162.20068 449.67776
213.81544 162.01515 447.55774
214.73145 161.82967 445.43585
215.50957 161.55011 442.32486
216.40274 161.3647 440.1998
217.15289 161.08521 437.08636
217.7523 160.71162 432.98566
218.33127 160.33804 428.88474
219.17108 160.15277 426.75482
219.85756 159.87337 423.63818
220.52876 159.59401 420.52078
221.48143 159.50299 419.37158
222.12726 159.22368 416.25208
222.91135 159.03857 414.11566
223.6853 158.85352 411.97787
224.2905 158.57428 408.85596
225.3642 158.5777 408.68085
226.11046 158.39275 406.53885
226.8466 158.20784 404.39563
227.74165 158.11719 403.23227
228.46021 157.93236 401.0863
229.16864 157.74756 398.93918
230.22052 157.75131 398.75052
231.09329 157.66086 397.57962
232.32504 157.75903 398.36438
234.11575 158.14012 402.08008
235.55322 158.33279 403.83331
237.00131 158.52557 405.58151
238.26778 158.62418 406.3479
239.73459 158.81718 408.08658
240.61966 158.72733 406.89279
241.69994 158.73186 406.67224
242.78052 158.73648 406.44864
243.86142 158.74118 406.22198
244.7348 158.65158 405.01865
245.39294 158.46767 402.84024
246.25403 158.37817 401.63351
247.5415 158.47758 402.36865
248.61633 158.48268 402.12823
249.6915 158.48785 401.8847
250.76703 158.49312 401.63803
252.29492 158.68739 403.32733
253.1478 158.59837 402.10422
253.99588 158.50943 400.87924
255.07294 158.51505 400.61996
256.38678 158.61526 401.32462
257.22824 158.52655 400.09195
258.78973 158.72154 401.7547
260.11786 158.82211 402.44647
261.45163 158.92281 403.13367
262.54163 158.92905 402.85254
263.88409 159.02998 403.53122
264.9776 159.03642 403.24283
266.07153 159.04295 402.95114
266.9061 158.95494 401.69513
267.99838 158.96165 401.39752
268.29584 158.68442 398.21786
269.11353 158.59657 396.95688
270.46713 158.69824 397.61023
272.37238 158.98952 400.17349
273.74271 159.09149 400.81564
275.67514 159.38313 403.36456
277.06219 159.48541 403.99524
278.45505 159.58781 404.62094
280.42581 159.88002 407.14859
281.83548 159.98274 407.76251
283.83359 160.27534 410.27512
286.14197 160.66302 413.73044
288.17535 160.95609 416.22528
291.12271 161.53412 421.55984
295.91321 162.68211 432.57245
298.33179 163.07103 435.97873
300.77209 163.46022 439.37436
303.54382 163.94469 443.7052
304.46838 163.85934 442.3522
303.81323 163.29886 436.27524
305.03296 163.30861 435.86548
306.57361 163.41354 436.39423
307.1514 163.23332 434.09222
308.69598 163.3385 434.61197
309.91827 163.34866 434.186
311.47205 163.4541 434.69473
312.69824 163.46449 434.25964
313.92511 163.47498 433.8204
315.15253 163.48557 433.37692
316.72211 163.59149 433.86438
318.29761 163.69757 434.34573
319.53223 163.70847 433.88779
321.11688 163.81479 434.3577
322.70746 163.92122 434.82132
323.59442 163.83704 433.41852
324.47662 163.75285 432.01343
326.07422 163.85956 432.46222
327.67767 163.96638 432.90457
329.28699 164.07332 433.34055
332.00629 164.46686 436.54468
336.23032 165.24274 443.43115
340.49747 166.01907 450.29602
344.0556 166.60468 455.29572
348.02493 167.28622 461.19827
350.88776 167.68126 464.32227
352.23605 167.69391 463.75943
353.58463 167.70656 463.19174
356.10172 168.00632 465.36758
357.85089 168.11475 465.702
359.21082 168.12746 465.11551
361.76318 168.42747 467.26218
363.93152 168.63177 468.48553
365.30499 168.64445 467.87888
367.89471 168.94463 469.99469
369.68411 169.0531 470.28278
371.06781 169.06563 469.65698
372.45123 169.07802 469.0264
373.41815 168.99434 467.48688
373.54163 168.71852 464.13916
-37.914032 166.2771 431.14441
-37.053238 166.36407 432.62842
-35.373184 166.25397 432.29416
-33.294083 166.04539 431.04367
-31.22554 165.83684 429.78406
-29.965286 165.82507 430.33881
-28.308884 165.7149 429.97629
-27.051361 165.70306 430.52109
-26.184753 165.78949 431.97668
-25.312973 165.87584 433.43015
-23.665115 165.76563 433.04651
-22.40567 165.75369 433.57483
-20.766327 165.64355 433.17896
-19.13269 165.53348 432.77655
-17.879547 165.52164 433.2894
-16.254623 165.4117 432.87485
-15.00499 165.39995 433.37793
-13.755753 165.38823 433.87656
-12.142838 165.27852 433.44467
-10.897263 165.26694 433.93359
-9.6521759 165.25542 434.41815
-8.4076385 165.24396 434.89844
-7.1636353 165.23257 435.37439
-5.5693359 165.12332 434.91476
-4.3291321 165.11212 435.38116
-3.0895233 165.101 435.84332
-1.5075836 164.9921 435.36694
-0.27183533 164.98117 435.81967
0.96333313 164.97032 436.26816
2.1978607 164.95958 436.71246
3.099472 165.04671 438.09073
4.3354187 165.03613 438.52762
5.8977051 164.92795 438.02048
7.4541016 164.8199 437.50732
9.0045471 164.71201 436.98828
10.549103 164.60425 436.46329
11.771286 164.5943 436.87616
12.992844 164.58444 437.28494
14.524933 164.47711 436.74438
15.434082 164.56508 438.09048
16.653778 164.55554 438.48724
18.176086 164.44861 437.93219
19.391891 164.43933 438.32025
20.309097 164.52766 439.65396
21.821686 164.42111 439.08459
23.328384 164.31473 438.50977
24.829254 164.2085 437.92944
26.036789 164.19983 438.29648
27.528595 164.09387 437.70612
28.732346 164.08543 438.06476
29.935532 164.07712 438.41959
31.138123 164.06892 438.77072
32.888939 163.86618 437.20468
34.08519 163.85825 437.54684
35.550064 163.75311 436.92706
36.476089 163.84268 438.22
37.934647 163.73782 437.59146
39.126183 163.73032 437.91812
40.317177 163.72295 438.24118
41.50766 163.71568 438.56067
42.697662 163.70851 438.87646
43.887161 163.70146 439.18875
45.324432 163.59737 438.53363
46.264717 163.68768 439.80258
47.938866 163.48669 438.17389
49.361717 163.38297 437.50476
50.541061 163.37648 437.79736
51.955208 163.27301 437.11932
53.363693 163.16968 436.43661
54.306511 163.26059 437.68582
55.481522 163.25452 437.96393
56.880966 163.15152 437.26898
58.052574 163.14566 437.53958
59.223778 163.13991 437.80685
60.611633 163.03725 437.09933
61.565048 163.12866 438.33105
62.523247 163.22017 439.56067
63.9048 163.11781 438.84186
65.280807 163.01558 438.11865
66.243118 163.10733 439.33929
67.613235 163.00531 438.60831
68.778954 163.00031 438.84814
69.944336 162.99539 439.08469
70.915665 163.08746 440.29425
72.274117 162.98582 439.54791
73.627075 162.88431 438.79739
74.788612 162.87975 439.02029
75.949852 162.87527 439.23999
77.110794 162.8709 439.45645
78.093269 162.96341 440.64886
79.256233 162.95918 440.85934
80.591957 162.85822 440.08643
81.751808 162.85416 440.28998
82.911377 162.85019 440.49042
84.235985 162.74951 439.70612
85.555191 162.64891 438.91769
86.70887 162.64517 439.10767
87.86232 162.64153 439.29446
89.015518 162.63795 439.47818
90.320892 162.5377 438.67511
91.471085 162.53429 438.85208
92.621071 162.53094 439.02591
93.915482 162.43094 438.21191
95.062469 162.42773 438.37918
96.209259 162.42462 438.54337
97.218964 162.51826 439.69022
98.36795 162.51526 439.84854
99.648529 162.41565 439.01724
100.66541 162.50949 440.15598
101.81386 162.50671 440.30505
102.83812 162.60065 441.4386
103.98883 162.59799 441.58185
105.25826 162.49873 440.73386
106.52238 162.39955 439.88214
107.78121 162.30046 439.02682
109.03475 162.20143 438.16785
110.283 162.10248 437.3053
111.41995 162.10023 437.4288
112.45334 162.19467 438.53922
113.49172 162.28915 439.64722
114.83005 162.09386 437.78131
115.87077 162.18846 438.88348
117.00967 162.18651 438.99228
118.14847 162.18462 439.09802
119.19913 162.27939 440.1922
120.34027 162.27762 440.29224
121.39845 162.37247 441.38107
122.70259 162.17764 439.49115
123.84088 162.17604 439.58197
125.05424 162.07791 438.67731
126.26239 161.97986 437.76932
127.46532 161.88185 436.85797
128.66302 161.78392 435.94333
129.72572 161.87918 437.01184
130.85582 161.87793 437.08435
131.92609 161.97328 438.1474
132.94421 162.16524 440.20157
133.97258 162.35725 442.2533
135.11525 162.35619 442.31473
136.30736 162.25864 441.37906
137.44734 162.25769 441.43442
138.58728 162.25681 441.48685
139.72719 162.25595 441.53629
140.90625 162.15863 440.58823
142.08014 162.06136 439.63705
143.28294 161.8676 437.68796
144.38089 161.9635 438.72012
145.54184 161.86639 437.75964
146.64485 161.9624 438.7861
147.77679 161.96193 438.81467
148.86621 162.15457 440.83054
150.0406 161.96114 438.86307
151.15637 162.05734 439.87811
152.30435 161.96056 438.89984
153.4252 162.05685 439.90906
154.55962 162.0567 439.92014
155.68816 162.15311 440.92358
156.82512 162.15305 440.9288
157.96278 162.05649 439.93573
159.09718 162.05652 439.93512
160.22716 161.96008 438.93619
161.35899 161.96021 438.92972
162.5004 162.05693 439.91559
163.63481 162.05716 439.9032
164.76926 162.05745 439.88794
165.9037 162.05779 439.86966
167.058 162.15471 440.84366
168.19507 162.15515 440.81949
169.33215 162.15564 440.79242
170.46928 162.15619 440.76239
171.60645 162.15678 440.72943
172.74362 162.15742 440.69345
173.84564 162.06158 439.65994
175.01813 162.15887 440.61285
176.11508 162.06313 439.57355
177.24988 162.06398 439.52594
178.38472 162.06488 439.47537
179.51962 162.06584 439.42197
180.65457 162.06686 439.36554
181.89595 162.26103 441.29398
183.09192 162.3587 442.2251
184.17644 162.26334 441.1658
185.37767 162.36113 442.09073
186.58412 162.45898 443.01236
187.72975 162.46033 442.93753
188.87546 162.46173 442.85971
190.09241 162.55975 443.77173
191.24086 162.56128 443.68777
192.4657 162.65944 444.5932
193.6169 162.66107 444.50299
194.76819 162.66275 444.40979
195.91959 162.66451 444.3136
197.15767 162.76291 445.20593
198.31184 162.76479 445.10345
199.46613 162.76672 444.99796
200.71483 162.86533 445.88025
201.87192 162.86737 445.76837
203.02914 162.86949 445.65347
204.49252 163.16154 448.5058
205.8669 163.35707 450.36365
207.14453 163.45602 451.22769
208.53717 163.6517 453.07736
209.82796 163.75082 453.93384
210.89429 163.65672 452.8092
211.95563 163.56267 451.6821
213.01196 163.46866 450.5524
214.06332 163.37473 449.42026
214.98454 163.18416 447.29822
215.76787 162.89696 444.18723
216.5359 162.60979 441.07513
217.2887 162.32263 437.96207
217.89072 161.93883 433.86194
218.47231 161.55502 429.76154
219.31474 161.36465 427.63171
219.86063 160.9809 423.53043
220.67767 160.79059 421.39825
221.63297 160.69708 420.24884
222.28143 160.41013 417.12967
222.91461 160.1232 414.00986
223.68864 159.93306 411.87256
224.45256 159.74295 409.73386
225.36765 159.64966 408.57608
226.11395 159.45963 406.43445
227.01659 159.36644 405.27298
227.91428 159.2733 404.10934
228.63547 159.0834 401.96338
229.34654 158.89355 399.81622
230.40108 158.8974 399.62698
231.2765 158.80447 398.45578
232.32895 158.80846 398.26111
234.1198 159.19997 401.97577
235.55736 159.39789 403.72836
237.00555 159.59592 405.47598
238.46439 159.79408 407.2186
239.93387 159.99236 408.95609
240.62415 159.8031 406.78644
241.90457 159.90468 407.5408
242.78516 159.81247 406.3421
243.86615 159.81729 406.11533
244.73962 159.72522 404.91211
245.3978 159.53624 402.7341
246.25897 159.44429 401.52753
247.54654 159.54639 402.2623
248.83966 159.64859 402.9928
249.69669 159.55688 401.77808
251.21912 159.75633 403.47104
252.75235 159.95592 405.15851
253.61049 159.86447 403.9343
254.46384 159.77309 402.70819
255.78 159.87595 403.41498
256.62894 159.78473 402.18372
257.47308 159.69356 400.95053
259.03729 159.89386 402.61197
260.36813 159.99718 403.3027
261.70459 160.10062 403.98886
262.54785 160.00983 402.74338
264.14249 160.21066 404.38446
264.98401 160.12006 403.13309
266.07806 160.12674 402.84128
266.91272 160.03629 401.58539
268.26758 160.14041 402.24762
268.56769 159.85558 399.06787
269.38809 159.76532 397.80627
270.74442 159.86975 398.45844
272.37946 160.07162 400.0629
274.02545 160.27368 401.66092
275.96069 160.57327 404.2081
277.63135 160.77571 405.79245
279.02954 160.88092 406.41611
281.00568 161.18109 408.94119
282.13202 161.18919 408.60068
284.13293 161.48975 411.11148
286.44409 161.888 414.56467
288.77686 162.28653 418.00769
291.72968 162.88034 423.33884
296.82761 164.15721 435.29465
299.25427 164.55676 438.69717
301.08844 164.76144 440.19562
303.86304 165.25909 444.52402
304.16553 164.97617 441.28027
303.50772 164.4003 435.20566
305.0426 164.50789 435.73975
306.58337 164.61563 436.26801
307.16119 164.43042 433.96631
308.70587 164.53839 434.4855
309.92828 164.54878 434.0593
311.15128 164.55927 433.629
312.7085 164.66763 434.13223
313.59921 164.58052 432.75601
315.16293 164.68913 433.24902
316.39111 164.70003 432.80121
318.30823 164.90678 434.2168
319.54291 164.91791 433.75858
321.47711 165.12497 435.15976
323.07043 165.23425 435.62186
324.31488 165.24568 435.14789
325.20245 165.15918 433.74078
326.80542 165.26877 434.18698
328.41428 165.37845 434.62671
330.02893 165.48825 435.06
332.01758 165.69627 436.4115
335.87106 166.39508 442.37192
340.1358 167.19246 449.23535
344.0675 167.89209 455.15555
348.41577 168.69031 461.97607
351.66278 169.19426 466.01678
353.40051 169.30544 466.36942
354.3703 169.22009 464.8812
356.89279 169.52794 467.05368
358.25519 169.54092 466.47058
359.61774 169.55386 465.88269
361.77533 169.76353 467.11475
363.94363 169.97327 468.33731
365.31702 169.98615 467.73041
367.90668 170.29433 469.84503
370.10413 170.50409 471.04022
371.90118 170.61533 471.31937
373.28979 170.62793 470.68613
374.26184 170.54184 469.14423
375.22809 170.45555 467.60013
-37.924805 167.52011 431.0025
-37.064178 167.60954 432.48648
-35.384216 167.49667 432.15268
-32.900986 167.18167 429.99393
-31.23671 167.06877 429.64426
-29.976501 167.05682 430.19919
-28.320145 166.94385 429.83719
-27.456161 167.03276 431.29596
-26.586975 167.12158 432.75269
-25.712585 167.21033 434.20721
-24.447556 167.19815 434.74246
-23.182785 167.18596 435.27325
-21.538116 167.07295 434.88019
-19.899109 166.96002 434.4805
-17.890945 166.7464 433.15259
-16.638168 166.73438 433.66132
-15.016312 166.62167 433.24191
-13.767075 166.60974 433.74084
-12.51828 166.59787 434.23538
-11.269974 166.58604 434.72559
-10.022171 166.57428 435.21146
-8.7749176 166.56259 435.69299
-7.5282288 166.55096 436.17029
-6.2820282 166.5394 436.64316
-5.0364532 166.52792 437.11185
-3.4458923 166.41605 436.64322
-2.2041321 166.40477 437.10236
-0.96298218 166.39357 437.55725
0.61517334 166.28206 437.07202
1.5174713 166.37146 438.45441
2.424469 166.46092 439.8345
4.3251343 166.2494 438.39603
5.8875275 166.1384 437.8894
7.1196442 166.12785 438.31738
8.9946136 165.91685 436.85822
10.539276 165.8063 436.3338
11.445114 165.89636 437.69016
12.669403 165.88629 438.10007
14.515442 165.67595 436.61581
15.424683 165.7663 437.96185
16.64447 165.75659 438.35889
18.166901 165.64685 437.80432
19.382813 165.63737 438.1926
20.30011 165.7281 439.52625
22.108185 165.51872 438.00729
23.319641 165.50961 438.38306
24.820633 165.40059 437.80319
26.02829 165.39172 438.17041
27.520233 165.283 437.58051
28.724075 165.27438 437.93936
30.207001 165.16595 437.33954
31.130081 165.25752 438.64572
32.606628 165.14935 438.03687
34.077385 165.04132 437.42279
35.273224 165.03331 437.76135
36.201973 165.12527 439.0549
37.927193 164.9178 437.4682
39.118813 164.91016 437.79507
40.309921 164.90262 438.11829
41.500511 164.89519 438.43793
42.690605 164.88788 438.75397
43.880226 164.88066 439.06638
45.317612 164.77382 438.41171
46.257988 164.86658 439.68048
47.932266 164.66026 438.05252
49.59568 164.45412 436.4183
50.772514 164.44751 436.71042
51.948929 164.44099 436.99896
53.357529 164.33495 436.31668
54.30043 164.42828 437.56577
55.475548 164.42209 437.84396
56.650253 164.41599 438.11874
57.824554 164.40999 438.39008
59.218094 164.3045 437.68759
60.606071 164.19913 436.98044
61.559555 164.29303 438.2121
62.729698 164.28743 438.46933
64.108757 164.1824 437.7504
65.275589 164.177 438.00037
66.442078 164.17171 438.24695
67.6082 164.1665 438.49026
68.773994 164.16139 438.73026
69.939476 164.15636 438.96686
70.910881 164.2509 440.17627
72.26944 164.14658 439.43033
73.433937 164.14183 439.65717
74.598145 164.13718 439.88071
75.762062 164.13258 440.10095
76.925674 164.12808 440.31799
77.910789 164.22308 441.5108
79.252045 164.11935 440.7424
80.587852 164.01572 439.96982
81.74778 164.01157 440.17349
82.739571 164.10689 441.3548
84.066841 164.00352 440.57129
85.551414 163.8009 438.80206
86.545044 163.89645 439.97421
87.701149 163.8927 440.1615
89.011986 163.7897 439.36273
90.165047 163.78613 439.54333
91.317894 163.78262 439.72076
92.47052 163.77919 439.89511
93.767593 163.67654 439.08182
94.917229 163.67326 439.24954
96.066681 163.67006 439.41412
97.215927 163.66693 439.57562
98.36499 163.66388 439.73404
99.51387 163.66089 439.88934
100.53339 163.75722 441.0282
101.8111 163.65512 440.19073
102.83542 163.75157 441.32407
103.98619 163.74886 441.46741
105.1368 163.7462 441.60764
106.28726 163.74362 441.74481
107.5513 163.64189 440.89047
108.81006 163.54022 440.03235
110.17212 163.33942 438.18155
111.31171 163.33713 438.30542
112.45116 163.33488 438.42624
113.48961 163.43188 439.534
114.63138 163.42978 439.64905
115.77303 163.42772 439.76114
116.91457 163.42572 439.87015
118.056 163.42378 439.9762
119.19731 163.42191 440.07922
120.33852 163.42009 440.17929
121.39674 163.51749 441.26794
122.62064 163.41663 440.37036
123.76155 163.41498 440.46143
124.97755 163.31425 439.55725
126.18832 163.21359 438.64975
127.32384 163.21213 438.73151
128.52675 163.11157 437.8175
129.65953 163.11023 437.89316
130.79225 163.10895 437.96585
131.80537 163.30597 440.02213
132.88589 163.40392 441.08264
133.97148 163.50192 442.14053
135.06216 163.59996 443.19565
136.25688 163.49982 442.26044
137.44641 163.39973 441.32202
138.58641 163.39882 441.37442
139.76816 163.29884 440.42969
140.9447 163.19891 439.48181
142.07944 163.19818 439.52515
143.2482 163.09837 438.57117
144.38028 163.09773 438.60852
145.51233 163.09714 438.64301
146.59158 163.29482 440.664
147.75253 163.19522 439.69794
148.84456 163.39301 441.71335
150.02158 163.19441 439.74649
151.15607 163.19409 439.76636
152.29054 163.19382 439.78333
153.42502 163.19359 439.7973
154.55946 163.19342 439.80841
155.68806 163.29239 440.81158
156.82507 163.29233 440.81683
157.9628 163.19321 439.82407
159.09724 163.19324 439.82339
160.23169 163.19333 439.81982
161.36613 163.19347 439.81332
162.51015 163.29276 440.79889
163.64719 163.293 440.78647
164.78424 163.2933 440.77115
165.92133 163.29364 440.7529
167.05841 163.29404 440.73166
168.21791 163.39359 441.7023
169.33269 163.29498 440.68039
170.49738 163.39465 441.64502
171.63715 163.39526 441.61194
