ply
format ascii 1.0
comment PCL generated
element vertex 1592
property float x
property float y
property float z
element camera 0
property float view_px
property float view_py
property float view_pz
property float x_axisx
property float x_axisy
property float x_axisz
property float y_axisx
property float y_axisy
property float y_axisz
property float z_axisx
property float z_axisy
property float z_axisz
property float focal
property float scalex
property float scaley
property float centerx
property float centery
property int viewportx
property int viewporty
property float k1
property float k2
end_header
196.58835 181.44838 435.9418
197.81496 181.5914 436.82605
198.955 181.59409 436.72095
200.18958 181.73729 437.59848
201.33244 181.74016 437.48709
202.47545 181.7431 437.37268
203.7207 181.88658 438.23999
204.86658 181.88971 438.11923
205.9053 181.75247 437.01114
207.04889 181.75578 436.88458
208.0802 181.61868 435.77118
209.10652 181.48169 434.6554
210.12784 181.34474 433.53705
211.26433 181.34839 433.39917
212.40099 181.35211 433.25818
213.6631 181.49643 434.09616
214.93059 181.64087 434.93051
216.20338 181.78542 435.76102
217.61458 182.07062 437.56891
218.76505 182.07486 437.41074
219.77753 181.93863 436.26907
220.92584 181.94307 436.10504
222.07434 181.94759 435.93784
223.07715 181.81163 434.78833
224.07498 181.67574 433.63638
225.3701 181.82115 434.439
226.67062 181.96669 435.23773
227.82028 181.97173 435.05478
228.97018 181.97687 434.86874
230.1203 181.9821 434.67938
231.43474 182.12813 435.46335
232.58798 182.13361 435.26724
233.91071 182.27986 436.0434
235.06708 182.28557 435.84042
236.22374 182.29138 435.63425
237.55765 182.43803 436.3989
238.71747 182.44409 436.18573
239.87759 182.45026 435.9693
241.40749 182.7381 437.69492
242.57341 182.74452 437.47092
243.73965 182.75107 437.24365
244.90625 182.75774 437.01309
245.87807 182.62369 435.80856
246.64734 182.34889 433.63162
248.00745 182.49673 434.36221
249.17021 182.50388 434.11938
250.33333 182.51111 433.87314
251.7049 182.65939 434.59149
253.29269 182.94878 436.27271
254.46475 182.95645 436.01468
255.85306 183.10522 436.71942
257.02847 183.11317 436.45398
258.20432 183.12126 436.18512
259.15689 182.98846 434.94836
260.10468 182.85576 433.70935
261.50546 183.00528 434.39453
262.91187 183.15495 435.07495
264.08984 183.16371 434.7887
265.26825 183.17261 434.4989
266.92575 183.4639 436.12686
268.11032 183.47311 435.8287
269.29535 183.48247 435.52695
270.97513 183.77435 437.13895
272.41608 183.92523 437.78662
273.35806 183.79385 436.51477
274.80527 183.94507 437.1539
275.48541 183.67264 434.92023
276.67606 183.68286 434.59613
277.86719 183.69324 434.26834
279.0589 183.70377 433.93686
280.2511 183.71442 433.60168
281.71454 183.86664 434.21506
282.63715 183.73618 432.92014
283.55505 183.60583 431.62311
285.02542 183.75851 432.22366
285.93921 183.6284 430.92059
287.13211 183.63991 430.56366
288.32559 183.65155 430.20297
289.80872 183.8049 430.78525
291.00598 183.81686 430.41608
292.79254 184.11221 431.93338
294.59015 184.40781 433.44342
296.09937 184.56197 434.00281
297.31216 184.57462 433.61392
298.52557 184.5874 433.22107
299.73956 184.60033 432.82419
301.26434 184.75519 433.36346
302.48221 184.76839 432.9577
303.38525 184.63989 431.60974
304.91974 184.79521 432.13416
305.81866 184.6669 430.77985
306.71289 184.53867 429.42325
308.25446 184.6944 429.93369
309.80194 184.85031 430.43817
311.35529 185.00639 430.93668
313.24854 185.30472 432.36099
314.47961 185.31906 431.91556
316.38989 185.61777 433.32571
318.31134 185.91666 434.72772
319.21011 185.78925 433.3378
320.79865 185.94626 433.79944
322.04306 185.96115 433.32892
322.93542 185.83386 431.9292
323.46765 185.56421 429.6033
325.06342 185.72154 430.04584
326.30438 185.7366 429.56021
327.909 185.89407 429.99097
330.2511 186.33655 432.2547
332.6095 186.77921 434.50769
336.46918 187.79205 440.41998
341.11426 189.09045 448.14563
345.80756 190.38937 455.84698
350.92841 191.83148 464.43823
354.57513 192.7036 469.34991
356.33118 192.86272 469.68338
358.09265 193.0218 470.00983
358.2999 192.60994 466.69034
358.49106 192.19775 463.37302
359.85184 192.21361 462.78021
361.61029 192.3721 463.08893
362.97333 192.38763 462.48563
364.73926 192.54584 462.78162
366.91595 192.84677 463.97321
369.51144 193.2905 466.05688
371.2998 193.44815 466.32816
372.67889 193.46257 465.69345
374.47375 193.61964 465.95197
375.85376 193.63336 465.30698
-39.774902 189.26468 431.61536
-38.49794 189.25128 432.20117
-36.813049 189.09209 431.88116
-34.728287 188.78717 430.65161
-32.653763 188.48216 429.41309
-31.787384 188.61331 430.8811
-30.518738 188.59882 431.44083
-29.249863 188.58412 431.99622
-27.98082 188.56927 432.54727
-26.711685 188.55429 433.09396
-25.442505 188.53922 433.63632
-23.790039 188.37878 433.26215
-22.523605 188.36353 433.79459
-21.257248 188.34821 434.32257
-19.615814 188.18768 433.93085
-17.979874 188.02719 433.53244
-16.349548 187.86674 433.12756
-14.724792 187.70636 432.71613
-13.105713 187.54602 432.29819
-12.216248 187.67572 433.71548
-10.60318 187.51547 433.28671
-8.6391907 187.21042 431.92865
-7.3942719 187.19531 432.4101
-5.7984467 187.03537 431.96219
-4.5570984 187.02039 432.43402
-2.9702148 186.86069 431.97464
-2.075882 186.99063 433.36493
-0.49531555 186.83115 432.89502
1.0794067 186.6718 432.41891
2.6483002 186.5126 431.93668
3.5458069 186.64284 433.31207
4.7781372 186.62851 433.75244
6.0099335 186.61429 434.18857
6.591507 186.88925 436.4899
7.8274231 186.87521 436.91962
9.3822784 186.7168 436.40869
10.297485 186.84744 437.76669
11.845871 186.68935 437.24573
13.388367 186.53143 436.71893
14.307068 186.66241 438.06647
15.843094 186.50482 437.52979
17.676895 186.20313 436.04562
18.897507 186.19022 436.4393
20.117493 186.17744 436.82898
21.632675 186.0206 436.27042
22.55571 186.15234 437.5965
23.773941 186.14 437.9744
24.991592 186.12781 438.34836
26.493912 185.97165 437.77081
27.707764 185.95976 438.13623
29.20105 185.80396 437.54861
30.41114 185.7924 437.90555
31.895424 185.63698 437.30798
32.829666 185.76973 438.60794
34.307602 185.61464 438.00128
35.245979 185.74765 439.29523
36.981857 185.44899 437.72592
38.183434 185.43835 438.05875
39.643532 185.284 437.43271
40.585045 185.41754 438.7132
42.292686 185.11969 437.12189
43.486977 185.1097 437.43857
44.929344 184.95605 436.79373
46.120071 184.94637 437.10242
47.310303 184.93683 437.40753
48.740791 184.78369 436.74921
49.927483 184.77444 437.04645
51.349243 184.62166 436.379
52.765343 184.46906 435.70673
53.945442 184.46028 435.99219
55.125145 184.45163 436.27405
56.304405 184.44312 436.55246
57.483246 184.43474 436.82739
58.661659 184.42651 437.09891
60.2743 184.1313 435.43594
61.446732 184.12335 435.69931
62.618767 184.11555 435.95929
63.580902 184.25137 437.18311
64.754768 184.24384 437.43689
65.928261 184.23639 437.68726
67.303139 184.08563 436.9653
68.47332 184.07846 437.2084
69.643158 184.07144 437.44809
70.618721 184.20792 438.65494
71.790482 184.20111 438.88846
72.773148 184.3378 440.09018
74.133011 184.18787 439.34558
75.30381 184.18143 439.56912
76.655273 184.03177 438.81641
77.822868 184.02557 439.0329
79.341782 183.73289 437.29822
80.676826 183.58368 436.53284
82.006424 183.4346 435.76328
83.162521 183.42892 435.96487
84.318359 183.42334 436.16327
85.473938 183.41788 436.3584
86.629242 183.41254 436.55045
87.942009 183.26408 435.76215
89.094246 183.25896 435.94733
90.398781 183.11076 435.15146
91.547966 183.10585 435.3299
92.696915 183.10106 435.50519
93.84565 183.09637 435.67731
94.994164 183.09177 435.84628
96.142471 183.08728 436.01215
97.427612 182.93977 435.1947
98.572937 182.93549 435.35391
99.586166 183.0744 436.49091
100.73368 183.07031 436.64429
102.00774 182.92323 435.81299
103.15231 182.91933 435.95981
104.29671 182.91553 436.10355
105.55994 182.76877 435.26169
106.58499 182.9082 436.38174
107.72888 182.90469 436.51627
108.87262 182.90126 436.64774
110.01621 182.89792 436.77606
111.15965 182.89467 436.9014
112.30294 182.89151 437.02365
113.54707 182.74542 436.15829
114.78593 182.59943 435.28937
115.92368 182.59654 435.40198
117.15455 182.45074 434.52618
118.38015 182.30505 433.64697
119.42427 182.4454 434.73581
120.55897 182.44287 434.83612
121.61058 182.58339 435.91965
122.74763 182.58099 436.01416
123.96239 182.43575 435.11902
125.02142 182.57648 436.19415
126.15819 182.57434 436.27963
127.29485 182.5723 436.36215
128.43143 182.57031 436.44165
129.50296 182.71135 437.50577
130.70433 182.56659 436.59171
131.84067 182.56485 436.6622
132.97693 182.56319 436.7298
134.1678 182.41869 435.80615
135.35345 182.27426 434.87924
136.48439 182.27283 434.93762
137.66222 182.12857 434.00436
138.79047 182.1273 434.0567
139.91864 182.1261 434.10608
140.96828 182.41078 436.13034
142.1015 182.40973 436.17398
143.2347 182.40875 436.21472
144.3994 182.26495 435.26321
145.50096 182.40703 436.28723
146.66045 182.26337 435.32965
147.79092 182.2627 435.35849
148.92139 182.26208 435.38431
150.05182 182.26157 435.40723
151.18222 182.26111 435.42722
152.32619 182.11783 434.45456
153.46498 181.97462 433.47891
154.58179 182.11726 434.47968
155.71544 181.97423 433.49817
156.84065 181.97412 433.50339
157.96587 181.97409 433.50562
159.09108 181.97415 433.50494
160.22072 182.11716 434.49109
161.3555 182.26024 435.4743
162.49544 182.40338 436.4545
163.62839 182.40373 436.44205
164.74667 182.26126 435.43701
165.87709 182.26175 435.41867
167.00754 182.2623 435.3974
168.138 182.26294 435.37317
169.26851 182.26364 435.34601
170.42657 182.40732 436.30527
171.55972 182.40817 436.27213
172.69289 182.4091 436.23602
173.79086 182.26721 435.20789
174.88373 182.12537 434.17694
175.9715 181.98361 433.14325
177.09715 181.98483 433.09558
178.26839 182.12904 434.03375
179.39671 182.1304 433.9801
180.57578 182.27478 434.91199
181.81329 182.56215 436.82889
182.94952 182.56377 436.76596
184.02745 182.42252 435.71204
185.16125 182.42429 435.64331
186.23161 182.28319 434.58389
187.36302 182.2851 434.50937
188.49451 182.28709 434.43188
189.69731 182.43211 435.33853
190.83154 182.43428 435.25488
191.96588 182.43651 435.16824
193.17926 182.58179 436.06516
194.23485 182.44122 434.98596
195.45358 182.58669 435.87643
196.59093 182.58926 435.77762
197.81761 182.73491 436.66144
198.95775 182.73766 436.55627
200.19241 182.88348 437.43335
201.23839 182.74339 436.33691
202.47845 182.88942 437.20743
203.72382 183.03554 438.07431
204.86975 183.03873 437.95346
205.90857 182.89896 436.84561
207.16208 183.04538 437.70258
208.19604 182.90578 436.58917
209.22504 182.76627 435.47339
210.13144 182.48375 433.37234
211.38817 182.63052 434.21671
212.5275 182.63434 434.07529
213.7923 182.78133 434.91257
215.06245 182.92844 435.74606
216.33794 183.07565 436.57578
217.61877 183.22299 437.40173
218.76935 183.22729 437.24347
219.78192 183.08858 436.10205
220.78952 182.94994 434.95825
222.07893 183.0977 435.77063
223.0818 182.95923 434.62128
224.37682 183.10722 435.42661
225.6772 183.25534 436.22797
226.82932 183.26038 436.0477
227.98163 183.2655 435.86417
229.13423 183.27075 435.67755
230.28708 183.27611 435.48776
231.44016 183.28157 435.29471
232.59351 183.28714 435.09845
233.91635 183.4361 435.87411
235.24463 183.58521 436.64563
236.40399 183.59113 436.43884
237.56363 183.59718 436.22876
238.90312 183.74667 436.98868
240.24811 183.89633 437.74438
241.41383 183.90276 437.52353
242.76723 184.05267 438.27121
243.74626 183.91597 437.07199
244.91296 183.92276 436.84125
245.68976 183.64284 434.66669
246.45654 183.36296 432.49091
247.81418 183.51352 433.22144
248.97447 183.52075 432.97891
250.34062 183.6716 433.7012
251.71234 183.8226 434.41898
253.0896 183.97379 435.13223
254.25917 183.98158 434.8746
255.64502 184.13307 435.57941
256.81799 184.14114 435.31433
257.99133 184.14935 435.04584
259.16513 184.15771 434.77393
260.33932 184.1662 434.49847
261.51395 184.17482 434.2196
263.15201 184.47092 435.8616
264.09863 184.33615 434.61295
265.27716 184.34521 434.32294
266.93488 184.64188 435.94995
267.87759 184.50749 434.69193
269.06018 184.517 434.39066
270.73752 184.81421 436.00229
272.17603 184.96785 436.65002
273.11551 184.83401 435.37906
274.56024 184.98798 436.01813
275.23788 184.71049 433.78574
276.42603 184.72089 433.4621
277.61472 184.73141 433.13477
278.80389 184.7421 432.80374
280.26175 184.89688 433.42163
281.72534 185.05186 434.03427
282.92139 185.06302 433.69064
283.84204 184.9303 432.39291
285.31519 185.08578 432.99207
285.9505 184.8092 430.73959
287.4274 184.96503 431.33032
288.62366 184.97688 430.96857
289.82047 184.98889 430.60294
291.3096 185.14523 431.17905
293.09894 185.44601 432.69437
294.89941 185.74704 434.20258
296.11176 185.75977 433.81729
297.62698 185.91693 434.37033
298.84317 185.92996 433.97632
300.36749 186.08746 434.51877
301.89771 186.24518 435.05557
303.43378 186.40311 435.58655
304.02936 186.12784 433.29803
305.25116 186.14154 432.883
306.15283 186.01086 431.52783
307.37317 186.02478 431.10556
308.59418 186.03883 430.67923
310.14441 186.19759 431.18201
311.70053 186.35652 431.67883
313.59656 186.66029 433.10098
314.83041 186.6749 432.65427
316.06482 186.68958 432.20331
317.98376 186.99388 433.60516
319.22455 187.00882 433.1438
320.11859 186.87898 431.75168
322.05768 187.18375 433.13382
322.95001 187.05402 431.73413
323.48224 186.77936 429.40878
325.07806 186.93948 429.85049
326.67966 187.09972 430.28589
327.92371 187.11502 429.79453
330.63181 187.71054 432.97592
332.99298 188.16125 435.22623
337.22678 189.33777 442.0513
341.50351 190.51477 448.85455
346.19974 191.83746 456.55072
351.32346 193.30591 465.1362
354.97296 194.19394 470.04385
357.11621 194.50114 471.28702
358.4957 194.51775 470.70001
358.31543 193.95285 466.47101
358.50635 193.53293 463.15466
359.86694 193.54892 462.56155
360.82938 193.41927 461.05795
362.18683 193.43483 460.45673
363.94714 193.59566 460.75427
366.11835 193.90184 461.94717
368.29968 194.20789 463.13071
370.07971 194.3681 463.40494
371.86444 194.52809 463.67227
374.48676 194.97903 465.72733
375.02786 194.7014 463.28995
-39.374649 190.3736 430.50549
-38.100693 190.36023 431.0903
-36.826065 190.34653 431.67093
-34.741562 190.03635 430.44257
-33.069199 189.87408 430.1087
-32.200409 190.00775 431.57773
-30.929306 189.99313 432.13889
-29.657959 189.97833 432.69574
-27.995102 189.8154 432.34
-27.114761 189.94823 433.79639
-25.457047 189.78508 433.42963
-24.187988 189.76974 433.96786
-22.918991 189.75433 434.50177
-21.650085 189.73883 435.03125
-19.255325 189.28 432.81128
-18.367432 189.41223 434.24484
-16.73439 189.24896 433.84174
-15.106995 189.08575 433.43219
-13.485199 188.92258 433.01608
-12.23111 188.9071 433.51395
-10.618027 188.74408 433.08603
-8.6539459 188.43359 431.72916
-7.4089813 188.41827 432.21091
-6.5158386 188.55048 433.61292
-4.9204102 188.38782 433.16153
-3.3307648 188.22527 432.70389
-2.0903473 188.21022 433.16754
-0.50968933 188.04791 432.69843
1.0651398 187.88577 432.22314
2.2986755 187.87103 432.67218
3.1988983 188.00365 434.04843
4.4339905 187.98907 434.49005
5.3410339 188.1218 435.86078
6.577652 188.10742 436.29498
7.8136902 188.09315 436.72504
9.3686676 187.93192 436.21487
10.917786 187.77087 435.69879
12.146774 187.75705 436.11469
13.686768 187.59634 435.58777
14.602936 187.72977 436.93427
16.136459 187.56938 436.39752
17.360413 187.55611 436.79636
18.583771 187.54297 437.19119
19.806549 187.52997 437.58203
21.028702 187.51712 437.96896
22.250305 187.50439 438.35184
23.471313 187.49184 438.7308
24.691711 187.47942 439.1059
25.911514 187.46716 439.47711
27.413422 187.30835 438.89642
28.909515 187.14972 438.31027
30.122375 187.13794 438.66824
31.609451 186.97971 438.07214
32.546425 187.11484 439.37274
34.027153 186.95694 438.76755
35.235176 186.9458 439.10956
36.706955 186.78827 438.4946
37.911316 186.77744 438.82831
39.374184 186.62027 438.2037
40.318428 186.75621 439.48477
42.028862 186.45297 437.89523
43.225914 186.44278 438.21283
44.671082 186.28635 437.56931
45.864532 186.27647 437.87894
47.300888 186.12039 437.22614
48.490791 186.11084 437.52786
49.918381 185.95511 436.86591
51.340286 185.79956 436.19913
52.756531 185.64421 435.52747
53.93679 185.63528 435.81311
55.116608 185.62648 436.09525
56.521133 185.47162 435.41055
57.474983 185.60928 436.64899
58.653534 185.60091 436.92068
60.049004 185.44652 436.22382
61.224167 185.43842 436.48801
62.398911 185.43047 436.74881
63.573296 185.42264 437.0061
64.747292 185.41493 437.26007
65.920937 185.40735 437.51056
67.295937 185.25388 436.78925
68.46624 185.24658 437.0325
69.636208 185.23943 437.27237
70.61187 185.37839 438.47903
71.783768 185.37144 438.71268
72.766533 185.51059 439.91418
73.940338 185.50391 440.14178
75.29744 185.35141 439.39389
76.64904 185.19904 438.64169
77.81675 185.19275 438.85834
79.335793 184.89478 437.12466
80.497749 184.88873 437.33374
81.83004 184.73694 436.56525
83.156906 184.5853 435.79251
84.312843 184.57962 435.99103
85.305634 184.71989 437.16217
86.623955 184.5686 436.37842
87.936844 184.41748 435.5907
89.08918 184.41226 435.776
90.24128 184.40717 435.95816
91.39315 184.40215 436.13708
92.544785 184.39725 436.3129
93.841003 184.24672 435.50687
94.989624 184.24203 435.67596
96.138031 184.23746 435.84189
97.286224 184.233 436.00476
98.568703 184.08292 435.18433
99.582016 184.22437 436.32108
100.72963 184.22018 436.47452
101.87704 184.21611 436.62491
103.14846 184.06647 435.79062
104.29295 184.06259 435.93445
105.55627 183.91316 435.09308
106.69785 183.90948 435.23044
107.83926 183.90591 435.36469
108.98051 183.9024 435.49591
110.12161 183.89902 435.62411
111.26257 183.89572 435.74921
112.29982 184.03812 436.85516
113.64503 183.74379 435.00613
114.78299 183.74075 435.1218
116.01666 183.59222 434.24979
117.15179 183.58939 434.35922
118.37749 183.44104 433.48038
119.42168 183.58395 434.56897
120.47092 183.72693 435.65497
121.60815 183.72441 435.75253
122.74529 183.72198 435.84711
123.88232 183.71964 435.93863
125.01924 183.71738 436.02722
126.15608 183.71521 436.11276
127.29282 183.7131 436.19531
128.36194 183.8566 437.2619
129.50108 183.85468 437.33865
130.64015 183.8528 437.41232
131.77914 183.85103 437.48309
132.9753 183.70383 436.56317
134.11157 183.70219 436.62775
135.29988 183.55518 435.70142
136.43346 183.55371 435.75998
137.56697 183.55234 435.81552
138.70042 183.55104 435.86813
139.87566 183.40433 434.92926
140.96718 183.54866 435.96439
142.10049 183.54758 436.00803
143.23375 183.5466 436.0488
144.39853 183.40019 435.09766
145.50017 183.54483 436.12134
146.65973 183.39859 435.16415
147.79028 183.39789 435.19299
148.94208 183.2518 434.22977
150.07002 183.25125 434.25259
151.18181 183.39627 435.26181
152.32584 183.2504 434.28955
153.46471 183.10461 433.31427
154.59001 183.10437 433.32535
155.70944 183.24966 434.32281
156.84387 182.95863 432.34933
157.96588 183.10408 433.341
159.09302 183.2496 434.32968
160.22087 183.24973 434.32611
161.35574 183.39539 435.30896
162.49574 183.54114 436.28876
163.62877 183.54147 436.27625
164.74712 183.39642 435.27158
165.87761 183.39691 435.25323
166.9883 183.25201 434.2428
168.13867 183.39813 435.2077
169.26926 183.39885 435.18051
170.4274 183.54514 436.1394
171.56061 183.54599 436.10623
172.66118 183.40146 435.08124
173.7919 183.40248 435.04227
174.92267 183.40358 435.00034
176.01309 183.25928 433.96692
177.14137 183.26051 433.91916
178.26973 183.26183 433.86844
179.39813 183.26323 433.81479
180.5266 183.26471 433.75815
181.70837 183.41176 434.68646
182.89537 183.5589 435.61154
184.02917 183.56061 435.54572
185.16307 183.56241 435.47699
186.29703 183.5643 435.40524
187.43109 183.56625 435.33047
188.49654 183.42276 434.26575
189.69943 183.5704 435.17203
190.90758 183.71814 436.07489
192.04456 183.72043 435.98804
193.2606 183.86835 436.88431
194.40036 183.87079 436.79117
195.45613 183.72777 435.70926
196.68022 183.87596 436.59592
197.82031 183.87866 436.49371
198.96054 183.88147 436.38852
200.1953 184.02994 437.26517
201.24136 183.88733 436.16901
202.48152 184.03598 437.03903
203.72696 184.18475 437.90549
204.873 184.18799 437.78455
206.01918 184.19135 437.66058
207.27536 184.34039 438.51669
208.19955 184.05264 436.42041
209.22862 183.91061 435.30487
210.25269 183.76866 434.18686
211.39194 183.77243 434.0484
212.53134 183.77631 433.90689
213.92159 184.07166 435.72504
215.19441 184.22142 436.55774
216.4726 184.37131 437.38666
217.62305 184.37561 437.23135
218.77373 184.38 437.07303
219.78638 184.23878 435.93188
220.93488 184.24338 435.76761
222.08359 184.24808 435.60022
223.23251 184.25287 435.42963
224.53021 184.40355 436.23407
225.68219 184.40857 436.05676
226.9881 184.55948 436.85367
228.14313 184.56473 436.66968
229.13953 184.42426 435.50598
230.45393 184.57555 436.29205
231.77376 184.72696 437.07404
232.76578 184.58681 435.90164
234.09131 184.73849 436.67636
235.25049 184.74442 436.4726
236.40997 184.75046 436.26563
237.56973 184.75662 436.05545
238.72978 184.76289 435.84195
240.07231 184.91522 436.5976
241.42032 185.06772 437.349
242.58649 185.07437 437.12466
243.75298 185.08116 436.89706
244.9198 185.08807 436.66614
245.89182 184.9491 435.46201
246.85901 184.81021 434.25562
248.22197 184.96352 434.98453
249.38757 184.97092 434.74078
250.55356 184.97845 434.49368
251.71988 184.98611 434.24316
253.09732 185.14001 434.95587
254.26701 185.14796 434.69806
255.65302 185.30219 435.40222
256.82611 185.31041 435.13696
257.9996 185.31877 434.86826
259.39722 185.47348 435.55975
260.34784 185.33591 434.32047
261.75153 185.49092 435.00385
263.16083 185.6461 435.68234
264.34167 185.6552 435.39502
265.52298 185.66443 435.10419
267.18344 185.96646 436.72946
268.12894 185.82968 435.47101
269.55881 185.98572 436.12732
270.74719 185.99557 435.82083
272.18588 186.15198 436.46799
273.12549 186.01572 435.19711
274.57037 186.17245 435.83557
275.24814 185.88997 433.60376
276.4364 185.90053 433.27985
277.62524 185.91124 432.95224
279.08008 186.06863 433.57385
280.54068 186.22624 434.19034
282.00708 186.38403 434.80157
283.2059 186.39542 434.45691
284.12927 186.26028 433.15854
285.60522 186.41861 433.75623
286.24326 186.13702 431.50348
287.7229 186.29565 432.09274
288.92194 186.30774 431.72986
290.41064 186.46677 432.30914
291.61346 186.47916 431.93777
293.11127 186.63855 432.50684
294.91193 186.94498 434.01389
296.12439 186.95789 433.62827
297.33746 186.97095 433.2388
298.55115 186.98416 432.84534
300.073 187.14447 433.38794
301.91089 187.45197 434.86401
303.44717 187.61269 435.39429
304.35828 187.47946 434.0437
305.90103 187.64052 434.56406
306.80804 187.50749 433.20712
307.71039 187.37454 431.84796
308.93408 187.38882 431.42032
310.15839 187.40321 430.98859
311.38324 187.41771 430.55267
313.61081 187.87415 432.90558
314.50806 187.74164 431.5285
316.07928 187.90384 432.00723
317.65631 188.06621 432.47983
319.2392 188.2287 432.94617
320.13324 188.09647 431.55411
322.07245 188.40665 432.93503
323.31744 188.42201 432.4595
324.20764 188.2899 431.05667
325.80884 188.45288 431.49554
327.41577 188.61597 431.92804
328.66516 188.63153 431.43423
331.01282 189.0901 433.69266
333.37671 189.54886 435.94022
337.24213 190.59877 441.84375
341.51904 191.79688 448.64316
345.8389 192.99548 455.42062
350.58087 194.34239 463.08911
354.22513 195.24622 467.99606
356.36298 195.55873 469.24023
358.12433 195.72336 469.56522
359.11096 195.59198 468.06534
359.30698 195.1644 464.74765
361.06799 195.32857 465.05844
362.43616 195.34454 464.45682
363.40344 195.21225 462.94641
365.17157 195.37585 463.23975
366.94452 195.53928 463.52606
368.72229 195.70248 463.80542
370.09341 195.71719 463.17841
372.29169 196.02805 464.34323
374.08313 196.19035 464.60172
375.45959 196.20399 463.95755
-39.387024 191.6283 430.29105
-38.113434 191.6149 430.8761
-36.431778 191.45042 430.55618
-34.754852 191.28572 430.22968
-33.082718 191.12079 429.89648
-31.81488 191.10635 430.46106
-30.546646 191.09167 431.0213
-29.672195 191.22742 432.48395
-28.009476 191.06177 432.12891
-27.129333 191.19711 433.58517
-25.085678 190.88072 432.30902
-24.202805 191.01578 433.75775
-22.933884 191.00021 434.29193
-21.66507 190.98459 434.82178
-19.645645 190.66812 433.51804
-18.755157 190.80276 434.95258
-17.119507 190.6367 434.55139
-15.12204 190.3204 433.2258
-13.500244 190.15445 432.81049
-12.24614 190.13879 433.30869
-10.633011 189.97296 432.88153
-9.0256042 189.80724 432.44803
-7.7779541 189.7917 432.93115
-6.8821564 189.92628 434.33411
-5.2839966 189.76077 433.88455
-3.6916046 189.5954 433.42868
-2.4484558 189.58011 433.89365
-0.86503601 189.41498 433.4263
0.71257019 189.24997 432.95273
1.9488373 189.23502 433.40308
2.8517609 189.37 434.78021
4.4197845 189.20538 434.29117
5.6543884 189.1907 434.729
6.5635986 189.32593 436.09644
8.1219482 189.16171 435.5921
9.6744537 188.99771 435.08179
10.904129 188.98354 435.50211
12.133209 188.9695 435.91837
13.67337 188.80598 435.39218
14.589615 188.9418 436.73865
16.123322 188.77861 436.20258
17.043671 188.91464 437.54269
18.269806 188.90128 437.93872
19.495331 188.88805 438.33075
20.720291 188.87495 438.71872
21.944641 188.86203 439.10281
23.458969 188.69986 438.53784
24.679504 188.68726 438.91324
25.899475 188.67477 439.2847
27.684235 188.36386 437.75717
29.177856 188.20247 437.17099
30.110809 188.33978 438.4776
31.598045 188.17874 437.8822
32.807327 188.16708 438.23203
33.746468 188.30478 439.52951
35.224205 188.14426 438.92044
36.696159 187.98395 438.30612
37.900642 187.97295 438.64017
39.104607 187.96208 438.97052
40.564514 187.80231 438.3421
42.018684 187.64276 437.70865
43.215874 187.63239 438.02655
44.661194 187.47321 437.38367
45.854797 187.46313 437.69354
47.04792 187.45325 437.99982
48.481354 187.29456 437.34335
49.670929 187.28497 437.64175
51.095604 187.12666 436.97626
52.514618 186.96854 436.30588
53.697617 186.95943 436.59238
55.107918 186.80164 435.91309
56.287453 186.79283 436.19193
57.466568 186.78415 436.46725
58.645256 186.77562 436.73917
60.040886 186.6185 436.04291
61.216171 186.61024 436.30728
62.39106 186.60214 436.56827
63.356026 186.74286 437.79221
64.7397 186.58633 437.0799
65.913452 186.57864 437.33069
67.086838 186.57108 437.57803
68.25988 186.56363 437.82199
69.432564 186.55632 438.06259
70.410934 186.69772 439.26947
71.585526 186.69064 439.50394
72.759789 186.6837 439.73499
74.119919 186.52835 438.99152
75.290947 186.52167 439.21542
76.642693 186.36661 438.46375
77.810509 186.3602 438.6806
79.15387 186.20541 437.92099
80.49176 186.05078 437.1571
81.824203 185.8963 436.38907
82.983124 185.89038 436.5914
84.141754 185.8846 436.79053
85.13723 186.02734 437.96185
86.458244 185.87337 437.17914
87.773834 185.71954 436.39236
89.084015 185.56583 435.60153
90.236229 185.56062 435.78375
91.388191 185.55554 435.96289
92.53994 185.55055 436.13876
93.836273 185.39734 435.33328
94.842758 185.54089 436.48111
95.993843 185.53622 436.64758
97.281792 185.38336 435.83154
98.429901 185.37891 435.9913
99.445877 185.52283 437.12811
100.72549 185.3703 436.30161
101.87302 185.36615 436.45203
103.14454 185.21385 435.61829
104.41072 185.06166 434.78076
105.67158 184.90961 433.93954
106.69421 185.05409 435.05878
107.83572 185.05045 435.19315
109.08836 184.89868 434.34177
110.11826 185.04343 435.4527
111.25931 185.04007 435.57791
112.40021 185.03679 435.70007
113.64195 184.88544 434.83539
114.78 184.88234 434.95117
116.01376 184.73117 434.07959
117.14897 184.72827 434.18909
118.37476 184.5773 433.31073
119.41904 184.72275 434.39899
120.55391 184.72009 434.49939
121.60568 184.86568 435.58228
122.74289 184.8632 435.67691
123.88 184.86081 435.76849
125.01702 184.85852 435.85712
126.08125 185.00441 436.92908
127.29076 184.85416 436.02533
128.35995 185.00021 437.09161
129.49918 184.99823 437.16843
130.63834 184.99634 437.24219
131.83722 184.84644 436.32584
132.97363 184.8447 436.39346
134.10999 184.84306 436.45813
135.29839 184.69342 435.5322
136.38249 184.84 436.57849
137.56563 184.69052 435.64636
138.69916 184.68919 435.69897
139.87447 184.53989 434.76056
140.96606 184.68677 435.79532
142.13614 184.53763 434.85074
143.26691 184.53661 434.89139
144.39764 184.53568 434.92908
145.52834 184.53482 434.96384
146.659 184.53403 434.99564
147.78963 184.53333 435.02451
148.92023 184.53268 435.05032
150.05081 184.53215 435.0733
151.18137 184.53168 435.09326
152.3119 184.53128 435.11035
153.45343 184.3829 434.13547
154.58138 184.38264 434.14661
155.70932 184.38248 434.15479
156.84053 184.23433 433.17102
157.9659 184.2343 433.17331
159.09496 184.53046 435.15063
160.22989 184.67862 436.13599
161.36296 184.67882 436.12939
162.50562 184.82715 437.10883
163.6413 184.82751 437.09631
164.76228 184.67989 436.09198
165.89542 184.68039 436.07358
167.00874 184.53293 435.06348
168.16177 184.68164 436.02792
169.29498 184.68236 436.00064
170.42824 184.68317 435.97043
171.59164 184.83212 436.92578
172.69485 184.68503 435.90109
173.82822 184.68607 435.862
174.99945 184.83527 436.8082
176.05469 184.54031 434.78671
177.18564 184.5416 434.73883
178.31664 184.54294 434.68793
179.44769 184.54437 434.63416
180.5788 184.54587 434.57733
181.76323 184.69556 435.50516
182.95288 184.84531 436.42969
184.08934 184.84705 436.36368
185.16492 184.70079 435.30759
186.23541 184.5546 434.24884
187.36697 184.55658 434.17422
188.49863 184.55867 434.09665
189.7016 184.70892 435.00244
190.90982 184.8593 435.90491
192.12329 185.00974 436.80392
193.34201 185.16029 437.69958
194.40288 185.01466 436.62057
195.54285 185.01726 436.52441
196.68291 185.01993 436.42517
197.82309 185.02271 436.32294
198.87155 184.87738 435.23297
200.10382 185.02847 436.10938
201.24438 185.03151 435.99799
202.48463 185.1828 436.86752
203.73018 185.3342 437.73352
204.87631 185.33752 437.61252
206.02257 185.34091 437.48837
207.27885 185.49263 438.34412
208.20313 185.1998 436.2485
209.11726 184.90701 434.151
210.25644 184.91077 434.01553
211.39577 184.91461 433.87698
212.53528 184.91856 433.73535
213.92563 185.21915 435.55261
215.19856 185.37158 436.38483
216.47684 185.52412 437.21323
217.62741 185.5285 437.05789
218.77818 185.53299 436.89938
219.92914 185.53757 436.73773
221.08034 185.54227 436.57303
222.23174 185.54706 436.40509
223.38336 185.55196 436.23407
224.53519 185.55696 436.05984
225.68727 185.56207 435.88248
226.99329 185.71567 436.67883
228.14844 185.72101 436.49472
229.30382 185.72647 436.30734
230.62093 185.88045 437.09244
231.94348 186.03458 437.8735
232.93816 185.89194 436.70084
234.09718 185.89786 436.50024
235.42831 186.05237 437.27023
236.24165 185.76157 435.11584
237.39896 185.76784 434.90594
238.55652 185.7742 434.69278
240.07877 186.07776 436.42032
241.24216 186.08441 436.19968
242.5932 186.23975 436.94669
243.94977 186.39522 437.68936
244.92676 186.25368 436.48776
246.09402 186.26086 436.25336
247.26166 186.26814 436.01556
248.42963 186.27557 435.77444
249.59796 186.28311 435.52997
250.76666 186.2908 435.28214
251.7276 186.14993 434.06412
252.89444 186.15785 433.81003
254.06168 186.16592 433.55258
255.66113 186.4716 435.22177
256.83435 186.47998 434.9563
258.22913 186.63727 435.65125
259.40576 186.64592 435.37823
260.58282 186.65474 435.10184
261.76035 186.66368 434.8219
263.1698 186.82162 435.49982
264.58496 186.97975 436.173
265.76898 186.98917 435.88126
267.43225 187.29657 437.50488
268.62244 187.30632 437.20468
269.81311 187.31621 436.90088
271.00427 187.32626 436.59354
272.19592 187.33644 436.28253
273.38803 187.34677 435.96786
274.58069 187.35727 435.6496
275.25851 187.06976 433.41833
276.44696 187.08051 433.09418
277.63593 187.0914 432.76633
278.82541 187.10243 432.43478
280.28357 187.26279 433.0513
281.7475 187.42334 433.66263
283.21722 187.58411 434.26859
284.41675 187.59581 433.91989
285.89548 187.75694 434.51608
286.8175 187.61969 433.21106
288.01868 187.63184 432.85089
288.93396 187.4948 431.54056
290.42285 187.65662 432.11911
291.62579 187.66922 431.74744
293.12372 187.83139 432.31577
294.33051 187.84433 431.93552
295.83752 188.00688 432.49356
297.65274 188.31915 433.9873
298.56421 188.18303 432.6521
300.3938 188.49573 434.13367
302.54483 188.95828 436.54654
303.46075 188.8226 435.19839
304.6875 188.83667 434.785
305.91486 188.85086 434.36755
306.82196 188.71544 433.01071
307.72437 188.58008 431.65161
308.94818 188.59457 431.22363
310.17258 188.60916 430.79153
311.72897 188.77374 431.28683
313.29123 188.93846 431.77603
314.52258 188.95343 431.32956
315.75452 188.96851 430.87888
317.32901 189.13364 431.35165
318.9093 189.29892 431.81821
319.80078 189.16425 430.42725
321.38739 189.32971 430.8833
322.9798 189.49533 431.33307
324.22263 189.51089 430.85388
325.82391 189.6767 431.29202
327.43091 189.84259 431.72375
329.40695 190.15881 433.06851
331.75995 190.62547 435.32309
334.12933 191.09233 437.56689
338.37155 192.31113 444.38107
342.65668 193.53044 451.17337
346.98474 194.75024 457.94363
350.97626 195.82007 463.77859
353.85931 196.43881 466.85782
355.6098 196.60617 467.19119
357.36566 196.77347 467.51758
357.95682 196.48895 465.11172
358.92987 196.35475 463.61304
361.08337 196.67227 464.83032
362.84933 196.83902 465.13336
363.81897 196.70419 463.62189
365.58948 196.87053 463.91327
367.77087 197.18742 465.09906
369.55365 197.35333 465.37534
371.34103 197.51895 465.64453
373.96094 197.98599 467.70227
376.17923 198.30191 468.85162
377.56854 198.31567 468.20111
-38.986694 192.72974 429.17496
-37.71611 192.71637 429.75894
-36.444824 192.70267 430.33884
-34.363464 192.38196 429.11151
-33.096313 192.36772 429.68054
-32.228088 192.5065 431.1492
-30.560715 192.33849 430.80585
-29.686523 192.47678 432.26837
-28.415329 192.46159 432.82141
-27.532761 192.59943 434.27875
-25.486526 192.27766 433.00494
-24.60112 192.41519 434.45465
-23.329651 192.39948 434.9903
-22.436325 192.53668 436.4346
-20.036209 192.0618 434.22018
-18.770401 192.0459 434.74045
-17.504852 192.03 435.25644
-15.504684 191.70825 433.93314
-13.515457 191.38666 432.60123
-12.261353 191.37079 433.09973
-10.648193 191.20218 432.67337
-8.6839447 190.88089 431.319
-7.7930603 191.01794 432.72412
-6.8972473 191.15497 434.12701
-5.2990265 190.98663 433.67825
-4.0526886 190.97108 434.1489
-2.8068237 190.95558 434.61526
-1.2206421 190.7876 434.14966
0.35971069 190.61975 433.67789
1.2632141 190.75705 435.05917
2.5043488 190.74191 435.5076
3.7449341 190.72688 435.95181
5.3125153 190.55954 435.45935
6.5493317 190.54477 435.89429
8.1078339 190.37775 435.39069
9.6604614 190.21092 434.88116
11.20723 190.04428 434.36569
12.119461 190.1823 435.71841
13.348083 190.16818 436.13092
14.26709 190.30637 437.47815
16.10997 189.98819 436.00409
17.030426 190.12662 437.34409
18.256683 190.11307 437.74048
19.482346 190.09964 438.13284
21.003296 189.9343 437.57813
21.931915 190.0732 438.90561
23.446442 189.90822 438.34128
24.66713 189.8954 438.71698
25.887238 189.88274 439.08875
27.389465 189.71832 438.50955
28.605804 189.70599 438.87277
29.821594 189.69379 439.23209
31.586449 189.37811 437.68872
32.523666 189.51808 438.98907
33.735153 189.50638 439.33618
35.213058 189.34308 438.72781
36.420837 189.33171 439.06662
37.62809 189.32048 439.40167
39.093903 189.15775 438.77917
40.553986 188.99521 438.15146
42.008324 188.83287 437.51865
43.205666 188.82233 437.83679
44.651154 188.66037 437.19461
45.844902 188.65015 437.5047
47.281586 188.48853 436.85321
48.471756 188.47864 437.15549
49.661476 188.46889 437.45413
51.086311 188.30782 436.78928
52.505486 188.14694 436.11954
53.918999 187.98624 435.44501
55.099091 187.97711 435.72757
56.27877 187.96815 436.00662
57.235451 188.11069 437.2453
58.416878 188.10199 437.51801
59.815262 187.94211 436.82294
61.208031 187.78239 436.12329
62.383064 187.77414 436.38446
63.348145 187.9173 437.60818
64.731956 187.75806 436.89655
65.905846 187.75023 437.14746
67.079369 187.74252 437.39499
68.053352 187.88615 438.60736
69.425339 187.72751 437.87994
70.403824 187.87137 439.08664
71.578545 187.86417 439.32123
72.941727 187.70596 438.58218
74.113197 187.69904 438.80957
75.467972 187.54114 438.06232
76.817253 187.38336 437.31076
77.98259 187.37686 437.52731
79.323502 187.21939 436.76776
80.658943 187.06207 436.004
81.818253 187.05594 436.20972
82.977272 187.04993 436.41223
84.136032 187.04404 436.61148
85.294518 187.03827 436.80756
86.613075 186.88161 436.0249
87.926208 186.7251 435.23825
89.078766 186.7197 435.42383
90.383659 186.56345 434.62949
91.533157 186.55826 434.80829
92.535011 186.70412 435.96146
93.831459 186.54823 435.15646
94.980286 186.5434 435.32581
96.128891 186.53865 435.49203
97.277298 186.534 435.65506
98.425499 186.52946 435.81497
99.309647 186.82678 437.93124
100.7213 186.52072 436.12552
101.86891 186.51648 436.27609
103.01635 186.51236 436.42355
104.28522 186.3575 435.58685
105.66779 186.05194 433.76505
106.69052 186.19896 434.884
107.83212 186.19524 435.01843
109.08485 186.04083 434.16757
110.11484 186.18811 435.27823
111.25598 186.18466 435.4035
112.2934 186.33209 436.50885
113.53782 186.1781 435.6449
114.67853 186.17493 435.76102
116.0108 185.87038 433.90628
117.05284 186.01816 435
118.2813 185.86456 434.12238
119.32823 186.01251 435.21051
120.3802 186.16055 436.29611
121.43719 186.30865 437.37915
122.66005 186.1554 436.48892
123.72198 186.30368 437.56635
124.93949 186.1506 436.66968
126.07906 186.14835 436.75555
127.28867 185.99547 435.85229
128.42548 185.99338 435.93201
129.56221 185.99136 436.00864
130.69887 185.98944 436.08234
131.83545 185.98761 436.15302
132.97194 185.98584 436.2207
134.05368 186.13483 437.27249
135.19263 186.13322 437.33432
136.3315 186.13171 437.39319
137.51727 185.97961 436.46161
138.65346 185.97827 436.51437
139.83142 185.82634 435.57645
140.96494 185.82515 435.6232
142.09839 185.82404 435.66696
143.23181 185.823 435.7077
144.36519 185.82205 435.74551
145.49854 185.82117 435.78036
146.65825 185.66974 434.82401
147.78896 185.66902 434.85291
148.91965 185.66838 434.87878
150.05029 185.66782 434.90173
151.14867 185.9686 436.89865
152.29799 185.81755 435.92728
153.44215 185.6666 434.95288
154.56432 185.81696 435.95255
155.70332 185.66615 434.9722
156.83719 185.51543 433.98889
157.96448 185.66602 434.97974
159.09691 185.81671 435.96765
160.23006 185.81683 435.96405
161.37019 185.96767 436.94604
162.50594 185.96796 436.93652
163.62955 185.81769 435.93549
164.76276 185.81813 435.92004
165.87869 185.66801 434.91321
167.00937 185.66861 434.89191
168.14006 185.66927 434.86761
169.29576 185.82065 435.82867
170.42909 185.82147 435.79843
171.59258 185.97302 436.75336
172.72855 185.974 436.7171
173.8293 185.82443 435.68994
174.9628 185.82558 435.64783
176.05594 185.67613 434.61496
177.18695 185.67743 434.56708
178.31802 185.6788 434.51617
179.40105 185.5296 433.47482
180.58035 185.68179 434.40543
181.76486 185.83408 435.33279
182.95459 185.98645 436.2569
184.03275 185.83755 435.20398
185.22775 185.99011 436.12183
186.30092 185.84137 435.06329
187.43513 185.84341 434.98843
188.50075 185.69482 433.92441
189.77507 185.99841 435.8158
190.91212 186.0007 435.73175
192.12567 186.15378 436.63037
193.34448 186.30695 437.52551
194.40544 186.1588 436.4469
195.46135 186.01071 435.3656
196.59894 186.01343 435.26657
197.8259 186.16696 436.14899
198.87445 186.01913 435.05936
200.01241 186.02213 434.95123
201.24747 186.17596 435.82388
202.48782 186.3299 436.69296
203.73346 186.48395 437.55844
204.98439 186.63809 438.42032
206.13333 186.64157 438.2959
207.39229 186.79593 439.15079
208.20677 186.3472 436.07343
209.35103 186.35095 435.94037
210.37785 186.20396 434.82263
211.51987 186.2079 434.68369
212.66205 186.21191 434.5416
214.18042 186.66859 437.33823
215.3307 186.67285 437.189
216.48117 186.67722 437.03665
217.63185 186.68167 436.88123
218.78273 186.68625 436.72263
219.79556 186.54001 435.58203
220.94426 186.54477 435.41751
222.23657 186.70056 436.22797
223.38831 186.70555 436.05676
224.68881 186.8616 436.85974
225.8436 186.86682 436.68188
227.15231 187.0231 437.47726
228.15384 186.87759 436.31647
229.30933 186.88313 436.129
230.62656 187.03979 436.91357
231.78516 187.04559 436.71927
232.77736 186.90048 435.54736
234.10315 187.05754 436.32092
235.26257 187.06369 436.11688
236.07343 186.76781 433.96359
237.22824 186.77417 433.75403
238.56296 186.93175 434.51324
239.90315 187.08948 435.26822
241.06407 187.09624 435.04791
242.60004 187.4054 436.76541
243.76678 187.41245 436.53748
244.93384 187.4196 436.30618
246.10124 187.4269 436.07156
247.26898 187.43431 435.83359
248.43709 187.44186 435.59229
249.8085 187.6008 436.31506
250.97992 187.60864 436.06644
251.73544 187.31406 433.88181
252.9024 187.32211 433.6275
254.06976 187.33032 433.36984
255.45346 187.49001 434.07339
256.84277 187.64987 434.77234
258.01654 187.65852 434.50323
259.41446 187.8187 435.19345
260.59167 187.82767 434.91681
261.76929 187.83676 434.63663
263.17896 187.99747 435.31393
264.59424 188.15836 435.98648
266.0152 188.31943 436.65414
267.44186 188.48068 437.31699
268.6322 188.4906 437.01657
269.82303 188.50067 436.71259
270.76709 188.3593 435.44794
271.95627 188.36963 435.13733
273.14594 188.38013 434.82318
274.59119 188.54242 435.46033
275.52679 188.40155 434.18381
276.9783 188.56419 434.81216
278.17264 188.57532 434.4826
279.10196 188.43484 433.19727
280.5629 188.59801 433.81232
281.75885 188.60959 433.47159
283.22876 188.77313 434.07693
284.9805 189.08873 435.62604
286.46463 189.25272 436.21997
287.39203 189.1131 434.91351
288.88257 189.27744 435.49826
289.80585 189.13806 434.18561
290.72443 188.99881 432.87076
291.93015 189.01163 432.49792
293.13644 189.0246 432.12122
294.34332 189.03772 431.7406
295.85052 189.20309 432.29791
297.06122 189.21652 431.9086
298.57751 189.38226 432.45544
299.79202 189.396 432.05728
301.93799 189.86655 434.47031
303.47455 190.03288 434.99899
304.70142 190.04715 434.58527
305.61066 189.90924 433.23169
307.15692 190.07607 433.74548
308.06207 189.93832 432.38556
309.28864 189.95306 431.9563
310.51578 189.9679 431.52292
311.74347 189.98285 431.08539
312.97174 189.99789 430.64368
313.86377 189.86049 429.26865
315.4299 190.02826 429.74777
316.65976 190.04358 429.29352
318.57959 190.36423 430.68744
319.8158 190.37976 430.22278
321.40253 190.54807 430.6781
322.99496 190.71646 431.12701
324.23785 190.73224 430.64752
325.83917 190.90082 431.08484
327.08554 190.91667 430.59567
328.69562 191.08542 431.02124
331.0434 191.56003 433.27625
333.77615 192.18777 436.43738
337.64459 193.27467 442.33295
341.92459 194.51501 449.12344
346.62415 195.90887 456.80557
350.23383 196.84407 461.72565
353.11157 197.47337 464.80499
354.85663 197.6434 465.1398
356.99438 197.96657 466.37683
357.58264 197.67688 463.97266
358.9455 197.69339 463.38208
361.4942 198.16949 465.50378
363.66064 198.49228 466.70935
364.63531 198.35498 465.19568
366.41089 198.52405 465.48395
368.19131 198.6929 465.76526
369.97644 198.86148 466.03958
371.35483 198.87631 465.40851
373.56036 199.19772 466.56732
375.35895 199.36533 466.82083
377.1618 199.53252 467.06738
-38.586304 193.82611 428.056
-37.318741 193.81279 428.63895
-36.050476 193.79912 429.21783
-34.376785 193.62915 428.89151
-33.10994 193.61487 429.46078
-31.842606 193.60033 430.02585
-30.178116 193.42966 429.68207
-29.306808 193.57053 431.14319
-28.038498 193.5553 431.6954
-27.547546 193.85147 434.05948
-26.27359 193.83585 434.60529
-25.383041 193.9758 436.05719
-23.725586 193.80423 435.6839
-22.829742 193.94391 437.12924
-20.426926 193.46097 434.9176
-18.785782 193.28935 434.52457
-17.520279 193.27328 435.04086
-15.152634 192.79063 432.80185
-13.530838 192.61914 432.38818
-12.276749 192.60315 432.88708
-10.663544 192.43173 432.46152
-9.0560455 192.26041 432.0296
-8.1624756 192.39986 433.43564
-6.9125366 192.38397 433.91623
-5.6630554 192.36812 434.39255
-4.4140015 192.35233 434.86453
-2.8219452 192.1814 434.40601
-1.5765076 192.16577 434.86847
0.0065917969 191.99509 434.3985
0.91282654 192.13477 435.78061
1.8237915 192.27448 437.16052
3.4000092 192.10413 436.6759
4.9703674 191.93396 436.18518
6.5348663 191.76395 435.68845
8.0935211 191.59412 435.18564
9.6462708 191.42448 434.67694
11.193176 191.25504 434.16232
12.419861 191.2406 434.57831
13.334259 191.38113 435.92776
14.562424 191.36694 436.33652
16.09642 191.19812 435.80203
17.016968 191.33896 437.142
18.243362 191.3252 437.53867
19.767715 191.15688 436.9895
20.99028 191.14342 437.37738
21.919022 191.28473 438.70474
23.724319 190.96236 437.19693
24.654541 191.10391 438.51718
25.874802 191.09105 438.88928
27.094482 191.07834 439.25748
28.593704 190.9113 438.67432
30.087082 190.74448 438.08575
31.574677 190.57785 437.49176
32.784241 190.56583 437.84222
33.99324 190.55396 438.18887
35.468697 190.38791 437.58047
36.409645 190.53069 438.87085
37.617043 190.51929 439.20618
38.823921 190.50803 439.53778
40.286781 190.34268 438.91153
41.743896 190.17755 438.28012
42.944 190.16681 438.59918
44.640953 189.84787 437.00208
45.834839 189.83746 437.3125
47.028244 189.82724 437.61926
48.221176 189.81714 437.92242
49.413643 189.80721 438.22202
50.841255 189.64336 437.55841
52.263191 189.47969 436.89001
53.679474 189.31622 436.21677
54.862312 189.30695 436.50021
56.044731 189.29779 436.78009
57.226715 189.28879 437.05652
58.628265 189.12601 436.36618
59.806824 189.11731 436.63501
60.984993 189.10876 436.90039
62.374924 188.94647 436.19733
63.340111 189.09209 437.4209
64.724091 188.9301 436.70981
65.898109 188.92212 436.96094
67.071762 188.91429 437.20868
68.245049 188.90659 437.45303
69.417992 188.899 437.694
70.590584 188.89157 437.93161
71.76284 188.88426 438.16586
72.934761 188.87708 438.39676
74.106354 188.87003 438.62436
75.461266 188.70941 437.87769
76.810684 188.54895 437.12674
77.797699 188.69598 438.31528
79.317192 188.38214 436.58444
80.479492 188.37576 436.79404
81.470818 188.52313 437.97366
82.635139 188.517 438.17722
83.799179 188.51096 438.37756
84.962944 188.50507 438.57468
86.286797 188.3457 437.79346
87.762985 188.03291 436.03271
89.07341 187.87384 435.24295
90.225838 187.86844 435.42545
91.52803 187.70963 434.62814
92.677406 187.70447 434.80389
94.116234 187.39241 433.02155
95.117737 187.54099 434.16812
96.26387 187.53616 434.33408
97.409805 187.53146 434.49689
98.421005 187.68033 435.63556
99.305244 187.9827 437.75107
100.58766 187.82483 436.92596
101.73796 187.82053 437.07697
103.01227 187.66289 436.24454
104.28125 187.50537 435.40836
105.54489 187.34798 434.56842
106.57028 187.4975 435.68738
107.82845 187.3403 434.84064
109.08129 187.18324 433.99026
110.11136 187.33304 435.10059
111.14644 187.48291 436.2084
112.29009 187.47949 436.33099
113.53461 187.32285 435.46753
114.577 187.47298 436.56699
115.91195 187.16318 434.71338
117.04991 187.16019 434.8233
118.18776 187.15724 434.93008
119.32549 187.1544 435.03394
120.37753 187.30496 436.11917
121.35163 187.60892 438.18661
122.57716 187.45303 437.29703
123.71958 187.45055 437.38922
124.93718 187.29486 436.49304
126.07683 187.29256 436.57901
127.28651 187.13705 435.67618
128.42342 187.13492 435.75592
129.56024 187.13287 435.83261
130.69698 187.13092 435.90637
131.83363 187.12903 435.97705
132.97021 187.12724 436.0448
134.10674 187.12553 436.10956
135.24318 187.1239 436.17136
136.37956 187.12236 436.2301
137.51588 187.12091 436.28589
138.69655 186.96629 435.35153
139.87202 186.81177 434.41394
141.00304 186.81055 434.46057
142.13402 186.80942 434.50424
143.26494 186.80836 434.54495
144.39583 186.8074 434.58273
145.4977 186.95973 435.60529
146.63107 186.95892 435.63721
147.78828 186.80496 434.67822
148.89777 186.95752 435.69208
150.03107 186.95694 435.71515
151.14821 187.10965 436.72321
152.28404 187.10925 436.74039
153.41986 187.1089 436.75452
154.55566 187.10864 436.76575
155.69733 186.95525 435.7858
156.83383 186.80194 434.80286
157.96378 186.95512 435.79337
159.09885 187.10838 436.78088
160.23022 186.95531 435.78909
161.37045 187.10873 436.77069
162.50626 187.10901 436.76111
163.64209 187.10938 436.74857
164.76323 186.95663 435.74506
165.89653 186.95714 435.72656
167.01001 186.80453 434.71722
168.14078 186.80522 434.69296
169.27158 186.80597 434.66568
170.40242 186.80682 434.6355
171.5634 186.96095 435.59006
172.72958 187.11519 436.54156
173.86568 187.11627 436.50226
175.00182 187.11743 436.46005
176.138 187.11868 436.41483
177.23126 186.96677 435.37939
178.36499 186.96817 435.32837
179.45065 186.81641 434.28732
180.58194 186.81799 434.23047
181.71327 186.81963 434.17062
182.95634 187.12787 436.08102
184.09297 187.12967 436.01492
185.22968 187.13159 435.94583
186.30292 186.9803 434.88763
