ply
format ascii 1.0
comment PCL generated
element vertex 1592
property float x
property float y
property float z
element camera 0
property float view_px
property float view_py
property float view_pz
property float x_axisx
property float x_axisy
property float x_axisz
property float y_axisx
property float y_axisy
property float y_axisz
property float z_axisx
property float z_axisy
property float z_axisz
property float focal
property float scalex
property float scaley
property float centerx
property float centery
property int viewportx
property int viewporty
property float k1
property float k2
end_header
168.63625 43.391731 407.85049
169.72919 43.20797 408.80463
170.76714 43.390419 407.79053
171.83264 43.389671 407.75638
172.93341 43.205727 408.70187
173.96376 43.388 407.67966
174.98904 43.570206 406.65485
176.05215 43.569221 406.60959
177.11533 43.568176 406.56155
178.13049 43.750221 405.52878
179.14058 43.932213 404.49347
180.252 43.747841 405.41891
181.14554 44.296021 402.41531
182.19876 44.294693 402.35382
183.19113 44.476471 401.30832
184.3054 44.291847 402.2225
185.22676 44.656662 400.19098
186.48099 44.10556 403.06076
187.60835 43.920738 403.96564
188.66721 43.919037 403.88702
189.80247 43.734062 404.78577
191.25854 42.816261 409.60086
192.49605 42.447922 411.47198
193.82797 41.896317 414.31879
195.26205 41.161385 418.14069
196.53845 40.792786 419.99976
197.91701 40.240875 422.83368
199.2168 39.872078 424.68469
200.72079 39.136734 428.48828
202.34499 38.21804 433.2648
203.99506 37.299217 438.03564
205.56638 36.563492 441.82321
207.48001 35.277885 448.53708
209.10056 34.541893 452.31302
210.51718 34.172295 454.13013
211.59955 34.352379 453.01395
212.55943 34.715691 450.91907
213.26907 35.445518 446.87079
214.08095 35.992012 443.7973
214.87755 36.538483 440.7225
216.29785 36.168365 442.52014
217.33752 36.348083 441.39014
218.50522 36.344406 441.23163
219.53758 36.523972 440.09628
220.84122 36.336792 440.90506
222.15022 36.149498 441.7099
223.4646 35.96212 442.51071
224.49271 36.141342 441.36328
225.81271 35.953743 442.15692
226.98711 35.949425 441.9751
228.31534 35.76162 442.76102
229.649 35.573692 443.54288
230.98808 35.385658 444.32059
232.3326 35.197487 445.09421
233.35469 35.376099 443.92502
234.53842 35.37117 443.72232
235.55334 35.549606 442.54785
236.39169 35.91143 440.40311
237.56851 35.906242 440.19177
238.39194 36.267937 438.04312
239.92307 35.895554 439.75912
241.28284 35.706543 440.50381
242.64809 35.517403 441.24417
244.01886 35.328125 441.98016
245.39511 35.138733 442.71173
246.39215 35.31633 441.51089
247.5793 35.310272 441.27115
248.56924 35.487694 440.06506
249.75452 35.481438 439.819
250.94016 35.47506 439.56955
251.92081 35.652206 438.35535
253.31253 35.46199 439.06024
254.28876 35.638954 437.84021
255.68645 35.448479 438.53708
257.08975 35.257851 439.22934
258.71698 34.883362 440.87537
259.6922 35.059898 439.64191
261.33325 34.685127 441.27783
262.53284 34.677673 440.99457
263.96161 34.486359 441.6636
265.16467 34.478668 441.37256
266.13425 34.654671 440.12317
267.09903 34.830605 438.8714
268.53741 34.638748 439.52426
269.73969 34.630638 439.21927
270.94244 34.622383 438.91077
272.39264 34.430138 439.54993
273.84857 34.237732 440.18408
275.05798 34.229118 439.86307
276.26785 34.22039 439.53836
277.22083 34.395523 438.26135
278.68915 34.202591 438.87781
280.16327 34.009506 439.48911
281.11249 34.184349 438.20221
282.5928 33.991028 438.80441
283.80841 33.981621 438.45639
285.5708 33.60392 439.99295
286.79266 33.594261 439.63577
288.5719 33.21624 441.15997
289.80005 33.206337 440.79346
291.02878 33.19635 440.423
291.97177 33.370453 439.10837
292.91003 33.54451 437.79138
294.13513 33.534286 437.41074
295.06662 33.708244 436.08835
296.29016 33.697868 435.70062
298.11316 33.318802 437.18127
299.34302 33.308243 436.78387
300.57349 33.297615 436.38245
301.80444 33.286911 435.97705
303.96585 32.722961 438.36566
304.58057 33.080925 436.08588
306.44629 32.701157 437.52921
307.36935 32.874672 436.17474
309.24927 32.494698 437.60538
309.84756 32.852676 435.31546
311.0874 32.841644 434.87961
312.3277 32.830612 434.43958
313.56854 32.819572 433.99545
315.47723 32.439323 435.3959
317.06061 32.243622 435.8649
318.64972 32.047897 436.32776
319.9028 32.03685 435.86295
321.50061 31.841148 436.31439
322.06311 32.199646 434.00107
323.66428 32.004044 434.44302
325.27106 31.808487 434.87869
327.59332 31.243408 437.14093
329.57416 30.863129 438.47723
330.84531 30.852562 437.97641
331.39081 31.211876 435.64465
336.31268 29.352859 444.25967
340.18304 28.048309 450.11551
345.20331 26.188919 458.68207
349.90317 24.514305 466.31339
354.65076 22.8396 473.92041
356.7941 22.459702 475.15543
358.18491 22.450066 474.57001
359.19135 22.625778 473.07538
361.3526 22.246803 474.28867
362.74515 22.238274 473.68823
363.35309 22.600296 471.28107
365.52884 22.222542 472.47372
368.112 21.660126 474.55603
369.51019 21.653488 473.93396
373.32373 20.536728 478.68591
375.54675 20.16095 479.83829
377.37128 19.970947 480.08734
379.61053 19.596481 481.22244
380.20599 19.963333 478.78198
381.62134 19.960693 478.12286
382.61655 20.144028 476.57047
-41.520462 30.873688 432.97763
-41.468643 30.329659 436.24844
-39.773209 30.516258 435.94196
-38.082062 30.703453 435.62903
-37.198105 30.526245 437.10474
-36.706833 30.167122 439.47745
-35.015945 30.355896 439.15097
-33.329819 30.545097 438.81805
-31.648422 30.734703 438.47855
-29.583755 31.107086 437.22919
-28.300323 31.115005 437.78
-26.633743 31.305649 437.4209
-24.592072 31.678917 436.14859
-23.315918 31.687744 436.68326
-21.289856 32.061478 435.39566
-19.646606 32.253082 435.00952
-18.747818 32.08033 436.43918
-17.476837 32.090065 436.95453
-16.570206 31.91777 438.37881
-15.296829 31.927887 438.88663
-12.946701 32.484718 436.64392
-11.325302 32.677246 436.22348
-10.06311 32.687683 436.71417
-8.0992126 33.062469 435.36368
-6.8429108 33.073059 435.84378
-5.9326324 32.901642 437.24014
-4.3312988 33.094444 436.79129
-3.0760651 33.105209 437.2587
-2.1589813 32.934006 438.64532
-0.56677246 33.126862 438.18076
0.35475159 32.95575 439.56085
1.6109467 32.966637 440.0123
2.8666992 32.977531 440.4595
4.4465179 33.170311 439.9743
6.0205231 33.363007 439.48315
7.2695313 33.373802 439.91592
8.8346252 33.566383 439.4137
10.393951 33.758896 438.90546
11.947464 33.951294 438.39139
13.186478 33.961845 438.80508
15.343185 34.517563 436.41119
16.573227 34.527916 436.81421
17.802734 34.538223 437.21313
19.031723 34.548447 437.60809
20.555725 34.740257 437.06113
21.780975 34.750305 437.44733
22.715424 34.578659 438.7691
23.942261 34.58857 439.14816
24.88353 34.416824 440.46445
25.829483 34.245026 441.77844
27.339737 34.436218 441.20459
29.398529 34.990295 438.73822
30.34288 34.818192 440.04059
32.107727 35.190437 438.50543
33.322975 35.199608 438.85501
34.271019 35.027245 440.14734
35.487839 35.036224 440.49011
36.965622 35.226494 439.88101
38.178802 35.235222 440.21552
39.64772 35.425217 439.59674
41.110916 35.615051 438.97287
42.317421 35.623436 439.29468
43.771812 35.813004 438.66132
44.728935 35.639854 439.92737
46.17717 35.829163 439.28528
47.37915 35.837074 439.5918
48.34272 35.663658 440.84885
49.546402 35.671371 441.14871
50.982376 35.860153 440.4895
51.952415 35.68644 441.73767
53.15477 35.69381 442.02673
54.806587 36.063362 440.39743
56.225227 36.251602 439.72015
57.41851 36.258591 439.99673
58.611382 36.265457 440.26981
59.803864 36.272224 440.53934
60.995956 36.278893 440.80533
62.397003 36.466484 440.10696
63.585724 36.4729 440.36548
64.978241 36.660248 439.65845
65.760483 36.304405 441.83475
66.950699 36.310516 442.08344
67.747787 35.954552 444.25607
68.942497 35.96048 444.49893
70.328033 36.147247 443.77371
71.896675 36.514854 442.07877
72.896568 36.339485 443.27563
74.268181 36.525894 442.53763
75.6343 36.712173 441.79526
76.460159 36.355629 443.95023
77.647415 36.360802 444.16833
78.834358 36.365883 444.38312
80.021011 36.37085 444.5946
81.375298 36.556595 443.83362
82.889465 36.923058 442.09894
84.067528 36.927704 442.2991
85.565659 37.293922 440.55518
86.738029 37.298363 440.74789
88.065155 37.483536 439.96613
89.234444 37.487778 440.15195
90.403481 37.491936 440.33453
91.572304 37.49601 440.51382
92.740883 37.499985 440.68994
93.909233 37.503876 440.86285
95.07737 37.507683 441.03253
96.108345 37.330643 442.17297
97.278633 37.33429 442.33661
98.316925 37.157097 443.47174
99.618599 37.341301 442.6543
100.66164 37.163963 443.78375
101.95777 37.347984 442.95929
103.12709 37.351204 443.10696
104.29622 37.35434 443.25153
105.58151 37.538094 442.4162
106.74771 37.541054 442.55417
108.02495 37.724617 441.71167
109.29686 37.908096 440.86548
110.45744 37.91082 440.99338
111.51441 37.732803 442.09625
112.77816 37.916039 441.23981
113.83998 37.737892 442.33701
115.09831 37.920967 441.47379
116.165 37.742668 442.56531
117.0555 37.203064 445.61288
118.04934 36.844032 447.6792
118.96788 36.304329 450.72311
119.90172 35.764587 453.76523
120.77055 35.044174 457.7858
121.81532 34.684952 459.84387
123.09581 34.867477 458.95755
124.5889 35.591728 455.125
125.99127 36.135277 452.26883
127.58055 37.22052 446.46469
129.20381 38.486229 439.67395
130.79103 39.751823 432.87775
132.28242 40.836731 427.05798
133.80014 42.102127 420.2515
135.11792 42.825676 416.38611
136.46715 43.729713 411.53461
137.69167 44.272522 408.64349
138.80685 44.454132 407.71362
139.96121 44.816238 405.79819
141.06346 44.997704 404.86218
142.12131 44.998558 404.90591
143.25241 45.360466 402.98114
144.30504 45.361191 403.01917
145.32611 45.181313 404.03748
146.35226 45.001373 405.05319
147.33076 44.460274 408.03268
148.37227 44.280235 409.04321
149.39764 43.919579 411.03448
150.45193 43.739433 412.0397
151.52745 43.739784 412.05878
152.6165 43.920616 411.09158
153.68942 43.920845 411.10501
154.77916 44.282112 409.14856
155.85277 44.462776 408.17276
156.92125 44.643379 407.19418
157.98459 44.823936 406.21274
159.0428 45.004433 405.22858
160.11356 44.462685 408.17584
161.17876 44.462502 408.16971
162.24397 44.462296 408.16064
163.3092 44.462013 408.14886
164.37444 44.461685 408.13428
165.45695 44.280731 409.10037
166.50499 44.460846 408.09677
167.5703 44.460342 408.07382
168.63564 44.459785 408.04807
169.67349 44.639717 407.03635
170.70624 44.819603 406.022
171.79921 44.638321 406.97104
172.86212 44.637543 406.93417
173.92508 44.636688 406.89456
174.9881 44.635788 406.85214
176.00822 44.815399 405.82428
177.06877 44.814384 405.77637
178.0813 44.993881 404.74329
179.08876 45.173332 403.70764
180.19756 44.991562 404.63379
181.08847 45.532066 401.62891
182.08072 45.711349 400.58578
183.18971 45.529411 401.50354
184.24045 45.527985 401.43677
185.09312 46.068298 398.4231
186.34215 45.524971 401.29474
187.46431 45.342766 402.20056
188.51796 45.341095 402.12241
189.64801 45.15876 403.02206
191.09888 44.253883 407.84003
192.41261 43.710144 410.69272
193.74188 43.166298 413.54132
195.08669 42.622375 416.38562
196.53621 41.897705 420.2052
197.82294 41.53421 422.06143
198.93144 41.531921 421.95566
200.52452 40.626297 426.74078
202.14346 39.720558 431.52032
203.78827 38.81469 436.29419
205.45895 37.908684 441.06229
207.3699 36.64119 447.77985
208.76825 36.276939 449.6033
210.40172 35.551201 453.37665
211.48141 35.728798 452.26035
212.3212 36.267738 449.18839
213.26575 36.625923 447.09134
214.32281 36.803337 445.96823
215.12451 37.342133 442.89145
216.1665 37.51944 441.76389
217.20354 37.696663 440.63388
218.5015 37.512337 441.45035
219.39825 37.870163 439.34052
220.69922 37.685646 440.15027
222.14621 37.320274 441.92947
223.46051 37.135544 442.73099
224.48851 37.312286 441.58316
225.80841 37.127373 442.37738
227.13373 36.942345 443.1676
228.00372 37.299637 441.03946
229.33209 37.114433 441.82269
230.66589 36.929085 442.60193
232.00514 36.743637 443.37701
232.85809 37.100639 441.23868
234.03395 37.095856 441.03741
235.37918 36.910095 441.80176
236.21487 37.266884 439.65662
237.21475 37.442711 438.47803
238.56343 37.256653 439.2319
239.9176 37.070465 439.98157
241.09523 37.065086 439.76044
242.64236 36.697716 441.46796
243.82584 36.692116 441.23911
245.1994 36.505424 441.97192
246.38611 36.499596 441.73578
247.57315 36.493668 441.49625
248.56299 36.668648 440.28983
249.9483 36.481491 441.0069
250.93369 36.656265 439.79477
251.91425 36.830971 438.58026
253.30585 36.643471 439.28589
254.07144 36.999054 437.10495
255.4664 36.811325 437.8031
257.0827 36.442329 439.45618
258.49146 36.254303 440.14441
260.12674 35.884987 441.78632
261.77286 35.515495 443.42227
262.7514 35.689346 442.18091
264.18265 35.50074 442.8501
265.15686 35.674393 441.60278
266.12631 35.847969 440.35315
267.091 36.021454 439.1012
268.2901 36.013618 438.80084
269.24789 36.186943 437.54355
270.6897 35.997589 438.18924
271.89017 35.989418 437.87793
273.5903 35.618492 439.46542
274.54477 35.791397 438.19489
275.74933 35.78286 437.87192
277.46924 35.411461 439.44345
278.94006 35.221283 440.05997
279.89133 35.393776 438.77597
281.36838 35.203339 439.38348
282.58331 35.194206 439.03958
283.25775 35.547928 436.80093
285.2879 34.994133 439.285
286.50702 34.984665 438.92889
287.72668 34.975105 438.56888
289.50891 34.602318 440.08978
290.45129 34.774101 438.77887
291.38898 34.945816 437.46567
292.61081 34.935875 437.09012
293.83316 34.925842 436.7106
295.05609 34.915733 436.32715
296.27954 34.905533 435.93976
297.80298 34.713539 436.48511
299.33218 34.521439 437.02469
300.86722 34.329224 437.55859
301.48615 34.68222 435.28452
303.64478 34.126251 437.6759
304.25687 34.479202 435.3963
305.80457 34.286667 435.91046
307.35809 34.094048 436.4187
308.91742 33.901329 436.92111
309.83624 34.072372 435.56009
311.40186 33.879555 436.0524
311.98792 34.232567 433.75809
313.88818 33.857719 435.16702
315.79956 33.482803 436.5679
317.3855 33.289833 437.03677
318.63824 33.278862 436.57657
320.57471 32.903786 437.95615
321.4892 33.074966 436.56439
322.39874 33.246254 435.17041
324.00262 33.053345 435.61221
325.25983 33.042648 435.12973
327.22717 32.667664 436.47693
328.84784 32.474915 436.89975
330.11377 32.464485 436.40128
331.37994 32.454185 435.89856
335.57068 30.98584 442.69373
339.43579 29.699631 448.55569
344.82159 27.684059 458.04068
349.5188 26.032944 465.67819
354.26379 24.381729 473.29144
357.16238 23.642326 476.34357
358.17468 23.815063 474.8511
359.56561 23.805748 474.26129
361.7298 23.431946 475.4747
362.73599 23.605789 473.97061
364.12854 23.597633 473.36584
366.31003 23.224976 474.55743
368.10413 23.035233 474.84055
370.703 22.480965 476.91312
373.7196 21.744682 479.87097
375.54053 21.556465 480.12759
377.77362 21.186356 481.27182
379.19501 21.181961 480.62018
380.61505 21.178299 479.96411
381.20203 21.540482 477.52203
383.45099 21.173286 478.63922
-41.104401 32.315651 432.34235
-40.235977 32.139389 433.82455
-38.547867 32.32354 433.51382
-37.268112 32.328369 434.09351
-35.987549 32.333725 434.66919
-35.10498 32.159729 436.14005
-33.820343 32.166092 436.70862
-32.535172 32.17289 437.27307
-30.858704 32.359909 436.93054
-29.963409 32.187698 438.38928
-28.676987 32.195663 438.94101
-26.624649 32.563492 437.67615
-25.343079 32.572044 438.2171
-23.306305 32.940346 436.93695
-21.654922 33.129135 436.55756
-20.008835 33.318115 436.17169
-18.368042 33.507278 435.77933
-17.466446 33.337296 437.20602
-16.195404 33.347153 437.71677
-14.201309 33.7164 436.39343
-12.935913 33.726517 436.89346
-11.314468 33.916328 436.47223
-9.3449097 34.285751 435.12662
-8.0882263 34.296143 435.61069
-6.8318481 34.306625 436.09042
-5.5758209 34.317169 436.56598
-4.3201599 34.327766 437.03729
-2.7245026 34.517838 436.58136
-1.8100128 34.349083 437.96716
-0.55557251 34.359779 438.42575
0.69844055 34.370491 438.8801
1.9519958 34.381218 439.33023
3.2050629 34.39193 439.77618
4.7821655 34.581924 439.28922
6.0316467 34.59259 439.72583
7.2805634 34.603203 440.15839
9.1622162 34.972267 438.72375
10.404846 34.98278 439.14618
12.269638 35.351616 437.69794
13.814621 35.541138 437.1763
15.353836 35.730568 436.6488
16.583786 35.740761 437.05148
18.114014 35.929985 436.5134
19.04213 35.760948 437.84473
20.56601 35.949989 437.29694
21.791199 35.959869 437.6828
23.015839 35.969666 438.0647
24.239944 35.979385 438.44263
25.178497 35.810036 439.7583
26.404144 35.819588 440.12924
27.909012 36.007973 439.55304
29.130966 36.017319 439.91537
30.626915 36.205444 439.32907
32.389 36.572319 437.79184
33.332245 36.402451 439.08667
34.546844 36.411346 439.43219
36.025002 36.598953 438.82608
36.974518 36.42881 440.11188
38.446426 36.616173 439.4968
40.168816 36.982155 437.92657
41.373062 36.990456 438.25116
42.57682 36.998665 438.57202
43.780098 37.006744 438.88925
44.737137 36.836037 440.15549
45.942078 36.843925 440.46603
47.387093 37.030357 439.81891
48.350563 36.859367 441.0762
49.789467 37.045547 440.42044
51.22271 37.231575 439.75983
52.420174 37.238869 440.05099
53.617203 37.246056 440.33859
55.038734 37.431694 439.66473
56.232323 37.438644 439.94461
57.425499 37.445496 440.22092
58.618263 37.452217 440.49374
59.810623 37.458847 440.76306
61.002594 37.465363 441.02887
62.194191 37.471771 441.29117
63.592133 37.656525 440.58807
64.576225 37.484261 441.80545
65.565132 37.31192 443.02048
66.956787 37.49633 442.30591
67.557442 36.966995 445.44342
68.948395 37.151199 444.72195
70.525009 37.513649 443.03082
71.713722 37.519203 443.26569
72.902122 37.524666 443.49713
74.273621 37.708374 442.75845
75.277962 37.535301 443.94983
76.287155 37.362122 445.13889
77.65255 37.545509 444.38916
78.666328 37.372169 445.57239
80.196449 37.733643 443.84589
81.380127 37.738388 444.05341
82.89418 38.099594 442.31757
84.072159 38.104149 442.51752
85.730316 38.643341 439.80167
86.900002 38.647667 439.99387
88.224442 38.830147 439.21103
89.238647 38.656067 440.36841
90.557434 38.838341 439.57831
91.723579 38.842316 439.75708
92.74482 38.667999 440.90598
94.055176 38.849976 440.10507
95.220642 38.853683 440.27426
96.248962 38.679138 441.41464
97.41658 38.682686 441.57782
98.584 38.68615 441.73776
99.622017 38.511375 442.87006
100.79162 38.514679 443.02402
101.96103 38.517899 443.1748
103.00879 38.342926 444.29883
104.29932 38.524117 443.46677
105.46819 38.527092 443.60806
106.63689 38.529999 443.74619
107.91661 38.71093 442.90338
109.19102 38.891762 442.05692
110.3541 38.894432 442.18497
111.51702 38.897018 442.30997
112.67981 38.899536 442.43182
113.74413 38.723907 443.52963
114.9092 38.726288 443.64551
116.07414 38.728577 443.7583
116.96716 38.196648 446.80743
117.87547 37.664673 449.85489
118.79909 37.132645 452.90063
119.73802 36.600586 455.94455
120.69225 36.068474 458.98654
121.89503 36.070419 459.08386
123.24805 36.428345 457.21564
124.59068 36.786201 455.34341
126.13306 37.678024 450.52274
127.78458 38.925781 443.73364
129.27025 39.817398 438.90277
130.91713 41.242958 431.121
132.52283 42.668396 423.33365
133.8586 43.381699 419.47031
135.22836 44.272926 414.62036
136.52034 44.986061 410.74881
137.69272 45.343132 408.83887
138.9017 45.87812 405.94272
140.0065 46.057053 405.00909
141.06433 46.057938 405.0556
142.20056 46.414742 403.13281
143.25317 46.415512 403.17355
144.33981 46.594208 402.22812
145.35826 46.41687 403.2468
146.35286 46.061523 405.24643
147.35768 45.706108 407.24362
148.42038 45.706596 407.27087
149.44057 45.351082 409.26288
150.50835 45.351463 409.28464
151.57611 45.351807 409.30356
152.64384 45.352081 409.3197
153.70059 45.174332 410.31702
154.78772 45.530449 408.35962
155.85286 45.530556 408.36734
156.92128 45.708588 407.38828
157.98456 45.886566 406.4064
159.04272 46.064484 405.42175
160.10899 45.708435 407.38638
161.1646 45.886253 406.39621
162.21507 46.064011 405.40329
163.26042 46.241714 404.40765
164.34471 45.885437 406.36105
165.40479 45.885071 406.34375
166.46487 45.884636 406.3237
167.52499 45.884148 406.30087
168.58514 45.883598 406.2753
169.59029 46.238968 404.2796
170.61528 46.416298 403.26505
171.70049 46.23761 404.21481
172.79086 46.058861 405.16168
173.84863 46.058044 405.12225
174.86609 46.235153 404.09689
175.92139 46.23423 404.052
177.02223 46.055252 404.98734
178.03215 46.232201 403.95395
179.08762 46.231102 403.90076
180.19633 46.051941 404.82739
181.0872 46.584747 401.82114
182.13773 46.583481 401.75989
183.12743 46.760162 400.71378
184.17554 46.758789 400.64713
185.09163 47.113396 398.61411
186.27197 46.755852 400.50558
187.39151 46.576256 401.41211
188.51627 46.396606 402.31546
189.56993 46.394913 402.23459
191.01813 45.50296 407.05521
192.24777 45.145042 408.92892
193.57182 44.608978 411.77945
194.998 43.894783 415.6059
196.3557 43.358528 418.44769
197.72894 42.822189 421.28513
199.02342 42.463829 423.13864
200.52209 41.749214 426.94672
201.94202 41.212555 429.77078
203.68361 40.141556 435.52631
205.24702 39.426582 439.31873
206.93834 38.533401 444.08395
208.65555 37.640076 448.84323
210.28635 36.924721 452.61887
211.4783 36.921707 452.47974
212.55295 37.096733 451.36047
213.38254 37.62796 448.28528
214.44211 37.802879 447.16144
215.12112 38.512154 443.10706
216.03525 38.865112 441.00348
217.2 38.861687 440.84879
218.49785 38.680023 441.66583
219.39455 39.032784 439.55515
220.97159 38.494576 442.314
222.42365 38.134415 444.09363
223.74298 37.952347 444.89493
224.92191 37.94838 444.71915
226.10104 37.944321 444.5401
227.12943 38.118401 443.38547
228.15292 38.292412 442.22839
229.17148 38.466347 441.06891
230.34387 38.46196 440.87805
231.83914 38.100952 442.62527
232.85333 38.27462 441.45682
234.19559 38.09166 442.22552
235.54329 37.908577 442.99005
236.38148 38.2603 440.84369
237.55811 38.255341 440.63269
238.73502 38.250282 440.41837
239.91225 38.245117 440.20071
241.27177 38.061508 440.94675
242.6368 37.877769 441.68845
243.63297 38.050659 440.49377
245.19357 37.688316 442.19321
246.18784 37.861008 440.99237
247.37218 37.855225 440.75351
248.55687 37.849327 440.51126
249.94208 37.664886 441.22903
250.92734 37.837219 440.01657
252.11313 37.831009 439.7641
253.29929 37.824684 439.50818
254.2753 37.99675 438.28763
255.45963 37.990227 438.02536
256.86005 37.805084 438.71954
258.48441 37.441254 440.36859
259.67773 37.434364 440.09406
260.87146 37.427361 439.81601
262.51785 37.063087 441.44958
263.71765 37.055824 441.16324
264.68655 37.227081 439.9169
266.11856 37.040985 440.57971
267.08313 37.212051 439.32748
268.2821 37.204361 439.0274
269.7233 37.017891 439.6774
270.92581 37.009964 439.36938
272.12878 37.00193 439.05771
273.83139 36.636322 440.64578
274.53619 36.985527 438.42331
275.74063 36.977165 438.10059
277.20297 36.789902 438.72375
278.151 36.960098 437.444
279.6196 36.772575 438.05832
281.35919 36.406075 439.61484
282.30615 36.575974 438.32452
283.51886 36.566933 437.97781
285.27832 36.199974 439.51773
286.22162 36.369614 438.21747
287.71692 36.181297 438.80219
289.21802 35.992836 439.38156
290.15765 36.162216 438.07123
291.37885 36.152534 437.69989
292.60062 36.142754 437.32471
294.11438 35.953857 437.88519
295.33984 35.943886 437.50125
296.56586 35.933838 437.11337
298.39117 35.565475 438.59589
299.92554 35.376114 439.13458
300.55182 35.724075 436.86127
301.78265 35.713707 436.45651
303.32394 35.524101 436.98141
304.24591 35.692818 435.63486
305.79358 35.503036 436.1499
307.02917 35.492439 435.72803
308.58575 35.302521 436.23212
309.82507 35.291824 435.80109
311.06482 35.281105 435.36591
311.97668 35.44973 433.99924
313.54587 35.259621 434.48312
315.12079 35.069466 434.96094
317.03784 34.699852 436.35712
318.62689 34.509605 436.82172
319.53839 34.678299 435.43503
321.13361 34.488068 435.88919
321.6936 34.836418 433.57544
322.94263 34.825821 433.10062
324.89642 34.456177 434.45853
326.50629 34.266113 434.89063
328.1217 34.076103 435.31638
329.74268 33.886177 435.73575
331.00635 33.875999 435.23438
335.19434 32.428581 442.03506
339.42502 30.98098 448.81439
344.43991 29.173836 457.39429
349.508 27.366501 465.94803
354.62921 25.559013 474.47525
356.39423 25.369354 474.80511
358.5459 25.000168 476.03479
359.93979 24.990837 475.44412
360.94669 25.161674 473.94437
363.11621 24.793404 475.15219
364.90387 24.605324 475.44867
366.69635 24.417648 475.73822
368.89099 24.050537 476.92072
371.09555 23.683861 478.09399
373.30997 23.317673 479.258
374.72345 23.311867 478.62012
376.54395 23.126724 478.87289
377.54742 23.302116 477.33105
378.95764 23.298264 476.67993
379.11887 23.835014 473.35019
380.93695 23.652733 473.58447
-40.27626 33.929771 430.80853
-40.231064 33.40168 434.0787
-38.949081 33.406067 434.66364
-37.262177 33.588303 434.34705
-35.981079 33.593773 434.92255
-35.496735 33.245224 437.29352
-33.812988 33.428894 436.96222
-32.133987 33.612976 436.62436
-30.459808 33.797432 436.27994
-29.178696 33.805023 436.83344
-27.897232 33.812973 437.38263
-26.615555 33.82122 437.92761
-24.573425 34.184052 436.65274
-23.296738 34.192848 437.18686
-22.019974 34.201881 437.71667
-19.626663 34.742401 435.50891
-18.357925 34.751808 436.02689
-17.456131 34.584366 437.45377
-15.456497 34.948196 436.13559
-14.190765 34.958099 436.63953
-12.925262 34.968117 437.13928
-10.947418 35.332207 435.79968
-8.980484 35.696297 434.45172
-7.7263947 35.706551 434.93445
-6.1242981 35.893784 434.49237
-4.8735352 35.904152 434.96561
-3.6231232 35.914581 435.43454
-2.3731079 35.925049 435.89926
-1.4612427 35.758736 437.28427
-0.20942688 35.769272 437.74155
1.0419312 35.779808 438.19461
2.2928162 35.790359 438.64346
3.8703766 35.977615 438.15982
5.1176453 35.988113 438.5994
6.3644257 35.998589 439.03476
7.9299011 36.185692 438.53494
9.1730194 36.196075 438.96115
10.415619 36.206429 439.38318
12.280273 36.569893 437.93365
13.516495 36.580078 438.34583
15.364273 36.943314 436.88287
16.594193 36.953346 437.28516
18.124298 37.139801 436.74625
19.648621 37.326141 436.20166
21.167145 37.512383 435.65137
22.094116 37.345612 436.97495
23.606262 37.531631 436.41519
24.249802 37.188347 438.67386
25.188263 37.021408 439.98978
26.413818 37.030792 440.36038
27.35907 36.863739 441.67084
28.863312 37.049263 441.0899
30.636238 37.410957 439.55829
32.126289 37.596191 438.96585
33.61058 37.781281 438.36804
35.089111 37.966232 437.76498
36.297867 37.974823 438.10492
36.983269 37.63089 440.33914
38.45504 37.815491 439.7233
39.921089 37.999947 439.10229
41.381401 38.184258 438.4762
42.585045 38.192299 438.79681
44.036575 38.37635 438.16119
45.236649 38.384148 438.47382
45.949989 38.039688 440.69046
47.394875 38.223358 440.0426
48.834099 38.406914 439.38974
50.032333 38.414276 439.68784
51.462845 38.597549 439.02585
52.657593 38.604691 439.3161
53.624405 38.43573 440.56055
54.820892 38.442657 440.84436
56.016968 38.449478 441.12457
57.212624 38.456192 441.40131
58.407883 38.462799 441.67447
59.81723 38.645195 440.98346
61.009102 38.651581 441.24902
62.409904 38.83374 440.54922
63.80513 39.015762 439.84485
64.990669 39.021797 440.09894
65.974297 38.851891 441.31311
67.161713 38.857735 441.56082
67.956032 38.51181 443.73453
69.341698 38.693283 443.01129
70.721817 38.874619 442.28369
71.907852 38.880051 442.51779
73.093552 38.885376 442.74857
74.095535 38.714851 443.94312
75.283188 38.719986 444.16763
76.470528 38.725029 444.38879
77.657578 38.72998 444.60657
78.844322 38.734833 444.82101
80.201271 38.915306 444.06253
81.38485 38.919945 444.2699
82.898788 39.275887 442.53293
84.07666 39.280327 442.73276
85.734703 39.811691 440.01529
87.061859 39.991585 439.23557
88.228638 39.99572 439.42389
89.24276 39.824127 440.58157
90.561455 40.003731 439.79086
91.433029 39.656357 441.91629
92.748657 39.835762 441.1188
94.058922 40.015091 440.31726
95.084793 39.843109 441.46088
96.115616 39.671059 442.60199
97.420082 39.850113 441.7901
98.455643 39.677917 442.92554
99.49617 39.505661 444.05847
100.79489 39.684464 443.23633
102.08826 39.863152 442.4104
103.13336 39.690666 443.53452
104.42123 39.869194 442.70157
105.58745 39.872108 442.84241
106.63976 39.699409 443.95795
107.80822 39.702164 444.09283
109.08512 39.880371 443.24606
110.35672 40.058487 442.3956
111.41612 39.885506 443.49948
112.68228 40.063469 442.64224
113.84485 40.065849 442.76086
115.00727 40.068153 442.87643
116.16957 40.070404 442.98883
116.96936 39.370651 447.01938
117.7896 38.67086 451.04871
118.88663 38.497459 452.13443
119.82294 37.973061 455.17944
120.69422 37.273148 459.20383
122.05241 37.625961 457.3382
123.40022 37.978699 455.46857
124.66503 38.155891 454.57681
126.34482 39.385704 447.78952
127.85361 40.264519 442.96091
129.46642 41.494095 436.16284
131.04318 42.723579 429.35931
132.58391 43.952957 422.55054
133.97421 44.831367 417.70233
135.3934 45.885117 411.86679
136.62553 46.412506 408.97598
137.84221 46.939812 406.08157
139.04343 47.467056 403.18362
140.05176 47.292549 404.21613
141.14876 47.468819 403.2789
142.24057 47.645035 402.33868
143.25391 47.47036 403.36313
144.3405 47.646469 402.41714
145.3904 47.64711 402.45227
146.41133 47.47229 403.46869
147.41096 47.122002 405.46664
148.46848 47.122482 405.49371
149.48346 46.772102 407.48651
150.54607 46.772484 407.50812
151.5764 46.421989 409.4957
152.65764 46.597664 408.52744
153.71178 46.422478 409.52518
154.78786 46.598038 408.55127
155.85294 46.598152 408.55899
156.92459 46.949013 406.59494
157.98454 46.949005 406.59714
159.04079 47.299767 404.6275
160.10445 46.94886 406.59308
161.15044 47.299515 404.61798
162.18617 47.650101 402.64023
163.23589 47.649849 402.62857
164.30031 47.474121 403.59866
165.35263 47.473755 403.58151
166.42479 47.297935 404.5459
167.47972 47.297462 404.52322
168.50974 47.472336 403.51358
169.53464 47.647171 402.50128
170.58452 47.646545 402.47043
171.66711 47.470444 403.42084
172.75485 47.294281 404.36829
173.81 47.293495 404.32895
174.86519 47.292641 404.2869
175.87752 47.467155 403.25851
176.93024 47.466194 403.21103
178.03108 47.289749 404.14413
179.03586 47.464104 403.10779
180.14195 47.287552 404.035
181.19749 47.286377 403.97629
182.19476 47.460571 402.93204
183.24788 47.459259 402.86798
184.30106 47.457916 402.80106
185.1562 47.982849 399.78452
186.20184 47.981384 399.71265
187.38992 47.62896 401.60175
188.36713 47.802841 400.54218
189.41559 47.801193 400.46176
190.93745 46.746696 406.26648
192.08299 46.56945 407.16031
193.40182 46.041168 410.0127
194.82278 45.337318 413.84158
196.08609 44.984337 415.70486
197.54327 44.280296 419.52466
199.02115 43.576149 423.3396
200.42285 43.047401 426.16989
202.13847 41.99202 431.93399
203.68106 41.287529 435.73361
205.24437 40.582932 439.52792
206.93558 39.702682 444.29559
208.4332 39.173363 447.10062
209.94641 38.643936 449.90073
211.47525 38.114388 452.69589
212.3149 38.638008 449.62137
213.25931 38.986046 447.52261
214.56146 38.807335 448.35236
215.1178 39.681953 443.3194
216.03188 40.029839 441.215
217.06618 40.202072 440.08459
218.36137 40.023079 440.90262
219.25543 40.370773 438.79147
220.55362 40.191597 439.60281
221.99783 39.836708 441.38455
223.45258 39.481705 443.16162
224.62625 39.477852 442.98672
225.80014 39.4739 442.80862
227.12524 39.29422 443.60004
228.14865 39.465752 442.44263
229.01099 39.812881 440.31079
230.33942 39.632919 441.0921
231.51198 39.62854 440.89816
232.68481 39.624062 440.70099
234.02435 39.44381 441.4707
235.20032 39.43914 441.26651
236.37654 39.43438 441.05896
237.55307 39.429527 440.84814
238.72989 39.424576 440.634
240.08643 39.243767 441.38455
241.44843 39.062843 442.13071
242.63135 39.057571 441.90561
243.81458 39.052216 441.67712
244.99815 39.046753 441.44528
246.18205 39.041183 441.21005
247.56125 38.859688 441.93637
248.5509 39.029755 440.7294
250.13608 38.672173 442.41168
251.12387 38.842041 441.19843
252.10681 39.011826 439.98282
253.29286 39.005653 439.72708
254.47929 38.999352 439.46793
255.453 39.168884 438.2442
257.2847 38.63459 440.86008
258.47751 38.627937 440.58936
259.67072 38.621201 440.315
261.31134 38.262375 441.95459
262.51059 38.255386 441.672
263.71027 38.248291 441.38583
264.9104 38.241066 441.09616
266.34485 38.057701 441.75903
266.83893 38.578438 438.59485
268.5134 38.218765 440.20541
269.47363 38.387199 438.94708
270.91772 38.203346 439.59354
271.87366 38.371605 438.32919
273.57349 38.011345 439.91922
274.52777 38.17939 438.64828
275.73212 38.171188 438.32581
277.19434 37.986687 438.94977
278.92224 37.625816 440.51794
280.13593 37.617233 440.18219
281.0849 37.784805 438.89471
282.56485 37.599754 439.49933
283.23914 37.943451 437.25928
284.72275 37.758179 437.8555
285.93643 37.7491 437.50153
287.15063 37.739914 437.14371
288.36542 37.730644 436.78201
289.86426 37.544876 437.35904
290.79654 37.7118 436.04706
292.01294 37.702248 435.67374
293.81281 37.339691 437.17685
295.03552 37.329918 436.7941
296.55554 37.14357 437.34586
298.38074 36.780586 438.82968
299.61304 36.770515 438.4324
300.84589 36.760361 438.03119
302.07928 36.750153 437.62592
303.62311 36.563278 438.15079
304.86023 36.552925 437.73651
306.09787 36.542519 437.31815
307.33606 36.532059 436.89569
309.2157 36.16819 438.33038
310.13715 36.33432 436.96817
311.05377 36.500481 435.60358
312.29404 36.489899 435.16461
313.53476 36.479301 434.72147
315.10968 36.291901 435.20016
317.02667 35.927635 436.59766
318.61572 35.740128 437.06311
320.21051 35.552612 437.52237
321.811 35.365074 437.9754
322.02948 35.885223 434.73792
323.63077 35.697784 435.18246
324.88547 35.68734 434.70163
326.49536 35.5 435.13452
328.11084 35.312706 435.5611
329.7319 35.125481 435.98132
331.35852 34.938332 436.39514
334.81815 33.865944 441.37158
337.94165 32.970558 445.41815
343.31674 31.012482 454.91959
348.00336 29.408432 462.57147
352.73785 27.80426 470.19913
355.62616 27.085846 473.26041
358.15424 26.544739 475.40094
359.54578 26.535439 474.81165
362.4841 25.817581 477.83774
364.27515 25.631676 478.13843
365.28705 25.800621 476.6268
367.08264 25.615486 476.91595
368.88293 25.430779 477.19812
369.88794 25.601112 475.67502
372.49756 25.062759 477.74179
373.90631 25.056847 477.10645
376.53802 24.519539 479.15344
377.95273 24.514816 478.50558
378.53979 24.865463 476.06693
379.11505 25.216835 473.62888
381.77094 24.682205 475.64508
-39.447952 35.533524 429.26883
-39.407471 35.013359 432.53815
-38.536865 34.843185 434.01724
-36.44809 35.197594 432.8009
-35.974533 34.853798 435.17215
-34.692322 34.859833 435.74341
-33.013458 35.040939 435.40906
-31.732773 35.047806 435.97079
-30.060913 35.229668 435.62451
-28.394012 35.411858 435.2717
-27.503036 35.245178 436.72455
-25.840927 35.427971 436.36093
-24.18396 35.611008 435.99078
-22.909729 35.619728 436.52359
-21.635422 35.6287 437.05206
-19.616791 35.986862 435.75296
-18.717361 35.821739 437.18332
-17.445892 35.831276 437.69778
-15.446152 36.189827 436.37823
-13.818741 36.374031 435.966
-12.555756 36.383949 436.46432
-10.936813 36.568321 436.04044
-8.9698334 36.927109 434.6911
-7.7156677 36.937241 435.17352
-6.4618378 36.947449 435.65167
-4.8627319 37.131989 435.20349
-3.2692871 37.316544 434.74908
-2.3622589 37.152618 436.13651
-1.4503326 36.988754 437.52167
-0.19854736 36.99913 437.97867
1.0528107 37.009537 438.43137
2.6334381 37.194061 437.95203
3.8811798 37.20443 438.39542
5.4529114 37.38887 437.90488
6.6970062 37.399155 438.33902
7.6213837 37.235359 439.70059
8.8670959 37.245605 440.12735
10.112259 37.255798 440.55002
11.979462 37.61393 439.10001
13.218262 37.62397 439.51273
14.762543 37.807907 438.98535
16.301025 37.991737 438.45215
18.13443 38.349365 436.97552
19.360504 38.359055 437.36871
20.586075 38.368675 437.75784
22.39679 38.725899 436.2626
23.616013 38.735321 436.64218
24.547058 38.570839 437.95978
25.482834 38.406311 439.27502
26.705658 38.415497 439.64453
27.648209 38.250839 440.95441
29.149689 38.433586 440.37195
30.645386 38.616196 439.78403
32.135292 38.79866 439.19083
33.619469 38.980995 438.59222
34.83123 38.989532 438.93643
36.306519 39.171616 438.32803
37.25325 39.006317 439.61346
38.20472 38.84095 440.89655
39.92942 39.196259 439.32455
41.643166 39.551376 437.74606
42.593147 39.385689 439.01804
44.044525 39.566978 438.38174
45.244484 39.574631 438.69409
46.200874 39.408676 439.95709
47.643028 39.589607 439.30777
48.841591 39.596916 439.60928
50.275024 39.77758 438.95081
51.702805 39.958107 438.28741
52.664742 39.791664 439.53439
53.631447 39.625137 440.77914
55.052719 39.805298 440.10388
56.023781 39.638596 441.34271
57.219337 39.645172 441.61917
58.414474 39.651634 441.89215
59.823723 39.831322 441.20038
61.227371 40.010872 440.504
62.625458 40.1903 439.80295
64.017975 40.369598 439.09729
65.200806 40.375481 439.35062
66.181763 40.208008 440.56451
67.366455 40.213699 440.81158
68.354462 40.046059 442.02029
69.541069 40.051567 442.26102
70.727341 40.056984 442.49832
72.101837 40.235489 441.76563
73.284851 40.240685 441.9957
74.467545 40.245789 442.22241
75.649918 40.250786 442.44577
76.65377 40.082535 443.63443
77.838135 40.087364 443.85153
79.022202 40.092087 444.06537
80.205971 40.096725 444.27585
81.725235 40.447517 442.54202
83.068588 40.625053 441.77405
84.08107 40.456284 442.94467
85.578857 40.806725 441.19745
86.908508 40.983948 440.41751
88.077766 40.987991 440.60614
89.24678 40.991959 440.7915
90.415558 40.995827 440.97366
91.436874 40.826569 442.12643
92.607765 40.830284 442.30255
94.062584 41.179985 440.52618
95.22789 41.183517 440.6951
96.25605 41.013954 441.83618
97.423508 41.017334 441.99908
98.590759 41.02063 442.15884
99.757813 41.023842 442.3154
100.79807 40.854004 443.4455
102.09135 41.030045 442.61899
103.25785 41.033035 442.76602
104.30528 40.862984 443.88763
105.474 40.865814 444.02872
106.64255 40.868584 444.16663
107.81094 40.871277 444.30136
109.19635 41.21978 442.47513
110.25326 41.049385 443.58221
111.41861 41.051849 443.70728
112.68469 41.227188 442.84943
113.84718 41.229492 442.96805
115.00954 41.231758 443.08347
116.07861 41.061028 444.17633
116.88092 40.371521 448.20889
117.87971 40.027794 450.27817
118.97412 39.856911 451.36404
119.90778 39.340172 454.41019
120.93707 38.996292 456.47272
122.13199 38.998116 456.56927
123.55232 39.518539 453.71637
124.88453 39.86599 451.84143
126.41646 40.731979 447.01526
128.12498 42.116493 439.23624
129.79233 43.500885 431.45139
131.23151 44.366577 426.60974
132.76443 45.577896 419.79727
134.08978 46.270538 415.92957
135.39453 46.963112 412.05777
136.6266 47.482742 409.16562
137.89268 48.175163 405.2861
138.99744 48.348961 404.35425
140.09698 48.522697 403.4194
141.23314 48.869217 401.4975
142.28055 48.870003 401.54074
143.32791 48.870728 401.58121
144.37524 48.871399 401.61896
145.39101 48.699181 402.6384
146.41188 48.526909 403.65527
147.41147 48.181763 405.65411
148.46893 48.182228 405.68115
149.50511 48.009804 406.69016
150.5464 47.837341 407.69647
151.59282 47.664825 408.7001
152.67143 47.837921 407.73132
153.71196 47.492455 409.71442
154.7964 47.838272 407.75513
155.85887 47.838387 407.76282
156.92134 47.838432 407.76776
157.98451 48.011269 406.78494
159.04256 48.184052 405.79938
160.10431 48.011116 406.78094
161.14326 48.529457 403.82001
162.17639 48.874916 401.84131
163.2235 48.874664 401.82977
164.2706 48.874359 401.81546
165.33499 48.701172 402.7832
166.3847 48.700768 402.76337
167.43445 48.70031 402.74081
168.48422 48.699799 402.71548
169.53403 48.699234 402.68741
170.58386 48.698616 402.65659
171.69904 48.352264 404.59186
172.78931 48.178696 405.53967
173.84697 48.177917 405.50034
174.90466 48.177086 405.45819
175.87659 48.521904 403.44525
176.92926 48.520958 403.3978
178.03003 48.347122 404.33133
179.03476 48.518929 403.29459
180.194 48.172112 405.20587
181.19627 48.343819 404.16367
182.1935 48.515472 403.11902
183.24655 48.514206 403.05496
184.23621 48.68576 402.00519
185.08876 49.203011 398.98758
186.13176 49.201591 398.91586
187.3172 48.854355 400.80612
188.21805 49.198578 398.76422
189.41393 48.851227 400.64813
190.77794 48.15799 404.49213
192.08118 47.637566 407.35007
193.31592 47.289963 409.2225
194.64763 46.769363 412.07236
195.99487 46.24868 414.918
197.4494 45.554993 418.73996
198.73602 45.207039 420.59625
200.42055 44.167305 426.36923
202.03662 43.300362 431.15628
203.78058 42.260368 436.9173
205.45096 41.393181 441.69266
207.25438 40.352905 447.44125
208.64987 40.004326 449.26804
210.16815 39.482681 452.06903
211.70204 38.960915 454.86508
212.66425 39.303902 452.76657
213.61632 39.646843 450.66605
214.68088 39.816734 449.54089
215.36494 40.505547 445.48236
216.15633 41.021339 442.39987
217.19315 41.191071 441.26883
218.49083 41.014717 442.08707
219.38739 41.357338 439.97479
220.55 41.353844 439.81113
221.99411 41.004204 441.59393
223.30553 40.827492 442.39755
224.47653 40.82373 442.22321
225.64777 40.819885 442.04562
226.97018 40.642876 442.8381
227.83737 40.985016 440.70789
229.00674 40.980927 440.521
230.01765 41.149849 439.35883
231.66882 40.626266 442.08072
232.68027 40.795006 440.91205
234.01973 40.617409 441.68246
235.36462 40.43972 442.44867
236.54337 40.435059 442.24088
237.37393 40.776619 440.09103
238.90167 40.425468 441.81525
240.08128 40.420525 441.59753
241.07922 40.588669 440.40851
242.62601 40.237152 442.11942
243.80914 40.231895 441.89114
244.80286 40.399796 440.69299
246.17639 40.22113 441.42438
247.36057 40.215576 441.186
248.34752 40.383202 439.97928
249.72989 40.204201 440.69891
250.71237 40.371643 439.48645
251.69006 40.539009 438.2717
253.28659 40.186363 439.94266
254.05193 40.526855 437.75946
255.44653 40.347282 438.45972
257.06238 39.994232 440.1163
258.03421 40.161118 438.88596
259.44299 39.981155 439.57288
261.30432 39.454285 442.17334
262.0513 39.794258 439.97388
263.47437 39.613899 440.64719
264.67175 39.60685 440.35834
265.63571 39.773155 439.10922
266.59491 39.939369 437.85788
267.78842 39.932037 437.55954
268.74072 40.098091 436.30292
270.42117 39.743515 437.90613
271.61871 39.73584 437.59631
273.56534 39.207382 440.14093
274.77167 39.199432 439.82175
276.48801 38.844193 441.40143
277.70056 38.835991 441.07346
278.9136 38.82769 440.7417
279.86459 38.99292 439.45706
281.07605 38.984428 439.1185
282.0202 39.149498 437.82855
283.2301 39.140816 437.48318
284.71359 38.958305 438.08023
285.92715 38.949402 437.72653
286.86295 39.114143 436.42435
288.63684 38.757515 437.95145
289.28754 39.095879 435.69931
290.21448 39.260422 434.38873
291.71432 39.077248 434.9588
293.51141 38.720078 436.46402
294.73145 38.710503 436.08237
296.24872 38.526955 436.63577
297.77179 38.343269 437.18356
299.30072 38.159477 437.72565
300.22626 38.323494 436.38913
301.45428 38.313484 435.98593
303.61252 37.78141 438.38281
304.53705 37.945251 437.03506
305.77203 37.935043 436.61789
307.00751 37.924774 436.19666
308.24353 37.914474 435.77133
309.4801 37.904121 435.34192
311.04291 37.719612 435.83765
312.28314 37.70919 435.39902
313.85486 37.524567 435.88364
315.43237 37.339897 436.36215
316.67932 37.329414 435.90906
318.26575 37.144684 436.37631
319.85785 36.95993 436.8374
321.11145 36.949463 436.36966
322.36545 36.939026 435.89771
323.61987 36.928635 435.42151
324.87457 36.918327 434.94098
326.48456 36.733696 435.37476
328.1001 36.549118 435.80215
329.36108 36.539017 435.30676
331.34796 36.180153 436.63782
334.44214 35.297928 440.70337
337.93112 34.24118 445.66708
343.30615 32.311829 455.17441
347.99277 30.731293 462.83115
352.72723 29.15062 470.46368
355.237 28.617226 472.61847
357.3812 28.258553 473.85419
358.76773 28.249313 473.26743
360.92752 27.891159 474.48703
362.70831 27.707901 474.79309
365.27814 27.175713 476.89862
366.67938 27.167809 476.28641
368.47751 26.985657 476.57053
370.6803 26.629257 477.74738
372.49042 26.448006 478.01645
372.68378 26.966133 474.68921
376.53192 25.912376 479.42987
377.1261 26.256966 476.99225
377.70856 26.602249 474.55505
378.27924 26.948227 472.11853
381.76758 26.071693 475.92123
-40.267258 36.438507 431.3027
-39.402328 36.270493 432.78378
-38.531189 36.103027 434.26331
-36.845947 36.280243 433.94427
-35.967926 36.113808 435.41797
-34.286575 36.291954 435.08826
-33.006027 36.298454 435.65405
-31.331589 36.477371 435.31244
-29.662064 36.656631 434.96432
-28.773666 36.49221 436.42056
-27.494278 36.50013 436.96817
-25.449142 36.852249 435.69611
-24.174744 36.860687 436.23291
-22.522812 37.041283 435.85553
-21.625748 36.878288 437.29364
-19.979141 37.05928 436.90546
-17.968399 37.412292 435.5975
-17.068909 37.24987 437.02377
-15.071716 37.603111 435.70181
-13.085342 37.956398 434.37134
-12.545334 37.622589 436.70221
-11.282516 37.632507 437.19589
-9.312851 37.985985 435.84631
-8.4069061 37.824303 437.24994
-6.7994537 38.006119 436.80823
-4.852066 38.359619 435.43774
-3.6016083 38.369774 435.90604
-2.3515472 38.379967 436.37009
-1.439621 38.218544 437.75546
-0.52282715 38.057205 439.13849
1.0635223 38.239029 438.66446
2.6441193 38.420799 438.1843
4.2189331 38.602524 437.69806
5.463501 38.612686 438.13599
6.7075806 38.622818 438.56976
7.9511108 38.632912 438.99942
9.5106354 38.814392 438.49203
10.436584 38.652969 439.84637
12.301041 39.005714 438.3942
13.845749 39.186935 437.87012
14.772705 39.025352 439.21317
16.311081 39.206413 438.67917
17.843628 39.38736 438.1395
19.370377 39.568192 437.59409
21.186768 39.920181 436.10315
22.699265 40.100754 435.54572
23.915756 40.109978 435.92419
24.844101 39.947891 437.24115
26.062134 39.956963 437.61264
26.997284 39.794762 438.92419
27.937134 39.632515 440.23343
29.158783 39.641335 440.59491
30.928818 39.992302 439.06
32.415985 40.171982 438.46524
33.897415 40.35154 437.86514
35.106468 40.359894 438.20828
36.315002 40.368149 438.5477
37.000267 40.034248 440.78326
38.21302 40.042336 441.11661
39.681412 40.221306 440.49481
41.397636 40.571114 438.91577
42.601051 40.578819 439.2359
44.052322 40.75737 438.59882
45.006462 40.593933 439.86508
46.20845 40.601334 440.17416
47.409981 40.60862 440.47964
48.611046 40.615807 440.78152
50.046944 40.793739 440.12299
51.477203 40.97155 439.45956
52.211571 40.636726 441.66547
53.410866 40.643478 441.95297
54.38485 40.479332 443.19623
55.808189 40.656685 442.5173
56.786537 40.492348 443.7547
57.986763 40.498695 444.02863
59.615578 40.846443 442.37564
61.021706 41.023293 441.67914
62.212959 41.029282 441.94089
64.023956 41.54731 439.30887
65.20668 41.553062 439.56201
66.187531 41.388039 440.77621
67.372124 41.3936 441.02307
68.360046 41.228416 442.23206
69.546547 41.233795 442.4726
70.923859 41.409714 441.74313
72.107101 41.414894 441.97638
73.290024 41.419975 442.20624
74.655998 41.595566 441.46466
75.654884 41.42984 442.65601
76.836868 41.434639 442.87582
77.842926 41.268776 444.06189
79.026894 41.273392 444.27554
80.381035 41.448471 443.51535
81.729729 41.623451 442.75095
82.907684 41.627777 442.95377
84.248085 41.802536 442.18146
85.42292 41.806679 442.37729
86.755058 41.981239 441.59717
87.926811 41.985199 441.78604
89.09832 41.989067 441.97174
90.419395 42.163338 441.18024
91.587852 42.167038 441.35901
92.611443 42.000191 442.50928
93.924095 42.174202 441.70694
95.091888 42.17765 441.87613
96.25946 42.181023 442.04211
97.292511 42.013885 443.18109
98.594017 42.187538 442.3645
99.631805 42.020264 443.4978
100.92778 42.193748 442.67419
102.09438 42.196732 442.82434
103.2608 42.199638 442.97125
104.42703 42.202484 443.11505
105.36049 41.864479 445.21268
106.53155 41.867188 445.35074
107.81359 42.040184 444.50662
108.98174 42.04274 444.63815
110.14975 42.045227 444.76651
111.42104 42.217987 443.91183
112.58617 42.220329 444.03369
113.84946 42.392944 443.17197
115.10748 42.565491 442.30658
116.08076 42.226936 444.38055
116.88303 41.547668 448.41483
117.88175 41.209023 450.48502
118.89065 40.870346 452.55292
119.82683 40.361282 455.60052
120.85863 40.022507 457.66409
122.21153 40.364922 455.79611
123.55404 40.70726 453.92416
124.88618 41.049522 452.04825
126.48804 42.072914 446.23685
128.26137 43.607094 437.47095
129.8586 44.800568 430.66537
131.35745 45.823647 424.83783
132.88518 47.01693 418.02182
134.14813 47.528961 415.13571
135.39563 48.040924 412.24582
136.67969 48.723091 408.36826
137.84418 49.064629 406.45508
138.99835 49.406113 404.5386
140.1422 49.747528 402.61887
141.27573 50.08889 400.69589
142.32051 50.089645 400.73901
143.36525 50.090347 400.77939
144.40996 50.090996 400.81705
145.45462 50.091599 400.8519
146.44136 49.751625 402.85397
147.46472 49.581863 403.86859
148.517 49.582321 403.89548
149.52675 49.242195 405.88998
150.58411 49.242546 405.91147
151.64143 49.242851 405.93018
152.68521 49.072845 406.93143
153.7341 48.902786 407.93002
154.79652 48.902939 407.94049
155.8531 48.732788 408.93356
156.92136 48.903099 407.95313
157.98378 48.903091 407.95529
159.04248 49.243568 405.98386
