ply
format ascii 1.0
comment PCL generated
element vertex 1593
property float x
property float y
property float z
element camera 0
property float view_px
property float view_py
property float view_pz
property float x_axisx
property float x_axisy
property float x_axisz
property float y_axisx
property float y_axisy
property float y_axisz
property float z_axisx
property float z_axisy
property float z_axisz
property float focal
property float scalex
property float scaley
property float centerx
property float centery
property int viewportx
property int viewporty
property float k1
property float k2
end_header
122.98569 53.407051 419.3764
123.91954 53.098724 421.43661
124.78584 52.635475 424.47964
125.74261 52.327065 426.53592
126.63699 51.863754 429.57526
127.47668 51.245522 433.59833
128.33684 50.627266 437.61981
129.28232 50.163857 440.6539
130.18082 49.545532 444.672
131.21925 49.236908 446.71606
132.09637 48.463654 451.71661
133.05371 47.845245 455.7291
134.08354 47.381653 458.75302
135.32658 47.537437 457.82785
136.56442 47.693161 456.89935
137.84143 48.003693 454.9805
139.19164 48.623863 451.08401
140.56046 49.398811 446.19647
141.7204 49.399475 446.24112
142.88029 49.400085 446.28271
144.07166 49.555496 445.33386
145.2289 49.556015 445.36935
146.38612 49.556473 445.40186
147.5433 49.556892 445.43134
148.70047 49.557266 445.45776
149.83893 49.402756 446.46896
150.99861 49.403038 446.48944
152.15826 49.403267 446.50684
153.3289 49.558289 445.53342
154.48596 49.558426 445.54483
155.64888 49.713364 444.56522
156.80338 49.713402 444.57056
157.95786 49.713394 444.57294
159.1142 49.558517 445.56018
160.26685 49.713257 444.56857
161.41437 49.867958 443.57397
162.55676 50.022614 442.57642
163.68195 50.332062 440.58801
164.81154 50.48661 439.58466
166.005 50.021782 442.52951
167.17427 49.866562 443.49567
168.34869 49.711304 444.45865
169.52827 49.556 445.41855
170.74052 49.245796 447.36282
171.84277 49.554916 445.35391
173.03273 49.39946 446.3045
174.19266 49.398796 446.26453
175.27707 49.707794 444.2471
176.35129 50.016747 442.22705
177.45818 50.170799 441.19144
178.46906 50.634514 438.17929
179.65674 50.478767 439.11194
180.79901 50.477837 439.05466
181.99452 50.321991 439.98093
183.19524 50.166092 440.90393
184.40115 50.010132 441.82361
185.49054 50.163857 440.76788
186.63831 50.162666 440.69531
187.85217 50.006546 441.60553
188.9341 50.160126 440.5412
190.08212 50.158775 440.45959
191.30396 50.002502 441.36014
192.45473 50.001053 441.27228
193.60561 49.999542 441.18143
194.83803 49.843071 442.07214
195.99168 49.841461 441.97491
197.0589 49.99469 440.89053
198.12109 50.147865 439.80359
199.17827 50.300987 438.71411
200.32469 50.299156 438.60544
201.47125 50.297272 438.49368
202.61792 50.295326 438.37894
203.86673 50.138397 439.24374
205.01627 50.13633 439.12259
206.16594 50.134201 438.99838
207.64487 49.667198 441.8165
208.69028 49.819885 440.70374
210.07526 49.50766 442.53217
211.23584 49.505272 442.39438
212.39661 49.502815 442.25354
213.55754 49.50029 442.10956
214.71866 49.497711 441.9624
215.75223 49.65004 440.83249
216.78084 49.802315 439.70013
217.93735 49.799538 439.54431
219.09407 49.796707 439.38528
220.11296 49.948807 438.2449
221.26752 49.945839 438.07999
222.56544 49.787781 438.88943
223.57724 49.939697 437.74069
224.73242 49.936516 437.56631
226.03876 49.778229 438.36508
227.35049 49.61985 439.15991
228.35547 49.7715 437.99963
229.83148 49.457893 439.7623
230.99562 49.454323 439.5708
232.16 49.450684 439.37598
232.99185 49.757126 437.23041
234.1516 49.753349 437.03
234.96849 50.059685 434.88065
236.12363 50.055763 434.67474
237.27904 50.051758 434.46564
238.79337 49.737427 436.19617
240.13644 49.578102 436.95056
241.85397 49.108376 439.64178
243.02609 49.103996 439.41663
244.76756 48.634018 442.09674
246.14035 48.474258 442.8324
247.12897 48.624763 441.62668
248.31018 48.620003 441.38663
249.29172 48.770355 440.17578
250.47104 48.765427 439.9295
251.2403 49.070877 437.74716
252.41518 49.065781 437.49524
253.59039 49.060608 437.23987
254.55301 49.210617 436.01642
255.29523 49.515808 433.82672
256.68201 49.35511 434.52634
258.0744 49.194283 435.22137
259.24899 49.18866 434.94946
260.87595 48.872292 436.59744
262.28516 48.711121 437.27841
263.93118 48.39447 438.9151
264.88666 48.543762 437.66635
266.78296 48.07148 440.25195
268.45636 47.754402 441.87164
269.65741 47.747993 441.56937
271.10315 47.58606 442.2207
272.55457 47.424004 442.86707
273.51282 47.572716 441.59674
274.46637 47.721367 440.32413
275.41516 47.869949 439.04922
276.87378 47.707466 439.67957
278.07825 47.700371 439.35178
279.02075 47.848701 438.06796
279.9585 47.996979 436.7818
281.427 47.834068 437.39517
282.3606 47.98217 436.10312
283.56244 47.974632 435.75815
285.31595 47.655785 437.30661
287.08051 47.336777 438.84827
288.29443 47.328896 438.48886
290.35925 46.853958 440.96442
291.58215 46.845848 440.59491
292.51697 46.99334 439.27682
293.73843 46.985077 438.90036
295.54831 46.66526 440.4061
296.18304 46.968285 438.13568
297.10699 47.11554 436.806
298.93176 46.795395 438.29572
299.85419 46.94252 436.95892
300.4649 47.24543 434.68103
301.99481 47.080833 435.21652
303.84296 46.760269 436.68338
304.75717 46.907211 435.33398
306.30197 46.74234 435.85294
308.17291 46.421455 437.30048
309.08618 46.56826 435.93976
310.32031 46.55912 435.50931
311.88321 46.393951 436.00641
313.12109 46.384705 435.56683
314.69299 46.219429 436.0528
316.60687 45.898056 437.46149
318.53183 45.576591 438.86212
319.44354 45.723274 437.47403
320.69458 45.713905 437.00958
321.5993 45.860664 435.61594
322.14978 46.163612 433.2962
323.74625 45.998222 433.74481
326.05786 45.520485 436.03082
328.74316 44.88649 439.2272
330.37 44.721039 439.65164
332.36517 44.399391 440.9884
333.64063 44.390251 440.48123
337.86026 43.131081 447.30249
341.75208 42.028 453.18668
346.80121 40.455902 461.79449
350.77576 39.352554 467.63596
355.54498 37.93644 475.28186
356.54926 38.083801 473.79175
358.7001 37.762283 475.02917
359.31512 38.066498 472.62183
362.25497 37.432594 475.66083
363.64825 37.424545 475.05948
365.43588 37.260345 475.35895
367.22858 37.096451 475.65143
369.82593 36.619965 477.74307
370.82855 36.769691 476.21527
371.82532 36.919853 474.68524
374.03967 36.600983 475.85159
375.44287 36.595573 475.21191
377.25836 36.434143 475.46481
379.07825 36.273232 475.71078
380.4838 36.269417 475.05521
-40.644394 45.065552 433.81329
-39.364151 45.07016 434.39886
-37.27005 45.382927 433.17905
-35.58989 45.542191 432.85214
-33.914474 45.701813 432.51862
-32.243912 45.861755 432.1785
-31.370163 45.714378 433.64243
-30.884018 45.413544 436.0108
-29.605835 45.420601 436.56436
-28.327469 45.427925 437.11356
-27.048981 45.435478 437.65842
-25.387833 45.596985 437.28793
-22.972015 46.066109 435.08655
-21.704178 46.074203 435.61392
-19.687119 46.389824 434.30829
-18.79686 46.24453 435.74017
-16.424072 46.713989 433.50397
-15.534225 46.568939 434.92725
-13.547241 46.884857 433.5925
-12.655258 46.740036 435.00815
-11.040894 46.902458 434.58026
-10.500397 46.60424 436.91122
-9.2428131 46.613235 437.39645
-8.3364105 46.46875 438.80118
-7.0770111 46.477829 439.27884
-5.8180389 46.486954 439.75217
-4.2167358 46.649544 439.29446
-2.6212158 46.812103 438.83057
-1.0314636 46.974617 438.36047
0.21760559 46.983688 438.81387
2.1306305 47.299515 437.40179
3.3733368 47.308502 437.84497
4.2885895 47.164139 439.2164
5.857193 47.326416 438.71872
7.4199219 47.488609 438.21509
8.3387909 47.344154 439.57599
9.5787811 47.352959 439.99841
10.818176 47.361702 440.41678
11.745895 47.217163 441.76901
13.295258 47.379028 441.24127
14.838791 47.540779 440.70776
16.37648 47.702446 440.16849
18.208923 48.017159 438.6821
19.434357 48.025436 439.07288
20.954544 48.18676 438.51663
21.590836 47.888657 440.78635
22.527115 47.743622 442.11081
23.755539 47.751617 442.4874
25.268219 47.912582 441.91382
26.492889 47.920387 442.28189
27.996567 48.081123 441.69821
29.494492 48.241745 441.10907
30.712265 48.249252 441.46402
32.201225 48.409637 440.86499
33.415321 48.416946 441.21155
34.628883 48.424156 441.55435
35.314178 48.12542 443.7981
36.793175 48.285378 443.18182
37.749146 48.139427 444.46786
38.709854 47.993416 445.75159
38.914955 47.38871 449.89868
39.391281 46.93689 453.09161
41.12381 47.24926 451.50208
43.091026 47.714302 448.94888
46.500107 49.096031 440.6405
50.342644 50.783043 430.39935
54.127434 52.469643 420.14038
56.913773 53.544785 413.70316
59.430672 54.466888 408.21417
60.996017 54.777771 406.55884
62.550568 55.088516 404.89774
64.319115 55.551842 402.26859
65.849487 55.862286 400.59564
66.490746 55.561821 402.7713
67.793022 55.719379 402.05368
68.875351 55.724159 402.29648
69.533707 55.423527 404.46677
70.202087 55.122849 406.63623
71.293739 55.127419 406.87189
72.181046 54.979279 408.07135
73.476059 55.136322 407.33371
74.169037 54.835426 409.49609
75.460815 54.992294 408.75165
76.166107 54.691284 410.91046
77.263611 54.695412 411.12888
77.983826 54.39431 413.28448
79.271797 54.550858 412.52707
80.554306 54.707314 411.76553
82.012093 55.016212 410.02829
83.281105 55.172462 409.25821
84.895805 55.633678 406.53894
85.975815 55.637218 406.73294
87.055565 55.640686 406.92395
88.135048 55.644073 407.11197
89.544762 55.952385 405.34818
90.618607 55.95562 405.52933
92.01236 56.263752 403.75693
93.080582 56.266838 403.9313
94.303482 56.422318 403.12662
95.064026 56.120346 405.24771
96.134178 56.123241 405.41364
97.351288 56.278511 404.59933
98.418449 56.281265 404.75906
99.485413 56.283958 404.91583
100.55219 56.286591 405.0697
101.4819 56.136742 406.19946
102.41658 55.986839 407.32706
103.35623 55.836891 408.45245
104.43001 55.839294 408.59576
105.63017 55.994038 407.75598
106.94901 56.301094 405.93219
108.25739 56.60807 404.10416
109.67415 57.067348 401.29086
110.72653 57.06942 401.41727
111.89246 57.223804 400.55905
112.94196 57.225754 400.67953
113.99134 57.227657 400.79718
114.82863 56.924797 402.87726
115.88289 56.926605 402.98984
116.73534 56.623665 405.06595
117.49969 56.168343 408.12375
118.37505 55.865337 410.19656
119.26056 55.562298 412.26752
120.06569 55.106888 415.32077
120.97411 54.803772 417.38818
121.80727 54.348297 420.43826
122.9043 54.349754 420.5322
123.84068 54.046532 422.59335
124.7095 53.59095 425.63776
125.6688 53.287651 427.69498
126.63828 52.984314 429.75003
127.40793 52.224022 434.76044
128.2706 51.61602 438.78366
129.21861 51.160278 441.81915
130.18195 50.704506 444.85254
131.1606 50.248695 447.88394
132.15459 49.792854 450.91315
133.1093 49.184677 454.92709
134.08449 48.576477 458.93903
135.32748 48.72966 458.01343
136.56528 48.882797 457.08447
137.84222 49.188171 455.16476
139.19237 49.798042 451.26666
140.56114 50.560127 446.37704
141.75766 50.713043 445.43402
142.91495 50.713631 445.47556
144.07219 50.714172 445.51407
145.22939 50.714676 445.54953
146.36018 50.562851 446.57001
147.5199 50.563263 446.59946
148.67957 50.563622 446.62598
149.83923 50.563942 446.64944
150.99886 50.564209 446.66989
152.15848 50.564445 446.68732
153.32906 50.716881 445.71347
154.47768 50.564758 446.7131
155.6431 50.71711 445.73322
156.80011 50.717148 445.73856
157.95712 50.717148 445.74088
159.11414 50.717102 445.74023
160.26231 51.021553 443.75986
161.4142 51.021416 443.7532
162.55656 51.1735 442.75525
163.68169 51.477814 440.76611
164.82591 51.477547 440.75052
166.00465 51.172684 442.70844
167.17387 51.020058 443.67496
168.32587 51.019646 443.6503
169.50284 50.86692 444.61069
170.71248 50.561874 446.55588
171.84219 50.7136 445.53412
172.99947 50.713013 445.49725
174.19197 50.560097 446.4451
175.27635 50.86396 444.42697
176.35052 51.167801 442.40616
177.41446 51.471588 440.38275
178.4682 51.775345 438.35681
179.6078 51.774475 438.30273
180.74747 51.773567 438.24564
181.94035 51.620323 439.17249
183.13844 51.467033 440.09601
184.34175 51.313667 441.01633
185.42851 51.464859 439.96039
186.57365 51.463707 439.88803
187.71889 51.462502 439.81271
188.8642 51.461243 439.73434
190.00961 51.459938 439.65295
191.22882 51.306267 440.5542
192.37697 51.304863 440.46655
193.60408 51.151077 441.36115
194.75502 51.149559 441.26727
195.90605 51.147987 441.17038
196.97064 51.298698 440.08588
198.11935 51.29702 439.98312
199.08478 51.59996 437.90924
200.32285 51.445839 438.7847
201.46933 51.444008 438.67307
202.71536 51.289772 439.54163
203.96667 51.13546 440.40668
205.11871 51.133453 440.28534
206.2709 51.131378 440.16089
207.53294 50.976868 441.01566
208.688 50.974678 440.8848
209.95807 50.820045 441.73245
211.35083 50.512962 443.55768
212.5141 50.510567 443.4166
213.67755 50.50811 443.27237
214.84116 50.5056 443.125
215.87726 50.655418 441.99448
216.90839 50.805183 440.86148
218.06741 50.802483 440.70535
219.22662 50.799713 440.54611
220.24805 50.949318 439.40509
221.26451 51.098854 438.26166
222.56236 50.943459 439.07156
223.5741 51.092873 437.92261
224.72922 51.089783 437.74832
226.03546 50.934151 438.54761
227.50058 50.625977 440.31921
228.50809 50.775116 439.15833
229.82794 50.61924 439.94598
231.15323 50.463272 440.72964
232.3201 50.459717 440.53455
232.9881 50.913612 437.4136
234.14777 50.90992 437.21341
234.9646 51.21122 435.06332
236.11966 51.20739 434.8576
237.27498 51.203491 434.64859
238.78922 50.894409 436.38013
239.9503 50.890335 436.1637
241.84961 50.275902 439.82767
243.20874 50.119041 440.57312
244.95264 49.656914 443.25406
246.32793 49.499832 443.98978
247.31906 49.647865 442.78333
248.30536 49.795837 441.57452
249.28682 49.943726 440.36349
250.26344 50.091568 439.15009
251.03003 50.391983 436.96765
252.20221 50.387032 436.7164
253.16437 50.534676 435.49615
254.33469 50.529564 435.23868
255.28983 50.677055 434.0134
256.45834 50.671768 433.74973
258.06879 50.360962 435.40924
259.24326 50.355476 435.13751
260.87012 50.044411 436.7865
262.27921 49.885956 437.46811
263.69391 49.727379 438.14496
265.11429 49.568695 438.81705
266.77667 49.25708 440.44394
268.21094 49.098137 441.10571
269.4093 49.091888 440.80435
270.60809 49.085548 440.49933
272.05417 48.926262 441.14767
273.25656 48.919708 440.83481
274.45941 48.913063 440.51828
275.66278 48.906326 440.19806
277.12387 48.746582 440.82837
278.07098 48.892555 439.54663
279.27588 48.885536 439.21533
279.95111 49.184319 436.97632
281.41949 49.024162 437.59036
282.353 49.169853 436.2981
283.55475 49.162483 435.95337
285.03256 49.002007 436.55389
287.07251 48.535339 439.04568
288.00555 48.680687 437.73901
289.78418 48.366768 439.27023
291.00177 48.358856 438.90265
291.93127 48.503967 437.58603
293.1474 48.495918 437.21146
294.9519 48.181511 438.71994
295.87781 48.326416 437.39319
296.79907 48.471275 436.06421
298.92291 48.003334 438.49689
299.54089 48.301247 436.21988
300.76306 48.292717 435.8208
302.29547 48.130875 436.35614
303.8338 47.968933 436.88571
304.74799 48.113457 435.53619
306.61035 47.798058 436.99167
308.48383 47.482536 438.43942
309.39972 47.6269 437.0777
310.31088 47.771271 435.71362
311.5455 47.76226 435.27936
312.7807 47.753204 434.84103
314.34991 47.590729 435.32867
316.59717 47.121307 437.66873
318.18329 46.958679 438.14221
319.43384 46.949478 437.68231
320.68481 46.940269 437.21814
321.24286 47.238106 434.89908
322.14014 47.382507 433.50409
323.73663 47.219864 433.95346
325.69348 46.903656 435.31882
328.3761 46.280235 438.51828
330.00031 46.117554 438.94452
331.99286 45.80127 440.28348
333.26572 45.792297 439.77765
337.85065 44.400398 447.52094
341.0011 43.623055 451.57651
346.41815 41.923416 461.1062
350.39014 40.838409 466.95221
355.15662 39.445862 474.60352
356.15845 39.590744 473.11432
358.30682 39.274536 474.3541
358.53284 39.72744 471.03787
361.46756 39.104065 474.08118
363.24771 38.942268 474.38953
365.42749 38.62693 475.59668
367.22046 38.465683 475.88983
370.21802 37.843163 478.8866
371.22369 37.990288 477.35739
373.03394 37.83007 477.62823
374.44098 37.824158 476.9921
376.25781 37.664795 477.25012
377.66589 37.659813 476.60358
379.07312 37.655357 475.95258
380.47925 37.651474 475.29706
-40.227325 46.473808 433.13052
-39.358505 46.327156 434.61459
-37.264069 46.63472 433.3938
-35.179657 46.942635 432.16403
-33.506546 47.099625 431.82867
-31.838333 47.256943 431.48672
-30.966934 47.112114 432.94974
-30.87645 46.665207 436.22464
-29.207397 46.823387 435.86987
-27.931473 46.830612 436.41772
-27.040741 46.68692 437.87158
-25.379395 46.845749 437.50037
-23.343399 47.155853 436.20996
-22.072769 47.163849 436.73819
-20.052948 47.474174 435.4325
-18.415909 47.633507 435.03397
-16.045731 48.095032 432.79504
-15.525116 47.801399 435.13544
-13.902084 47.960976 434.71857
-12.646027 47.969604 435.21539
-11.031586 48.129288 434.78668
-10.491013 47.836121 437.11829
-8.8800049 47.995895 436.67999
-7.9762115 47.853828 438.08386
-7.0675354 47.711838 439.48541
-5.8085785 47.720779 439.9585
-3.8644867 48.031464 438.57285
-2.2716217 48.191246 438.10718
-0.68457031 48.350975 437.63538
0.896698 48.510658 437.15741
2.1399078 48.519501 437.60443
3.7121735 48.679085 437.11526
4.6247559 48.537109 438.48596
5.8663483 48.545868 438.92047
7.4290314 48.705292 438.41608
8.6668701 48.713936 438.84146
9.9041443 48.722542 439.2627
11.140854 48.731087 439.67987
12.376984 48.739578 440.09296
13.612534 48.748009 440.50204
14.847504 48.756378 440.90704
16.385101 48.91526 440.36707
17.91684 49.074028 439.82141
19.144836 49.082153 440.21268
20.667557 49.240723 439.65659
21.306412 48.947632 441.92773
22.535294 48.955528 442.30804
23.476212 48.812866 443.63025
24.991409 48.971077 443.05679
26.218613 48.978737 443.42532
28.004379 49.287163 441.89346
29.502167 49.445015 441.30368
30.994164 49.602745 440.70859
32.4804 49.760361 440.10815
33.422691 49.617111 441.40503
34.369682 49.473801 442.69965
35.321381 49.330421 443.99194
36.800262 49.487633 443.37494
37.756149 49.344101 444.66122
38.460739 49.050209 446.90005
38.415009 48.305412 452.00485
39.147293 48.01149 454.2439
41.130508 48.468803 451.69696
43.343147 49.076172 448.18466
46.992409 50.584732 438.9133
50.829498 52.243141 428.66614
54.608818 53.901161 418.40115
57.154587 54.807869 412.91986
59.43615 55.564163 408.38849
61.001366 55.869736 406.73221
62.78318 56.325344 404.10791
64.549004 56.780788 401.47678
65.8545 56.935818 400.76553
66.715294 56.790508 401.97784
68.014862 56.945351 401.25909
68.66571 56.649792 403.43152
69.538414 56.504303 404.63724
69.997536 56.05859 407.77362
71.091698 56.063061 408.00967
71.981514 55.917389 409.20999
73.27903 56.071754 408.47229
73.974541 55.775913 410.63586
75.268814 55.930103 409.89142
76.170296 55.784172 411.08185
77.076645 55.638184 412.27017
77.987869 55.492134 413.45642
79.275749 55.646 412.69846
80.558167 55.799767 411.9364
82.015862 56.10342 410.19821
83.462929 56.406956 408.45508
84.899391 56.710392 406.70694
85.979324 56.713829 406.90088
87.058998 56.717201 407.09177
88.306221 56.870434 406.30527
89.548035 57.023575 405.51492
90.784454 57.176643 404.7207
92.015472 57.329624 403.92267
93.241104 57.482517 403.12085
94.306458 57.485447 403.29175
95.219276 57.338428 404.43658
96.286781 57.341236 404.60202
97.35408 57.343983 404.76453
98.421173 57.346661 404.92413
99.488075 57.349285 405.08078
100.55478 57.351841 405.23459
101.48444 57.204494 406.36462
102.55335 57.20694 406.51297
103.35867 56.909657 408.61823
104.43237 56.911983 408.76151
105.50592 56.914265 408.90182
106.95125 57.365944 406.0965
108.25955 57.667709 404.26764
109.67625 58.119213 401.45306
110.72856 58.121227 401.57938
111.89443 58.27298 400.7207
112.83276 58.12508 401.82358
113.88466 58.126938 401.94144
114.72448 57.829174 404.02249
115.78125 57.830929 404.13531
116.83791 57.832638 404.24527
117.59964 57.384983 407.30389
118.47238 57.087059 409.3772
119.26215 56.639339 412.43298
120.15779 56.341362 414.50278
120.88763 55.743824 418.54028
121.72334 55.296028 421.59167
122.74004 55.14769 422.67108
123.6815 54.849579 424.7334
124.55544 54.401665 427.77936
125.51982 54.103485 429.83768
126.49438 53.805252 431.89386
127.33914 53.20752 435.92032
128.27177 52.759483 438.95886
129.28461 52.461143 441.00885
130.24533 52.013054 444.04321
131.22137 51.564911 447.07562
132.21275 51.116737 450.10587
133.16487 50.518814 454.12112
134.18948 50.07058 457.14709
135.42728 50.221161 456.22083
136.61299 50.221992 456.27875
137.88731 50.522186 454.35818
139.23485 51.121773 450.45831
140.5226 51.571564 447.54254
141.68501 51.572189 447.58725
142.88144 51.722473 446.64075
144.0412 51.722992 446.67935
145.20093 51.72348 446.7149
146.36061 51.72393 446.74738
147.54408 51.874016 445.78845
148.70114 51.874374 445.81482
149.85818 51.874672 445.83826
151.01521 51.874939 445.85864
152.17223 51.87516 445.87604
153.32921 51.875336 445.89038
154.47778 51.725761 446.89047
155.64316 51.875549 445.9101
156.80013 51.875587 445.91547
157.95709 51.87558 445.91782
159.11221 52.025238 444.92841
160.25778 52.324554 442.94727
161.40009 52.474121 441.95197
162.54681 52.473946 441.94232
163.68144 52.623421 440.9411
164.82562 52.623161 440.92557
165.98708 52.47316 441.8956
167.15369 52.323105 442.86258
168.30307 52.322708 442.83798
169.47743 52.172562 443.79886
170.68445 51.872665 445.74493
171.81155 52.021843 444.7229
172.96622 52.021271 444.68613
174.15611 51.870941 445.63455
175.27565 52.019989 444.60367
176.34976 52.318695 442.58215
177.41367 52.617371 440.55798
178.51283 52.766304 439.51892
179.60692 52.915176 438.4772
180.74654 52.914299 438.42017
181.8862 52.913361 438.36017
183.08168 52.762665 439.28427
184.28236 52.611916 440.20514
185.36652 52.760567 439.14902
186.50905 52.759453 439.07684
187.65166 52.758278 439.00174
188.79436 52.757065 438.92361
189.93715 52.755798 438.84247
191.15373 52.604736 439.74432
192.29927 52.603371 439.65698
193.52374 52.452209 440.55215
194.67206 52.450729 440.45859
195.90446 52.299446 441.34714
196.96901 52.447639 440.2623
198.11765 52.446014 440.15955
199.17471 52.594101 439.0694
200.4153 52.442596 439.94507
201.5643 52.440804 439.83325
202.71344 52.438965 439.71835
203.96469 52.287292 440.58383
205.11668 52.285332 440.46259
206.26881 52.283318 440.33826
207.53078 52.131454 441.19342
208.68578 52.129311 441.06265
209.95578 51.97731 441.9108
211.34848 51.675438 443.73691
212.39171 51.822929 442.61453
213.67506 51.670723 443.45178
214.71349 51.8181 442.32373
215.74695 51.965424 441.19324
216.90572 51.962868 441.04034
218.06468 51.960236 440.88437
219.08839 52.107399 439.74582
220.24518 52.104645 439.58392
221.121 52.401558 437.46149
222.4162 52.248817 438.27231
223.57103 52.24588 438.10129
224.72607 52.242867 437.92712
225.88135 52.239792 437.74982
227.49728 51.786957 440.49948
228.50473 51.933617 439.33829
229.66586 51.930313 439.1506
231.14969 51.627106 440.91064
232.15271 51.773567 439.74066
232.98444 52.069916 437.59369
234.14401 52.066322 437.39359
235.13235 52.212601 436.21661
236.2899 52.20887 436.01053
237.62445 52.055115 436.77393
238.78516 52.051216 436.56091
239.94617 52.047249 436.34457
241.84535 51.44323 440.01028
243.20438 51.289063 440.75632
244.75854 50.984787 442.46829
246.13113 50.830406 443.20511
247.31444 50.825951 442.96826
248.30063 50.971466 441.75919
249.28201 51.116913 440.54785
250.05597 51.412346 438.36655
251.0251 51.557678 437.15112
252.19717 51.552849 436.90009
253.15927 51.698036 435.67963
254.54247 51.542953 436.38779
255.50012 51.687981 435.16168
256.88928 51.532692 435.86191
258.28406 51.377289 436.55753
259.46106 51.371925 436.2854
260.86441 51.216316 436.97229
262.27338 51.060585 437.65451
263.91916 50.754547 439.29324
265.10825 50.748772 439.00467
266.77051 50.442482 440.63254
268.20468 50.286263 441.29498
269.6445 50.129929 441.95248
270.84583 50.123726 441.64706
272.29437 49.967163 442.29535
273.24988 50.111038 441.02533
274.45264 50.104553 440.70905
275.40131 50.248276 439.43378
276.60242 50.241615 439.11084
278.06393 50.084526 439.73807
279.26868 50.077667 439.40704
280.20892 50.221069 438.11987
281.94748 49.913277 439.68552
282.88614 50.056526 438.3916
284.09302 50.049294 438.04559
285.0249 50.192406 436.7464
287.0647 49.733665 439.23969
287.99768 49.876595 437.93289
289.77618 49.568039 439.46518
290.99365 49.56031 439.09781
292.21173 49.552505 438.72656
293.43036 49.544609 438.35144
295.2374 49.235535 439.86026
296.16589 49.378021 438.53253
297.38889 49.369865 438.14484
299.216 49.060455 439.63596
299.83658 49.353355 437.35748
300.4472 49.646248 435.07849
302.28662 49.33654 436.55426
303.82483 49.177376 437.08453
304.73898 49.319496 435.73489
306.6012 49.00946 437.19147
308.47461 48.69931 438.64041
309.39044 48.841263 437.2785
309.97607 49.13398 434.98093
311.20804 49.125168 434.54791
312.77133 48.965523 435.04233
314.00702 48.956627 434.60007
315.91547 48.646034 436.01303
317.83502 48.335365 437.41788
318.74146 48.477219 436.03152
319.98718 48.468231 435.56964
320.88666 48.610161 434.17773
321.78128 48.752151 432.78357
323.37509 48.5923 433.23465
325.68399 48.130486 435.52493
327.65192 47.819595 436.88309
329.27087 47.659691 437.31216
331.25812 47.348808 438.65436
332.5257 47.340012 438.15091
337.10522 45.97171 445.90051
340.62103 45.056435 450.87726
345.66205 43.536659 459.49783
349.62866 42.470047 465.3493
354.76849 40.949921 473.92029
355.38657 41.243484 471.51999
358.29758 40.630287 474.58496
358.91043 40.924286 472.17749
361.45874 40.462585 474.31305
362.45535 40.605919 472.80704
365.02466 40.14463 474.92401
366.41803 40.137299 474.31381
369.41055 39.525261 477.31491
370.41129 39.669846 475.78778
372.62173 39.360977 476.96329
374.43439 39.203773 477.22894
375.43063 39.349617 475.68909
376.83398 39.34462 475.04517
378.65216 39.18882 475.29346
380.47467 39.033516 475.53488
-40.222107 47.728142 433.34222
-39.352859 47.584114 434.8266
-37.258057 47.886475 433.60477
-35.173325 48.189171 432.37399
-33.499939 48.343529 432.03806
-31.831436 48.498199 431.69547
-30.563828 48.504532 432.25253
-30.082443 48.213966 434.62
-29.199677 48.072281 436.07932
-28.311432 47.93087 437.53653
-27.417816 47.789703 438.9917
-26.136261 47.797302 439.53287
-24.094833 48.102135 438.24359
-22.441452 48.25856 437.85965
-20.044235 48.712059 435.6387
-18.779083 48.7202 436.15579
-16.406189 49.173813 433.91635
-15.882782 48.885262 436.25839
-14.25705 49.042114 435.84186
-12.998291 49.050613 436.33948
-11.739853 49.059196 436.8327
-11.193878 48.771103 439.1669
-9.2241669 49.0765 437.8063
-7.9669495 49.085205 438.28668
-6.710144 49.093956 438.7627
-5.4538269 49.102722 439.23444
-3.8552399 49.259743 438.77438
-2.2623901 49.416756 438.30795
-0.675354 49.573715 437.83542
0.57099915 49.582405 438.28732
1.8168488 49.591103 438.73495
3.062149 49.599754 439.17847
4.3068848 49.608376 439.61783
5.5510864 49.616974 440.05295
6.794693 49.625519 440.48398
8.3567505 49.782127 439.97473
9.9129486 49.938652 439.45959
11.149612 49.947014 439.87643
12.074585 49.807274 441.22806
13.621124 49.963562 440.69809
14.856049 49.971748 441.10278
16.393539 50.127853 440.56213
17.925186 50.283859 440.01578
19.153091 50.291794 440.4068
20.380432 50.29966 440.79382
21.021835 50.011581 443.06641
22.543304 50.167229 442.50171
23.484146 50.026978 443.8241
24.714447 50.034546 444.19708
25.944168 50.04203 444.56616
28.011993 50.492966 442.08533
29.509659 50.648064 441.4949
31.001572 50.803047 440.89908
32.487686 50.957893 440.298
33.698975 50.964859 440.64331
34.643242 50.823936 441.93741
35.592255 50.682976 443.22913
36.80719 50.689674 443.5647
38.021614 50.696289 443.89651
38.467514 50.259674 447.09055
38.675156 49.675346 451.24112
39.404755 49.386406 453.48004
41.633392 49.983475 449.97363
43.840691 50.580338 446.4581
46.99855 51.767578 439.09866
51.075737 53.545059 427.88751
54.614487 55.026924 418.57718
56.689751 55.622772 415.01468
58.976372 56.366047 410.48236
61.006599 56.961525 406.90244
62.788292 57.409264 404.27676
64.553986 57.856831 401.64426
66.081558 58.156712 399.96866
67.159241 58.161388 400.21625
68.019585 58.018448 401.42569
68.67038 57.727932 403.59869
69.542999 57.5849 404.80472
70.211258 57.2943 406.97546
71.096153 57.151154 408.17804
71.781891 56.860481 410.34634
73.081902 57.012154 409.6087
73.97876 56.868832 410.80457
75.076714 56.872883 411.02899
75.787071 56.581993 413.19012
77.080635 56.733353 412.43884
77.991791 56.589771 413.62537
79.279587 56.740955 412.86685
80.745232 57.039459 411.13226
82.380943 57.485229 408.42032
83.64463 57.636124 407.64816
84.902878 57.78693 406.87204
86.155701 57.937645 406.09198
87.232719 57.940922 406.28229
88.47728 58.091473 405.49487
89.716446 58.241951 404.70352
90.950203 58.392342 403.90839
92.018517 58.395329 404.08545
93.086609 58.398251 404.25958
94.154472 58.401104 404.43079
95.222122 58.403896 404.59906
96.439285 58.553925 403.78671
97.356796 58.409298 404.92679
98.712982 58.706482 403.12936
99.774666 58.709015 403.28519
100.83615 58.711487 403.43814
101.62376 58.419365 405.54733
102.69003 58.421726 405.69525
103.49274 58.12952 407.80081
104.56381 58.131783 407.9436
105.63472 58.133995 408.08353
106.82944 58.283386 407.23929
108.26166 58.7272 404.42822
109.55945 59.023697 402.59433
110.61429 59.02565 402.72092
111.78267 59.174786 401.86206
112.83464 59.176632 401.9827
113.6694 58.883999 404.06671
114.62029 58.738548 405.16565
115.67958 58.740253 405.27869
116.73875 58.741917 405.38882
117.50301 58.301922 408.44888
118.47397 58.156292 409.53867
119.44994 58.010628 410.62613
120.24985 57.570545 413.68112
121.06506 57.130428 416.73468
121.89558 56.690285 419.78677
122.82426 56.397301 421.85162
123.84338 56.25145 422.92865
124.63445 55.664036 426.96133
125.52108 55.223778 430.00644
126.49561 54.930641 432.06335
127.34032 54.343155 436.09131
128.20549 53.75563 440.11774
129.28571 53.609566 441.18164
130.30869 53.316292 443.23004
131.28212 52.875832 446.26337
132.27089 52.435341 449.29456
133.27499 51.994812 452.32361
134.19037 51.259941 457.32593
135.47758 51.555084 455.41135
136.66069 51.555893 455.46912
137.93239 51.850929 453.54761
139.23553 52.293045 450.63437
140.56244 52.882271 446.729
141.75887 53.030014 445.78513
142.88199 52.883438 446.81512
144.0417 52.883942 446.85367
145.20139 52.884415 446.88922
146.36102 52.884834 446.92172
147.54445 53.032356 445.96234
148.70148 53.0327 445.98874
149.8398 52.885857 447.00107
150.99934 52.886116 447.02151
152.18596 53.180588 445.06088
153.32936 53.033615 446.0643
154.4863 53.033752 446.07559
155.64323 53.033829 446.08395
156.80016 53.033867 446.08932
157.95708 53.033875 446.09164
159.11214 53.180954 445.10187
160.25768 53.475128 443.12003
161.39296 53.769264 441.13519
162.53706 53.769096 441.12558
163.6812 53.768883 441.11304
164.82535 53.768631 441.0975
165.98676 53.621208 442.06793
167.17313 53.326599 444.02423
168.30266 53.473351 443.01074
169.47697 53.325783 443.97202
170.65645 53.178169 444.93015
171.78094 53.324799 443.90778
172.93298 53.324242 443.87112
174.12027 53.176498 444.82004
175.2372 53.322998 443.78891
176.34904 53.469452 442.755
177.4129 53.763016 440.7301
178.51202 53.909393 439.69077
179.60606 54.055725 438.64865
180.74564 54.054871 438.59161
181.88525 54.05397 438.53162
183.08069 53.905869 439.45618
184.28133 53.757713 440.3775
185.36542 53.903831 439.32098
186.5079 53.90274 439.24893
187.65048 53.901604 439.17383
188.79312 53.900436 439.0957
189.86472 54.046371 438.02811
191.07869 53.897926 438.93054
192.2216 53.896606 438.84344
193.52231 53.600868 440.72528
194.67056 53.599442 440.63171
195.90292 53.450775 441.52072
197.05396 53.449234 441.4209
198.11601 53.594849 440.33298
199.08133 53.887611 438.25757
200.41354 53.59153 440.11853
201.5625 53.589798 440.00677
202.71158 53.588005 439.89197
203.96277 53.438957 440.7579
205.21924 53.289833 441.6203
206.37389 53.287872 441.49576
207.41899 53.43309 440.3851
208.68362 53.283783 441.2374
209.95355 53.134415 442.08603
211.22879 52.984993 442.93091
212.26938 53.129982 441.80847
213.55011 52.980415 442.64658
214.58589 53.125305 441.51852
215.61671 53.270126 440.38806
216.64258 53.414909 439.25519
217.79633 53.412361 439.09998
218.95027 53.40976 438.94162
220.1044 53.407097 438.78012
220.97758 53.698944 436.65741
222.27014 53.548866 437.46912
223.42233 53.546005 437.29858
224.42642 53.690399 436.147
225.72736 53.540108 436.94809
227.34061 53.095085 439.69946
228.50143 53.091949 439.51505
229.66254 53.08873 439.32755
231.14627 52.790764 441.08847
231.98543 53.082085 438.94284
232.8145 53.37339 436.79559
234.1404 53.222542 437.57062
235.30017 53.218971 437.36743
236.46024 53.21534 437.16101
237.974 52.916847 438.89771
239.31909 52.76564 439.65656
240.12402 53.056564 437.49451
241.84122 52.610367 440.18973
243.01309 52.606316 439.96506
244.1853 52.60218 439.73706
245.55005 52.450523 440.47595
246.72548 52.44622 440.24078
247.90125 52.441841 440.00226
248.87737 52.584846 438.79172
249.64606 52.875267 436.61084
250.81511 52.870667 436.36389
252.40005 52.570976 438.04752
253.36465 52.713699 436.82623
254.75034 52.561302 437.53442
256.14163 52.408798 438.2381
257.10217 52.551285 437.00772
258.72015 52.25103 438.66745
259.90228 52.245781 438.39429
261.31073 52.092857 439.0806
262.49628 52.08741 438.79993
263.91336 51.934288 439.47729
265.10236 51.928658 439.18893
266.29181 51.922928 438.89706
267.48169 51.917114 438.60165
269.15515 51.615898 440.22079
270.35117 51.609871 439.91693
271.7944 51.456078 440.56717
272.99399 51.449852 440.25543
274.44601 51.29583 440.89639
275.39459 51.437134 439.62094
276.85284 51.28289 440.25323
278.05701 51.276283 439.92615
279.52411 51.121826 440.54889
280.20181 51.410583 438.30795
281.94025 51.108131 439.87466
282.87885 51.248955 438.58057
284.08563 51.24189 438.23486
285.29294 51.234741 437.88531
287.05707 50.931786 439.43021
287.98999 51.072296 438.12329
289.76837 50.769081 439.65671
290.98578 50.761543 439.28955
292.20374 50.753914 438.91858
293.42227 50.746193 438.54373
295.22916 50.442497 440.05359
296.15759 50.582565 438.72574
297.38049 50.574593 438.33832
299.20752 50.270531 439.8306
299.82806 50.558434 437.55157
300.43866 50.846336 435.272
301.96829 50.690056 435.80963
303.81607 50.385612 437.27982
304.73016 50.525314 435.93008
306.59229 50.22065 437.38779
308.46561 49.915863 438.83786
309.70428 49.907272 438.41058
309.96704 50.343124 435.17767
311.19891 50.334496 434.74493
313.09296 50.029427 436.17203
314.33124 50.020691 435.72916
315.90619 49.863701 436.21219
317.82568 49.55838 437.61823
319.07355 49.549545 437.15988
319.63379 49.837311 434.84296
320.53064 49.976837 433.4519
321.42267 50.116417 432.05859
323.01379 49.959343 432.51141
324.96536 49.653877 433.88116
327.28528 49.199989 436.16464
328.90158 49.04287 436.59543
330.8862 48.737343 437.93985
332.15125 48.728706 437.43777
337.46384 47.087044 447.02844
340.61169 46.335983 451.09009
346.02588 44.693863 460.63104
349.99518 43.645546 466.48483
355.1376 42.15155 475.0593
354.99612 42.737114 470.8324
357.52063 42.283035 472.98907
358.12845 42.571968 470.58325
360.28241 42.266792 471.81357
361.27127 42.407654 470.31079
363.83282 41.954292 472.4328
365.21851 41.947067 471.82629
368.60315 41.196877 475.7373
370.00143 41.190254 475.11557
372.20959 40.88662 476.29333
374.01996 40.73204 476.56082
375.83502 40.577873 476.82126
377.24139 40.572853 476.17618
378.2312 40.717041 474.62939
380.05151 40.564308 474.87253
-41.040512 48.690308 435.34915
-39.347214 48.841026 435.03482
-37.6586 48.992119 434.71393
-35.570877 49.289597 433.48328
-33.894531 49.44133 433.14795
-31.824554 49.739388 431.90048
-30.556671 49.745659 432.45734
-29.681824 49.606209 433.91772
-28.410873 49.613022 434.46713
-27.52774 49.474091 435.92233
-27.024475 49.189461 438.28662
-25.362808 49.34288 437.91406
-23.706528 49.496437 437.53491
-22.432953 49.504227 438.06372
-20.035675 49.949806 435.84125
-18.770401 49.957817 436.35803
-16.766769 50.257637 435.03488
-16.240601 49.974152 437.3786
-14.248138 50.274109 436.04245
-12.989304 50.282455 436.53976
-11.372177 50.436646 436.11075
-10.828766 50.153587 438.44443
-8.8617096 50.453606 437.0817
-7.95784 50.316414 438.48581
-6.7010498 50.324974 438.96161
-5.0993195 50.479248 438.50601
-3.5033875 50.633492 438.04419
-1.9132233 50.787712 437.57611
-0.32887268 50.941895 437.10187
0.91479492 50.950394 437.55252
1.8257904 50.813278 438.93088
3.0710602 50.821754 439.37405
3.9888763 50.684631 440.74689
5.5598907 50.8386 440.24799
6.8034973 50.84697 440.67868
8.6844177 51.146309 439.23224
9.9215546 51.154541 439.65295
11.158142 51.162735 440.06952
12.394135 51.170853 440.48206
13.629532 51.178902 440.89059
14.864365 51.186905 441.29501
16.401779 51.34024 440.75369
17.632797 51.348083 441.14926
19.161148 51.501221 440.59744
20.388412 51.508919 440.98416
21.322433 51.371178 442.31216
22.841171 51.524033 441.746
23.491928 51.240868 444.01443
24.722107 51.248253 444.38721
25.951752 51.255562 444.75604
28.019409 51.698563 442.27374
29.240082 51.705658 442.63251
31.008774 52.00312 441.08621
32.494789 52.155228 440.48447
33.705963 52.16201 440.82959
34.650192 52.023514 442.12378
35.599113 51.884972 443.41565
37.075165 52.036667 442.79672
37.769676 51.752823 445.03757
38.218109 51.323799 448.23337
38.428329 50.749664 452.38596
39.160454 50.465736 454.62622
41.639732 51.197418 450.16086
44.09243 51.928864 445.68509
47.24749 53.095284 438.32159
51.08149 54.696587 428.06451
54.62001 56.152477 418.75006
56.695145 56.737873 415.18579
58.749062 57.323093 411.61301
61.011703 58.053131 407.06961
62.793266 58.492992 404.44263
64.334099 58.787724 402.77228
65.864159 59.082329 401.09634
67.16391 59.231846 400.37961
67.80722 58.946423 402.55463
68.674919 58.805897 403.76291
69.759232 58.810242 404.00269
70.424843 58.524685 406.17346
71.100494 58.239082 408.34335
71.990158 58.098343 409.54413
73.287491 58.247322 408.80539
73.982872 57.961567 410.97028
74.884537 57.82066 412.16428
75.791046 57.679676 413.35629
77.275589 57.973202 411.63364
78.18409 57.832088 412.81989
79.469215 57.980591 412.06033
81.115456 58.418644 409.35208
82.384499 58.566952 408.58344
83.826225 58.859985 406.83746
85.08181 59.008106 406.06039
86.331963 59.156147 405.27939
87.406334 59.159317 405.46912
88.648239 59.307209 404.68073
89.884743 59.455021 403.88846
91.115845 59.602741 403.09238
92.021469 59.460876 404.24536
93.246964 59.608467 403.4425
94.467064 59.755981 402.63593
95.377182 59.613941 403.78098
96.591713 59.761314 402.96771
97.653725 59.763893 403.12927
98.860123 59.911133 402.30902
99.919159 59.913589 402.46439
101.11744 60.060692 401.63724
101.89984 59.773624 403.74643
102.96091 59.775917 403.89349
103.75842 59.488777 405.99905
104.82428 59.490959 406.14111
105.76344 59.348419 407.26163
107.0795 59.639854 405.43484
108.3851 59.93121 403.60394
109.68025 60.2225 401.76892
110.73247 60.224396 401.89508
111.78453 60.226238 402.01843
112.94757 60.372681 401.15576
113.77971 60.085136 403.2402
114.62201 59.797546 405.323
115.57785 59.654568 406.42001
116.53873 59.511551 407.51471
117.40636 59.223866 409.59171
118.37983 59.080765 410.68207
119.35833 58.93763 411.77008
120.16077 58.505211 414.82642
121.06648 58.217381 416.89575
121.89697 57.784901 419.94894
122.90845 57.641621 421.0285
123.76442 57.209087 424.07806
124.6357 56.776524 427.12598
125.52231 56.343922 430.17221
126.42422 55.911293 433.21667
127.34146 55.478649 436.25925
128.2066 54.901367 440.28717
129.35162 54.90242 440.36407
130.30971 54.469673 443.40048
131.40256 54.326057 444.45953
132.38615 53.893227 447.49158
133.43967 53.604958 449.53342
134.34732 52.882904 454.53717
135.52786 52.883728 454.5979
136.70834 52.884491 454.65558
137.97743 53.174377 452.73312
139.27797 53.608765 449.81863
140.60225 54.187691 445.91162
141.75943 54.188271 445.95609
142.91658 54.188812 445.9975
144.04219 54.044739 447.02493
145.23076 54.189766 446.07135
146.36143 54.045609 447.0929
147.5448 54.190552 446.13315
148.70178 54.190865 446.15958
149.85875 54.191162 446.18292
151.01569 54.191406 446.20328
152.18614 54.336174 445.23126
153.34048 54.336334 445.24561
154.4864 54.191902 446.24634
155.64328 54.191978 446.2547
156.80017 54.192017 446.26004
157.95705 54.192009 446.26239
159.11392 54.191971 446.26172
160.26198 54.481018 444.27905
161.39978 54.77002 442.29346
162.54642 54.769852 442.28384
163.68097 54.914207 441.28189
164.82507 54.913956 441.26636
165.98643 54.769104 442.23718
167.13315 54.768768 442.2157
168.27988 54.768402 442.19122
169.45158 54.623421 443.15286
170.60095 54.622963 443.12238
171.75034 54.622467 443.08884
172.89978 54.621933 443.05231
174.11964 54.332207 444.99054
175.23654 54.476151 443.95911
176.34834 54.620064 442.9248
177.45506 54.763931 441.88776
178.5567 54.907768 440.8479
179.60522 55.196129 438.81702
180.74475 55.195297 438.76007
181.88434 55.19442 438.7001
183.02399 55.193504 438.63715
184.22202 55.047951 439.55899
185.36436 55.046944 439.48993
186.50681 55.045891 439.41788
187.71533 54.900192 440.33014
188.92906 54.754448 441.23901
190.00575 54.89785 440.17068
191.15109 54.896614 440.08643
192.29654 54.895317 439.99924
193.44208 54.89399 439.90897
194.5063 55.037216 438.82953
195.73346 54.891167 439.71942
196.96587 54.745071 440.60574
198.02528 54.888168 439.51767
199.17137 54.886581 439.41232
200.31758 54.884949 439.30392
201.56075 54.738632 440.17722
202.70978 54.7369 440.06244
203.96091 54.590462 440.92889
205.11278 54.588615 440.80777
206.3719 54.44207 441.66721
207.52664 54.440117 441.53964
208.68152 54.438095 441.40903
209.83656 54.436028 441.2753
211.10916 54.289246 442.12097
212.14713 54.431732 440.99857
213.4252 54.284813 441.8374
214.45837 54.427185 440.70947
215.48657 54.569519 439.57901
216.5098 54.711807 438.44614
217.79375 54.564644 439.27188
218.94763 54.562119 439.11362
219.96371 54.704231 437.97247
220.97484 54.846306 436.82886
222.26732 54.698868 437.64108
223.41943 54.696106 437.47064
224.57178 54.693268 437.29709
225.72433 54.690361 437.12039
227.49097 54.108398 440.85049
228.65431 54.105339 440.66583
229.65927 54.246971 439.50131
231.14291 53.954239 441.26312
232.14581 54.095741 440.09259
232.97742 54.381973 437.94434
234.3058 54.233788 438.71942
235.29657 54.375114 437.54144
236.63068 54.226768 438.30917
237.97021 54.078331 439.07272
239.31522 53.92981 439.83209
240.12009 54.215698 437.6694
241.65273 53.922173 439.39383
242.63489 54.063087 438.19815
243.99149 53.914215 438.94247
245.35353 53.765259 439.68237
246.52631 53.761086 439.44788
247.6994 53.756836 439.21002
248.87283 53.752487 438.96887
249.64148 54.03788 436.78732
251.01559 53.888481 437.50845
252.39526 53.738983 438.22513
253.3598 53.87925 437.00363
254.53244 53.874512 436.74612
255.92102 53.724739 437.4509
256.87891 53.864777 436.22095
258.4942 53.569824 437.88223
259.67361 53.56472 437.60986
261.07935 53.414536 438.29733
262.03366 53.554253 437.05475
263.67661 53.258842 438.69608
264.86292 53.253365 438.40854
266.04962 53.247803 438.11746
267.47577 53.097084 438.78305
269.14911 52.801186 440.40317
270.10086 52.940399 439.14069
271.54141 52.789345 439.79227
272.73828 52.783302 439.48132
273.93561 52.777153 439.16684
274.87888 52.916054 437.89258
276.33179 52.764595 438.52689
277.79044 52.613014 439.1561
278.9924 52.606491 438.82623
279.92987 52.745079 437.53943
281.39789 52.593185 438.1554
282.33118 52.731621 436.86264
283.80551 52.579521 437.46964
285.01013 52.572548 437.12115
286.77151 52.274956 438.66788
287.70172 52.413086 437.36151
289.76068 51.96994 439.8447
290.69202 52.107887 438.5307
291.90729 52.100449 438.1608
293.12311 52.092934 437.78696
294.63342 51.939964 438.35403
295.85303 51.932274 437.97162
297.07318 51.9245 437.58527
298.89746 51.625832 439.07944
300.12408 51.617882 438.68347
301.04431 51.75531 437.34305
302.5791 51.601784 437.87958
304.11975 51.448158 438.41037
305.35138 51.439926 437.99747
306.58356 51.431648 437.58051
308.45673 51.13224 439.03165
309.37256 51.269379 437.66953
309.95813 51.552086 435.37079
311.19 51.543633 434.93839
312.42239 51.535149 434.50183
313.65536 51.526642 434.0611
315.22498 51.372444 434.54678
316.46167 51.363876 434.09677
317.69888 51.355301 433.64261
318.59259 51.492409 432.25665
319.82819 51.483849 431.79504
321.06421 51.475296 431.32919
323.0047 51.175247 432.70834
324.60162 51.020927 433.15561
326.56155 50.720795 434.51917
328.17258 50.566475 434.9527
330.51447 50.120514 437.22079
332.14218 49.966202 437.63947
337.08676 48.499146 446.31677
340.97308 47.46949 452.2164
345.64337 46.147888 459.92889
349.60999 45.11795 465.78696
354.37115 43.796043 473.45309
354.22458 44.371368 469.22696
356.36005 44.071198 470.47568
356.96005 44.355095 468.0726
359.49542 43.909271 470.21695
360.47925 44.047646 468.71634
363.03568 43.602203 470.84213
365.21069 43.302994 472.05029
368.19574 42.711929 475.05881
369.59167 42.705368 474.43845
371.79752 42.40699 475.61847
374.0134 42.108963 476.78897
375.00787 42.249596 475.24982
376.40942 42.244583 474.60733
377.81018 42.240044 473.96033
380.04681 41.943756 475.10165
-40.211655 50.236717 433.75443
-39.341599 50.097885 435.23938
-37.652618 50.246368 434.91785
-35.160782 50.682037 432.78275
-34.289154 50.544273 434.25497
-32.216278 50.837067 433.00769
-30.549637 50.986694 432.65851
-29.6745 50.84977 434.11908
-28.793884 50.713127 435.57761
-27.132095 50.863441 435.21313
-26.246048 50.727242 436.66528
-24.972137 50.734573 437.20261
-23.31839 50.885406 436.82169
-22.047302 50.893059 437.34909
-20.401794 51.044128 436.95609
-18.761841 51.195282 436.55658
-17.127441 51.346512 436.15057
-16.598495 51.068108 438.49588
-14.603363 51.362717 437.15973
-13.341812 51.370934 437.65778
-11.722 51.522385 437.22913
-10.819885 51.387527 438.64099
-8.8528137 51.682198 437.27707
-7.9489288 51.547417 438.6814
-6.3440704 51.698929 438.23035
-4.7450104 51.850426 437.77304
-3.1517487 52.001877 437.30954
-1.56427 52.153305 436.83981
0.017349243 52.304672 436.36398
1.2583923 52.312988 436.81332
2.1667175 52.178268 438.19086
2.7502594 51.900566 440.49939
4.3244476 52.051819 440.00482
5.5685425 52.060036 440.43942
6.8120575 52.068222 440.86987
8.6929016 52.36219 439.42233
10.246323 52.513145 438.90488
11.480179 52.521118 439.32034
12.402435 52.386169 440.67133
13.637772 52.394051 441.07956
14.872513 52.401855 441.48376
16.106705 52.409615 441.88388
17.640793 52.560081 441.33704
18.87117 52.567673 441.72836
20.39621 52.717949 441.17105
21.33017 52.582626 442.49918
22.848785 52.732719 441.93237
23.78685 52.597267 443.25424
25.299103 52.747169 442.67801
26.241287 52.611588 443.99371
28.026688 52.903969 442.45865
29.247253 52.910889 442.81717
31.015823 53.203003 441.26987
32.23008 53.209724 441.61923
33.712822 53.358963 441.01239
34.656944 53.222893 442.30676
35.869606 53.229347 442.64484
37.081741 53.23571 442.97922
38.034775 53.099434 444.26526
38.480553 52.677994 447.46127
38.688118 52.114006 451.61459
39.668335 51.9776 452.89716
42.14222 52.696182 448.42831
44.589569 53.414543 443.94901
47.739212 54.560135 436.58084
51.327423 55.990391 427.27817
54.625381 57.277851 418.91983
56.465248 57.710342 416.31525
58.754158 58.427547 411.7793
61.016663 59.144562 407.23376
63.025444 59.718967 403.64209
64.563568 60.008392 401.97025
66.090935 60.29771 400.29272
67.168457 60.302139 400.54001
67.811707 60.021755 402.71564
68.464973 59.741325 404.8905
69.551811 59.745571 405.13065
70.219955 59.465057 407.30264
71.104706 59.326839 408.50568
71.994316 59.18856 409.7067
73.291565 59.334858 408.96741
73.986893 59.054153 411.13287
74.888474 58.915695 412.32721
75.794922 58.777195 413.51941
77.279366 59.06546 411.79587
78.187798 58.926815 412.98239
79.658707 59.214893 411.25012
81.118996 59.502872 409.51276
82.568649 59.790752 407.77042
83.829597 59.936287 406.9968
85.085098 60.081749 406.21921
86.508125 60.369339 404.46307
87.409477 60.230206 405.62729
88.819092 60.517639 403.86288
90.052948 60.662781 403.06967
91.118774 60.665653 403.24908
92.024345 60.526283 404.40231
93.0923 60.529037 404.57623
94.314926 60.673908 403.76956
95.37986 60.676529 403.93726
96.59433 60.821259 403.1235
97.656281 60.823765 403.28494
99.007172 61.110493 401.48505
100.06358 61.112881 401.63992
101.1198 61.115196 401.79193
101.90216 60.83321 403.90179
102.96317 60.83543 404.0488
103.62894 60.411247 407.13608
104.82645 60.555492 406.29694
105.89209 60.55756 406.43604
107.08154 60.701679 405.59021
108.38708 60.987839 403.75845
109.80099 61.416019 400.93988
110.85059 61.417858 401.06567
111.90002 61.419643 401.18866
112.83822 61.279297 402.29245
113.6729 60.996841 404.37787
114.62369 60.856422 405.47745
115.37271 60.431828 408.54364
