ply
format ascii 1.0
comment PCL generated
element vertex 1539
property float x
property float y
property float z
element camera 0
property float view_px
property float view_py
property float view_pz
property float x_axisx
property float x_axisy
property float x_axisz
property float y_axisx
property float y_axisy
property float y_axisz
property float z_axisx
property float z_axisy
property float z_axisz
property float focal
property float scalex
property float scaley
property float centerx
property float centery
property int viewportx
property int viewporty
property float k1
property float k2
end_header
86.075203 -15.069061 438.18176
87.12545 -15.349838 439.32587
88.180595 -15.630768 440.46735
89.240662 -15.911804 441.60617
90.45089 -15.903244 441.79626
91.518188 -16.184555 442.92935
92.450356 -16.755646 445.00653
93.805046 -16.457886 444.24017
95.019424 -16.449951 444.41718
96.233566 -16.442169 444.59067
97.706879 -15.855347 442.86407
99.169594 -15.268753 441.13263
100.37268 -15.26152 441.29434
101.81943 -14.675339 439.55399
103.01691 -14.668442 439.70819
104.0974 -14.951248 440.80911
105.41122 -14.655167 440.00662
106.49648 -14.938263 441.10138
107.69572 -14.931976 441.24237
108.89478 -14.925873 441.38007
110.09364 -14.919891 441.51434
111.29232 -14.914108 441.64529
112.39214 -15.197906 442.72498
113.59306 -15.192383 442.84946
114.79381 -15.187042 442.97061
116.17627 -14.603043 441.18265
117.37154 -14.598053 441.29666
118.56666 -14.593155 441.40723
119.76163 -14.588455 441.51456
120.95645 -14.583878 441.61853
122.15114 -14.579483 441.71924
123.34569 -14.575226 441.81662
124.54012 -14.571106 441.91068
125.73441 -14.567169 442.00146
126.9286 -14.563339 442.08887
128.12267 -14.559692 442.17307
129.25406 -14.845474 443.20917
130.39052 -15.131393 444.24222
131.58942 -15.128159 444.31686
132.78824 -15.125076 444.38818
134.0392 -14.83287 443.50037
135.28491 -14.540833 442.60907
136.47832 -14.538193 442.6702
137.71614 -14.24646 441.77191
138.94873 -13.954895 440.87015
140.13675 -13.952682 440.92123
141.32471 -13.950668 440.96918
142.54681 -13.659515 440.05713
143.70044 -13.947021 441.05518
144.94633 -13.366943 439.17969
146.12892 -13.365494 439.21442
147.31146 -13.364197 439.246
148.49397 -13.363007 439.27426
149.6577 -13.651199 440.25638
150.81039 -14.228775 442.19257
151.98694 -14.517227 443.16846
153.17966 -14.516602 443.1839
154.38078 -14.226944 442.23898
155.57088 -14.226624 442.24796
156.76097 -14.226456 442.25372
157.95105 -14.22641 442.2562
159.14114 -14.226532 442.25546
160.33568 -14.515991 443.20874
161.51433 -13.937958 441.28699
162.69228 -13.649261 440.31927
163.8651 -13.360733 439.34845
165.06227 -13.650757 440.2887
166.22998 -13.362503 439.31143
167.45226 -13.942062 441.20227
168.63994 -13.943314 441.17563
169.87775 -14.523163 443.05954
171.04305 -14.235458 442.06937
172.26363 -14.526398 442.98969
173.45665 -14.528229 442.94986
174.64972 -14.530182 442.90674
175.84285 -14.532333 442.86044
176.99554 -14.245331 441.85443
178.18623 -14.247726 441.80164
179.33134 -13.961029 440.78946
180.56787 -14.252991 441.68634
181.70798 -13.966568 440.66788
182.89642 -13.969528 440.60214
184.08496 -13.972656 440.53317
185.27359 -13.975952 440.46097
186.52347 -14.268692 441.34076
187.71489 -14.272263 441.26181
188.97272 -14.565308 442.13452
190.16696 -14.569199 442.04883
191.3613 -14.573227 441.95981
192.40771 -13.998718 439.95877
193.67378 -14.292389 440.81775
194.94514 -14.586258 441.67303
196.05826 -14.301498 440.61707
197.16635 -14.016891 439.55826
198.53023 -14.600616 441.35638
199.72556 -14.605698 441.24417
200.73685 -14.032104 439.22311
202.1167 -14.616348 441.0098
203.31253 -14.621918 440.88763
204.50853 -14.627625 440.76212
205.7047 -14.633484 440.63321
206.90106 -14.639496 440.50095
207.99001 -14.356171 439.41422
209.29434 -14.651993 440.22638
210.49127 -14.658493 440.08408
211.57306 -14.375595 438.98816
212.88577 -14.671936 439.78928
214.20386 -14.968475 440.58633
215.40422 -14.975616 440.43015
216.60481 -14.982895 440.27051
217.93391 -15.279953 441.05597
219.00668 -14.997986 439.9411
220.20798 -15.005737 439.77121
221.40952 -15.013672 439.5979
222.6113 -15.021774 439.42117
223.67209 -14.740311 438.29431
225.15945 -15.328156 440.0036
226.36461 -15.336746 439.81607
227.86804 -15.925003 441.51593
229.23053 -16.223724 442.26566
230.59848 -16.522659 443.01105
231.65833 -16.242157 441.86371
232.71327 -15.961777 440.71368
233.92531 -15.971375 440.50433
235.13763 -15.98114 440.29144
236.35028 -15.991058 440.07501
237.56322 -16.001129 439.85498
239.12122 -16.591248 441.51422
240.34 -16.601669 441.2861
241.38153 -16.322296 440.11398
242.77853 -16.623016 440.81909
244.36382 -17.213989 442.45892
245.21838 -16.645004 440.33762
246.81476 -17.236374 441.96814
248.23132 -17.537872 442.65506
249.26711 -17.259338 441.46268
250.29802 -16.980896 440.2677
251.72086 -17.282913 440.94254
252.94827 -17.294907 440.67691
254.17606 -17.307068 440.40759
255.61041 -17.609619 441.06906
257.05035 -17.912354 441.72559
257.86163 -17.34436 439.57733
258.66281 -16.776367 437.4277
260.53717 -17.660233 439.93716
261.76981 -17.673218 439.64481
263.22467 -17.976715 440.27942
264.90967 -18.570847 441.83923
266.37839 -18.874741 442.4631
266.9339 -18.016785 439.36627
268.40338 -18.320892 439.98245
269.87848 -18.625137 440.59344
270.88409 -18.348373 439.34549
272.125 -18.362259 439.02121
274.09473 -19.248154 441.4696
275.09888 -18.971603 440.21066
276.34616 -18.985764 439.87329
278.09515 -19.581482 441.37885
279.60175 -19.886566 441.95483
280.0903 -19.028595 438.83771
282.11465 -19.915436 441.2482
283.1105 -19.639038 439.96844
284.36523 -19.653519 439.60596
286.15311 -20.249817 441.07733
288.22083 -21.137177 443.45966
288.67468 -20.278839 440.32919
289.66168 -20.002335 439.03262
291.19757 -20.30777 439.56506
291.90036 -19.740021 437.34705
292.87506 -19.463181 436.04239
295.26877 -20.64183 439.30191
296.82147 -20.947144 439.81329
298.0896 -20.961227 439.40735
299.9433 -21.557587 440.81885
301.80774 -22.153931 442.22293
301.89508 -21.002563 438.16504
304.06567 -21.889893 440.46738
305.94897 -22.48587 441.85309
306.92529 -22.207642 440.5119
308.51337 -22.511841 440.97934
310.729 -23.398636 443.25015
312.01917 -23.410995 442.80032
313.30927 -23.423019 442.34644
314.59933 -23.434677 441.88846
316.53253 -24.028946 443.22812
317.5033 -23.748306 441.86017
319.12238 -24.050247 442.2879
319.75784 -23.477081 440.01578
320.71469 -23.194901 438.64056
322.33551 -23.495331 439.05533
324.63605 -24.378433 441.25424
325.9317 -24.386124 440.76111
327.56952 -24.684769 441.15701
329.90262 -25.566071 443.33102
330.16315 -24.696655 440.14908
330.75778 -24.118057 437.85938
335.22617 -26.747208 445.34814
340.09662 -29.667267 453.70218
344.30157 -32.003052 460.25763
349.26941 -34.921295 468.5639
355.01556 -38.421829 478.6142
356.06161 -38.129044 477.14792
358.57654 -39.001801 479.21008
360.36255 -39.289856 479.49908
361.77798 -39.284805 478.9017
363.5683 -39.570007 479.17996
366.12042 -40.436951 481.20859
366.39484 -39.552414 477.965
368.57379 -40.12442 479.10403
370.37369 -40.403 479.36047
371.39703 -40.096634 477.86417
372.80481 -40.079956 477.23941
376.57831 -41.810349 481.83951
377.9957 -41.78949 481.20181
380.60959 -42.640793 483.16827
382.43066 -42.90686 483.38931
384.25336 -43.170532 483.60535
385.26242 -42.849167 482.08551
388.31277 -43.981567 484.8873
390.1416 -44.237442 485.08792
392.80139 -45.072708 487.00793
394.21906 -45.031769 486.33652
-46.576523 -24.317764 430.56467
-45.316177 -24.346436 431.1524
-43.646164 -24.084305 430.87115
-42.785416 -24.3974 432.32147
-41.916473 -24.708588 433.77182
-40.640778 -24.729065 434.3515
-38.966187 -24.458801 434.05701
-38.08107 -24.764404 435.50299
-36.015427 -24.201569 434.32675
-34.734436 -24.214828 434.89316
-33.065384 -23.937515 434.58041
-31.782593 -23.947586 435.13968
-30.117188 -23.667191 434.81735
-28.833099 -23.674347 435.36914
-26.796432 -23.102097 434.15637
-25.141296 -22.817535 433.81754
-23.489853 -22.531723 433.47311
-21.842194 -22.244736 433.12305
-20.928406 -22.534714 434.53732
-18.55867 -21.667435 432.40588
-17.642517 -21.955353 433.81302
-16.362961 -21.953278 434.33044
-15.436951 -22.239319 435.73337
-14.152908 -22.235428 436.24432
-13.217361 -22.519745 437.64285
-12.275833 -22.803284 439.03964
-10.640305 -22.508026 438.64777
-9.0094604 -22.212128 438.25
-7.3833313 -21.915604 437.84631
-6.0981445 -21.907455 438.33304
-4.4790039 -21.609772 437.91843
-3.195694 -21.600525 438.39624
-1.5838165 -21.301865 437.97073
-0.30255127 -21.291641 438.43954
1.6248932 -20.703278 437.10184
2.9012299 -20.692276 437.56076
4.4954376 -20.392059 437.11246
5.4542389 -20.669113 438.46637
7.0433044 -20.368271 438.00809
8.0074158 -20.644653 439.35571
9.2839813 -20.632004 439.79431
10.560486 -20.619095 440.22882
11.836929 -20.605957 440.65921
13.11322 -20.592621 441.08557
14.686066 -20.290512 440.59753
15.959442 -20.276825 441.0148
17.524048 -19.974487 440.51599
18.794403 -19.960556 440.92426
20.350723 -19.658035 440.41473
21.334427 -19.932404 441.72864
22.884964 -19.629776 441.20935
23.873413 -19.903915 442.51675
25.693802 -19.312851 441.07074
26.68428 -19.586899 442.37088
28.490906 -18.995911 440.91281
29.75116 -18.981613 441.28635
31.541367 -18.390793 439.81561
32.795708 -18.376556 440.17963
34.309608 -18.074127 439.61795
35.817894 -17.771805 439.0509
37.32058 -17.469559 438.47836
38.817673 -17.167419 437.90045
40.309151 -16.865417 437.3172
41.301437 -17.139587 438.57916
42.542755 -17.125763 438.91266
44.025253 -16.824066 438.31564
45.263214 -16.81041 438.64069
46.264458 -17.084793 439.88992
47.504265 -17.07132 440.20795
48.743683 -17.057938 440.52216
50.439674 -16.468994 438.97244
51.673111 -16.455872 439.27765
53.352646 -15.867325 437.71649
54.800728 -15.566742 437.08093
56.025192 -15.554062 437.37289
57.033844 -15.829208 438.59436
58.472977 -15.529083 437.94565
59.486115 -15.804428 439.1608
61.126862 -15.21701 437.56857
62.141884 -15.492599 438.77686
63.364128 -15.480713 439.04651
64.386223 -15.756516 440.24921
65.610336 -15.744904 440.51212
66.444977 -16.308426 442.64691
67.865562 -16.009567 441.96515
69.280594 -15.710922 441.27869
70.503319 -15.699875 441.52689
71.541542 -15.97641 442.7114
72.947754 -15.678268 442.01239
74.348434 -15.380356 441.30878
75.56723 -15.369965 441.54199
76.611931 -15.647049 442.71359
77.832687 -15.636948 442.94009
79.221687 -15.339722 442.22015
80.439224 -15.329971 442.43906
81.819824 -15.033157 441.7106
83.355721 -14.449326 440.03342
84.722771 -14.152893 439.29559
86.084335 -13.856674 438.55341
87.13443 -14.134964 439.69806
88.18943 -14.413376 440.84009
89.397163 -14.4048 441.03302
90.604637 -14.396362 441.22244
91.526573 -14.962265 443.30289
92.598648 -15.241196 444.43384
93.81311 -15.233185 444.61404
95.027336 -15.225327 444.79071
96.373581 -14.930649 444.01529
97.844109 -14.349167 442.2865
99.176949 -14.054886 441.50232
100.50438 -13.760773 440.71405
101.82643 -13.466858 439.92166
103.02375 -13.460052 440.07565
104.22085 -13.45343 440.22635
105.41774 -13.446945 440.37366
106.50285 -13.727524 441.46899
107.70193 -13.721329 441.60983
108.90083 -13.715302 441.74731
109.99571 -13.996262 442.83371
111.29807 -13.70369 442.01218
112.49642 -13.69812 442.13959
113.6946 -13.692719 442.26364
114.89261 -13.687454 442.38437
116.18138 -13.395554 441.5481
117.3765 -13.390594 441.66187
118.65723 -13.09903 440.81818
119.76627 -13.381165 441.87955
120.96095 -13.376663 441.98337
122.23351 -13.085556 441.12909
123.42532 -13.081375 441.2261
124.61702 -13.077347 441.31985
125.80859 -13.073441 441.41031
127.00005 -13.069702 441.49744
128.19139 -13.066086 441.5813
129.32007 -13.349335 442.61789
130.51378 -13.346008 442.69531
131.70737 -13.34285 442.76956
132.90088 -13.339828 442.84052
134.0943 -13.336945 442.90811
135.33728 -13.047562 442.01578
136.52795 -13.044968 442.07672
137.71855 -13.042526 442.13443
138.90906 -13.040222 442.18887
140.09952 -13.038086 442.24008
141.2899 -13.036057 442.28796
142.48022 -13.034195 442.33267
143.6705 -13.032471 442.37411
144.91881 -12.457626 440.49707
146.10384 -12.456207 440.53189
147.2888 -12.45491 440.56342
148.49507 -12.167145 439.63394
149.6774 -12.166107 439.65891
150.82738 -12.73848 441.59659
152.00121 -13.024353 442.57321
153.19119 -13.023773 442.58865
154.38116 -13.0233 442.60086
155.57112 -13.022995 442.60983
156.76106 -13.022797 442.61554
157.95172 -12.736176 441.66003
159.1391 -12.736282 441.65927
160.32646 -12.736526 441.65527
161.50684 -12.450302 440.69006
162.68207 -12.16423 439.72165
163.86433 -12.164886 439.70798
165.04663 -12.165695 439.69116
166.24626 -12.453247 440.62897
167.47096 -13.027573 442.5213
168.66107 -13.028809 442.4946
169.90132 -13.603439 444.38013
171.06903 -13.318344 443.38916
172.26186 -13.320023 443.35269
173.4875 -13.608429 444.27032
174.64766 -13.323746 443.26984
175.80272 -13.039185 442.26627
176.95268 -12.754776 441.25964
178.18375 -13.043793 442.16412
179.28305 -12.472992 440.19431
180.51683 -12.762299 441.09213
181.65424 -12.478424 440.07312
182.89334 -12.768051 440.9642
184.02577 -12.484451 439.93896
185.27023 -12.774368 440.82324
186.51994 -13.064438 441.70389
187.71121 -13.067963 441.62506
188.9026 -13.07164 441.54294
190.09412 -13.07547 441.45755
191.28574 -13.079437 441.36887
192.40346 -12.796829 440.32178
193.66936 -13.087799 441.18161
194.86136 -13.092209 441.08304
195.97176 -12.810028 440.0267
196.99278 -12.241165 438.01318
198.43826 -13.106369 440.76755
199.54135 -12.82457 439.70193
200.54735 -12.256104 437.67999
201.92184 -12.835022 439.46887
203.20961 -13.127319 440.30048
204.30304 -12.8461 439.22263
205.49388 -12.851852 439.09445
206.78992 -13.144638 439.91516
207.98373 -13.150726 439.78009
209.17772 -13.156967 439.6416
210.48466 -13.450256 440.45108
211.68164 -13.456802 440.30554
212.99677 -13.750473 441.10736
214.31726 -14.044327 441.90512
215.39696 -13.764389 440.79877
216.59738 -13.771606 440.6394
217.9263 -14.065948 441.42587
218.99893 -13.786484 440.31042
220.20007 -13.794159 440.14078
221.40143 -13.801987 439.96771
222.60306 -13.809982 439.79123
223.66371 -13.531036 438.66382
225.00706 -13.826447 439.42792
226.20946 -13.834915 439.24109
227.71011 -14.417831 440.94324
229.06982 -14.713821 441.69446
230.435 -15.01001 442.44131
231.4921 -14.731995 441.29388
232.5443 -14.454102 440.1438
233.91553 -14.750809 440.87924
235.29227 -15.047714 441.61023
236.67447 -15.344818 442.33679
237.89246 -15.354828 442.11615
239.2831 -15.652328 442.83414
240.5043 -15.662674 442.60587
241.19321 -14.811081 439.55032
242.58743 -15.10907 440.25705
243.98717 -15.407257 440.95917
245.02176 -15.130753 439.77722
246.4274 -15.429321 440.47113
248.02911 -16.015533 442.09891
249.06216 -15.739487 440.90659
250.2861 -15.751053 440.64926
251.70877 -16.050354 441.32526
252.93602 -16.062241 441.05997
254.16367 -16.074295 440.79105
255.59784 -16.37413 441.45367
257.03763 -16.674149 442.11142
257.63739 -15.823593 439.0278
258.6499 -15.548447 437.81104
260.30743 -16.136612 439.39044
261.53732 -16.14946 439.09906
263.2113 -16.738037 440.66721
264.44717 -16.75119 440.367
266.13757 -17.340179 441.92377
266.9201 -16.777847 439.75519
268.38947 -17.079269 440.37262
269.62952 -17.092896 440.05649
270.86996 -17.106613 439.73648
271.87067 -16.832443 438.48563
273.59479 -17.422348 440.0112
275.08441 -17.724426 440.60455
276.08365 -17.45047 439.34271
277.8299 -18.040833 440.85098
279.58701 -18.631409 442.35248
280.33148 -18.069427 440.15604
282.09982 -18.660202 441.64664
283.09567 -18.386429 440.36655
284.35037 -18.400894 440.00449
285.8718 -18.703674 440.55817
287.66779 -19.294815 442.02524
288.11652 -18.444305 438.89426
289.92108 -19.035522 440.35101
291.45959 -19.338425 440.88391
292.44458 -19.064438 439.57959
293.42468 -18.790344 438.27289
295.25403 -19.381622 439.70621
296.51941 -19.395874 439.30554
297.785 -19.410034 438.90082
299.63614 -20.001236 440.31525
301.7933 -20.881042 442.63297
301.88098 -19.740311 438.57211
304.3522 -20.90863 441.78638
306.23822 -21.499527 443.17316
306.91162 -20.93541 440.92337
307.88306 -20.659698 439.57935
310.09357 -21.538834 441.85486
311.06506 -21.262558 440.50266
312.03122 -20.985916 439.14819
313.63007 -21.286621 439.59686
315.55573 -21.875916 440.94135
316.84326 -21.887085 440.47644
318.45752 -22.186737 440.90723
319.41779 -21.908081 439.53436
320.70465 -21.917847 439.05728
322.32599 -22.216125 439.47311
323.95221 -22.513855 439.88297
325.24326 -22.522003 439.39197
327.21912 -23.107574 440.68472
328.85965 -23.403488 441.07663
330.15686 -23.409637 440.57074
330.75232 -22.836884 438.27942
334.51508 -24.865051 443.99625
339.02527 -27.470688 451.47211
343.58173 -30.075516 458.92517
348.18423 -32.679443 466.35529
354.28729 -36.438812 477.30444
355.69559 -36.438644 476.72375
358.20911 -37.304581 478.78928
359.25085 -37.012833 477.31525
360.65988 -37.008881 476.72089
362.06714 -37.003525 476.12274
364.98969 -38.153015 479.03687
365.63974 -37.566513 476.67139
367.81519 -38.134628 477.81378
369.99869 -38.701035 478.94827
370.63159 -38.109589 476.57703
372.03604 -38.094406 475.9538
374.62216 -38.944122 477.94391
376.42612 -39.213867 478.18207
378.63208 -39.77037 479.28482
380.44263 -40.035721 479.51138
382.65991 -40.58757 480.60049
384.47623 -40.84819 480.81595
387.5242 -41.972305 483.62207
389.76318 -42.516266 484.68842
392.42331 -43.345932 486.61063
393.84119 -43.307144 485.9389
-46.604294 -23.046188 430.97369
-44.932968 -22.787231 430.69611
-43.669662 -22.812149 431.28168
-42.403168 -22.835022 431.86493
-42.337311 -23.714539 435.05606
-40.658524 -23.447418 434.76657
-39.774277 -23.750916 436.21689
-38.882324 -24.052719 437.66684
-36.809799 -23.49382 436.49191
-34.74527 -22.933182 435.30948
-32.688873 -22.370911 434.11948
-31.023972 -22.09343 433.79996
-29.36235 -21.814529 433.4751
-28.082077 -21.820633 434.02502
-26.800156 -21.825439 434.57169
-25.143784 -21.542526 434.23233
-23.491165 -21.258423 433.88736
-22.210007 -21.259644 434.42148
-20.927567 -21.259781 434.95206
-18.919205 -20.685974 433.70514
-17.63974 -20.684113 434.22632
-16.716415 -20.967773 435.63284
-15.077866 -20.677643 435.25748
-13.443756 -20.386719 434.87631
-12.512665 -20.667862 436.27359
-11.575653 -20.948242 437.6691
-10.288742 -20.941498 438.16855
-8.6598816 -20.64772 437.7688
-7.3745422 -20.639679 438.25931
-6.0888062 -20.631088 438.74594
-4.469162 -20.335602 438.33029
-2.8544617 -20.039642 437.90869
-1.2447815 -19.743256 437.48117
0.35987854 -19.446457 437.04767
2.2824097 -18.863052 435.70615
3.5538788 -18.851776 436.16284
4.8254089 -18.840149 436.61554
5.7819214 -19.114349 437.96902
7.3686218 -18.815918 437.5087
8.3303986 -19.089478 438.85593
9.6045685 -19.076675 439.2933
10.574112 -19.34967 440.63507
11.850739 -19.33638 441.06516
13.127228 -19.322891 441.49112
14.403534 -19.309235 441.91302
15.973724 -19.00946 441.41876
17.538422 -18.70961 440.9187
18.808884 -18.695618 441.3266
20.365234 -18.39563 440.81586
21.632553 -18.381485 441.21481
22.899628 -18.367233 441.60965
24.166397 -18.352966 442.00049
25.9841 -17.767136 440.55157
26.972015 -18.038544 441.85132
28.5056 -17.73851 441.30981
30.033569 -17.438553 440.76279
31.290871 -17.424255 441.13104
32.547806 -17.410004 441.49542
34.32412 -16.824615 440.0108
36.089592 -16.23938 438.51926
37.334953 -16.225342 438.86871
39.083939 -15.640411 437.36496
40.572701 -15.34108 436.77972
41.80909 -15.327301 437.11526
42.800934 -15.598999 438.37381
44.280716 -15.299973 437.77481
45.515945 -15.286438 438.09875
46.514503 -15.558304 439.34778
47.517929 -15.830185 440.59421
48.988289 -15.531647 439.97781
50.681488 -14.948044 438.42545
51.912193 -14.935043 438.72961
53.588951 -14.351837 437.16577
54.81366 -14.339127 437.46112
56.255981 -14.041428 436.81937
57.261917 -14.314102 438.04065
58.485512 -14.301743 438.32471
59.70871 -14.289551 438.6051
61.346657 -13.707489 437.01028
62.358948 -13.980606 438.21848
63.376076 -14.253799 439.42413
64.597794 -14.242172 439.68979
65.622025 -14.515579 440.88977
66.845642 -14.504227 441.14862
68.260834 -14.208145 440.46466
69.481155 -14.197083 440.71561
70.701118 -14.186203 440.96298
71.920753 -14.175446 441.2067
73.140038 -14.164856 441.44681
74.537933 -13.869675 440.74155
75.753975 -13.859421 440.97397
76.795937 -14.134018 442.14554
78.013939 -14.124039 442.37125
79.400154 -13.82959 441.64978
80.614929 -13.819962 441.86792
81.992752 -13.525879 441.13788
83.525864 -12.947388 439.45831
84.890121 -12.653732 438.71906
86.093338 -12.644791 438.9213
87.29628 -12.636032 439.12006
88.348549 -12.911957 440.26218
89.553528 -12.903503 440.45444
90.758247 -12.895187 440.64322
91.820076 -13.171509 441.77655
92.886841 -13.447968 442.90723
94.233398 -13.155655 442.1376
95.30484 -13.432388 443.26215
96.645737 -13.140427 442.48489
97.981216 -12.848694 441.70352
99.184204 -12.841476 441.86823
100.51147 -12.550095 441.07892
101.71143 -12.543213 441.23648
103.0305 -12.252167 440.43936
104.1107 -12.529922 441.54138
105.42418 -12.239227 440.73688
106.39757 -12.801575 442.7851
107.70807 -12.511169 441.97348
108.90681 -12.505234 442.11078
110.10536 -12.49942 442.24469
111.30374 -12.493774 442.37527
112.50193 -12.488297 442.50253
113.79604 -12.198746 441.67245
114.99131 -12.193573 441.79279
116.27734 -11.904343 440.95526
117.55806 -11.615326 440.11401
118.74771 -11.610611 440.22385
119.93721 -11.606049 440.33041
121.12657 -11.601639 440.43369
122.39381 -11.313217 439.57803
123.50489 -11.593246 440.63031
124.69386 -11.589264 440.72369
125.88271 -11.585434 440.81384
127.07143 -11.581757 440.9007
128.26004 -11.578201 440.98425
129.386 -11.858902 442.02133
130.57698 -11.855637 442.09851
131.71048 -12.136597 443.12955
132.95865 -11.849564 442.24316
134.14934 -11.846725 442.31055
135.3896 -11.559982 441.41721
136.57755 -11.557449 441.47797
137.76541 -11.555054 441.53543
138.99515 -11.268753 440.63177
140.14095 -11.550674 441.64072
141.29184 -11.832733 442.64658
142.51622 -11.546875 441.733
143.7354 -11.261139 440.81601
144.92032 -11.259598 440.85394
146.10519 -11.258179 440.88867
147.31392 -10.972885 439.96167
148.49615 -10.971741 439.98987
149.67834 -10.970749 440.01486
150.84433 -11.253906 440.99536
152.02905 -11.253174 441.01389
153.20273 -11.536606 441.9881
154.38155 -11.82016 442.95905
155.57135 -11.81987 442.96802
156.76445 -11.535675 442.01492
157.95168 -11.535645 442.0174
159.14078 -11.819763 442.97546
160.32614 -11.536011 442.0127
161.50638 -11.25238 441.04666
162.69106 -11.252899 441.03625
163.87576 -11.25354 441.02261
165.04575 -10.970337 440.04706
166.24522 -11.25528 440.98569
167.44991 -11.540359 441.92096
168.6373 -11.54158 441.89441
169.82472 -11.542938 441.86456
171.01219 -11.544434 441.83151
172.22992 -11.830078 442.75354
173.45284 -12.115891 443.67215
174.64563 -12.117798 443.62918
175.83847 -12.119858 443.58298
176.99088 -11.837997 442.5755
178.22437 -12.124405 443.48077
179.32611 -11.558777 441.50934
180.56233 -11.845444 442.4079
181.70216 -11.564163 441.38806
182.9437 -11.85112 442.27985
184.07857 -11.570084 441.25375
185.26691 -11.573273 441.18176
186.51646 -11.860687 442.06326
187.64391 -11.580063 441.02789
188.83257 -11.583679 440.94608
190.02133 -11.587433 440.86099
191.28166 -11.875458 441.7287
192.39925 -11.595383 440.68094
193.66499 -11.883728 441.54175
194.93602 -12.172226 442.39883
195.9671 -11.608398 440.38629
196.98801 -11.044708 438.3714
198.34637 -11.617828 440.1734
199.53624 -11.622757 440.06201
200.54211 -11.059418 438.03864
201.82178 -11.348862 438.87524
203.20403 -11.922684 440.6618
204.19749 -11.359741 438.62982
205.3856 -11.365417 438.50211
206.78387 -11.939774 440.27707
207.97752 -11.945755 440.14215
209.28151 -12.236191 440.95621
210.59088 -12.526794 441.76636
211.90561 -12.817612 442.57254
212.9899 -12.539932 441.47177
214.43073 -13.115433 443.22165
215.63594 -13.122391 443.06516
216.71571 -12.845154 441.9549
217.91879 -12.852432 441.79196
218.99127 -12.57547 440.67593
220.19225 -12.583038 440.5065
221.25743 -12.30632 439.38467
222.4563 -12.314209 439.20883
223.51422 -12.03775 438.08127
224.9986 -12.614929 439.79465
226.34721 -12.907806 440.55551
227.70129 -13.200897 441.3121
229.06081 -13.494141 442.06433
230.4258 -13.787613 442.81226
231.79626 -14.081284 443.55582
232.69417 -13.521317 441.45908
234.06781 -13.815338 442.19513
235.28241 -13.82489 441.98236
236.66444 -14.119263 442.70999
237.71254 -13.844482 441.5462
239.10039 -14.139221 442.26575
240.14392 -13.8647 441.09573
241.00507 -13.305542 438.98117
242.21637 -13.315994 438.74799
243.79346 -13.896225 440.39328
245.01062 -13.907028 440.15192
246.22816 -13.918015 439.90695
247.82707 -14.498871 441.53717
248.85738 -14.225296 440.34497
250.07855 -14.236725 440.0885
251.49844 -14.533279 440.76624
252.72295 -14.545044 440.50189
253.54074 -13.986984 438.36057
254.96692 -14.284012 439.02609
256.60748 -14.866272 440.62228
257.41333 -14.308472 438.47269
258.63712 -14.320923 438.19043
260.51102 -15.188873 440.70551
261.96259 -15.486801 441.34695
263.19797 -15.499756 441.05099
264.43375 -15.512833 440.75122
265.89694 -15.811249 441.37881
266.67679 -15.254044 439.20969
267.9111 -15.267426 438.89908
269.38071 -15.566223 439.51385
270.61841 -15.579849 439.19495
272.09668 -15.878952 439.80005
273.82327 -16.463593 441.32703
275.3154 -16.763016 441.9209
276.3172 -16.491623 440.6579
277.81534 -16.791275 441.24255
279.31909 -17.091019 441.82175
280.06097 -16.53421 439.62485
281.56808 -16.834106 440.19543
282.81979 -16.848495 439.83856
283.80811 -16.577255 438.5563
285.59058 -17.162994 440.03329
287.1149 -17.463181 440.58347
288.10165 -17.19194 439.28998
289.90616 -17.777939 440.74884
291.44464 -18.078247 441.28299
292.42975 -17.806931 439.97827
293.97409 -18.107193 440.50275
295.23926 -18.121582 440.10651
295.92993 -17.564072 437.87796
297.48041 -17.864182 438.38861
299.03632 -18.164246 438.89349
301.48352 -19.322266 442.12744
302.16461 -18.76416 439.88596
304.63855 -19.922165 443.10303
306.52734 -20.508041 444.49103
307.20361 -19.949341 442.23898
307.86948 -19.390305 439.98639
310.0802 -20.26178 442.26471
311.05194 -19.988358 440.91199
312.01849 -19.7146 439.55704
313.29865 -19.726715 439.10336
315.22198 -20.311035 440.45074
316.83151 -20.608749 440.88861
318.44617 -20.906143 441.32053
319.73639 -20.916794 440.84674
321.35852 -21.213333 441.26761
322.65082 -21.223053 440.78476
323.94284 -21.232208 440.29788
325.23444 -21.240799 439.80698
326.86823 -21.535233 440.20685
328.50681 -21.829056 440.60077
329.80212 -21.835754 440.09601
331.09674 -21.84169 439.58725
334.5097 -23.565811 444.41843
338.66489 -25.862183 451.0123
342.86115 -28.157806 457.58548
346.7373 -30.166046 463.25027
352.10358 -33.319412 472.4418
354.5961 -34.179626 474.52325
356.73413 -34.752197 475.71014
358.13818 -34.750534 475.12253
360.28885 -35.320587 476.29514
362.44827 -35.889267 477.45956
365.37491 -37.029495 480.37552
366.41095 -36.735779 478.88544
368.20868 -37.013443 479.14914
369.62234 -37.003021 478.5307
369.86469 -36.131683 475.28299
372.05026 -36.690674 476.40961
374.63834 -37.534058 478.4014
376.84167 -38.089035 479.51135
378.65237 -38.355591 479.74301
380.86758 -38.90625 480.83893
382.2796 -38.882141 480.1907
384.0957 -39.141968 480.40701
385.91327 -39.399338 480.61835
388.97012 -40.51239 483.4194
390.79749 -40.76445 483.6178
392.62567 -41.013809 483.81168
-46.630508 -21.773193 431.37994
-44.957016 -21.515213 431.10263
-43.691666 -21.53862 431.68921
-42.423203 -21.560059 432.27344
-41.954285 -22.14682 434.59702
-40.276184 -21.880859 434.30637
-39.392776 -22.18045 435.75714
-38.501694 -22.478363 437.20743
-36.430115 -21.923401 436.03043
-34.754944 -21.650528 435.72247
-32.697037 -21.0923 434.53137
-31.030685 -20.81636 434.21152
-29.748306 -20.82283 434.7663
-28.842194 -21.111832 436.19901
-27.178345 -20.831848 435.86581
-26.26384 -21.118362 437.29388
-24.232071 -20.552155 436.06711
-22.944626 -20.552567 436.60364
-21.290955 -20.268082 436.24982
-19.641388 -19.98259 435.89023
-17.636246 -19.412308 434.63589
-16.712051 -19.692719 436.04333
-14.718201 -19.120728 434.77625
-13.085953 -18.831833 434.39319
-12.505981 -19.393631 436.68323
-11.568253 -19.670853 438.07947
-10.280716 -19.66362 438.57886
-8.9926147 -19.655731 439.07419
-7.7040863 -19.647247 439.56561
-6.0790405 -19.354492 439.15497
-4.4589233 -19.061218 438.73828
-3.1746368 -19.051224 439.21573
-1.5619049 -18.757065 438.78809
-0.27980042 -18.746185 439.25638
1.6483307 -18.167664 437.91483
2.6050873 -18.439651 439.27698
4.2025146 -18.14415 438.82742
5.1646118 -18.415466 440.18335
7.0692596 -17.835846 438.81699
8.3437195 -17.823074 439.25809
9.6181183 -17.810074 439.6951
10.89241 -17.79686 440.12802
12.166595 -17.783447 440.55682
13.440598 -17.769852 440.98157
15.011063 -17.472748 440.4902
16.57608 -17.175537 439.99298
18.426941 -16.595001 438.57635
19.400879 -16.864273 439.89584
20.665894 -16.850174 440.29764
21.930679 -16.835968 440.69528
22.914291 -17.104919 442.00601
24.181107 -17.090622 442.39639
25.998795 -16.509995 440.9454
27.532654 -16.212601 440.40671
28.790604 -16.198318 440.78265
30.583656 -15.61795 439.3125
32.100739 -15.32074 438.75714
33.087318 -15.589554 440.04126
34.858299 -15.009491 438.5531
36.103958 -14.995453 438.9061
37.603859 -14.698563 438.33038
38.846176 -14.684647 438.67474
40.33744 -14.38797 438.08902
41.576355 -14.374222 438.4249
43.059006 -14.077789 437.82928
44.536026 -13.781479 437.22839
45.768547 -13.768051 437.5513
46.52816 -14.320084 439.72964
47.765129 -14.306778 440.0462
48.770699 -14.576233 441.28989
50.694756 -13.715317 438.8045
51.925339 -13.702408 439.10828
53.378708 -13.407074 438.4754
54.605896 -13.39444 438.771
56.268654 -12.816925 437.19446
57.059128 -13.369553 439.35095
58.497932 -13.074844 438.69989
59.931129 -12.780334 438.04395
61.358742 -12.486023 437.38312
62.575836 -12.474274 437.6546
63.590256 -12.744965 438.86008
64.609497 -13.015793 440.06314
65.830719 -13.00441 440.32471
67.051582 -12.993179 440.58264
68.272087 -12.982086 440.83694
69.681549 -12.688934 440.14709
70.898766 -12.678177 440.39359
71.931526 -12.949738 441.57797
73.15065 -12.93927 441.81781
74.548363 -12.64682 441.11145
75.764244 -12.636673 441.34354
76.979797 -12.626678 441.57202
78.36615 -12.334778 440.853
79.747002 -12.043076 440.12943
80.790489 -12.315628 441.29129
82.165543 -12.024292 440.55972
83.535103 -11.733154 439.82376
84.741035 -11.724152 440.02966
85.946693 -11.715317 440.23206
87.305016 -11.424744 439.48389
88.357155 -11.698135 440.62646
89.561974 -11.689774 440.81842
90.91172 -11.399704 440.05856
91.828217 -11.955399 442.14087
92.894829 -12.22934 443.27206
94.241219 -11.939758 442.50143
95.582184 -11.65036 441.72662
96.653221 -11.924744 442.8483
97.988533 -11.635696 442.06586
99.191368 -11.628586 442.23032
100.39397 -11.621628 442.39142
101.59635 -11.614838 442.5491
103.03716 -11.044769 440.79929
104.11721 -11.320007 441.90192
105.31638 -11.313675 442.04907
106.40379 -11.589188 443.1459
107.60515 -11.583176 443.28671
108.80632 -11.577286 443.42407
110.00729 -11.571564 443.55811
111.30933 -11.284363 442.73465
112.60602 -10.99733 441.90726
113.8013 -10.992096 442.03073
115.08992 -10.705383 441.19586
116.37321 -10.418854 440.35721
117.56286 -10.414063 440.47018
118.75235 -10.409454 440.57999
119.94171 -10.404938 440.68634
121.13092 -10.400589 440.78946
122.398 -10.114868 439.93292
123.58437 -10.110809 440.02927
124.77061 -10.106888 440.12231
125.95673 -10.103134 440.21213
127.07504 -10.381012 441.25586
128.26352 -10.377533 441.33936
129.45187 -10.374176 441.41949
130.64014 -10.370972 441.49646
131.7709 -10.649399 442.52802
133.01636 -10.36499 441.64056
134.20433 -10.362213 441.70773
135.44186 -10.07811 440.81332
136.58002 -10.357071 441.83237
137.76775 -10.354706 441.88974
138.9554 -10.352493 441.94394
140.14299 -10.350403 441.9949
141.29375 -10.629898 443.0015
142.51799 -10.346634 442.08701
143.73701 -10.063553 441.16919
144.9218 -10.062027 441.20715
146.10654 -10.060638 441.24179
147.31512 -9.7779694 440.314
148.49721 -9.7768555 440.34219
149.67926 -9.7758789 440.36713
150.84512 -10.056442 441.34836
152.04329 -9.7743225 440.40741
153.22527 -9.7737427 440.42273
154.39035 -10.336105 442.35394
155.57745 -10.335815 442.36288
156.76454 -10.335648 442.36862
157.95163 -10.335617 442.37109
159.14059 -10.617111 443.3299
160.33026 -10.617355 443.32596
161.51292 -10.336334 442.35919
162.70004 -10.336853 442.34875
163.88719 -10.337494 442.33511
165.07434 -10.338272 442.31821
166.24422 -10.0578 441.33868
167.44875 -10.340256 442.27481
168.636 -10.341461 442.24826
169.79825 -10.061386 441.25922
170.9554 -9.7814178 440.26706
172.16782 -10.064438 441.19009
173.41821 -10.629028 443.0687
174.60828 -10.63092 443.02588
175.83632 -10.914383 443.93869
176.9886 -10.635101 442.93054
178.17886 -10.637421 442.87802
179.32356 -10.358398 441.86371
180.5114 -10.360962 441.80475
181.69933 -10.363693 441.74261
182.99408 -10.929474 443.59335
184.13139 -10.651016 442.56644
185.32217 -10.654144 442.49435
186.57416 -10.938934 443.37662
187.70403 -10.660858 442.34036
188.82886 -10.382919 441.30118
190.01749 -10.386627 441.21625
191.27765 -10.671982 442.08484
192.39511 -10.39447 441.03647
193.58411 -10.39859 440.94165
194.77324 -10.402878 440.8436
195.88077 -10.125732 439.78613
196.81464 -9.2855835 436.81421
198.16769 -9.8534241 438.61844
199.44171 -10.139847 439.46298
200.44489 -9.5816498 437.43851
201.62717 -9.5867767 437.32141
202.90685 -9.8736725 438.15564
203.99225 -9.5974579 437.07739
205.27744 -9.8846588 437.90445
206.67294 -10.453705 439.6814
208.07896 -11.022934 441.45389
209.38538 -11.310699 442.26868
210.69716 -11.598648 443.07947
211.89899 -11.605057 442.93375
213.10103 -11.611603 442.78461
214.42377 -11.900055 443.58401
215.62883 -11.906952 443.4278
216.70847 -11.632233 442.31699
217.78316 -11.35762 441.20343
218.85289 -11.08313 440.0871
220.05112 -11.090607 439.91833
220.97757 -10.534561 437.84659
222.17111 -10.542313 437.67172
223.3649 -10.550186 437.49344
224.7027 -10.840134 438.26035
226.04596 -11.130249 439.02304
227.54361 -11.702484 440.72928
228.90036 -11.993011 441.483
230.26259 -12.283752 442.23245
231.78699 -12.856644 443.92401
232.68478 -12.301804 441.82596
234.22017 -12.875107 443.50879
235.43719 -12.884567 443.29581
236.98875 -13.458298 444.96884
237.70247 -12.621887 441.91504
239.09016 -12.913925 442.63577
239.95865 -12.359787 440.52197
240.81705 -11.805695 438.40656
242.0256 -11.816025 438.17422
243.41719 -12.108688 438.88013
244.62903 -12.119354 438.64011
246.02908 -12.412399 439.33728
247.62518 -12.987885 440.97
248.65276 -12.716782 439.77783
250.06689 -13.010406 440.46146
251.4866 -13.304199 441.14032
252.71097 -13.315872 440.87637
253.73215 -13.045288 439.6712
255.16077 -13.339615 440.33731
256.595 -13.634125 440.99857
257.40076 -13.081467 438.84778
258.62442 -13.093811 438.56592
260.065 -13.388794 439.21478
261.51117 -13.683945 439.85864
262.74121 -13.696747 439.56433
264.42038 -14.274826 441.13141
265.65643 -14.287933 440.82825
266.66321 -14.018494 439.58987
267.89743 -14.031799 439.27972
269.13205 -14.045197 438.96573
270.12958 -13.77597 437.71854
271.84253 -14.355057 439.25482
273.56635 -14.934372 440.78455
274.56506 -14.665451 439.52582
275.80692 -14.679382 439.19113
277.29968 -14.976273 439.77841
278.54492 -14.990372 439.43515
279.27893 -14.43869 437.23926
281.03653 -15.018799 438.73697
282.2829 -15.033066 438.38193
283.52966 -15.047379 438.02295
285.30939 -15.627853 439.50284
286.83105 -15.925354 440.05496
287.54364 -15.373581 437.84207
289.617 -16.237442 440.22357
291.15286 -16.53511 440.7598
292.41486 -16.549591 440.37289
293.9592 -16.84729 440.89859
295.50909 -17.144989 441.41858
295.91522 -16.309479 438.27292
297.4657 -16.607056 438.78485
299.31433 -17.187943 440.20425
301.76416 -18.335602 443.44104
302.44806 -17.782898 441.19745
304.62415 -18.647125 443.50668
306.20996 -18.944412 443.98688
307.18964 -18.674576 442.64331
307.54733 -17.837418 439.48138
309.75555 -18.701202 441.76349
310.72498 -18.430573 440.41119
311.37286 -17.876007 438.15137
312.64807 -17.888321 437.69986
314.56641 -18.467606 439.05106
316.17102 -18.762955 439.49194
317.78076 -19.057999 439.92691
319.39563 -19.352661 440.3558
321.01556 -19.646912 440.77872
322.6405 -19.940765 441.19565
323.59564 -19.666534 439.81134
324.88513 -19.675537 439.32162
326.17429 -19.68399 438.82794
327.46289 -19.691788 438.3302
328.75104 -19.698959 437.82861
330.73956 -20.273178 439.10806
333.44427 -21.414459 442.16241
337.94812 -23.974487 449.65656
342.13989 -26.249924 456.23846
346.37274 -28.524612 462.79956
351.73734 -31.650101 472.00122
354.5946 -32.787277 474.97229
357.1026 -33.639404 477.04565
358.51044 -33.638641 476.4567
361.03912 -34.488373 478.51248
362.8284 -34.768967 478.79428
365.75909 -35.899872 481.7121
366.41724 -35.325943 479.34003
368.21655 -35.602173 479.60406
369.24472 -35.309113 478.10782
370.26544 -35.014435 476.61035
371.6709 -35.001923 475.98685
374.25827 -35.838974 477.98157
376.461 -36.390244 479.09351
378.27115 -36.655716 479.32623
380.0834 -36.919113 479.55368
381.08734 -36.613052 478.0376
382.89807 -36.872086 478.25714
385.12057 -37.412323 479.3385
388.17493 -38.516998 482.14383
389.99982 -38.768478 482.34409
391.82562 -39.017319 482.53973
-46.655167 -20.498734 431.7832
-45.797485 -20.803726 433.24255
-43.712219 -20.263794 432.09372
-42.845703 -20.564835 433.54944
-41.569839 -20.583023 434.13315
-39.892456 -20.318268 433.84125
-38.217651 -20.051743 433.54434
-38.513428 -21.189285 437.61835
-35.658188 -20.075943 434.68753
-34.375092 -20.085693 435.25458
-32.704132 -19.812775 434.93985
-31.419632 -19.819626 435.49942
-28.991425 -18.981415 433.41296
-28.845291 -19.829346 436.60861
-27.180267 -19.551086 436.27496
-26.264633 -19.834167 437.70416
-24.601974 -19.553589 437.36124
-23.678467 -19.834503 438.78546
-22.018555 -19.551849 438.43311
-20.362823 -19.26825 438.07489
-18.351608 -18.702545 436.8212
-17.064178 -18.69841 437.34079
-14.712463 -17.849838 435.18137
-12.375748 -17.000549 433.01184
-11.800323 -17.556625 435.30139
-10.867142 -17.83078 436.69632
-9.2402496 -17.541931 436.29764
-8.300827 -17.814804 437.68674
-7.0169983 -17.805954 438.17596
-5.3967285 -17.515442 437.7623
-3.7814026 -17.224457 437.34262
-2.5019379 -17.214157 437.81784
-1.2222595 -17.203415 438.28903
0.05758667 -17.192245 438.7561
1.9833832 -16.618713 437.41168
2.937851 -16.887894 438.77347
4.5329437 -16.594757 438.32175
5.8077393 -16.582352 438.77072
7.7073059 -16.007828 437.40057
8.6669617 -16.275833 438.74792
10.246063 -15.981842 438.27438
11.210785 -16.249359 439.6153
12.180649 -16.516632 440.95392
13.155579 -16.783691 442.29019
15.025375 -16.208344 440.88568
16.590454 -15.913681 440.3873
18.441376 -15.338287 438.9686
19.415405 -15.604904 440.28854
20.966568 -15.31012 439.77371
22.228745 -15.295914 440.17017
22.929031 -15.842819 442.39825
24.195862 -15.828476 442.78821
26.289032 -14.97261 440.4158
27.547318 -14.958313 440.79529
28.805267 -14.944031 441.17078
30.598206 -14.368942 439.69867
32.11525 -14.074371 439.142
33.101807 -14.340607 440.42657
34.87265 -13.765839 438.93643
36.118294 -13.751816 439.28894
37.363525 -13.737885 439.63757
38.608391 -13.723984 439.98224
40.102158 -13.429977 439.39606
41.590324 -13.136078 438.80447
43.072845 -12.842316 438.20764
44.791214 -12.26857 436.67642
45.782173 -12.535355 437.92801
46.777977 -12.802155 439.17709
48.012215 -12.788986 439.49258
49.015068 -13.055939 440.73602
50.707924 -12.482971 439.17963
52.164146 -12.190201 438.54996
53.614769 -11.897614 437.91522
54.839203 -11.885101 438.20984
56.281227 -11.59285 437.56567
57.071617 -12.140335 439.72336
58.722969 -11.568527 438.13498
59.943275 -11.55658 438.41406
61.163208 -11.544754 438.68945
62.587677 -11.253326 438.02316
63.601959 -11.521545 439.22913
64.421394 -12.06955 441.37164
66.039238 -11.498917 439.75418
67.257347 -11.487823 440.01123
68.47509 -11.476868 440.26465
69.881775 -11.186478 439.57318
71.096237 -11.175842 439.81879
72.126259 -11.444946 441.00314
73.342636 -11.434601 441.2421
74.737579 -11.144882 440.53409
75.950684 -11.134888 440.76541
77.16349 -11.125015 440.9931
78.547073 -10.835876 440.27246
79.925133 -10.546936 439.54739
80.965889 -10.817017 440.70929
82.17485 -10.8078 440.92236
83.544235 -10.519379 440.18533
84.591881 -10.789856 441.33807
85.955505 -10.50177 440.59311
87.466599 -9.9345703 438.8959
88.365646 -10.484802 440.98697
89.718063 -10.197281 440.22995
90.919876 -10.189178 440.41779
91.978828 -10.460526 441.55182
93.042709 -10.731964 442.68314
94.523735 -10.165909 440.96078
95.724533 -10.158447 441.13492
96.792847 -10.430328 442.25674
98.125404 -10.143997 441.47293
99.198425 -10.416153 442.58868
100.52534 -10.130157 441.79739
101.6031 -10.402603 442.90701
103.04372 -9.8378296 441.15543
104.24036 -9.8314667 441.30548
105.55092 -9.5461578 440.49872
106.52147 -10.098251 442.54929
107.93802 -9.5342102 440.7814
109.0249 -9.8074951 441.8721
110.22057 -9.8018646 442.00537
111.41605 -9.796402 442.13531
112.61136 -9.7910919 442.26196
113.90256 -9.5069122 441.42975
115.18843 -9.2229004 440.59372
116.37808 -9.2180481 440.70987
117.56758 -9.2133179 440.82272
118.75694 -9.2087555 440.93231
119.86299 -9.4832764 441.99527
121.13521 -9.2000427 441.14157
122.24615 -9.474823 442.19839
123.43753 -9.4708252 442.29504
124.70161 -9.1880493 441.43085
125.89017 -9.1843109 441.52069
127.07861 -9.1807556 441.60733
128.26694 -9.1773071 441.69064
129.45515 -9.1740265 441.77078
130.64326 -9.1708679 441.8476
131.83128 -9.1678619 441.9212
133.07401 -8.8861237 441.03278
134.25925 -8.8833923 441.09973
135.49408 -8.601944 440.20435
136.62952 -8.8783264 441.22385
137.77005 -9.1548462 442.24036
138.95757 -9.1526642 442.29446
140.10567 -9.4294434 443.30493
141.29564 -9.4275208 443.35263
142.51973 -9.1469116 442.43744
143.73862 -8.8664551 441.51877
144.9523 -8.5861435 440.59677
146.13432 -8.5847702 440.63129
147.31631 -8.5835342 440.66266
148.51956 -8.3036346 439.73068
149.68018 -8.5814743 440.71573
150.86206 -8.5806503 440.73746
152.05751 -8.3011322 439.79568
153.22577 -8.5793839 440.77127
154.39915 -8.8577423 441.74362
155.58354 -8.8574524 441.75259
156.76463 -9.1360779 442.7186
157.9516 -9.1360626 442.7211
159.13855 -9.1361694 442.72034
160.3255 -9.1363983 442.71637
161.50546 -8.8579559 441.74884
162.68988 -8.8584595 441.73846
163.8743 -8.8591156 441.72488
165.05875 -8.8598785 441.70804
166.22591 -8.5819855 440.72784
167.44762 -9.1406097 442.62488
168.63472 -9.1418152 442.59842
169.7718 -8.585495 440.64862
170.92624 -8.3081284 439.65585
172.16614 -8.8673401 441.53964
173.3181 -8.5902252 440.5405
174.50029 -8.5920563 440.49799
175.72047 -8.872879 441.4119
176.94586 -9.1538391 442.32236
178.13341 -9.1560974 442.26999
179.32104 -9.158493 442.21439
180.50874 -9.1610413 442.15558
181.69652 -9.1636963 442.09344
182.99113 -9.7242432 443.9458
184.1283 -9.4483185 442.91818
185.31894 -9.4514313 442.84622
186.50967 -9.4546661 442.771
187.57315 -8.9002533 440.77603
188.69269 -8.6248474 439.73654
189.94485 -8.9073944 440.60995
191.2023 -9.1900787 441.47961
192.39102 -9.1940155 441.38824
193.65645 -9.4770203 442.25082
194.76888 -9.2023163 441.19568
195.87627 -8.9277191 440.1376
196.89433 -8.3742828 438.12012
198.16289 -8.6578674 438.96936
199.34729 -8.6626129 438.85873
200.53186 -8.6675415 438.74484
201.62195 -8.3935928 437.67206
202.99867 -8.9568176 439.46252
203.98672 -8.4041214 437.42831
205.27174 -8.6886597 438.25638
206.56212 -8.9733276 439.08047
208.07294 -9.8163452 441.80923
209.26904 -9.8223267 441.67102
210.8035 -10.665726 444.39035
212.12305 -10.951172 445.19781
213.33011 -10.957672 445.04828
214.65785 -11.243454 445.84799
215.86792 -11.250275 445.69128
216.82693 -10.698914 443.6272
217.90408 -10.426849 442.51276
218.84546 -9.8757019 440.44431
219.91011 -9.6038513 439.3248
220.83386 -9.0529175 437.25214
222.16322 -9.3397675 438.02805
223.35684 -9.3475647 437.85004
224.69449 -9.6347656 438.61792
226.03757 -9.9222107 439.38171
227.68396 -10.768433 442.03836
228.8916 -10.776932 441.84454
230.25363 -11.064926 442.59497
231.62112 -11.353134 443.34106
232.83482 -11.362152 443.13596
234.21069 -11.650711 443.87369
235.42755 -11.660065 443.66104
236.97891 -12.228485 445.33591
237.86221 -11.679245 443.22513
239.25232 -11.968567 443.94644
240.12329 -11.419556 441.8309
240.98419 -10.870605 439.71378
242.01511 -10.601288 438.53818
243.40649 -10.891205 439.24512
244.61816 -10.901749 439.00543
246.01804 -11.192062 439.7037
247.42348 -11.482574 440.39731
248.64139 -11.493622 440.14581
249.85965 -11.504807 439.89056
251.27657 -11.795853 440.57108
252.49817 -11.807373 440.30804
253.72015 -11.819031 440.04132
254.73639 -11.551056 438.83322
256.37393 -12.12262 440.4339
257.38834 -11.854889 439.21899
258.39789 -11.58725 438.00159
259.83569 -11.879471 438.65219
261.27911 -12.171875 439.29788
262.28461 -11.904587 438.0705
263.50967 -11.917358 437.77402
265.18909 -12.490234 439.33932
265.96094 -11.943237 437.16974
267.41943 -12.236404 437.7934
268.64868 -12.249664 437.48117
269.87833 -12.263031 437.16507
271.34845 -12.556641 437.7746
273.06689 -13.130585 439.30774
274.0603 -12.864136 438.04999
275.54471 -13.158157 438.64447
277.03479 -13.452332 439.23367
278.02414 -13.186081 437.9657
279.00867 -12.919815 436.69522
280.50513 -13.214233 437.27121
281.4852 -12.948059 435.99442
282.72403 -12.962234 435.63812
284.76205 -13.81778 438.04453
286.27841 -14.112595 438.59946
287.52887 -14.126968 438.22818
289.60211 -14.982956 440.61252
291.6915 -15.839127 442.9881
292.67932 -15.573105 441.68179
294.22632 -15.868225 442.20792
295.4942 -15.882706 441.81165
296.18777 -15.335785 439.57977
297.45099 -15.350098 439.17709
299.00705 -15.645081 439.68445
301.45422 -16.782318 442.92578
302.43353 -16.515686 441.59418
304.60968 -17.372162 443.90625
305.89246 -17.386093 443.47702
307.17548 -17.399887 443.04367
307.84183 -16.851624 440.78848
310.05286 -17.707764 443.07251
311.02515 -17.439941 441.71878
311.99228 -17.171829 440.36282
312.95416 -16.903381 439.00458
314.55383 -17.196671 439.45258
316.15875 -17.48967 439.89459
317.76886 -17.782364 440.33063
319.0546 -17.79361 439.85925
321.00439 -18.366699 441.18463
322.62976 -18.658264 441.60254
323.58545 -18.387039 440.21768
324.87549 -18.396439 439.72812
326.16519 -18.405319 439.23459
327.45441 -18.413589 438.73703
328.39526 -18.139999 437.34116
330.03131 -18.428207 437.73004
332.3783 -19.27832 439.89755
337.23071 -22.096756 448.29361
341.05963 -24.070694 453.99408
345.64642 -26.606491 461.45407
351.00671 -29.704102 470.66693
354.59222 -31.394257 475.41733
356.73248 -31.958099 476.60712
358.51038 -32.239532 476.90387
361.41437 -33.363708 479.84558
363.20752 -33.642624 480.12674
365.38354 -34.201553 481.28342
366.42249 -33.915176 479.7908
367.83875 -33.908646 479.17606
368.47876 -33.338043 476.80142
369.88562 -33.32843 476.18179
371.29016 -33.3172 475.55884
372.6922 -33.304214 474.93253
375.28397 -34.132965 476.92343
377.4884 -34.678543 478.03198
378.89496 -34.65979 477.39053
380.70355 -34.92009 477.61612
383.32935 -35.740234 479.57416
385.14648 -35.995956 479.78723
387.79062 -36.811172 481.72821
389.61548 -37.06192 481.92917
391.44128 -37.310089 482.12543
-47.089874 -19.501282 433.0513
-46.227692 -19.802292 434.51367
-44.544296 -19.54454 434.23553
-43.266937 -19.563293 434.82391
-41.98671 -19.580215 435.40964
-40.304993 -19.316803 435.11884
-38.229721 -18.773132 433.94803
-38.130386 -19.620605 437.14987
-35.276123 -18.516464 434.21521
-33.605713 -18.246506 433.90326
-32.324356 -18.253738 434.46536
-31.041138 -18.259613 435.02426
-28.994873 -17.706894 433.81631
-28.469513 -18.267502 436.1319
-27.181366 -18.269653 436.68057
-25.518967 -17.991989 436.34064
-24.600891 -18.270584 437.76724
-23.308762 -18.269455 438.30511
-22.015533 -18.267395 438.83936
-20.721252 -18.264389 439.36978
-19.066299 -17.981873 439.00598
-17.058609 -17.419891 437.74469
-14.3517 -16.299927 434.69016
-12.368774 -15.736557 433.41064
-11.44342 -16.008331 434.80713
-10.512268 -16.279449 436.20178
-9.2313538 -16.271332 436.69775
-8.6326904 -16.819733 438.98526
-7.007019 -16.531937 438.5766
-5.3862762 -16.243683 438.1619
-3.437088 -15.676498 436.84048
-1.8290253 -15.387436 436.41281
-0.55422974 -15.37645 436.88181
0.39517212 -15.643509 438.25034
1.9957275 -15.353363 437.80756
2.9505157 -15.61969 439.16986
4.5458832 -15.328964 438.71701
