ply
format ascii 1.0
comment PCL generated
element vertex 1592
property float x
property float y
property float z
element camera 0
property float view_px
property float view_py
property float view_pz
property float x_axisx
property float x_axisy
property float x_axisz
property float y_axisx
property float y_axisy
property float y_axisz
property float z_axisx
property float z_axisy
property float z_axisz
property float focal
property float scalex
property float scaley
property float centerx
property float centery
property int viewportx
property int viewporty
property float k1
property float k2
end_header
81.300125 188.67676 438.94696
82.467041 188.67061 439.15094
83.633667 188.66457 439.35175
84.962944 188.50507 438.57468
86.286797 188.3457 437.79346
87.447472 188.34003 437.98364
88.607895 188.3345 438.17059
89.920662 188.17551 437.37802
90.778008 188.47726 439.5116
91.9403 188.47205 439.68933
93.102364 188.46695 439.86389
94.264198 188.46194 440.03525
95.565491 188.30359 439.22522
96.86142 188.14534 438.41125
98.017464 188.1407 438.57242
99.173309 188.13614 438.73035
100.45831 187.97827 437.90561
101.61118 187.97395 438.05695
102.88808 187.81631 437.22485
104.03801 187.81219 437.36966
105.18777 187.8082 437.51132
106.33736 187.80429 437.64993
107.48679 187.80048 437.78537
108.74736 187.64339 436.93591
109.89389 187.63977 437.06494
111.04028 187.63626 437.19086
112.18651 187.63286 437.31372
113.3326 187.62955 437.43353
114.38013 187.77966 438.53351
115.52853 187.77652 438.64743
116.67679 187.77347 438.75833
117.82494 187.77052 438.86612
119.06108 187.61435 437.98666
120.20641 187.61159 438.08813
121.43462 187.45561 437.2019
122.57716 187.45303 437.29703
123.71958 187.45055 437.38922
124.93718 187.29486 436.49304
126.07683 187.29256 436.57901
127.14627 187.4436 437.64758
128.28833 187.44147 437.72766
129.49527 187.28613 436.81863
130.57217 187.43744 437.87878
131.71397 187.43555 437.9498
132.91296 187.28049 437.03131
134.05205 187.27878 437.09625
135.19106 187.27716 437.15817
136.33002 187.2756 437.21704
137.4689 187.27414 437.27298
138.65215 187.11952 436.33871
139.78835 187.11823 436.38855
140.88525 187.27023 437.42279
142.06062 187.11588 436.47928
143.19669 187.11481 436.52017
144.33272 187.11385 436.55811
145.4687 187.11295 436.59305
146.63107 186.95892 435.63721
147.74059 187.11139 436.65402
148.87648 187.11073 436.68005
150.03107 186.95694 435.71515
151.16435 186.95645 435.73514
152.29761 186.95602 435.75229
153.41986 187.1089 436.75452
154.5641 186.95544 435.77759
155.69147 187.10846 436.77396
156.82397 187.26157 437.76743
157.96306 187.10834 436.78156
159.09885 187.10838 436.78088
160.23022 186.95531 435.78909
161.35646 186.80231 434.79434
162.4967 186.95581 435.77298
163.62996 186.95618 435.76047
164.76323 186.95663 435.74506
165.9138 187.11035 436.71463
167.04968 187.11096 436.69324
168.18559 187.11166 436.66885
169.32153 187.11241 436.64142
170.45752 187.11325 436.61111
171.62364 187.2674 437.56552
172.76227 187.2684 437.52921
173.90094 187.2695 437.48984
175.03964 187.27066 437.44751
176.17841 187.27191 437.40219
177.27423 187.12 436.36664
178.41054 187.1214 436.31552
179.45065 186.81641 434.28732
180.63263 186.97122 435.21735
181.76654 186.97287 435.15738
182.95634 187.12787 436.08102
184.03458 186.97643 435.02847
185.35162 187.43811 437.91843
186.49355 187.44009 437.84607
187.56944 187.28891 436.7847
188.77766 187.44437 437.69226
189.91985 187.44661 437.61081
190.91446 187.14236 435.55551
192.12811 187.2981 436.45367
193.347 187.45389 437.34839
194.40804 187.30319 436.27008
195.54817 187.30588 436.17371
196.77512 187.46198 437.05875
197.91805 187.46484 436.95609
198.96925 187.31448 435.86655
200.01544 187.1642 434.77444
201.25061 187.32068 435.64658
202.39148 187.32391 435.53207
203.63464 187.48059 436.39731
204.8831 187.63739 437.25903
206.02956 187.6409 437.13474
207.17616 187.64453 437.00742
208.54785 187.95505 438.84048
209.5849 187.80548 437.72495
210.73456 187.80942 437.58804
212.00461 187.96686 438.42889
213.1572 187.97101 438.28543
214.18463 187.82181 437.15875
215.20709 187.6727 436.02957
216.22458 187.52368 434.89792
217.23711 187.37473 433.76389
218.38034 187.37936 433.60629
219.52377 187.38406 433.4455
220.80826 187.5424 434.25967
222.24152 187.85437 436.04764
223.39334 187.85944 435.87631
224.69398 188.01816 436.67877
226.00003 188.17703 437.47726
227.15771 188.18246 437.29565
228.47198 188.34158 438.08649
229.79167 188.50082 438.87326
230.95529 188.50665 438.68118
231.95509 188.35898 437.51144
233.11667 188.36499 437.31329
234.10925 188.21751 436.1384
235.26877 188.22375 435.9342
236.25415 188.07648 434.75415
237.58871 188.23665 435.51611
238.74911 188.24327 435.30212
239.90985 188.25003 435.0849
241.07086 188.2569 434.86435
242.23221 188.2639 434.64056
243.2039 188.11728 433.44376
244.55589 188.27829 434.18301
246.10858 188.59325 435.88651
247.47424 188.75461 436.61649
249.04579 189.06995 438.3096
250.22217 189.07782 438.06308
251.39891 189.08582 437.81314
252.36789 188.94009 436.59393
253.54279 188.94836 436.33777
254.71809 188.95679 436.07819
255.89378 188.96532 435.81512
257.06989 188.974 435.54865
258.46756 189.13681 436.24176
259.64709 189.14578 435.96771
260.82703 189.15494 435.69022
262.23639 189.31824 436.37036
263.4198 189.32767 436.08521
264.6037 189.33728 435.7966
266.02484 189.5011 436.46362
267.21225 189.51102 436.16721
268.64215 189.67522 436.82513
270.32236 189.99376 438.43542
271.51904 190.00418 438.12619
272.71619 190.01477 437.81329
273.66138 189.87128 436.54153
274.60184 189.72791 435.26749
275.79529 189.73889 434.94507
276.98926 189.75005 434.6189
278.44669 189.91566 435.24142
279.90991 190.0815 435.8588
281.37888 190.24753 436.47095
282.31201 190.10497 435.17746
284.06079 190.4258 436.73004
285.54456 190.59241 437.32706
287.03412 190.75925 437.91873
288.52951 190.9263 438.505
290.03073 191.09354 439.08585
291.25122 191.10645 438.71564
292.47229 191.11948 438.34152
293.4021 190.97807 437.01965
294.91617 191.14603 437.58154
296.13901 191.15953 437.19562
297.36243 191.17319 436.80573
298.88885 191.34171 437.35236
300.11609 191.35565 436.95361
300.72864 191.06018 434.67316
302.26212 191.22919 435.20602
303.17554 191.08865 433.85892
304.3999 191.1031 433.44574
306.26135 191.42752 434.89902
308.13391 191.75217 436.34448
309.37061 191.76712 435.91531
311.58643 192.24722 438.27954
312.50342 192.10744 436.90768
313.74713 192.12279 436.46414
314.65723 191.98311 435.08664
315.22583 191.68832 432.77817
316.80267 191.85904 433.25259
317.70111 191.71948 431.86731
318.25 191.42465 429.55392
320.52582 191.90619 431.8642
322.46802 192.23268 433.24042
323.3631 192.09329 431.84003
325.31946 192.42004 433.20255
327.64496 192.90236 435.47726
328.9046 192.91855 434.98251
330.52802 193.09026 435.40198
332.1571 193.26202 435.81497
334.16052 193.58939 437.13782
338.77457 195.00598 444.85941
343.43683 196.42316 452.55698
347.77057 197.68521 459.31708
351.38834 198.63637 464.23074
354.65613 199.4321 468.21539
356.41174 199.60501 468.54492
357.39795 199.46629 467.05017
357.98862 199.17151 464.64545
360.9248 199.81155 467.67877
362.30057 199.82813 467.07742
364.47211 200.15628 468.27939
366.2533 200.32838 468.56924
368.03925 200.50024 468.85199
370.23602 200.82787 470.02817
373.26025 201.46736 472.99344
373.83679 201.17029 470.5563
376.05792 201.4971 471.70673
377.03864 201.35519 470.16101
378.43228 201.3689 469.50766
-38.598557 195.07611 427.83109
-36.921341 194.90417 427.51614
-36.063492 195.04913 428.99335
-34.794891 195.03513 429.56827
-33.123581 194.86224 429.23724
-31.457077 194.68912 428.8996
-30.58905 194.83281 430.36362
-30.109482 195.13466 432.73105
-28.053146 194.80246 431.47299
-27.562439 195.10376 433.83643
-26.288666 195.08804 434.38257
-25.014816 195.0722 434.92441
-22.598541 194.58131 432.72879
-21.332703 194.56534 433.25854
-20.06694 194.54926 433.78391
-18.8013 194.53308 434.30487
-16.795578 194.20055 432.99069
-15.903122 194.3425 434.41727
-13.911179 194.01004 433.08899
-12.292282 193.83578 432.67065
-10.679062 193.66159 432.24594
-9.0715027 193.48749 431.81482
-7.823822 193.47142 432.29904
-6.9280396 193.61331 433.70178
-5.3296356 193.43939 433.25464
-3.73703 193.26559 432.80124
-3.1807861 193.56538 435.1189
-1.9326477 193.54953 435.5827
-0.34675598 193.37601 435.11447
0.56214905 193.51807 436.49756
1.8087616 193.50246 436.94858
3.0548248 193.48697 437.39545
4.9555664 193.15631 435.97495
6.5202026 192.98351 435.479
8.0789795 192.81087 434.97705
8.9925537 192.95345 436.33777
10.227875 192.9386 436.76096
11.148209 193.08136 438.11621
12.38501 193.06673 438.53207
13.312119 193.20963 439.88174
14.856827 193.03789 439.35156
16.699509 192.70898 437.87589
17.928665 192.69498 438.27377
19.754349 192.36656 436.78491
20.977051 192.35291 437.17316
22.199219 192.33939 437.55728
23.420761 192.32602 437.93759
24.929749 192.15564 437.36929
25.862167 192.29973 438.68631
27.364731 192.12971 438.10861
28.861496 191.9599 437.52539
29.79744 192.1044 438.8324
31.287834 191.93497 438.2399
33.044655 191.60873 436.69278
33.981567 191.75366 437.98907
35.190193 191.74176 438.33221
36.662651 191.57309 437.72006
37.867592 191.56152 438.05493
38.812836 191.707 439.33914
40.532417 191.38202 437.7598
41.479263 191.52777 439.03726
42.682137 191.51682 439.3573
44.133179 191.34927 438.7179
45.332451 191.33865 439.02988
46.531235 191.3282 439.33826
47.970375 191.16119 438.68518
49.165596 191.15106 438.98566
50.595985 190.98444 438.32339
52.020706 190.81798 437.65625
53.209351 190.80835 437.9447
54.397537 190.79886 438.22961
55.585297 190.78952 438.51102
56.772629 190.78033 438.78888
57.959549 190.7713 439.06323
59.363441 190.60588 438.37067
60.546951 190.59714 438.63739
61.730049 190.58856 438.90076
62.703156 190.73657 440.12582
64.09507 190.57179 439.41708
65.277023 190.56363 439.67004
66.6604 190.3992 438.95279
67.839027 190.39131 439.19839
69.017281 190.38358 439.44064
70.389221 190.2196 438.711
71.564186 190.21216 438.94601
72.927673 190.04852 438.2081
74.099396 190.04135 438.43585
75.454437 189.87802 437.68982
76.62294 189.87111 437.91043
77.969589 189.70808 437.15628
78.959015 189.8577 438.34174
80.126617 189.85117 438.55246
81.293915 189.84479 438.75992
82.460938 189.83853 438.96411
83.462158 189.98856 440.13879
84.957108 189.67017 438.38846
86.120728 189.66428 438.58249
87.284111 189.65849 438.77319
88.602409 189.4967 437.98529
89.762703 189.49118 438.16916
90.922752 189.48575 438.34985
92.230003 189.32436 437.55066
93.242157 189.47528 438.70166
94.401535 189.47018 438.87274
95.700363 189.30917 438.0629
96.719604 189.46039 439.20551
98.012863 189.29959 438.38855
99.168808 189.29495 438.54663
100.32456 189.29045 438.7016
101.60692 189.13 437.87381
102.7597 189.12573 438.02219
104.03394 188.96552 437.18716
105.30286 188.80545 436.34836
106.3335 188.95746 437.46765
107.59692 188.79761 436.62204
108.96634 188.48192 434.79129
109.99907 188.63422 435.90158
111.14297 188.63065 436.02731
112.28673 188.62718 436.15002
113.32932 188.77975 437.25223
114.37694 188.93237 438.35187
115.52543 188.9292 438.46591
116.67378 188.92609 438.57687
117.82202 188.92308 438.68472
118.97013 188.92017 438.78958
120.11813 188.91734 438.89133
121.43199 188.60284 437.02151
122.49419 188.7561 438.10129
123.63928 188.75357 438.19373
124.85954 188.59525 437.29822
126.00186 188.5929 437.3844
127.14409 188.59061 437.4675
128.35378 188.43259 436.56219
129.49326 188.4305 436.63916
130.63264 188.4285 436.7131
131.77196 188.42656 436.78397
132.85393 188.58057 437.8381
133.99567 188.57883 437.90317
135.18947 188.42134 436.97885
136.27895 188.57559 438.02432
137.46747 188.41827 437.09375
138.60638 188.41684 437.14667
139.74525 188.41553 437.19666
140.88406 188.41429 437.24368
142.05952 188.25732 436.30057
143.19568 188.25624 436.34149
144.36334 188.09946 435.39218
145.46785 188.25433 436.41443
146.63031 188.09772 435.45898
147.76373 188.09695 435.48795
148.87587 188.25209 436.5015
150.03053 188.0957 435.53699
151.18002 187.93942 434.56943
152.29723 188.09477 435.57416
153.43056 188.09442 435.58832
154.56387 188.09416 435.59949
155.69133 188.24977 436.59552
156.82391 188.40546 437.58853
157.96236 188.40543 437.59085
159.1008 188.40549 437.59021
160.23039 188.09402 435.61096
161.3707 188.25005 436.59222
162.51616 188.40613 437.57037
163.63037 188.09491 435.58234
164.77843 188.25116 436.5546
165.93164 188.40752 437.5238
167.05034 188.25232 436.51465
168.16391 188.09723 435.50272
169.32234 188.2538 436.46286
170.4584 188.25465 436.4325
171.62462 188.41141 437.38647
172.76332 188.41241 437.3501
173.93733 188.56934 438.29788
175.07869 188.57054 438.25549
176.22011 188.57181 438.21002
177.31859 188.41736 437.17477
178.41199 188.26297 436.13672
179.40407 187.797 433.12265
180.58356 187.95442 434.05237
181.71498 187.95612 433.99252
182.9023 188.11369 434.91583
184.09485 188.27139 435.83591
185.35358 188.58502 437.73856
186.49559 188.58707 437.66617
187.70381 188.74503 438.5762
188.77988 188.59138 437.51221
189.92215 188.59367 437.43073
190.99068 188.44019 436.36115
192.05417 188.28677 435.289
193.19159 188.28934 435.19885
194.32913 188.29198 435.10571
195.46677 188.29471 435.00955
196.69124 188.45343 435.89426
197.92097 188.61224 436.77554
198.88042 188.30344 434.70285
200.11296 188.46246 435.57776
201.2538 188.46565 435.46616
202.2952 188.31302 434.36887
203.53587 188.47234 435.23386
204.78186 188.63177 436.0954
205.81853 188.4794 434.98938
207.17986 188.79501 436.82578
208.32672 188.79881 436.69525
209.47374 188.8027 436.56165
210.62094 188.8067 436.42499
211.8885 188.9668 437.26559
213.03862 188.97101 437.12238
214.06357 188.81931 435.99631
215.08354 188.66766 434.86777
216.22906 188.67216 434.71588
217.37477 188.67676 434.56085
218.38503 188.52542 433.42438
219.66681 188.68629 434.24149
220.95399 188.84732 435.05478
222.24655 189.00847 435.86417
223.39848 189.01363 435.69269
224.84784 189.33115 437.4711
226.0054 189.33658 437.29251
227.16321 189.3421 437.11075
228.32126 189.34775 436.92575
229.63849 189.50969 437.71243
230.96115 189.67178 438.49503
231.96106 189.52162 437.32559
233.12274 189.52776 437.12729
234.11543 189.37779 435.95264
235.27509 189.38416 435.74829
236.26057 189.23441 434.56851
237.41821 189.241 434.35812
238.39655 189.09146 433.17325
239.91664 189.41089 434.89832
240.89297 189.26157 433.70734
242.05185 189.26868 433.48386
243.40106 189.43225 434.22632
244.7558 189.59601 434.96445
246.31125 189.91629 436.66638
247.67963 190.08038 437.3952
248.85318 190.08826 437.15244
250.23007 190.25267 437.87286
251.20139 190.10437 436.65674
251.9597 189.79971 434.47278
253.5511 190.12106 436.1474
254.72653 190.12961 435.88757
255.68637 189.98177 434.66052
257.29718 190.30368 436.32083
258.47644 190.31268 436.05008
259.43231 190.16525 434.81387
260.83618 190.33112 435.49808
262.24573 190.49718 436.17761
263.42929 190.50677 435.89224
264.84753 190.67319 436.56274
266.03461 190.68314 436.26968
267.46161 190.84991 436.93118
268.65222 190.86017 436.63028
269.84332 190.87057 436.32571
271.03491 190.88113 436.01758
271.97711 190.73505 434.75034
273.16711 190.74588 434.43561
274.35757 190.7569 434.11725
275.80627 190.9249 434.74857
276.74005 190.77934 433.46948
278.72095 191.26157 435.99591
280.18695 191.43021 436.61182
281.39053 191.44208 436.272
282.59467 191.45413 435.9285
284.07275 191.62332 436.53009
285.28061 191.6357 436.17816
286.48901 191.64822 435.82245
287.97931 191.81801 436.40952
289.47546 191.98801 436.99115
290.69086 192.00105 436.62228
291.61755 191.85704 435.30521
292.83145 191.87036 434.92932
294.34042 192.04108 435.4921
295.55814 192.05472 435.10748
297.0762 192.22583 435.65988
298.90256 192.55447 437.14673
299.51987 192.25391 434.86917
300.74255 192.26814 434.46774
301.96585 192.28253 434.06229
302.87674 192.13957 432.71616
304.09857 192.15419 432.3035
305.95752 192.48399 433.75641
307.82764 192.81406 435.2016
309.06177 192.82916 434.77292
310.62274 193.00203 435.27231
312.18954 193.17505 435.76553
313.76221 193.34827 436.25272
314.00406 192.89073 433.01691
315.57782 193.06413 433.49567
317.15741 193.23769 433.96829
317.71643 192.93791 431.65579
318.9549 192.9538 431.19366
321.23621 193.44342 433.50012
322.83374 193.61746 433.94974
324.0842 193.63364 433.4707
326.04599 193.96588 434.8299
327.66071 194.14023 435.26035
328.92041 194.1566 434.76526
330.54382 194.33109 435.18387
332.539 194.66376 436.51306
334.5451 194.99655 437.83362
338.41925 196.1205 443.71985
343.45316 197.71959 452.32773
347.41028 198.84447 458.17102
350.64606 199.65314 462.17111
354.29065 200.62038 467.0658
355.65875 200.63762 466.48627
356.63937 200.49632 464.9939
359.1749 200.98856 467.12726
360.94077 201.16385 467.43735
362.31628 201.18048 466.83563
364.88571 201.67249 468.93994
366.26849 201.68872 468.32544
368.0542 201.86324 468.60748
370.6568 202.35477 470.68246
372.45715 202.52878 470.94806
373.85071 202.54376 470.3092
376.07141 202.87576 471.45837
377.05157 202.7312 469.91296
377.60602 202.42731 467.47183
-38.610809 196.32626 427.60245
-37.754181 196.47427 429.0835
-36.891434 196.62183 430.56284
-34.808273 196.28534 429.34024
-32.735123 195.94864 428.10864
-31.870483 196.09521 429.57547
-30.206482 195.91922 429.23318
-29.335739 196.06522 430.69397
-27.676361 195.88879 430.34076
-27.577393 196.35632 433.6095
-26.303802 196.34053 434.15601
-24.646622 196.16364 433.78876
-22.233063 195.66483 431.59378
-20.970001 195.64874 432.12271
-19.707001 195.63257 432.64731
-18.444138 195.61632 433.16757
-16.441055 195.27844 431.85358
-15.183853 195.26215 432.36295
-13.197189 194.92438 431.03378
-12.307999 195.06876 432.4505
-10.694763 194.89178 432.02664
-9.4440308 194.8755 432.5166
-8.193634 194.85922 433.0022
-7.2952118 195.00352 434.40588
-5.6941071 194.82678 433.9606
-4.0987549 194.65015 433.509
-3.539856 194.95494 435.82712
-2.2890015 194.93887 436.29227
-1.0386505 194.92288 436.75323
0.54682922 194.74661 436.28159
1.7935028 194.7308 436.73303
3.3699646 194.55484 436.25006
5.595871 194.05858 433.89877
6.8303223 194.04321 434.33389
8.3866119 193.8678 433.83179
9.6173248 193.85268 434.25763
10.530396 193.9978 435.61417
11.448181 194.14297 436.96841
12.682449 194.1282 437.38379
13.60701 194.27353 438.73248
15.149261 194.099 438.20221
16.685638 193.92467 437.66611
17.613724 194.07036 439.00436
19.44223 193.7365 437.51764
20.667709 193.7226 437.90701
21.892639 193.70886 438.29239
23.407639 193.53546 437.73041
24.916824 193.36226 437.16281
26.134735 193.34903 437.53479
27.634872 193.17624 436.957
28.84903 193.16333 437.32034
30.062592 193.1506 437.6799
31.550537 192.97839 437.0874
33.032677 192.80637 436.48956
33.969711 192.95374 437.78574
35.445511 192.78209 437.17877
36.386719 192.9297 438.46884
37.856209 192.75842 437.85291
39.060768 192.74683 438.18436
40.521355 192.57596 437.55881
41.722275 192.5647 437.88211
42.922661 192.55362 438.20178
44.122581 192.54266 438.51767
45.568085 192.37253 437.87393
46.520912 192.52127 439.13864
47.960258 192.35147 438.48621
49.393883 192.1819 437.82889
50.586174 192.17178 438.12537
52.011055 192.00258 437.45895
53.199837 191.99278 437.74765
54.61602 191.82394 437.07217
55.801315 191.81447 437.35318
57.208809 191.646 436.66885
58.390663 191.63684 436.94223
59.789536 191.4687 436.24908
60.753143 191.61896 437.47855
61.721565 191.76932 438.70572
62.904404 191.76071 438.96582
64.086876 191.75226 439.22244
65.268951 191.74396 439.47565
66.652496 191.57678 438.75897
67.632011 191.72777 439.97183
69.009644 191.5609 439.24725
70.381721 191.39423 438.51828
71.365387 191.54556 439.72198
72.731606 191.37918 438.9852
74.0923 191.21298 438.24411
75.263832 191.20581 438.46869
76.797188 190.88104 436.7489
78.141403 190.7153 435.99484
79.128342 190.86742 437.1796
80.293472 190.86079 437.39001
81.458313 190.85431 437.59714
82.286606 191.16553 439.74686
83.621613 191.00047 438.97501
84.788216 190.99435 439.17282
86.114906 190.82957 438.39319
87.43618 190.66496 437.60947
88.596825 190.65921 437.79672
89.75724 190.65358 437.98074
90.917404 190.64807 438.16156
92.077332 190.64267 438.3392
93.23703 190.63739 438.51364
94.254227 190.79089 439.66193
95.555771 190.62718 438.85297
96.714813 190.62225 439.01788
97.87365 190.6174 439.1796
99.03228 190.6127 439.3382
100.44947 190.29085 437.53592
101.60255 190.28638 437.68756
102.87967 190.1234 436.85648
104.15144 189.96054 436.02167
105.29883 189.95641 436.16324
106.44604 189.95236 436.30176
107.70699 189.78986 435.45636
108.8513 189.78603 435.58832
109.99545 189.7823 435.71725
111.24562 189.62015 434.86145
112.2833 189.77515 435.96585
113.427 189.77171 436.0856
114.47214 189.92688 437.18466
115.61815 189.92363 437.29846
116.67073 190.07898 438.39224
117.81905 190.07591 438.50018
119.0554 189.91447 437.6217
120.20091 189.91161 437.7233
121.34631 189.90883 437.82187
122.57202 189.74768 436.93332
123.71463 189.7451 437.0256
124.85713 189.74261 437.1149
125.99954 189.7402 437.20108
127.14185 189.7379 437.28436
128.21652 189.8941 438.34958
129.42621 189.73355 437.44171
130.56827 189.73151 437.51587
131.71024 189.72955 437.58701
132.79486 189.88611 438.6409
133.99396 189.72589 437.72031
135.13571 189.7242 437.78241
136.32697 189.56418 436.85541
137.46602 189.56265 436.91138
138.64943 189.40283 435.97803
139.78581 189.40149 436.02792
140.88286 189.55861 437.06143
142.05841 189.39905 436.1188
143.19464 189.39795 436.15973
144.33083 189.39694 436.19772
145.46698 189.396 436.2327
146.65593 189.0784 434.29071
147.73918 189.39439 436.29379
148.87524 189.39371 436.31989
150.01128 189.39311 436.34299
151.16342 189.23422 435.37589
152.28328 189.39217 436.38028
153.41925 189.39182 436.39444
154.55522 189.39154 436.4057
155.69118 189.39136 436.41391
156.82385 189.54962 437.40659
157.96237 189.54959 437.40891
159.09903 189.39127 436.42084
160.23499 189.39142 436.41721
161.37096 189.39163 436.41061
162.50693 189.39192 436.40103
163.64291 189.3923 436.38849
164.77892 189.39278 436.37296
165.91495 189.39331 436.35446
167.05099 189.39395 436.33304
168.16466 189.23627 435.32147
169.32317 189.39545 436.28122
170.4593 189.39633 436.25082
171.59549 189.39728 436.21747
172.79709 189.71512 438.15482
173.97375 189.87463 439.10208
175.07993 189.71744 438.07281
176.22142 189.71875 438.02737
177.36298 189.72012 437.97891
178.36792 189.24638 434.96844
179.45375 189.08951 433.92819
180.58519 189.09114 433.87122
181.66344 188.93443 432.82535
182.90411 189.25307 434.73419
184.09674 189.41336 435.65381
185.35558 189.73219 437.55557
186.49768 189.73427 437.48306
187.70599 189.89487 438.3927
188.78214 189.73868 437.32901
189.99577 189.89948 438.23227
190.99312 189.58499 436.17831
192.1331 189.58751 436.09091
193.27319 189.59012 436.00049
194.41339 189.5928 435.90704
195.5537 189.59558 435.81055
196.78084 189.75696 436.69458
197.92395 189.75995 436.59186
198.97534 189.60452 435.50293
200.11613 189.60768 435.39435
201.16003 189.45242 434.30008
202.39812 189.61429 435.16794
203.53932 189.61774 435.05017
204.89015 189.93835 436.89291
205.92949 189.78348 435.78699
207.2935 190.10434 437.62219
208.44305 190.1082 437.49127
209.47769 189.95361 436.37662
210.62498 189.95767 436.23984
211.89267 190.12042 437.07996
212.9201 189.96611 435.95694
214.06793 189.9705 435.81088
215.21594 189.97498 435.66165
216.36415 189.97958 435.50931
217.37946 189.82564 434.37552
218.66116 189.98907 435.19522
219.80997 189.99399 435.03348
220.81815 189.84036 433.89139
222.25168 190.16286 435.67746
223.40372 190.16812 435.50583
224.70459 190.3322 436.30719
226.01089 190.49643 437.10461
227.16881 190.50206 436.92267
228.48332 190.66655 437.71237
229.80328 190.83121 438.49811
230.96713 190.83722 438.30569
232.13126 190.84337 438.11008
233.29564 190.84961 437.91113
234.12173 190.53838 435.76361
235.28151 190.54486 435.55914
236.09264 190.23378 433.40784
237.2478 190.24048 433.19772
238.58295 190.40619 433.95523
239.74132 190.41316 433.73813
240.90001 190.42026 433.51773
242.43387 190.74533 435.23273
243.78839 190.91168 435.97354
244.95586 190.91922 435.74173
246.51407 191.24484 437.44214
247.68741 191.25272 437.20255
249.06149 191.41971 437.9263
250.23814 191.42786 437.67941
251.20956 191.2771 436.46344
252.17616 191.12645 435.24521
253.55954 191.29407 435.95367
254.52173 191.14366 434.72974
255.91109 191.31161 435.43018
257.52466 191.63887 437.08878
258.48547 191.48889 435.85507
259.66528 191.4982 435.5806
261.07193 191.66684 436.26355
262.25522 191.67645 435.98148
263.67053 191.84546 436.65549
265.09155 192.01466 437.32477
266.7551 192.34335 438.94757
267.95062 192.35367 438.64865
268.90457 192.2048 437.3891
270.34311 192.37477 438.04007
271.29279 192.22617 436.77457
271.98782 191.91827 434.5517
273.17795 191.92929 434.23672
274.1134 191.78101 432.96442
275.55969 191.9518 433.59573
277.01172 192.12279 434.22198
278.73248 192.45351 435.79459
279.93304 192.46539 435.45901
281.13416 192.47743 435.11966
282.33575 192.48962 434.77649
283.81146 192.66159 435.37814
285.01682 192.67413 435.02667
286.22272 192.68683 434.67139
287.71057 192.85938 435.25848
288.92029 192.87241 434.89474
290.13055 192.88559 434.52716
291.63062 193.05875 435.09946
292.84467 193.07227 434.72324
294.05933 193.08592 434.34308
295.86884 193.41951 435.84161
297.08994 193.43353 435.45193
298.31158 193.44771 435.0582
299.53381 193.46201 434.6604
300.75665 193.47647 434.2587
301.98007 193.49106 433.85287
303.51709 193.66586 434.37915
304.42868 193.52063 433.02911
306.29047 193.8559 434.47986
307.84247 194.03125 434.98938
309.07672 194.04657 434.56042
310.63779 194.22223 435.0589
312.53363 194.55835 436.48199
314.10907 194.73441 436.96738
315.02197 194.58997 435.5892
316.60382 194.76627 436.06421
317.85199 194.78233 435.60623
319.10065 194.79846 435.14398
320.00494 194.65419 433.75259
321.59943 194.83095 434.20667
322.84949 194.84726 433.73157
324.10004 194.86365 433.2522
325.70642 195.04065 433.68924
327.31851 195.21777 434.11993
328.93634 195.39496 434.54422
330.55981 195.57224 434.96204
332.92108 196.07104 437.20645
334.92993 196.40929 438.52463
339.17834 197.71255 445.32053
343.46957 199.01633 452.09448
347.05011 199.99881 457.02194
351.04218 201.14252 462.84262
353.92523 201.80371 465.91299
355.29047 201.82104 465.33426
357.4306 202.16028 466.56631
359.1911 202.33841 466.88251
360.1712 202.19421 465.38092
361.93658 202.37196 465.68549
363.70694 202.54953 465.98309
365.48221 202.7269 466.27374
367.66571 203.06523 467.45813
369.85925 203.40334 468.63312
372.88022 204.06375 471.59525
374.68738 204.24007 471.85199
376.08484 204.25464 471.20593
377.89798 204.43011 471.44998
380.13461 204.76651 472.58051
-38.210159 197.41269 426.47403
-37.7668 197.72726 428.85071
-36.90448 197.87747 430.32977
-34.821625 197.53575 429.10837
-33.553085 197.52142 429.6796
-31.884476 197.34299 429.3446
-30.220734 197.16435 429.00308
-29.350266 197.31293 430.46362
-27.691101 197.13383 430.11121
-26.814728 197.28189 431.56552
-25.932831 197.42969 433.01782
-24.278458 197.25009 432.65024
-22.248459 196.90689 431.36594
-21.363754 197.05423 432.80643
-20.09819 197.03789 433.33246
-18.459869 196.85805 432.9408
-16.827011 196.67819 432.54257
-15.199661 196.49835 432.13782
-13.577866 196.31854 431.72662
-11.961624 196.13876 431.3089
-10.351044 195.95906 430.88486
-9.4598694 196.10587 432.29388
-7.8552551 195.92624 431.8591
-6.9595032 196.073 433.26163
-5.7098999 196.05661 433.73904
-4.1144562 195.87718 433.28827
-3.555603 196.18704 435.60587
-2.3047028 196.17078 436.07144
-0.7159729 195.99161 435.6059
0.53129578 195.97552 436.06195
2.1110535 195.7966 435.58499
4.0153198 195.45499 434.17221
5.5807495 195.27643 433.68213
6.8153229 195.26086 434.11752
9.0164795 194.75708 431.75131
9.2827759 195.23007 434.97598
10.832764 195.05215 434.46466
12.062439 195.03708 434.88269
12.979767 195.1848 436.23273
13.901764 195.33258 437.58051
15.748047 194.99268 436.11224
16.975433 194.97815 436.51398
17.900986 195.12628 437.85129
19.428452 194.94952 437.30539
20.358109 195.09789 438.63638
21.87915 194.92148 438.08081
23.394333 194.74527 437.51962
24.903671 194.56927 436.95288
26.407166 194.39349 436.38062
27.904846 194.21793 435.80283
28.836334 194.36716 437.11185
30.605186 194.02969 435.57785
31.538193 194.17918 436.87994
33.020515 194.00439 436.28287
33.957664 194.15414 437.57886
35.16658 194.14188 437.92267
36.374969 194.12976 438.2626
37.582832 194.1178 438.59882
38.790154 194.10599 438.93134
40.510124 193.77025 437.35434
41.711182 193.75882 437.67795
42.911736 193.74756 437.99789
44.360542 193.57445 437.35913
45.557487 193.56351 437.67102
46.75396 193.55273 437.97925
48.190842 193.38022 437.3269
49.383751 193.36978 437.62723
50.576195 193.35948 437.92398
52.001244 193.18753 437.25824
53.190186 193.17755 437.54715
54.606522 193.00595 436.87241
55.791969 192.99634 437.15366
57.199631 192.8251 436.46997
58.381638 192.81578 436.74356
59.780655 192.64491 436.05112
60.529564 192.95929 438.2435
61.712936 192.95041 438.50732
62.686295 193.10333 439.73193
64.078522 192.93307 439.02451
65.26075 192.92462 439.27789
66.64444 192.75471 438.56189
67.823334 192.74658 438.80792
69.001854 192.73857 439.0506
69.985992 192.89224 440.25742
71.16642 192.88449 440.4938
72.535378 192.71536 439.75815
74.085091 192.38493 438.04904
75.44043 192.21616 437.3042
76.971359 191.88611 435.58493
78.31311 191.71768 434.83105
79.473488 191.71083 435.04391
80.286926 192.02698 437.19672
81.451889 192.02036 437.40402
82.448433 192.17526 438.58054
83.780983 192.00754 437.80884
84.945107 192.00131 438.00641
86.429741 191.67252 436.25311
87.588173 191.66653 436.4433
88.746361 191.66071 436.63031
89.904305 191.655 436.81403
91.061989 191.64941 436.99466
92.21946 191.64392 437.172
93.376678 191.63858 437.34622
94.391403 191.79459 438.4938
95.690475 191.62819 437.68506
96.70993 191.78441 438.82706
97.868874 191.77948 438.98892
99.159592 191.61346 438.16953
100.44493 191.4476 437.34634
101.47131 191.60422 438.47681
102.75113 191.43857 437.64658
104.0256 191.27304 436.81265
105.17566 191.26881 436.95465
106.44205 191.10355 436.11349
107.5892 191.09952 436.24896
108.84752 190.93448 435.40076
109.99177 190.93068 435.52975
111.02969 191.0881 436.63687
112.17621 191.0845 436.76007
113.42361 190.91989 435.89838
114.46884 191.07761 436.9971
115.61494 191.0743 437.11105
116.76091 191.07108 437.22189
117.90676 191.06796 437.32971
119.05249 191.06496 437.43445
120.19809 191.06204 437.53619
121.34358 191.0592 437.63477
122.56939 190.89543 436.74677
123.71208 190.89281 436.83914
124.85468 190.89027 436.92847
126.06989 190.72679 436.03046
127.20972 190.72444 436.11356
128.34946 190.72218 436.19363
129.48911 190.72003 436.27069
130.56625 190.87894 437.32968
131.76816 190.71596 436.4158
132.90758 190.71405 436.4838
134.04692 190.71225 436.54883
135.23831 190.54953 435.62531
136.37495 190.54788 435.68417
137.51152 190.54636 435.74011
138.69246 190.38391 434.8071
139.7845 190.54352 435.84299
140.9209 190.54224 435.88992
142.09396 190.38007 434.94763
143.19357 190.53992 435.97485
144.32985 190.53888 436.01285
145.49507 190.37698 435.0614
146.65512 190.21515 434.10672
147.73846 190.5363 436.10901
148.8746 190.53561 436.13513
150.01071 190.535 436.15826
151.1468 190.53445 436.17834
152.26932 190.69499 437.18243
153.40794 190.69464 437.19666
154.55499 190.53339 436.22095
155.69104 190.5332 436.22922
156.82378 190.69405 437.22147
157.9631 190.53307 436.23682
159.09914 190.53311 436.23615
160.23959 190.69421 437.21945
161.37122 190.53348 436.22589
162.50728 190.53378 436.21634
163.64334 190.53418 436.20377
164.76472 190.37369 435.20142
165.89825 190.37424 435.18292
167.03181 190.37488 435.16153
168.14299 190.21463 434.15042
169.32401 190.53738 436.09644
170.48779 190.69923 437.05258
171.59648 190.53925 436.03265
172.79819 190.86224 437.96912
173.97493 191.02438 438.91592
175.08119 190.86465 437.88712
176.18236 190.70499 436.85547
177.32141 190.70639 436.80704
178.36943 190.38589 434.78384
179.45534 190.22647 433.74396
180.53616 190.06714 432.70126
181.71846 190.22986 433.62695
182.90596 190.3927 434.54941
184.04027 190.39462 434.48331
185.29663 190.71866 436.38437
186.43625 190.72075 436.31198
187.64207 190.88397 437.22131
188.85315 191.0473 438.12732
189.99817 191.04968 438.04553
191.06944 190.89111 436.9765
192.2121 190.89368 436.88885
193.27585 190.73529 435.81436
194.41614 190.73804 435.72086
195.55653 190.74086 435.62424
196.69705 190.7438 435.52472
197.92699 190.90791 436.405
198.97845 190.74995 435.31644
200.11935 190.75317 435.2077
201.26038 190.7565 435.09598
202.40152 190.75989 434.98117
203.645 190.92453 435.84497
204.78903 190.92815 435.72375
205.9332 190.93187 435.59949
207.29733 191.25797 437.43372
208.55945 191.42307 438.28326
209.59679 191.26596 437.16867
210.74675 191.27011 437.03143
211.89691 191.27437 436.89114
212.80164 190.95636 434.78918
213.94699 190.9608 434.64331
215.09253 190.96536 434.49432
216.3688 191.13123 435.32043
217.5173 191.13602 435.16483
218.80173 191.30215 435.98364
219.81494 191.14592 434.84424
221.10495 191.31232 435.6561
222.25688 191.31755 435.48755
223.40904 191.32291 435.3158
224.85867 191.65097 437.09225
226.01646 191.65659 436.91342
227.1745 191.66232 436.73135
228.64552 191.99084 438.49493
229.80923 191.99686 438.3056
230.97321 192.00296 438.11304
232.13745 192.00922 437.91727
232.96854 191.69281 435.7728
233.95885 191.53787 434.59912
235.11615 191.54446 434.3949
235.92477 191.22829 432.24475
237.07751 191.23511 432.035
238.58984 191.56497 433.76273
239.74835 191.57207 433.54547
241.09201 191.74078 434.29425
242.62863 192.0712 436.00775
243.9859 192.24026 436.74744
245.1561 192.24797 436.51492
246.71706 192.57892 438.21371
247.89313 192.58694 437.97339
249.47038 192.91827 439.66226
250.65237 192.92661 439.41403
251.6291 192.77344 438.1972
252.60104 192.62038 436.97812
253.56815 192.46742 435.75665
254.74387 192.47626 435.4964
255.91995 192.48526 435.2327
256.87787 192.33264 434.00323
258.27344 192.50369 434.69498
259.45078 192.51312 434.42087
260.62857 192.52271 434.14331
262.0358 192.69424 434.82205
263.68036 193.02786 436.45532
265.10153 193.19981 437.12384
266.76526 193.53387 438.74548
267.96094 193.54436 438.44638
268.91501 193.39307 437.18692
270.10904 193.40384 436.88123
271.05621 193.25279 435.61658
271.99869 193.10185 434.3497
273.18893 193.11304 434.03436
274.12457 192.96234 432.76224
275.8288 193.29799 434.34534
277.2836 193.4718 434.97018
278.74417 193.64581 435.58978
280.21054 193.82004 436.20422
281.68268 193.99446 436.81339
282.61884 193.8447 435.51962
284.09729 194.0195 436.11975
285.30545 194.03226 435.76721
286.51416 194.04517 435.41086
288.00482 194.22055 435.9964
288.93326 194.07147 434.68658
290.14365 194.08484 434.3186
291.06534 193.93597 433.00342
292.27426 193.94963 432.62848
293.77832 194.12592 433.19135
295.28821 194.3024 433.74863
296.50415 194.31656 433.36026
298.62811 194.81857 435.78546
299.548 194.6705 434.44815
300.4632 194.52254 433.10855
301.68414 194.53729 432.70331
302.90561 194.55219 432.29395
303.81198 194.4045 430.94574
305.987 194.90788 433.33093
307.21552 194.92322 432.90753
309.09183 195.26431 434.34421
310.97931 195.60565 435.77298
312.54904 195.78436 436.26361
314.12463 195.96323 436.7482
315.70605 196.14227 437.22665
316.95642 196.15848 436.77158
318.20728 196.17476 436.31219
319.11646 196.02808 434.92325
319.67593 195.71828 432.6076
321.96286 196.22406 434.90857
322.86545 196.07742 433.50967
324.11603 196.09396 433.02994
326.07794 196.43701 434.38644
327.69275 196.61694 434.81528
328.59161 196.47035 433.40121
330.93939 196.97705 435.65353
332.93729 197.32053 436.979
336.05255 198.15439 441.04089
340.30917 199.47888 447.82935
344.2345 200.64038 453.68304
348.1972 201.80228 459.51675
352.19739 202.96457 465.33038
354.32416 203.3093 466.57611
356.46155 203.65399 467.81262
358.22205 203.83502 468.13272
359.2074 203.68854 466.63361
360.58005 203.70551 466.03711
361.55688 203.55847 464.5322
363.32434 203.73868 464.83026
365.09662 203.91866 465.12128
367.68066 204.42606 467.20578
369.87384 204.76941 468.37958
373.30328 205.60419 472.2373
374.28979 205.45523 470.69897
376.09821 205.6337 470.94928
377.07733 205.48373 469.40451
379.30817 205.82521 470.53641
-39.460678 199.16014 428.92462
-37.779358 198.98042 428.61414
-36.91748 199.1333 430.09293
-35.239807 198.95282 429.77179
-33.164581 198.60562 428.54382
-31.498932 198.42461 428.20844
-30.631866 198.57607 429.67181
-29.364838 198.56087 430.22949
-27.705872 198.37912 429.87784
-27.607544 198.86224 433.14432
-26.334335 198.84631 433.69141
-24.677444 198.66399 433.32578
-23.025787 198.48158 432.95352
-21.75766 198.46523 433.48535
-20.489578 198.44876 434.01288
-18.848648 198.26614 433.62314
-16.842926 197.91748 432.31287
-15.215622 197.73488 431.90897
-13.593826 197.55231 431.4986
-11.977615 197.36978 431.08179
-11.086166 197.51904 432.495
-9.4758911 197.33656 432.0675
-7.8712311 197.15414 431.63354
-6.9754791 197.30334 433.03592
-5.3769073 197.12106 432.59137
-3.7840729 196.93887 432.1405
-3.2278748 197.25381 434.45645
-1.9795685 197.2374 434.92142
-0.39341736 197.05545 434.45578
0.17993164 197.37035 436.76587
2.095459 197.02307 435.36249
3.6695099 196.84152 434.88028
4.9100189 196.82556 435.32211
6.4750214 196.64433 434.82874
8.3566132 196.29785 433.39725
8.947998 196.61307 435.68976
10.500778 196.43228 435.18018
11.733215 196.41699 435.59946
12.653275 196.56708 436.95026
13.887207 196.55202 437.36227
15.427124 196.37189 436.83276
16.657288 196.35712 437.23569
17.886841 196.3425 437.63464
19.115829 196.32802 438.02954
20.640259 196.14861 437.47958
21.865448 196.13446 437.86569
23.380798 195.95544 437.3053
24.890335 195.77664 436.73932
26.108521 195.76302 437.11197
27.609024 195.58461 436.53574
28.823471 195.57132 436.89975
30.314949 195.39331 436.31345
31.52565 195.38037 436.66898
33.008148 195.20277 436.07269
34.215134 195.19017 436.4198
35.421593 195.17772 436.76309
36.363037 195.33017 438.05292
37.571053 195.31802 438.3894
38.778542 195.30603 438.72217
40.242104 195.12956 438.09882
41.44593 195.11792 438.42343
42.900627 194.94185 437.79053
44.100861 194.93054 438.10696
45.300568 194.9194 438.41983
46.743324 194.74391 437.77319
47.939468 194.73312 438.07809
49.135147 194.72247 438.3793
50.566048 194.54755 437.71918
51.758194 194.53725 438.01254
52.949875 194.5271 438.3024
54.368988 194.35272 437.62897
55.782471 194.17854 436.95071
57.1903 194.00455 436.26773
58.812569 193.66644 434.6185
59.771629 193.82147 435.84982
60.735504 193.97661 437.0788
61.704163 194.13187 438.30557
62.467979 194.45148 440.49387
63.862991 194.27846 439.7876
64.843483 194.43405 441.00684
66.232529 194.26138 440.2926
67.616013 194.0889 439.57382
68.600616 194.24487 440.78381
69.784126 194.23683 441.02429
71.15876 194.06482 440.29373
72.338989 194.05708 440.52695
73.891464 193.72131 438.8194
75.249542 193.5498 438.07565
76.602127 193.37848 437.32761
77.770691 193.37134 437.54547
79.114891 193.20032 436.78934
79.933609 193.52148 438.94232
81.27462 193.35074 438.17917
82.442017 193.34413 438.38385
83.774696 193.17369 437.61279
85.101936 193.00339 436.83755
86.423729 192.83327 436.05823
87.582291 192.82721 436.24857
88.740593 192.82126 436.4357
89.593376 193.14325 438.56879
90.90641 192.97363 437.77533
92.066559 192.96805 437.95328
93.081612 193.12643 439.10376
94.3862 192.95723 438.29947
95.825119 192.62433 436.51477
96.704956 192.94687 438.633
97.864014 192.94186 438.79498
99.022873 192.93698 438.95377
100.18153 192.93221 439.10944
101.33998 192.92755 439.26196
102.6225 192.75922 438.43262
103.89966 192.59103 437.59958
105.29056 192.25922 435.78345
106.32149 192.41876 436.9017
107.47131 192.41467 437.03763
108.73232 192.24695 436.19019
109.77048 192.4068 437.30011
110.91984 192.40302 437.4267
112.06904 192.39934 437.55023
113.31914 192.23207 436.6893
114.367 192.3923 437.78802
115.61168 192.22523 436.92041
116.66444 192.38564 438.01343
117.99442 192.05515 436.15692
119.04951 192.21573 437.24408
120.10963 192.3764 438.32864
121.3408 192.20988 437.44458
122.48627 192.20709 437.54025
123.7095 192.0408 436.64944
124.92747 191.87459 435.75519
126.06749 191.87212 435.8414
127.20741 191.86971 435.92447
128.34724 191.8674 436.00464
129.42198 192.02881 437.06619
130.56422 192.02667 437.14038
131.76622 191.86107 436.22696
132.90572 191.85913 436.29507
134.04515 191.8573 436.36014
135.23663 191.69196 435.43704
136.37337 191.69029 435.496
137.46303 191.85229 436.53732
138.6022 191.8508 436.59042
139.74132 191.84941 436.64053
140.91966 191.68452 435.70184
142.05611 191.68332 435.74588
143.1925 191.68217 435.7869
144.36043 191.51756 434.83887
145.49417 191.5166 434.87384
146.62788 191.51572 434.90585
147.76157 191.51495 434.93491
148.87395 191.6778 435.9473
150.01015 191.67715 435.9704
151.14632 191.67662 435.99054
152.25534 192.00327 437.98059
153.40762 191.83936 437.00839
154.54633 191.83907 437.01965
155.68503 191.83887 437.02792
156.82043 192.00229 438.01974
157.9624 191.83875 437.03558
159.10109 191.83878 437.03485
160.23978 191.83893 437.03125
161.37848 191.83917 437.02463
162.51718 191.83948 437.01501
163.64378 191.67633 436.01596
164.77995 191.67682 436.00046
165.93341 191.84093 436.96832
167.05235 191.67802 435.96039
168.1886 191.67877 435.93594
169.34985 191.84314 436.89474
170.48872 191.84406 436.86426
171.62764 191.84505 436.83078
172.7993 192.00967 437.7803
173.94086 192.01085 437.74072
175.12032 192.17567 438.68399
176.18373 191.84988 436.66696
177.32288 191.85132 436.61847
178.41652 191.68927 435.5816
179.45695 191.36371 433.55661
180.53787 191.20183 432.51437
181.66698 191.20358 432.45447
182.79616 191.20544 432.3916
184.04225 191.53458 434.29538
185.2377 191.70021 435.21088
186.4384 191.86595 436.12308
187.71046 192.1954 438.0162
188.92419 192.36136 438.92151
190.00061 192.20018 437.85556
191.14581 192.2027 437.77063
192.21471 192.04169 436.69916
193.27856 191.88075 435.62506
194.41895 191.88354 435.53143
195.64359 192.05008 436.41779
196.78677 192.05309 436.31793
197.93008 192.05615 436.21494
199.07352 192.05936 436.10901
200.31152 192.22632 436.98196
201.36078 192.06602 435.88788
202.50461 192.06952 435.77277
203.64859 192.07309 435.65451
204.89746 192.24049 436.51419
206.04431 192.24429 436.38953
207.30124 192.41191 437.24219
208.56348 192.57967 438.09119
209.71596 192.58379 437.9566
210.75096 192.42426 436.83954
211.90121 192.4286 436.69916
212.92885 192.26926 435.57678
213.95149 192.11002 434.4519
215.09715 192.11465 434.30283
216.24298 192.1194 434.15057
217.38902 192.12425 433.99518
218.53526 192.12923 433.83673
219.82001 192.29816 434.65186
221.11014 192.46722 435.4631
222.40564 192.63641 436.27039
223.70654 192.80576 437.07379
224.86423 192.81134 436.89798
226.17334 192.98096 437.69379
227.33409 192.98682 437.5112
228.49509 192.9928 437.32538
229.65634 192.99887 437.13632
230.9794 193.16904 437.91714
231.97961 193.01144 436.7485
232.8082 192.68994 434.60516
233.96535 192.6965 434.40402
234.95088 192.5392 433.22833
235.93152 192.38199 432.05026
237.26144 192.55295 432.8107
238.59686 192.72406 433.56696
240.12004 193.05945 435.28842
241.6539 193.395 437.00461
242.82355 193.40256 436.77859
244.37363 193.73849 438.48511
245.54913 193.74637 438.25131
247.11546 194.08269 439.94803
248.09903 193.9267 438.74005
249.47862 194.0992 439.46146
250.66074 194.10765 439.21298
251.6376 193.95204 437.99643
252.40143 193.63226 435.81332
253.78772 193.80539 436.51993
254.96619 193.81441 436.25888
255.92899 193.65924 435.03189
257.32428 193.83287 435.72635
258.28275 193.67798 434.49368
259.23639 193.52319 433.25864
260.41171 193.53293 432.98148
261.81653 193.70721 433.66016
263.45868 194.04614 435.29291
265.11169 194.38531 436.91953
266.53873 194.56026 437.58249
267.97147 194.7354 438.24063
269.16776 194.74622 437.93762
269.87509 194.42807 435.71988
271.31448 194.60373 436.36578
272.25967 194.45039 435.09833
273.20013 194.29716 433.82861
274.64624 194.47336 434.46216
276.35593 194.81445 436.04272
277.55573 194.82639 435.71393
279.54523 195.33267 438.23337
280.75397 195.345 437.89493
281.96323 195.35751 437.55273
283.17303 195.37016 437.20676
284.65692 195.54782 437.80453
285.31815 195.23108 435.55646
286.80582 195.4091 436.14587
287.73645 195.25748 434.83926
288.66235 195.10593 433.53033
290.15698 195.28447 434.10657
290.78943 194.96817 431.84857
292.28784 195.14703 432.4162
293.79205 195.32614 432.9783
295.30212 195.50543 433.53476
296.51822 195.51981 433.146
298.3399 195.86465 434.63074
299.56238 195.87938 434.23227
301.09326 196.05948 434.76678
302.63 196.23978 435.2955
304.17264 196.42026 435.81839
305.40543 196.43564 435.40109
307.27548 196.78183 436.84647
308.51471 196.79752 436.4191
309.75446 196.81331 435.98752
310.66852 196.66376 434.62112
312.56464 197.01073 436.04156
313.80875 197.02689 435.59653
315.05334 197.04312 435.14722
317.30927 197.55627 437.47427
318.22327 197.40714 436.08768
319.47473 197.42371 435.62372
320.72662 197.44031 435.1554
322.32654 197.62273 435.60571
322.88159 197.30792 433.28412
324.48505 197.49046 433.72479
325.73865 197.50723 433.23932
326.63443 197.35814 431.83069
328.24695 197.54083 432.25537
330.22864 197.88953 433.59024
332.22122 198.23834 434.91653
336.069 199.41743 440.80685
339.95428 200.59695 446.67761
344.25125 201.94299 453.44095
348.59097 203.28952 460.18213
352.21439 204.30414 465.08072
355.48761 205.15282 469.05212
356.86319 205.17049 468.46817
358.62616 205.35425 468.78625
360.39432 205.53787 469.09741
361.38184 205.38864 467.59262
362.36371 205.23911 466.08557
364.93256 205.75485 468.18463
365.91351 205.60471 466.66837
367.69556 205.78711 466.94934
369.88843 206.13568 468.12186
372.09113 206.48395 469.28503
373.48062 206.49878 468.64667
375.69739 206.84633 469.79367
377.09006 206.86023 469.14404
378.90088 207.04019 469.38242
-39.885574 200.58517 429.57855
-38.202072 200.40289 429.27002
-37.338013 200.55841 430.74969
-35.658051 200.37534 430.43051
-33.178253 199.85384 428.30515
-32.312057 200.00822 429.77246
-31.043076 199.99326 430.33575
-29.773666 199.978 430.89487
-28.895447 200.13138 432.35422
-28.011627 200.28448 433.81161
-26.349701 200.09958 433.45337
-24.692963 199.91458 433.08853
-23.041458 199.72946 432.71713
-21.773483 199.71301 433.24933
-20.129898 199.52774 432.86584
-18.49173 199.34242 432.47589
-16.858963 199.15707 432.07932
-15.231705 198.97174 431.67633
-13.244995 198.61783 430.3512
-12.356003 198.76962 431.76752
-11.102371 198.75285 432.26401
-9.4920349 198.5676 431.83731
-7.8873596 198.38239 431.40424
-7.343277 198.70245 433.72742
-5.7420044 198.51733 433.28473
-4.4927521 198.50064 433.75861
-3.2439575 198.48399 434.22824
-2.3366089 198.63565 435.61844
-0.74768066 198.45087 435.1546
0.49972534 198.43442 435.61148
2.0796814 198.24989 435.13626
3.3234406 198.23364 435.58368
4.8944244 198.04941 435.0972
6.1344757 198.03339 435.53525
7.6964417 197.84946 435.0376
8.9327545 197.83369 435.46643
10.168518 197.81802 435.89108
11.718246 197.6346 435.37735
12.638382 197.78709 436.72806
13.872437 197.77184 437.14044
15.412521 197.58887 436.61172
16.642776 197.57391 437.01511
17.571198 197.72684 438.35303
19.400299 197.37669 436.87012
20.626221 197.36218 437.26053
21.851563 197.34784 437.64694
23.657852 196.99841 436.14542
24.87677 196.98441 436.52228
26.095139 196.97058 436.8952
27.595795 196.78937 436.31979
28.530151 196.94339 437.62936
30.024445 196.76254 437.04462
31.78791 196.41449 435.50772
32.995598 196.40154 435.85895
33.933014 196.55612 437.15466
35.142235 196.54347 437.49905
36.350937 196.53098 437.83966
37.55909 196.51865 438.17651
38.766739 196.50647 438.50955
40.230484 196.32719 437.88693
41.688492 196.14815 437.25919
43.140747 195.9693 436.62634
44.338509 195.95786 436.94244
45.781929 195.77942 436.30017
46.732544 195.93544 437.56363
48.169762 195.75739 436.91281
49.363007 195.74658 437.21359
50.55574 195.73596 437.51089
51.748039 195.72549 437.80453
53.170372 195.54819 437.13605
54.359169 195.53806 437.42194
55.772812 195.36111 436.74438
57.180809 195.18437 436.06213
58.583183 195.00781 435.37512
59.762466 194.99837 435.64508
60.726448 195.15596 436.87393
61.482971 195.48053 439.06326
62.668846 195.47147 439.32462
63.647255 195.62939 440.54651
65.039436 195.45381 439.83691
66.426048 195.27841 439.12274
67.607811 195.26996 439.36978
68.789223 195.26166 439.61334
70.164368 195.08676 438.88681
