ply
format ascii 1.0
comment PCL generated
element vertex 1587
property float x
property float y
property float z
element camera 0
property float view_px
property float view_py
property float view_pz
property float x_axisx
property float x_axisy
property float x_axisz
property float y_axisx
property float y_axisy
property float y_axisz
property float z_axisx
property float z_axisy
property float z_axisz
property float focal
property float scalex
property float scaley
property float centerx
property float centery
property int viewportx
property int viewporty
property float k1
property float k2
end_header
80.543907 5.9326782 441.05389
81.906471 6.1859665 440.31009
83.100502 6.1935501 440.51743
84.294228 6.2009888 440.72141
85.487671 6.2082977 440.92197
86.680832 6.2154388 441.11917
87.873726 6.2224655 441.31293
88.916214 5.983902 442.46097
90.258713 6.2361145 441.69028
91.450813 6.2427292 441.8739
92.64267 6.2492142 442.05417
93.694473 6.0101395 443.1904
95.162842 6.5071487 441.44504
96.351395 6.5132217 441.61487
97.671761 6.764534 440.82095
98.727798 6.5249557 441.94458
100.04254 6.7759628 441.14337
101.22762 6.7814865 441.29962
102.29077 6.5415573 442.41437
103.47801 6.5468521 442.5643
104.78162 6.7973022 441.74857
105.96588 6.8023224 441.89169
107.03857 6.5619278 442.99454
108.44269 7.0572433 441.20471
109.41135 6.5713501 443.26495
110.59748 6.5758972 443.39523
111.88451 6.825531 442.55814
113.06773 6.8298035 442.68164
114.25078 6.8339539 442.80194
115.62038 7.3284073 440.98907
116.79797 7.3323059 441.10236
117.97543 7.3360672 441.21249
119.23836 7.5849152 440.35367
120.32991 7.3432541 441.4231
121.50697 7.3466949 441.52353
122.68388 7.3499756 441.62085
123.86069 7.3531723 441.71494
125.03737 7.3562546 441.80579
126.21394 7.3592148 441.89352
127.3904 7.3620605 441.978
128.56676 7.3647919 442.05933
129.74301 7.3674088 442.13748
130.91917 7.3699112 442.21249
132.20984 7.8625336 440.34872
133.32594 7.6196899 441.38501
134.55142 7.8669662 440.48221
135.77167 8.1141357 439.57599
136.8927 7.8709717 440.60312
138.0188 7.6277008 441.62732
139.19183 7.6294479 441.67999
140.40408 7.876152 440.7608
141.57443 7.8776474 440.80713
142.77887 8.1241455 439.88135
143.91496 7.8803635 440.89026
145.14316 8.3716888 438.98901
146.30817 8.3727646 439.02258
147.47313 8.3737335 439.05307
148.65935 8.6196594 438.11115
149.82169 8.6204071 438.13535
150.96785 8.3760071 439.12573
152.13271 8.3765488 439.14374
153.27554 7.8868637 441.0975
154.44551 7.8871918 441.10931
155.6096 7.6423645 442.08749
156.78214 7.6425018 442.09302
157.95465 7.6425171 442.09546
159.12531 7.8874893 441.12524
160.29526 7.8872833 441.12143
161.47922 7.3968887 443.05338
162.65433 7.3964767 443.04324
163.82947 7.3959579 443.03
164.9899 7.6404114 442.0441
166.16251 7.6396942 442.0246
167.31529 7.883934 441.03262
168.46295 8.128067 440.0376
169.65552 7.8819504 440.97797
170.82568 7.8808136 440.94595
171.9959 7.87957 440.91074
173.16615 7.8782043 440.87247
174.30118 8.1218262 439.86212
175.46898 8.1202469 439.81769
176.67728 7.8734741 440.73874
177.89076 7.6265945 441.65637
179.0639 7.6246948 441.60223
180.28526 7.3775711 442.51328
181.46112 7.3754425 442.4527
182.63705 7.3732071 442.38895
183.70132 7.8611069 440.38623
184.8723 7.8586426 440.3165
185.98233 8.1012268 439.27594
187.08733 8.3436813 438.23267
188.25343 8.3409119 438.15375
189.35089 8.5831757 437.10461
190.58597 8.3350372 437.98642
191.82628 8.0867538 438.86472
193.07187 7.8383636 439.73941
194.32274 7.5898361 440.6105
195.41565 7.8315277 439.54596
196.58774 7.8279419 439.44446
197.9335 7.3338394 441.2709
199.02167 7.5752106 440.1972
200.28868 7.3260498 441.05096
201.56099 7.0767593 441.90097
202.74153 7.0725555 441.78265
203.72293 7.5587006 439.73254
204.89865 7.5542831 439.60831
205.86491 8.0402527 437.55331
207.03581 8.0355911 437.42325
208.20689 8.0308228 437.28989
209.49071 7.780632 438.11621
210.54959 8.0209122 437.01349
211.95667 7.525116 438.79501
213.25397 7.2744751 439.61005
214.43376 7.2690506 439.4595
215.4883 7.5088348 438.34439
216.92201 7.012413 440.10953
218.10501 7.0065918 439.94876
219.28827 7.0006104 439.78476
220.33594 7.2399139 438.65753
221.65544 6.9882736 439.44672
222.98035 6.7364731 440.23184
224.16713 6.7299728 440.05408
225.35416 6.72332 439.87299
226.69019 6.4710617 440.64651
228.03163 6.2186356 441.41586
229.22464 6.2115326 441.22388
230.10495 6.6953506 439.11514
231.61147 6.1969528 440.82971
232.64365 6.4349976 439.67172
233.50668 6.9185104 437.55585
234.8602 6.6651917 438.30307
236.21918 6.411705 439.04596
237.23961 6.6492691 437.87659
238.42978 6.641098 437.65817
239.62027 6.6327744 437.43634
240.81111 6.6243057 437.21109
242.00226 6.615715 436.98236
243.37874 6.3612671 437.70163
244.76074 6.1066284 438.41641
245.95811 6.0975571 438.17618
247.15584 6.0883484 437.93243
248.54929 5.8332062 438.63455
249.55237 6.0694962 437.43436
250.95177 5.8140182 438.12836
252.35675 5.5583572 438.81766
253.35571 5.7942657 437.60782
254.55827 5.7841797 437.34219
255.76122 5.773941 437.07297
257.17816 5.5176392 437.74561
258.38452 5.5070877 437.4686
260.0289 5.004425 439.07645
261.46271 4.7475586 439.73453
262.6781 4.7365417 439.44464
263.89395 4.7253723 439.15115
265.1102 4.7140732 438.85391
266.55872 4.4565277 439.49405
267.77847 4.4449387 439.18872
269.23572 4.1870575 439.8194
270.45892 4.1751938 439.50592
271.92493 3.9169769 440.12704
272.66177 4.3973083 437.92975
273.8837 4.3851013 437.60553
274.85596 4.6190338 436.34125
276.0762 4.6066208 436.01013
277.29688 4.5940704 435.6752
278.51801 4.5814285 435.33646
279.73959 4.5686798 434.99387
281.48816 4.0630112 436.51279
282.45001 4.2964706 435.22897
283.40707 4.529892 433.94281
285.17276 4.0237656 435.44559
286.40186 4.0105209 435.082
287.90778 3.7506256 435.6434
289.69843 3.2440414 437.12732
290.93677 3.2304916 436.74957
292.45978 2.9702835 437.29419
293.12775 3.4499741 435.05634
294.94382 2.9429321 436.517
295.89429 3.1759644 435.19833
297.7243 2.6687241 436.64679
298.67297 2.9017639 435.32089
300.51697 2.394371 436.75696
301.76642 2.3805923 436.34439
303.0163 2.3668365 435.92773
304.26645 2.3531265 435.50693
305.82764 2.092514 436
306.45456 2.5728378 433.73611
308.01898 2.3123322 434.22009
309.27039 2.2989044 433.7829
310.84323 2.0385361 434.2558
312.09775 2.0253143 433.80945
314.00543 1.518013 435.18365
314.93649 1.7522125 433.8157
316.85773 1.2451401 435.17682
318.78961 0.73814392 436.52997
319.72101 0.97293854 435.1496
320.98688 0.96078491 434.67459
323.27972 0.20709991 436.91476
324.20853 0.44275665 435.52295
326.5224 -0.31051636 437.74686
327.80127 -0.32152557 437.25015
329.78571 -0.82689667 438.55414
331.06943 -0.83715057 438.04706
333.06921 -1.341774 439.33649
335.80084 -2.3408432 442.41602
340.73392 -4.8241882 450.87186
344.25485 -6.317482 455.71368
349.28186 -8.8002625 464.12234
353.9895 -11.035187 471.61008
356.12585 -11.537155 472.81717
358.27191 -12.038422 474.01559
360.04828 -12.291397 474.31378
361.82889 -12.543549 474.60553
363.22906 -12.547241 474.0015
364.24084 -12.302444 472.50528
365.6358 -12.304169 471.89426
368.59882 -13.295013 474.82275
370.79114 -13.789642 475.96866
371.79938 -13.540466 474.45551
373.60095 -13.785095 474.70551
375.00287 -13.780884 474.06827
375.59177 -13.280243 471.66748
375.75995 -12.530701 468.38913
378.37384 -13.264709 470.38007
380.17429 -13.502106 470.60773
381.97708 -13.737823 470.82968
382.94534 -13.476913 469.29822
-45.629578 -1.8059082 434.46228
-44.75621 -2.0586929 435.93869
-43.061859 -1.8203888 435.65411
-41.774734 -1.8256302 436.24524
-40.08403 -1.5847321 435.9505
-38.795624 -1.5875015 436.53366
-36.712845 -1.09935 435.34366
-35.032608 -0.85501862 435.03146
-32.965027 -0.36475372 433.82617
-31.683487 -0.36331177 434.38925
-29.629013 0.1288147 433.16971
-27.583862 0.62180328 431.94186
-25.548157 1.115593 430.70566
-25.033905 0.63063812 433.03262
-23.006882 1.125885 431.78427
-22.107758 0.88725281 433.21283
-21.202637 0.64928436 434.63965
-20.291611 0.41196442 436.06467
-18.645203 0.66484833 435.69119
-18.090042 0.18389893 438.00974
-16.445358 0.43779755 437.62704
-15.16246 0.44739532 438.13968
-13.52504 0.70214844 437.74564
-12.595856 0.46789551 439.15256
-9.9164429 1.4574203 436.03424
-7.9506378 1.9578094 434.71494
-6.682663 1.9691696 435.20071
-4.7325897 2.4700317 433.86707
-3.4698639 2.4819183 434.34259
-2.5429077 2.2495041 435.72363
-1.2776489 2.2618866 436.19186
-0.3429718 2.029953 437.56757
0.92466736 2.0427551 438.02844
2.1921539 2.0557098 438.48517
4.1045074 2.5576553 437.1088
5.3662567 2.5708084 437.55536
6.3105164 2.3397446 438.914
7.5744019 2.3531418 439.35315
8.8379822 2.3666229 439.78815
10.410614 2.6244583 439.29993
12.284348 3.1265259 437.88589
13.843109 3.3843002 437.38501
15.094803 3.3978577 437.79996
16.943741 3.8997574 436.36572
18.485565 4.1573944 435.84741
19.434662 3.9267502 437.17188
20.67955 3.9402542 437.56879
22.500549 4.4417953 436.10992
23.16803 3.9671326 438.35068
24.411652 3.9805069 438.73557
25.935211 4.2378006 438.18811
27.175308 4.2510376 438.56424
28.414978 4.2642212 438.93634
29.65419 4.2773209 439.3045
30.892944 4.2903442 439.66876
32.131264 4.3032913 440.02902
33.369118 4.3161469 440.38538
34.606514 4.3288956 440.73782
36.362267 4.8290558 439.21732
37.850304 5.0852814 438.62524
39.078491 5.0976563 438.96381
40.809288 5.5972366 437.42526
41.78241 5.3656921 438.69211
43.006607 5.3776855 439.01852
44.230385 5.3895721 439.34109
45.694786 5.6449127 438.72043
46.915047 5.6565094 439.03482
48.134865 5.6679916 439.3454
49.12101 5.4358597 440.59369
50.342583 5.447113 440.89743
51.791748 5.7016678 440.25473
53.009857 5.7126236 440.55042
54.227554 5.7234573 440.84235
56.105438 6.4642563 438.29684
57.314468 6.4747314 438.57965
58.308121 6.241745 439.8046
59.731346 6.4952545 439.13434
60.939201 6.5053253 439.40619
61.939468 6.2719727 440.62207
63.353714 6.5250168 439.93921
64.358429 6.2914276 441.14902
65.766724 6.544136 440.45786
67.169456 6.7966766 439.76199
68.372437 6.8058624 440.01187
69.766647 7.0580444 439.30734
70.966331 7.066925 439.54959
72.165657 7.0756683 439.78839
73.364655 7.0842667 440.02365
74.20089 6.6065826 442.16132
75.404411 6.6149521 442.39056
76.783615 6.866188 441.66248
78.157318 7.1172485 440.92993
79.354691 7.125145 441.14783
80.551758 7.1328964 441.36227
81.914169 7.3834763 440.61749
83.10804 7.3909302 440.82468
84.301636 7.398262 441.02841
85.494942 7.4054337 441.22873
86.687965 7.4124832 441.42566
88.033424 7.6622772 440.66129
89.22332 7.6690369 440.85101
90.560501 7.9185257 440.07861
91.602341 7.6821518 441.22043
92.933838 7.9313431 440.44052
93.980354 7.6947403 441.57642
95.306198 7.943634 440.78906
96.626648 8.1923752 439.99765
97.809654 8.1981735 440.1633
98.992447 8.2038498 440.32559
100.04816 7.9666595 441.44635
101.2331 7.9720917 441.60242
102.29613 7.7346573 442.71762
103.48325 7.7398529 442.86743
104.78671 7.9876251 442.0509
105.97086 7.9925613 442.19379
107.1548 7.997345 442.3335
108.55619 8.4873886 440.5419
109.52217 8.0065994 442.60303
110.60196 7.7683868 443.69742
111.78778 7.7727127 443.82434
112.87495 7.5342712 444.91312
114.06305 7.5383759 445.03378
115.531 8.2702103 442.25433
116.71104 8.274025 442.3678
117.89096 8.2777557 442.478
119.07073 8.2813568 442.58502
120.25037 8.2848206 442.68881
121.51033 8.5307922 441.82257
122.68713 8.5340042 441.91983
124.01443 9.0222931 440.07935
125.18585 9.0252914 440.16974
126.287 8.7856293 441.22455
127.39318 8.5458679 442.27661
128.56943 8.5485382 442.35785
129.74557 8.5511246 442.43588
130.86176 8.3110504 443.47906
132.15488 8.7984695 441.61404
133.32817 8.8006897 441.6825
134.50139 8.8028183 441.74771
135.67451 8.8048325 441.80981
136.80058 8.5642471 442.83777
137.97615 8.5660553 442.89368
139.15164 8.5677414 442.94644
140.36636 8.8118439 442.02664
141.50246 8.5708313 443.04248
142.78021 9.2996826 440.17709
143.9162 9.0584641 441.18661
145.11528 9.3021088 440.25372
146.28275 9.3031616 440.28735
147.49789 9.7890778 438.37814
148.66016 9.7899246 438.4054
149.84109 10.033142 437.45956
150.98459 9.7913055 438.45056
152.13319 9.5493622 439.43857
153.27592 9.0648499 441.39362
154.43736 8.8227081 442.37552
155.60393 8.5804596 443.35434
156.77892 8.5805893 443.35992
157.95461 8.823082 442.39215
159.12703 8.8229828 442.39151
160.29059 9.3077393 440.44736
161.47186 8.8225098 442.38065
162.6443 8.8221207 442.37051
163.8289 8.5791473 443.32733
164.98923 8.821022 442.34088
166.17902 8.5778198 443.29141
167.33426 8.8194885 442.29877
168.50682 8.8185806 442.27292
169.65442 9.0600357 441.2742
170.79691 9.3013916 440.27246
171.9343 9.5426636 439.2677
173.0993 9.5413208 439.22961
174.26437 9.5398941 439.18839
175.46735 9.295845 440.11349
176.67552 9.0517044 441.03522
177.88892 8.8074341 441.95361
179.06194 8.8055725 441.89954
180.23503 8.8036041 441.84232
181.4082 8.801506 441.78192
182.63475 8.5568008 442.68707
183.75479 8.7970123 441.6517
184.98666 8.552063 442.55026
186.04073 9.0346298 440.54062
187.14819 9.2745514 439.49658
188.2506 9.5143738 438.44968
189.41669 9.5115356 438.36771
190.5829 9.5085983 438.28253
191.8231 9.2629852 439.16156
193.06857 9.0172272 440.03705
194.24028 9.013916 439.94205
195.33051 9.2531204 438.87711
196.49989 9.2496033 438.77591
197.84296 8.7607498 440.60406
199.01778 8.7569885 440.49606
200.28465 8.5104904 441.35059
201.46234 8.5064926 441.2359
202.6402 8.5023575 441.11801
203.71855 8.7407684 440.03192
204.89415 8.736412 439.90787
205.9651 8.9746246 438.8161
207.13846 8.9700394 438.68588
208.312 8.9653244 438.5524
209.48572 8.9605026 438.41568
210.54449 9.1982727 437.3125
211.83371 8.9504852 438.13254
213.1283 8.7025604 438.9487
214.30536 8.6972275 438.79865
215.35721 8.9345169 437.68344
216.78818 8.4434052 439.45038
217.96848 8.4376831 439.29016
219.149 8.4318237 439.12668
220.32977 8.4258347 438.9599
221.78748 7.9340744 440.71008
223.25577 7.4421234 442.45547
224.30405 7.6785431 441.31775
225.49353 7.6719971 441.13651
226.83197 7.4224167 441.91049
228.17586 7.1726837 442.68033
229.37131 7.1657104 442.4881
230.41055 7.4015045 441.33517
231.76303 7.1513062 442.0936
232.79768 7.3868637 440.93472
233.66321 7.8652878 438.81729
234.85233 7.8576736 438.60938
236.21115 7.6068802 439.35327
237.40346 7.5989609 439.13806
238.42148 7.833931 437.9653
239.43463 8.0688171 436.78998
240.80251 7.8174286 437.51865
241.62874 8.2951584 435.38477
242.99988 8.043457 436.10608
244.5641 7.5484619 437.77448
245.75873 7.5395432 437.5351
246.9537 7.5304718 437.29218
248.73514 6.7917023 439.89603
249.74066 7.025528 438.69485
251.1425 6.7727661 439.38925
252.54991 6.5198288 440.07895
253.55136 6.7532501 438.86823
254.75638 6.7432938 438.60233
255.75081 6.9764938 437.38614
256.95401 6.9662552 437.11365
258.37378 6.7125168 437.78305
260.01797 6.2152252 439.39258
261.45163 5.9610825 440.0517
262.66687 5.9502106 439.76218
263.88257 5.9391861 439.46899
265.32791 5.6845474 440.11456
266.54706 5.6732483 439.81329
267.5322 5.9053345 438.56717
268.98666 5.6502228 439.19958
270.20715 5.6385117 438.88712
271.42807 5.6266861 438.57086
272.15961 6.102005 436.37393
273.62372 5.8463058 436.98929
274.84341 5.8341141 436.66241
276.06351 5.8218384 436.33167
277.53943 5.5657043 436.93274
278.76309 5.5531693 436.59363
279.98718 5.540535 436.25067
281.47501 5.2839584 436.83731
282.96851 5.0272598 437.41852
283.66223 5.5020218 435.19858
285.43039 5.0012054 436.70239
286.93579 4.7441101 437.26883
288.17047 4.7308578 436.90012
289.40567 4.7175217 436.52756
290.92288 4.4601212 437.07892
292.44583 4.2025986 437.62473
292.82693 4.921257 434.45947
294.35077 4.6636429 434.99728
295.58807 4.6500931 434.60468
297.41541 4.1481705 436.05582
298.36145 4.3787003 434.73047
300.50278 3.6324005 437.0914
302.05493 3.3744507 437.60046
303.30743 3.3607407 437.18329
304.25235 3.5913315 435.84256
305.81351 3.3333664 436.3367
306.75378 3.5641251 434.98953
308.005 3.5506363 434.55682
309.57501 3.2927933 435.03592
310.50827 3.5239029 433.67914
311.76028 3.5106812 433.23413
313.66534 3.0086365 434.61099
314.9231 2.9956512 434.15585
316.84442 2.4937439 435.51877
319.11084 1.747345 437.78384
320.04514 1.9794159 436.40213
320.97424 2.211792 435.01822
322.92493 1.710495 436.3537
323.85144 1.9434128 434.96255
325.81531 1.4425964 436.28467
327.43945 1.1867371 436.69446
329.06873 0.93118286 437.09808
329.99203 1.1655273 435.69135
331.98428 0.66596222 436.9856
334.70837 -0.32284546 440.07141
339.63382 -2.7803192 448.53784
343.87946 -4.7479019 455.18304
349.27295 -7.449791 464.49692
354.35248 -9.9064941 472.8869
357.24011 -10.893448 475.88351
359.01816 -11.14505 476.18671
360.80057 -11.395889 476.4834
362.58728 -11.64595 476.77368
362.84009 -10.91539 473.49731
363.85019 -10.673737 472.0014
365.63327 -10.92099 472.27924
367.42017 -11.167221 472.55072
369.60577 -11.657333 473.70142
371.40256 -11.901321 473.95923
373.20273 -12.144104 474.21088
374.60339 -12.140686 473.57458
375.5965 -11.891006 472.05389
376.58212 -11.639938 470.53198
379.20276 -12.36705 472.52216
381.83636 -13.09256 474.50177
384.06702 -13.571472 475.59488
385.88666 -13.803787 475.8053
-44.81282 -0.040161133 433.05743
-43.943283 -0.289505 434.53256
-42.252808 -0.052993774 434.24524
-40.969635 -0.057472229 434.83429
-38.881424 0.42385864 433.65356
-37.599731 0.42175293 434.23343
-35.523727 0.90533447 433.03873
-34.244003 0.90539551 433.60913
-32.180725 1.3909988 432.40024
-30.903519 1.3929749 432.96106
-29.239288 1.6380844 432.62805
-27.195969 2.1263199 431.39764
-25.54274 2.3730545 431.0513
-25.02774 1.8937073 433.37964
-23.000061 2.3841324 432.12979
-22.100281 2.1484375 433.55896
-21.194534 1.9134064 434.98636
-19.915527 1.9212036 435.51398
-18.636017 1.9295425 436.0376
-18.080322 1.4540634 438.35736
-16.075684 1.9477463 437.07254
-14.438156 2.1996613 436.68167
-13.159851 2.2098694 437.18781
-12.23291 1.978363 438.59415
-9.5558929 2.9575729 435.47171
-8.2850494 2.9687729 435.96237
-6.6705017 3.2222977 435.54147
-5.0612183 3.476059 435.11447
-3.4572601 3.730011 434.6813
-2.5300751 3.5002594 436.06274
-1.2646179 3.5127029 436.53061
0.00071716309 3.5253372 436.99432
1.5936584 3.7799911 436.54065
2.8560028 3.7929306 436.99503
4.7631226 4.2895813 435.61505
5.6998444 4.0609283 436.97537
7.2760315 4.3159103 436.49945
7.9028778 3.8457565 438.7713
9.1638947 3.8591919 439.20496
10.424545 3.8726654 439.63455
12.298279 4.3694763 438.21866
13.552979 4.3829803 438.63818
14.807312 4.3964996 439.05359
16.957596 5.1346741 436.69516
18.49939 5.3896255 436.17575
19.154984 4.9200287 438.42542
20.693329 5.1749191 437.89706
22.80249 5.9126053 435.50974
23.467331 5.4430008 437.7507
24.991272 5.69767 437.20605
26.509476 5.9521713 436.65591
27.466507 5.7239227 437.95987
28.428345 5.4956436 439.26147
29.667496 5.5086441 439.62921
30.906174 5.5215454 439.99304
32.144394 5.5343704 440.35287
33.382141 5.5470734 440.70889
34.881447 5.8008804 440.12643
36.634392 6.295639 438.60352
37.862915 6.307991 438.94556
39.090996 6.3202362 439.28372
40.570107 6.5734177 438.68076
41.794662 6.5854111 439.01053
43.01873 6.5972672 439.33658
44.486038 6.8499985 438.71936
45.706612 6.8615952 439.03711
46.926727 6.8730545 439.35114
48.146439 6.884407 439.66132
49.132454 6.6547089 440.90997
50.353889 6.6658249 441.21338
52.030899 7.1584778 439.62622
53.246269 7.1692657 439.9209
54.461197 7.1799164 440.21194
56.116089 7.6719818 438.6087
57.107414 7.4415665 439.83707
58.318512 7.4517822 440.11649
59.529205 7.461853 440.3923
60.949272 7.7124786 439.7168
61.949409 7.4815826 440.93304
63.36351 7.7319031 440.24915
64.570045 7.7413864 440.50998
65.776222 7.7507477 440.76718
66.982025 7.7599564 441.02084
68.187454 7.7690201 441.271
69.392525 7.7779465 441.51761
70.786232 8.0272598 440.80856
71.801643 7.7953873 442.00012
73.189461 8.0443878 441.28305
74.390572 8.0527344 441.51505
75.591331 8.0609131 441.74362
76.967781 8.3094177 441.01413
78.338737 8.5577469 440.28012
79.533379 8.565506 440.49728
80.895935 8.8135071 439.75507
82.253006 9.0613251 439.00851
83.441566 9.068634 439.21454
84.469383 8.8354797 440.37445
85.659958 8.842514 440.57416
86.850258 8.8494263 440.77045
88.040283 8.8562164 440.96332
89.230049 8.862854 441.15286
90.41954 8.8693695 441.33905
91.608788 8.8757553 441.52185
92.797783 8.8820114 441.70132
93.986542 8.8881226 441.87744
95.175049 8.8941116 442.05026
96.63253 9.3803711 440.29703
97.815414 9.3860779 440.46243
98.998077 9.391655 440.62457
100.05367 9.1569443 441.74582
101.23849 9.1623001 441.90167
102.3014 8.9273682 443.01736
103.48839 8.9324722 443.16699
104.79172 9.1775589 442.34964
105.97573 9.1824036 442.4924
107.27094 9.4272079 441.6676
108.45201 9.4318085 441.8035
109.52668 9.1961899 442.90118
110.70998 9.2005539 443.03088
111.89311 9.2047958 443.15738
112.9776 8.9688721 444.2464
114.16299 8.9728851 444.36667
115.5349 9.4568329 442.55118
116.71483 9.4605942 442.66449
117.89462 9.4642487 442.77457
119.15987 9.7077713 441.91452
120.33681 9.7111816 442.01797
121.59409 9.9544754 441.15079
122.84608 10.197632 440.28
124.0928 10.440674 439.40558
125.26154 10.443619 439.4957
126.35999 10.206474 440.5509
127.53108 10.209221 440.6348
128.57205 9.731926 442.65286
129.74809 9.7344666 442.7308
130.86417 9.4969254 443.7746
132.09987 9.7391663 442.87732
133.27563 9.7413712 442.9458
134.5556 10.22332 441.0723
135.72604 10.225304 441.13419
136.84944 9.9872513 442.1626
138.06674 10.228935 441.24854
139.237 10.230591 441.30103
140.40718 10.232147 441.35034
141.5406 9.9936981 442.36664
142.78152 10.474846 440.46942
143.94897 10.476112 440.50919
145.14539 10.717125 439.57559
146.28375 10.478271 440.57953
147.52264 11.198875 437.69849
148.68222 11.199722 437.72562
149.82307 10.960556 438.72031
150.95288 10.481407 440.68265
152.1201 10.481926 440.70065
153.26532 10.002571 442.65704
154.42921 9.7630234 443.63959
155.60995 10.00312 442.67752
156.78227 10.003242 442.68304
157.95601 10.483032 440.74387
159.12317 10.482941 440.74319
160.29034 10.482773 440.73932
161.46452 10.242592 441.70319
162.63428 10.24221 441.69308
163.82834 9.76194 443.62134
164.98857 10.001236 442.63425
166.16096 10.000534 442.61478
167.31354 10.239632 441.62155
168.48341 10.238739 441.59583
169.65334 10.237732 441.56702
170.76816 10.716423 439.59424
171.96317 10.475319 440.52963
173.13063 10.474014 440.49152
174.29817 10.472595 440.45026
175.5036 10.231178 441.37592
176.75467 9.749733 443.26819
177.8871 9.9879074 442.24741
179.06001 9.9860764 442.19339
180.233 9.9841537 442.13617
181.40607 9.9820938 442.0759
182.57921 9.9799347 442.01245
183.75244 9.9776917 441.9458
184.98419 9.7353668 442.84509
186.09917 9.9728394 441.80313
187.20909 10.210228 440.7583
188.38011 10.207535 440.67923
189.48253 10.44471 439.62863
190.5799 10.681793 438.57523
191.81998 10.438812 439.45502
192.98888 10.435692 439.36346
194.1579 10.432472 439.26874
195.32704 10.429131 439.17084
196.49631 10.42569 439.06976
197.83923 9.94207 440.89935
199.10327 9.6983566 441.75809
200.46451 9.2144775 443.57953
201.64723 9.2105331 443.46448
202.83011 9.206459 443.34622
203.91351 9.4423294 442.25909
205.09415 9.4380417 442.13461
205.96057 10.153877 439.11163
207.02643 10.389465 438.01672
208.19727 10.38485 437.88373
209.36829 10.380104 437.7475
210.42438 10.615379 436.6441
211.71088 10.3703 437.46524
213.00273 10.125053 438.28256
214.17709 10.119812 438.13306
215.22624 10.354645 437.01761
216.65448 9.8688202 438.78641
217.83206 9.8631897 438.62677
219.14307 9.6172485 439.42535
220.32368 9.6113586 439.25876
221.64288 9.3651199 440.04962
223.10843 8.8784943 441.79684
224.29753 8.8721771 441.61917
225.34077 9.1060028 440.47845
226.67648 8.8591614 441.25369
228.01762 8.6121368 442.02481
229.21034 8.6052856 441.83325
230.24689 8.8386154 440.68033
231.59662 8.5911636 441.44003
232.62856 8.8242569 440.28116
233.65561 9.057251 439.11981
234.84457 9.049736 438.91217
236.20325 8.8016815 439.65692
237.39542 8.7938843 439.44196
238.58789 8.7859344 439.22363
239.60352 9.0183334 438.04745
240.79405 9.0101166 437.82272
241.43782 9.7232742 434.73441
242.80618 9.47435 435.45706
244.18008 9.2252274 436.17529
245.36935 9.2164841 435.93719
246.36624 9.4481812 434.74429
248.33502 8.4768143 438.3028
249.53317 8.467598 438.05258
250.93225 8.2175827 438.74854
252.54004 7.7267456 440.38889
253.74713 7.717041 440.12634
254.74625 7.9478836 438.91223
255.74054 8.178627 437.69568
256.9436 8.1685562 437.42346
258.14703 8.1583328 437.14764
259.56967 7.9071732 437.81387
261.2193 7.4150391 439.4202
262.43182 7.4043274 439.13165
264.09793 6.9117661 440.7269
265.31653 6.9007339 440.42975
266.76733 6.6486588 441.07132
267.52057 7.119194 438.88242
268.73785 7.1077881 438.57471
269.71594 7.3372192 437.32278
270.93149 7.325592 437.00824
271.65775 7.7958603 434.81177
273.11646 7.542984 435.42947
274.58087 7.2899323 436.04205
275.79822 7.2778168 435.7124
277.52676 6.7833099 437.25159
279.26624 6.2886124 438.784
280.23486 6.5172195 437.50516
281.98837 6.0221558 439.02621
283.22113 6.0093765 438.67361
283.64902 6.7202759 435.51941
285.14594 6.466095 436.09317
286.64856 6.211792 436.66138
287.60425 6.4400101 435.36368
289.39203 5.9440994 436.85202
291.19073 5.4480286 438.33313
292.71619 5.1931915 438.87924
293.09998 5.9040909 435.71152
294.91583 5.4076691 437.17581
295.86627 5.635643 435.8566
297.69617 5.1390228 437.30865
299.23956 4.8838501 437.82959
301.38873 4.1453857 440.19037
302.34344 4.3732834 438.85403
303.29333 4.6012421 437.51535
304.23828 4.8292999 436.17429
305.48889 4.815712 435.75027
306.42664 5.0439148 434.40372
307.99109 4.7887039 434.8898
309.87961 4.2917099 436.2865
310.81564 4.5201569 434.92853
312.07037 4.5069427 434.48291
313.97821 4.0100479 435.86072
314.90967 4.238945 434.49213
317.16278 3.5002899 436.76865
319.43188 2.7616501 439.03519
320.0321 3.233017 436.74228
321.30109 3.2206879 436.26688
322.91238 2.9665298 436.69525
323.83917 3.1967239 435.30371
325.80328 2.7010193 436.62753
327.42773 2.4476013 437.03839
329.05731 2.194519 437.44293
329.98105 2.4260712 436.03577
331.61554 2.1737137 436.42999
334.33734 1.195137 439.51993
338.5336 -0.75201416 446.19562
342.7717 -2.6989594 452.84998
348.52631 -5.6146698 463.07254
352.85837 -7.5610657 469.67935
355.73608 -8.5379105 472.68338
357.88092 -9.0295563 473.88599
359.65619 -9.2781982 474.18683
360.29016 -8.7990875 471.80554
362.0661 -9.0460815 472.0968
363.07187 -8.8075409 470.60245
365.63016 -9.5374298 472.66013
367.41809 -9.7816772 472.93228
369.99979 -10.509552 474.9704
371.40265 -10.509247 474.34259
373.60431 -10.992508 475.47855
375.00879 -10.989822 474.84073
376.81671 -11.22818 475.08063
378.2196 -11.222824 474.43427
380.85208 -11.942993 476.42133
383.08441 -12.419281 477.51993
384.90857 -12.651657 477.73367
386.73511 -12.882355 477.94171
-44.407181 1.4761353 432.52542
-43.129562 1.4698639 433.12012
-41.849792 1.4648666 433.71158
-40.972168 1.2214127 435.18243
-39.284378 1.4585114 434.88446
-37.600037 1.6967316 434.58063
-35.126648 2.4154358 432.49835
-33.848602 2.4160309 433.06778
-31.787003 2.8969803 431.85635
-30.900009 2.6597443 433.30585
-29.234955 2.9027252 432.97214
-27.574081 3.1465149 432.63232
-26.29808 3.1513824 433.17957
-25.021194 3.1569672 433.72293
-22.99292 3.6425247 432.47156
-22.092499 3.4097748 433.90134
-20.816116 3.4172592 434.4317
-19.171814 3.6649094 434.05939
-18.26181 3.4338913 435.48038
-17.708237 2.9638443 437.80026
-16.065338 3.2129669 437.41467
-14.427414 3.4624634 437.02283
-13.148727 3.4728394 437.52872
-12.22142 3.2440872 438.93552
-9.8930817 3.9735489 436.71597
-7.9267731 4.4637451 435.39322
-6.6582489 4.4753342 435.87842
-5.0487366 4.7265625 435.45035
-3.4445953 4.9779816 435.01617
-2.5171661 4.7509003 436.39795
-1.2515411 4.763382 436.86548
0.013946533 4.7760468 437.32886
1.9347839 5.2673645 435.96011
2.8694611 5.0410385 437.32816
4.7766724 5.5325012 435.94629
6.0333405 5.5455933 436.3902
7.6069336 5.7979126 435.91226
8.2312622 5.3329391 438.18417
9.8016205 5.5853729 437.69702
11.057053 5.5987473 438.12436
12.61879 5.8511963 437.62625
13.870865 5.8645859 438.04453
15.122574 5.878006 438.45862
16.971375 6.3693237 437.02081
18.513107 6.6215668 436.50031
19.755707 6.6348877 436.89963
21.579575 7.1258774 435.44202
23.104279 7.3778915 434.90436
24.052078 7.1521835 436.21732
25.287689 7.1652756 436.59897
26.242508 6.9395447 437.90637
27.202133 6.7138062 439.21143
28.716705 6.9654312 438.65146
29.680679 6.7396088 439.9501
30.919258 6.752388 440.31354
32.424583 7.0036926 439.73941
33.659615 7.0162582 440.09421
35.156151 7.2672806 439.50998
36.646988 7.5181656 438.92038
38.132126 7.7688675 438.32547
39.357445 7.7809372 438.66257
40.833809 8.0313568 438.0578
41.80674 7.8047485 439.32526
43.276955 8.0548706 438.71149
44.497849 8.066452 439.03262
45.718285 8.0778885 439.35007
47.176704 8.3275528 438.72223
48.393661 8.3387299 439.0314
49.376968 8.1114883 440.27966
50.595642 8.1224136 440.58212
52.269859 8.6097031 438.99268
53.257088 8.3820953 440.23114
54.694656 8.6307983 439.57648
56.346741 9.117485 437.97101
57.55291 9.127655 438.2525
58.543694 8.899559 439.4776
59.751656 8.9094696 439.75244
60.959213 8.9192581 440.02371
61.959236 8.6908188 441.2403
63.373154 8.9383926 440.55545
64.377602 8.7097015 441.76605
65.785576 8.9569473 441.07291
67.187981 9.2040176 440.37512
68.390663 9.2129059 440.62448
69.784554 9.4596405 439.91803
70.98394 9.4682541 440.15976
71.99662 9.2388153 441.35123
73.381691 9.4850693 440.63269
74.580055 9.4932632 440.86392
75.778099 9.5013275 441.09171
77.151794 9.7470779 440.36081
78.519997 9.9926605 439.62546
79.711899 10.000267 439.84195
80.903503 10.007744 440.05499
82.260414 10.252846 439.30756
83.448837 10.260033 439.51334
84.636971 10.26709 439.7157
85.666969 10.036285 440.87314
86.701866 9.8053741 442.02805
87.894341 9.8120575 442.22113
89.236649 10.05629 441.4512
90.42601 10.062683 441.63718
91.470207 9.8313141 442.78024
92.661652 9.8374786 442.95987
93.852852 9.8434982 443.13623
95.043823 9.8493958 443.3092
96.369141 10.092773 442.51685
97.689072 10.335999 441.72043
98.874176 10.341492 441.88275
100.05908 10.346863 442.04175
101.24377 10.352104 442.19745
102.30657 10.119682 443.31363
103.37434 9.8871536 444.42715
104.6801 10.129578 443.60931
105.98051 10.371849 442.78757
107.27559 10.613998 441.96191
108.45654 10.618507 442.09769
109.74352 10.860382 441.26468
110.81792 10.627159 442.35959
111.99835 10.631325 442.48563
113.08015 10.397888 443.57492
114.26285 10.401825 443.69479
115.53871 10.643082 442.84454
116.71854 10.646774 442.95773
117.81004 10.412933 444.03513
119.07774 10.653816 443.1745
120.25716 10.657181 443.27805
121.51688 10.897827 442.41031
122.77132 11.138344 441.539
124.09579 11.616127 439.69562
125.26442 11.619011 439.78564
126.43292 11.621788 439.87247
127.60133 11.624458 439.95615
128.63963 11.152306 441.97516
129.75055 10.917412 443.02231
130.92638 10.919777 443.09708
132.10211 10.922043 443.16864
133.22307 10.686867 444.20691
134.50549 11.163597 442.33224
135.62885 10.928207 443.36435
136.85126 11.167389 442.453
138.06845 11.406448 441.53827
139.28046 11.645393 440.62015
140.44797 11.646927 440.66928
141.5787 11.411026 441.6861
142.81696 11.886971 439.78745
143.91859 11.413567 441.76901
145.08849 11.414688 441.80573
146.25832 11.41571 441.83936
147.47581 11.891243 439.92755
148.61916 11.654739 440.92609
149.78632 11.655449 440.95029
150.93732 11.418785 441.94263
152.10701 11.419296 441.96063
153.25468 10.945122 443.91827
154.42949 10.945427 443.93015
155.61598 11.420235 441.996
156.78561 11.420364 442.00146
157.95668 11.894958 440.06107
159.12117 11.89489 440.06033
160.28125 12.132004 439.08508
161.45018 11.894432 440.04959
162.62427 11.656754 441.01093
163.80351 11.418968 441.96918
164.9585 11.655701 440.98151
166.12566 11.655006 440.96216
167.29283 11.654228 440.93964
168.46004 11.653351 440.91403
169.62729 11.652374 440.88528
170.73944 12.125908 438.91135
171.9619 11.650108 440.81845
173.12927 11.648827 440.78036
174.29669 11.647438 440.73917
175.53989 11.171295 442.63626
176.75299 10.932388 443.55914
177.88531 11.168015 442.53772
179.05812 11.166229 442.48373
180.231 11.164307 442.4267
181.40396 11.162315 442.36639
182.52371 11.39753 441.3331
183.75012 11.15799 442.23645
184.92332 11.155647 442.16681
186.03563 11.390602 441.12439
187.20645 11.388062 441.04858
188.31122 11.62281 440.0004
189.47968 11.620056 439.91846
190.57693 11.854614 438.8645
191.74304 11.851669 438.7764
192.90926 11.848618 438.68515
194.07559 11.845444 438.59079
195.24205 11.842178 438.49319
196.40863 11.838799 438.39249
197.74884 11.360458 440.2236
199.01018 11.119408 441.08334
200.27681 10.878227 441.93942
201.6432 10.39946 443.75858
202.82597 10.395462 443.64044
203.90927 10.628815 442.55283
205.08978 10.624603 442.42847
206.0609 11.095253 440.36945
207.12923 11.328323 439.27374
208.19257 11.561295 438.17542
209.47598 11.319122 439.00415
210.41945 11.789406 436.93546
211.70581 11.546989 437.75745
212.87727 11.541992 437.6116
214.04893 11.536865 437.46255
215.22083 11.531601 437.31033
216.52089 11.288666 438.11765
217.82637 11.04554 438.92111
219.13721 10.802299 439.72046
220.3177 10.796524 439.55402
221.63676 10.552963 440.34583
223.10216 10.071617 442.09454
224.14761 10.303085 440.9563
225.18817 10.534431 439.81561
226.6698 10.052612 441.552
228.0108 9.8083191 442.32391
229.20337 9.8015671 442.1326
230.39624 9.794693 441.9379
231.7484 9.5499344 442.698
232.78281 9.7805252 441.53833
233.81232 10.01104 440.37607
234.83694 10.241417 439.2114
236.02608 10.23391 439.00055
237.21552 10.226242 438.78638
238.40527 10.218452 438.56873
239.24101 10.686249 436.43762
240.60596 10.440331 437.16864
241.42938 10.907944 435.03311
242.79761 10.661728 435.75674
244.35889 10.177406 437.42889
245.55061 10.168785 437.19052
246.54999 10.397987 435.99677
248.32581 9.6751328 438.6062
249.5238 9.6660461 438.35626
250.72217 9.6568222 438.10278
252.32718 9.1713562 439.74536
253.73724 8.9237289 440.43289
254.73624 9.1521225 439.21838
256.15228 8.9041824 439.89758
257.36041 8.8941803 439.62457
258.56891 8.8840637 439.34787
259.77786 8.8737946 439.06763
261.20853 8.6251984 439.72928
262.19696 8.8528519 438.49609
263.63373 8.6039124 439.14926
265.07611 8.3548126 439.79739
266.52417 8.1055222 440.44064
267.27466 8.5710144 438.2514
268.72623 8.3214264 438.88654
269.94382 8.3100357 438.57544
270.91962 8.536911 437.32013
271.64581 9.002121 435.12265
273.10437 8.7519913 435.74146
274.5686 8.5016861 436.35507
275.78589 8.4897003 436.02582
277.51422 8.0005722 437.56665
279.25348 7.5112076 439.10083
280.74319 7.2602081 439.69272
282.23856 7.0090485 440.27924
283.73969 6.7577438 440.86032
284.17279 7.460907 437.70294
285.13272 7.6867752 436.41122
286.63525 7.4351654 436.98062
287.03824 8.1384048 433.82068
288.82062 7.6478729 435.31238
290.3324 7.3959885 435.86752
292.41827 6.6663132 438.27426
292.79944 7.3695297 435.10565
294.90198 6.6395874 437.49945
296.14453 6.6261444 437.10608
297.97693 6.1348267 438.55902
299.22559 6.1212616 438.15585
301.3746 5.3907318 440.5191
302.63199 5.3770676 440.10516
303.5845 5.6024551 438.76529
304.53217 5.8279419 437.42307
305.78543 5.8143692 436.99857
306.72586 6.0400009 435.65076
308.293 5.7873993 436.13708
309.86572 5.5348053 436.6174
310.48074 5.9999008 434.34274
312.0567 5.747467 434.81387
313.63821 5.495079 435.27899
314.56714 5.7213898 433.91101
316.81772 4.9905624 436.19101
318.75 4.4990921 437.54941
319.00818 5.2046432 434.3468
320.60904 4.9528885 434.78439
322.21524 4.7013397 435.21573
322.79211 5.1683426 432.91821
324.401 4.9172821 433.3403
326.01514 4.6664886 433.75616
327.28168 4.6554718 433.26138
328.54803 4.6448212 432.76245
330.1723 4.3949814 433.16183
333.96613 2.7079391 438.96317
338.16006 0.78143311 445.64581
342.39587 -1.1448746 452.30713
348.51685 -4.2691803 463.43756
353.59198 -6.6743698 471.84427
356.10156 -7.4014664 473.95313
357.87311 -7.6485901 474.26132
360.02832 -8.1347122 475.45667
360.66577 -7.6612396 473.07288
362.44513 -7.9061279 473.36377
363.84155 -7.9104233 472.7579
366.40601 -8.6330414 474.8154
367.80783 -8.6354828 474.19788
369.99811 -9.1164093 475.34991
371.00452 -8.8770142 473.83633
373.20471 -9.3557434 474.97467
375.01062 -9.5935059 475.22107
376.81982 -9.8300018 475.46136
378.22406 -9.82547 474.81467
380.85803 -10.538681 476.8035
383.09186 -11.010681 477.90302
384.9176 -11.241409 478.11697
387.16418 -11.710159 479.2012
-44.000717 2.9878235 431.98846
-42.724411 2.9822998 432.58231
-41.039261 3.2151184 432.29065
-40.165726 2.9749298 433.76013
-38.08046 3.4471817 432.57468
-36.801834 3.4463272 433.15253
-34.72905 3.9206848 431.95297
-33.846375 3.6847153 433.40945
-32.174973 3.9238586 433.086
-31.2845 3.6896973 434.53738
-29.616028 3.9305191 434.20413
-27.951767 4.1721268 433.86469
-26.291855 4.4144516 433.51913
-24.636383 4.6574326 433.16745
-22.610153 5.1380768 431.91351
-21.339096 5.1452484 432.44553
-20.437469 4.9159775 433.87183
-19.162674 4.9242706 434.39694
-18.252182 4.6960907 435.81842
-17.698105 4.2314758 438.1395
-15.695358 4.7151108 436.8504
-14.059708 4.9621506 436.45654
-12.429153 5.2095413 436.05646
-11.50676 4.9835052 437.46155
-9.5323486 5.4683533 436.14435
-7.9147034 5.7165985 435.72662
-6.6459198 5.7282715 436.21149
-5.3771667 5.7401886 436.6922
-3.4318542 6.2258301 435.34717
-1.8328705 6.4748459 434.90576
-0.90539551 6.250618 436.28372
0.35758972 6.2632675 436.74576
2.2758636 6.7493439 435.3743
3.2080536 6.5255966 436.7417
4.7901917 6.7751999 436.27374
6.046936 6.7882614 436.71725
7.3033905 6.8014221 437.15662
8.2450104 6.5781479 438.51111
9.8153687 6.8279266 438.02286
11.070831 6.8412476 438.44983
12.939178 7.3274307 437.02866
13.884644 7.1043396 438.36847
15.437698 7.3540497 437.85843
16.985077 7.6036835 437.34259
18.526749 7.8532333 436.82101
19.769302 7.8664398 437.21997
21.302246 8.1158676 436.68771
22.829483 8.3651962 436.14984
23.779922 8.1420364 437.46384
25.018082 8.155014 437.84592
25.695175 7.6956787 440.08478
27.215363 7.9447021 439.5293
28.179718 7.7214508 440.83218
29.421295 7.7341919 441.19998
30.662415 7.7468719 441.56375
32.437408 8.2314682 440.05502
33.672348 8.2438889 440.40945
35.168739 8.4921799 439.82416
36.918747 8.9762268 438.297
38.144424 8.988266 438.63757
39.369637 9.0002136 438.97427
40.594391 9.0120239 439.30716
41.81868 9.0237198 439.63626
43.288742 9.2710953 439.02142
44.509506 9.2825241 439.34225
45.72982 9.2938309 439.6593
47.426483 9.7764664 438.08829
48.404884 9.5517731 439.33929
49.388084 9.326973 440.58792
50.837196 9.5734253 439.94586
52.052704 9.584053 440.24359
53.493134 9.8301697 439.59225
54.705185 9.8405075 439.88199
56.357094 10.321854 438.27484
57.345566 10.096321 439.5033
58.553772 10.106232 439.78149
59.549263 9.8805008 441.00443
60.549553 9.6546631 442.22498
61.968895 9.8996658 441.54391
63.382652 10.144478 440.85815
64.386993 9.9182816 442.06903
65.99411 10.398178 440.42377
67.197021 10.407089 440.67633
68.399582 10.415871 440.92532
69.601768 10.4245 441.17084
70.803604 10.432999 441.41281
72.005119 10.441376 441.65121
73.390007 10.684875 440.93182
74.588234 10.692947 441.16281
75.964691 10.936127 440.43494
77.159668 10.943901 440.65854
78.52771 11.186752 439.92233
79.719482 11.194252 440.13855
80.910942 11.201607 440.35135
82.267708 11.443985 439.60303
83.619011 11.686226 438.85034
84.64399 11.458 440.01071
85.831703 11.464806 440.20947
86.863899 11.236359 441.36438
87.900993 11.007813 442.51675
89.243141 11.249344 441.74597
90.432373 11.255623 441.93176
91.621353 11.261795 442.11417
92.810089 11.267838 442.29321
93.998581 11.273743 442.46896
95.049675 11.04451 443.60361
96.50943 11.520203 441.84781
97.694641 11.525711 442.01328
99.009041 11.766106 441.21201
100.06441 11.536392 442.3342
101.24897 11.541542 442.48975
102.31166 11.311623 443.60635
103.3793 11.081596 444.72037
104.56842 11.086395 444.86676
105.87129 11.326027 444.04446
107.16881 11.565491 443.21838
108.35222 11.569939 443.35428
109.64165 11.809143 442.52081
110.82213 11.813332 442.64999
111.90141 11.582535 443.74271
112.98568 11.351639 444.83273
114.17084 11.355515 444.95273
115.44916 11.594116 444.10196
116.63144 11.597748 444.21527
117.81357 11.601257 444.32541
119.16675 12.074333 442.49576
120.26045 11.842789 443.5675
121.52006 12.080788 442.69904
122.7744 12.318672 441.82693
124.09874 12.791222 439.98218
125.19453 12.55925 441.04144
126.43565 12.796783 440.15881
127.53638 12.564621 441.21213
128.64215 12.332367 442.26263
129.75298 12.099998 443.31039
130.9287 12.102341 443.38498
132.04706 11.869797 444.42688
133.22517 11.87191 444.49539
134.50748 12.34343 442.61938
135.6803 12.345352 442.68124
136.90002 12.581902 441.76904
138.07014 12.583603 441.82452
139.28203 12.819923 440.90576
140.41016 12.586685 441.92615
141.58008 12.588081 441.97226
142.78407 12.824097 441.04379
143.91977 12.590569 442.05508
145.08954 12.591675 442.09177
146.25928 12.592674 442.12537
147.45282 12.828285 441.18408
148.59865 12.594391 442.18314
149.76828 12.59507 442.20743
150.92175 12.36097 443.20047
152.0939 12.361473 443.21851
153.25505 12.127182 444.20538
154.43817 12.36219 443.24521
155.61615 12.59713 442.28177
156.78897 12.831947 441.31525
157.95735 13.301384 439.37354
159.11732 13.536011 438.40076
160.27216 13.770546 437.4249
161.42885 13.770264 437.41806
162.60471 13.300468 439.35217
163.79085 12.830574 441.28305
164.95787 12.830009 441.26678
166.10764 13.064056 440.27551
167.29199 12.828568 441.22498
168.45911 12.827721 441.19934
169.62625 12.826752 441.17065
170.76587 13.06041 440.16718
171.96066 12.824532 441.10391
173.12793 12.82328 441.06583
174.25998 13.056648 440.05325
175.46265 12.82045 440.98041
176.6705 12.584167 441.90417
177.84056 12.582497 441.85355
179.0107 12.580742 441.79974
180.22905 12.344131 442.71368
181.3512 12.57692 441.68277
182.57483 12.340088 442.59021
183.8037 12.103142 443.49417
184.86252 12.570412 441.48376
185.97215 12.802803 440.44104
187.20386 12.565544 441.33542
188.2424 13.032524 439.31693
189.33945 13.264641 438.26559
190.57404 13.027061 439.15036
191.74004 13.024178 439.06235
192.8297 13.255981 438.0022
194.15137 12.783279 439.84567
195.40189 12.545219 440.71667
196.48935 12.776726 439.64719
197.83202 12.303612 441.47949
199.00648 12.300049 441.37186
200.27299 12.061516 442.2287
201.63927 11.58802 444.04919
202.82191 11.584091 443.93118
203.90511 11.814941 442.84302
205.08549 11.810806 442.71881
206.05652 12.276329 440.65872
206.91003 12.976715 437.63037
208.18797 12.737358 438.46368
209.47125 12.497871 439.29321
210.41461 12.963043 437.22342
211.81851 12.488373 439.01102
212.99243 12.483452 438.86502
214.04373 12.713371 437.75165
215.21548 12.708221 437.59949
216.51544 12.467941 438.40768
217.69019 12.46254 438.24869
219.13147 11.986961 440.01215
220.31183 11.981285 439.84589
221.63075 11.74044 440.63843
222.95508 11.499428 441.42697
224.14133 11.493347 441.25003
225.03568 11.957298 439.14789
226.51459 11.480789 440.8862
227.85284 11.239212 441.65939
229.19653 10.997459 442.42844
230.38925 10.9907 442.23395
231.90027 10.513504 443.95377
232.93715 10.741608 442.79324
234.13332 10.734428 442.58817
234.99622 11.197525 440.46454
236.35718 10.954895 441.2106
237.3797 11.182564 440.03909
238.5719 11.174873 439.82123
239.41013 11.637589 437.68863
240.77753 11.394386 438.42001
241.60344 11.856911 436.28299
242.97409 11.613411 437.00702
244.35025 11.369736 437.72656
245.54184 11.361252 437.48846
246.54108 11.588005 436.29428
248.1214 11.108467 437.95389
249.51457 10.864128 438.65634
250.71281 10.855034 438.4032
251.91141 10.84581 438.14648
253.72752 10.130028 440.73581
254.93469 10.120461 440.47028
256.14227 10.110764 440.20111
257.35025 10.100914 439.92841
258.55862 10.090942 439.65204
259.7674 10.080818 439.37207
260.97662 10.070557 439.08847
262.18622 10.060165 438.80121
263.84937 9.578331 440.40042
264.83591 9.8032913 439.16013
266.28119 9.556778 439.80499
267.02899 10.017227 437.61545
268.24078 10.006172 437.30972
269.21341 10.230743 436.0585
270.42349 10.219437 435.74609
271.38916 10.44384 434.48941
273.09241 9.96064 436.04968
274.55652 9.7130737 436.66437
276.02631 9.4653473 437.2738
277.75711 8.9815369 438.8157
279.75677 8.2615662 441.28775
281.25153 8.0132751 441.87921
282.75201 7.764801 442.4653
283.99246 7.7522125 442.11127
284.69659 8.2116013 439.88547
285.39069 8.6710129 437.65875
286.62201 8.6582489 437.29599
287.02502 9.3537598 434.13449
288.52838 9.1047592 434.69705
289.75586 9.0917892 434.3241
291.55215 8.6063461 435.80557
292.49905 8.8294449 434.49466
294.59882 8.10746 436.89175
296.13074 7.8578796 437.42627
297.96301 7.3718491 438.88104
299.50897 7.1220474 439.40332
301.06061 6.8721619 439.9198
302.31537 6.8586121 439.50711
303.26526 7.0815125 438.16782
304.21033 7.3044586 436.82626
305.46094 7.2910004 436.40302
306.71198 7.277565 435.97565
308.59491 6.7910843 437.3819
309.53345 7.0142822 436.02649
310.14594 7.4742203 433.75174
312.04303 6.9878006 435.14099
313.29822 6.9747238 434.69196
314.22473 7.19841 433.32474
316.80432 6.2387314 436.5213
319.07095 5.5157242 438.7937
319.33209 6.213356 435.58847
320.93576 5.9641647 436.02603
322.20258 5.9519501 435.54816
322.77979 6.4136658 433.24957
324.04138 6.4020004 432.76538
325.65314 6.1537094 433.18329
327.27011 5.9056854 433.59503
328.53683 5.8948898 433.09641
329.80338 5.8844604 432.59363
333.59482 4.2155151 438.40118
337.78632 2.3097229 445.09067
341.65378 0.64111328 450.85889
347.76974 -2.4495239 462.00079
353.2113 -5.0659485 471.31467
356.09277 -6.0225906 474.32349
357.86493 -6.2674561 474.63254
360.40009 -6.9858551 476.72385
361.04089 -6.5180054 474.33762
362.82373 -6.7607117 474.62814
363.83652 -6.5283508 473.13013
366.7916 -7.4808044 476.07956
367.80457 -7.2466125 474.57202
369.99591 -7.722908 475.72546
371.40097 -7.7238541 475.09735
373.20465 -7.9608612 475.35056
374.60895 -7.9595642 474.71347
376.41675 -8.194191 474.95538
379.04388 -8.901825 476.95441
380.8631 -9.1337891 477.1817
383.51166 -9.838562 479.16144
384.92569 -9.8304596 478.4964
387.59235 -10.532059 480.45819
-43.593506 4.4948502 431.44662
-42.318588 4.490036 432.03961
-40.634857 4.7209396 431.74634
-39.762772 4.4840088 433.21548
-38.080612 4.7171707 432.91296
-36.80098 4.7168808 433.491
-35.123535 4.9520645 433.1778
-34.237335 4.7191849 434.63626
-32.953537 4.7217178 435.20331
-32.056976 4.4906006 436.65771
-30.382477 4.7292633 436.32602
-29.095398 4.7341995 436.88153
-27.426941 4.9742966 436.53864
-25.762924 5.2150497 436.18951
-23.72821 5.690834 434.93735
-22.07605 5.932724 434.57471
-20.798599 5.9407578 435.10474
-19.153336 6.1836853 434.73068
-18.242355 5.9583206 436.15268
-16.601578 6.2021408 435.76825
-14.965805 6.4463501 435.37756
-13.335098 6.6908951 434.98065
-11.709503 6.9357681 434.57751
-10.440567 6.9466629 435.07455
-8.8227234 7.1920929 434.66003
-7.5563049 7.2035675 435.14767
-6.2899475 7.2152786 435.63126
-5.0236206 7.2272263 436.1106
-3.0807953 7.7076721 434.76285
-1.8199921 7.7199707 435.23193
-0.89230347 7.4983673 436.61017
0.70118713 7.7450867 436.15744
2.2891541 7.9918747 435.69867
3.2214813 7.7707291 437.06635
4.8036804 8.0176926 436.59729
6.0604858 8.0307312 437.04044
7.6341553 8.277771 436.56033
8.8877258 8.2909241 436.9942
10.14093 8.3041077 437.42398
11.703018 8.5511703 436.92783
13.259445 8.7981873 436.42581
14.506256 8.8113785 436.84149
15.752655 8.8245621 437.25308
17.297348 9.0714798 436.73529
18.540283 9.0846024 437.13791
19.48938 8.8640518 438.46341
20.73407 8.8771515 438.85876
21.978333 8.8901825 439.25012
23.222137 8.9031754 439.63742
24.465485 8.9161072 440.02069
25.708374 8.928978 440.39996
27.228455 9.1752777 439.84335
28.742813 9.4214401 439.28125
29.979034 9.4340057 439.64709
31.484581 9.679924 439.07474
32.984413 9.9256821 438.49698
34.213989 9.9379349 438.84949
35.443123 9.9500809 439.19809
36.671753 9.9621048 439.54291
38.156601 10.207329 438.94589
39.381683 10.219109 439.28226
40.606316 10.230782 439.61478
41.830467 10.242332 439.94351
43.300377 10.486946 439.32773
45.008217 10.964592 437.76526
46.464157 11.208855 437.13846
47.914413 11.452934 436.50662
48.887489 11.230637 437.75662
49.399063 10.542107 440.89236
50.61747 10.552742 441.19412
51.835449 10.563248 441.49213
53.053001 10.573631 441.78644
54.492836 10.816849 441.13046
56.367271 11.525833 438.5751
57.355637 11.302773 439.80383
58.77861 11.545456 439.13324
59.77137 11.322151 440.35599
60.978638 11.331635 440.62665
62.392624 11.573868 439.94348
63.596512 11.583046 440.20645
