ply
format ascii 1.0
comment PCL generated
element vertex 1592
property float x
property float y
property float z
element camera 0
property float view_px
property float view_py
property float view_pz
property float x_axisx
property float x_axisy
property float x_axisz
property float y_axisx
property float y_axisy
property float y_axisz
property float z_axisx
property float z_axisy
property float z_axisz
property float focal
property float scalex
property float scaley
property float centerx
property float centery
property int viewportx
property int viewporty
property float k1
property float k2
end_header
273.56653 239.51028 433.10062
274.28409 239.01041 430.90372
276.26019 239.80531 433.36566
277.73987 240.08264 433.95694
278.70728 239.84216 432.68182
279.93149 239.86082 432.33398
281.42041 240.13876 432.91125
282.91507 240.41693 433.48309
283.6069 239.91774 431.26703
284.83292 239.93701 430.90347
286.60898 240.47495 432.3877
287.84119 240.49454 432.01462
289.07379 240.51425 431.63748
291.15497 241.31229 434.0267
292.6817 241.5918 434.56174
293.92618 241.61197 434.16922
295.17102 241.63223 433.77261
296.70956 241.91217 434.29205
297.6619 241.67297 432.96716
298.31076 241.17409 430.72153
299.85303 241.45419 431.22778
301.09711 241.47464 430.81158
302.03491 241.23531 429.47549
303.27698 241.25574 429.052
304.51923 241.27612 428.62433
306.07629 241.55641 429.10559
307.63885 241.83673 429.58087
309.20691 242.11708 430.05017
310.78046 242.3974 430.51337
312.35947 242.67767 430.97058
313.61621 242.69781 430.51349
314.87302 242.71776 430.05222
316.12988 242.73752 429.58676
317.72241 243.01736 430.02252
318.64362 242.77643 428.64355
320.24139 243.05588 429.06906
322.53162 243.85588 431.29306
324.14496 244.13493 431.70416
325.06561 243.89281 430.30875
326.68384 244.17122 430.70966
327.59854 243.92822 429.30814
328.86444 243.94528 428.80173
330.84894 244.48308 430.08334
335.37863 246.84499 437.62119
340.32013 249.46761 446.02939
345.68127 252.35094 455.30444
349.24933 253.93056 460.09299
353.5936 256.03134 466.64523
354.9761 256.04541 466.06006
356.35748 256.05859 465.47073
356.5957 255.28836 462.21588
358.73322 255.82137 463.39401
359.72205 255.57076 461.90894
361.4812 255.84087 462.18985
363.24384 256.10983 462.46457
366.19125 257.16046 465.3775
368.76123 257.94891 467.39709
370.54681 258.21423 467.64798
372.73691 258.73907 468.77081
374.53082 259.00146 469.00879
375.92053 259.00134 468.3656
377.30743 258.99954 467.71912
379.92737 259.77887 469.6886
381.73059 260.03448 469.90421
383.95282 260.54913 470.98502
385.76208 260.80078 471.18881
-45.044846 249.02785 428.85553
-42.954819 248.50626 427.70734
-41.688477 248.50996 428.29968
-40.013962 248.2486 428.01398
-38.342117 247.9857 427.72293
-36.673096 247.72136 427.42645
-35.40477 247.71915 428.00333
-33.739258 247.45213 427.69696
-32.469543 247.44739 428.26624
-31.977707 247.9684 430.5968
-30.311966 247.69781 430.27798
-29.034515 247.68967 430.83804
-27.373642 247.41708 430.50879
-25.716629 247.14355 430.17349
-23.68692 246.60579 428.94424
-22.040726 246.33066 428.59601
-20.027283 245.79143 427.35141
-18.761108 245.77817 427.88138
-17.127884 245.50092 427.51501
-15.862747 245.48634 428.03625
-14.596909 245.47116 428.55353
-12.972198 245.1922 428.17108
-12.063477 245.43909 429.5762
-11.149002 245.68542 430.97943
-9.8785095 245.66815 431.48184
-8.2599487 245.38739 431.08014
-8.0265503 246.15836 434.27631
-6.0651093 245.61389 432.96442
-4.7935638 245.59514 433.45044
-2.847702 245.05032 432.12424
-1.5812225 245.03107 432.59995
0.34886169 244.48596 431.25949
1.6100769 244.46634 431.72495
3.1977234 244.18382 431.27835
4.4561615 244.16388 431.73456
5.7145233 244.14381 432.18658
6.9727173 244.12363 432.63449
8.2307434 244.10335 433.07828
9.4885559 244.08301 433.51791
10.435562 244.32504 434.86694
11.695557 244.30453 435.29916
13.565903 243.75923 433.89645
15.122711 243.47643 433.40231
16.373901 243.45602 433.8194
18.516891 242.64886 431.47827
19.464752 242.89084 432.80347
20.709625 242.87061 433.20657
21.954147 242.85043 433.60556
23.198288 242.83032 434.00046
24.442001 242.8103 434.39136
25.966888 242.52835 433.85501
27.207169 242.50854 434.23697
28.723282 242.22694 433.69016
29.960098 242.2074 434.06323
31.467461 241.92615 433.50598
32.969101 241.64511 432.94324
34.199348 241.62604 433.3028
35.692215 241.34541 432.72983
37.179359 241.06503 432.15143
38.14521 241.30811 433.42776
39.371025 241.2897 433.77087
40.848984 241.00986 433.17841
41.821365 241.25333 434.44528
42.798553 241.49689 435.70972
44.514534 240.95625 434.17059
45.735519 240.93871 434.49353
46.477203 241.44409 436.68289
48.176094 240.90424 435.12805
49.395714 240.88727 435.43961
50.383369 241.13174 436.68442
51.833656 240.85391 436.05127
53.278275 240.57635 435.41302
54.493538 240.56021 435.7088
55.708374 240.54427 436.00082
57.141243 240.26743 435.34879
58.568428 239.99091 434.69189
59.350357 240.49765 436.85455
60.774124 240.22153 436.18958
61.776283 240.46756 437.40515
62.98864 240.45285 437.67493
64.2006 240.43832 437.94104
65.412163 240.42401 438.20352
66.820869 240.14911 437.5174
68.02906 240.13524 437.772
69.429176 239.86082 437.077
70.823708 239.5867 436.37732
72.025558 239.57352 436.62009
73.042557 239.8212 437.80692
74.246292 239.80843 438.04312
75.449692 239.79582 438.2757
76.476059 240.04404 439.45389
77.855453 239.77127 438.73026
79.229309 239.49875 438.00211
80.597633 239.2265 437.2695
81.960419 238.95453 436.53253
83.15403 238.94324 436.74265
84.186256 239.1926 437.90121
85.381851 239.1817 438.1048
86.577148 239.17102 438.30496
87.92543 238.90015 437.5484
89.117569 238.88986 437.74118
90.309402 238.87979 437.9306
91.646461 238.60959 437.16205
92.835167 238.59995 437.34424
94.16391 238.33022 436.56769
95.349503 238.32095 436.74268
96.669952 238.05168 435.95825
97.852448 238.04283 436.12613
99.034698 238.03418 436.29068
100.21673 238.02573 436.45184
101.39853 238.01746 436.60968
102.5801 238.00937 436.76419
103.64189 238.2616 437.87357
104.9426 237.99374 437.0632
106.12353 237.98624 437.20779
107.41605 237.71881 436.38989
108.59399 237.71169 436.52753
109.87837 237.4447 435.70215
110.84529 237.95798 437.7529
112.12671 237.69136 436.92068
113.30392 237.68494 437.04517
114.48097 237.6787 437.16632
115.75151 237.41269 436.32327
117.01674 237.14685 435.47635
118.18812 237.1412 435.58734
119.27344 237.39561 436.6568
120.44711 237.39026 436.76151
121.62065 237.3851 436.86295
122.79404 237.3801 436.96121
123.96732 237.37527 437.05618
125.14046 237.37064 437.14798
126.31348 237.36615 437.23654
127.48637 237.36182 437.32184
128.72441 237.09785 436.44055
129.76918 237.61356 438.4465
130.94434 237.60974 438.52237
132.1194 237.60609 438.595
133.34929 237.3428 437.70035
134.41692 237.8591 439.69495
135.69379 237.33636 437.82932
136.91309 237.07361 436.9245
138.08255 237.07079 436.98087
139.20995 237.32794 437.99884
140.42128 237.06569 437.08411
141.5537 237.32314 438.09589
142.69122 237.58075 439.10471
143.92891 237.05925 437.21506
145.09801 237.0574 437.25235
146.29358 236.79599 436.32114
147.46002 236.79449 436.35202
148.60506 237.05292 437.34521
149.774 237.05174 437.36984
150.97531 236.53122 435.46014
152.13905 236.53038 435.47836
153.3138 236.26996 434.52777
154.46646 236.52916 435.50534
155.62427 236.78851 436.47971
156.79053 236.7883 436.48529
157.95534 237.30771 438.41913
159.12675 237.3078 438.41837
160.28929 236.7886 436.48312
161.45555 236.78903 436.4761
162.62184 236.78961 436.46588
163.78813 236.79034 436.45251
164.96922 237.05098 437.40158
166.13815 237.05206 437.3819
167.28719 236.79352 436.39349
168.43109 236.53519 435.4021
169.59496 236.53671 435.37299
170.7312 236.27866 434.37543
171.92284 236.54028 435.3053
173.08685 236.5423 435.26672
174.28633 236.80423 436.18997
175.45305 236.80659 436.14499
176.61981 236.80911 436.09677
177.78667 236.81178 436.04541
178.99933 237.07443 436.95551
180.1689 237.07742 436.89764
181.28766 236.8208 435.87228
182.5083 237.08394 436.77237
183.56601 236.56781 434.77692
184.78943 236.8313 435.6705
186.07935 237.3548 437.52429
187.31589 237.61865 438.41064
188.4913 237.62286 438.33008
189.80479 238.14694 440.17264
190.91405 237.89163 439.12228
191.94411 237.37659 437.10629
193.11743 237.38144 437.013
194.37019 237.64638 437.87885
195.38257 237.13179 435.85468
196.55371 237.13715 435.75189
197.63792 236.88278 434.68427
198.80679 236.88849 434.57532
199.9758 236.89436 434.4631
201.14499 236.90042 434.34766
202.31433 236.90666 434.229
203.58386 237.1731 435.06747
204.75613 237.17969 434.94199
205.82343 236.92645 433.85345
207.10126 237.19345 434.6813
208.49481 237.72073 436.46457
209.78598 237.98819 437.28433
210.96701 237.99576 437.1416
212.26636 238.26364 437.95383
213.32965 238.01144 436.84604
214.388 237.75943 435.73569
215.69319 238.02789 436.53726
216.87531 238.03641 436.37784
218.05765 238.04507 436.21506
219.24023 238.05399 436.04898
220.42308 238.06305 435.87952
221.60617 238.07233 435.70667
222.78952 238.08179 435.53046
223.97313 238.09146 435.35089
225.157 238.10129 435.16785
226.49042 238.37173 435.93542
227.37373 237.86122 433.8382
228.55586 237.87167 433.64548
229.73828 237.88229 433.44931
231.08063 238.15356 434.2019
232.26625 238.16461 433.99841
233.45218 238.17587 433.7915
234.6384 238.1873 433.58112
236.16507 238.72006 435.26801
237.18451 238.47141 434.09991
238.37431 238.48349 433.8786
239.74234 238.75641 434.60275
240.93542 238.76892 434.37396
241.94583 238.52098 433.19379
243.32269 238.79459 433.90585
244.89345 239.32922 435.56024
246.0932 239.34262 435.31622
247.48682 239.61703 436.01447
248.88605 239.89172 436.70801
250.29086 240.16666 437.39682
251.09732 239.65923 435.24854
252.09763 239.41278 434.04239
253.29968 239.42743 433.77676
254.71133 239.70328 434.44989
255.70503 239.45735 433.23459
257.12271 239.73367 433.8992
258.76309 240.27133 435.49954
259.97507 240.28711 435.21378
261.18747 240.3031 434.92422
262.17542 240.05807 433.6922
263.61359 240.33565 434.33398
264.59717 240.09097 433.09579
266.04141 240.36899 433.72864
267.25604 240.38597 433.42038
268.47107 240.40311 433.10825
269.44592 240.15906 431.85757
271.14572 240.69943 433.40668
272.36475 240.71719 433.08243
273.8327 240.99664 433.68701
274.80414 240.75322 432.42236
276.27826 241.0331 433.01773
277.75812 241.31323 433.60779
278.98465 241.33191 433.26266
279.95001 241.08904 431.98468
281.43912 241.36975 432.5607
282.66702 241.38889 432.2038
283.62579 241.14633 430.91626
285.12415 241.42761 431.47815
286.62823 241.70908 432.03445
288.138 241.99075 432.58517
289.37335 242.01062 432.20679
291.4574 242.81673 434.59244
292.98694 243.09903 435.12543
293.94604 242.85721 433.81055
295.19098 242.87756 433.41345
296.72958 243.16017 433.93161
297.38596 242.65614 431.68851
298.62933 242.67662 431.28006
299.87308 242.6971 430.86746
301.11713 242.71759 430.45074
302.36145 242.73807 430.02994
303.60611 242.75858 429.60507
304.85101 242.77902 429.17609
306.72516 243.32455 430.56735
307.65869 243.08237 429.21698
309.54651 243.62796 430.5954
311.12262 243.91092 431.05646
312.70416 244.19385 431.51147
313.96338 244.21393 431.05301
315.22266 244.23383 430.5903
316.1489 243.99065 429.21796
317.74127 244.27301 429.65256
319.00049 244.29224 429.17752
320.60068 244.57419 429.60089
322.89331 245.38196 431.82114
324.16272 245.40045 431.32971
325.08295 245.15543 429.93472
326.70074 245.43623 430.3345
327.61499 245.19031 428.93353
328.88037 245.20706 428.42688
330.86438 245.74979 429.70667
335.75601 248.39838 438.13138
339.97015 250.52037 444.74435
345.32831 253.43224 454.01169
348.52298 254.76379 457.90561
353.23413 257.14844 465.34341
354.61316 257.16193 464.75928
355.99097 257.1745 464.17108
356.22552 256.39572 460.91974
359.12601 257.46027 463.86798
360.11639 257.20636 462.38266
361.4884 257.21478 461.77878
363.64105 257.74915 462.93475
366.58984 258.80939 465.84357
368.76474 259.34131 466.98053
370.94788 259.87183 468.10919
372.73749 260.13733 468.35266
374.52979 260.40128 468.59027
376.32462 260.6636 468.82227
378.1218 260.92426 469.04868
379.92114 261.18304 469.26959
381.30789 261.17645 468.61411
383.52548 261.69495 469.69537
384.9104 261.68433 469.03189
-45.450027 250.57635 429.34045
-42.948532 249.78461 427.32227
-42.091965 250.0556 428.78735
-40.821945 250.05884 429.37753
-38.743515 249.52823 428.21344
-37.07338 249.26227 427.91855
-35.803818 249.261 428.49622
-33.741928 248.72614 427.31226
-32.473434 248.72221 427.88116
-31.982864 249.2493 430.20999
-30.318237 248.97688 429.89178
-29.811172 249.5016 432.21945
-28.146027 249.22704 431.89313
-26.484726 248.95149 431.56088
-24.827393 248.67506 431.22275
-22.800003 248.13179 429.99023
-20.782043 247.58777 428.74948
-19.142502 247.30902 428.39117
-17.507324 247.0296 428.02682
-16.240204 247.01541 428.54926
-14.972351 247.00061 429.06781
-13.345551 246.71936 428.68741
-12.079102 246.7034 429.19699
-11.165176 246.95271 430.59973
-9.544754 246.67001 430.20419
-8.276947 246.65262 430.70172
-8.0440826 247.43175 433.89584
-6.425354 247.14784 433.48709
-4.8117065 246.86366 433.0722
-2.8660889 246.31374 431.74796
-1.599884 246.29465 432.22406
-0.0018005371 246.00986 431.7908
1.5910187 245.72491 431.35141
3.1785431 245.43985 430.90598
4.4367981 245.42001 431.36261
5.6949768 245.40002 431.81512
6.953064 245.37988 432.26343
8.2109528 245.35965 432.7077
9.4687195 245.33932 433.14774
10.415619 245.58401 434.49646
11.675537 245.56354 434.9292
13.545944 245.01292 433.52847
15.102768 244.72746 433.03555
16.353943 244.70702 433.45316
17.902222 244.42169 432.9494
18.855377 244.66617 434.276
20.105576 244.64581 434.6813
21.644928 244.36069 434.1626
22.891754 244.34045 434.55884
24.422394 244.05563 434.02951
25.947372 243.77097 433.49451
27.187759 243.75107 433.87689
28.427734 243.73128 434.25528
29.940933 243.44707 433.7049
31.448441 243.16307 433.14893
32.68187 243.14371 433.51373
34.180634 242.86008 432.94745
35.410561 242.84103 433.30353
36.900543 242.5578 432.72705
38.126961 242.53909 433.07452
39.097733 242.78476 434.34818
40.578484 242.50214 433.75772
41.553635 242.74805 435.02502
42.780914 242.72995 435.35757
44.252441 242.44797 434.75336
45.718277 242.1662 434.14383
46.699524 242.41272 435.39777
48.159241 242.13141 434.77917
49.613243 241.85037 434.15549
50.598412 242.09737 435.39932
52.046303 241.81677 434.76669
53.262192 241.80029 435.06665
54.477646 241.78398 435.36285
55.91378 241.50412 434.71631
57.344238 241.22455 434.06488
58.5532 241.20891 434.34863
59.5485 241.45712 435.56943
60.759254 241.44186 435.84637
61.969604 241.42679 436.1196
62.974144 241.67549 437.33173
64.186302 241.66083 437.59824
65.598244 241.38287 436.91742
67.004578 241.10519 436.23184
68.21035 241.0912 436.4863
69.608093 240.81404 435.79184
71.189995 240.27374 434.14679
72.386841 240.26048 434.38882
73.398788 240.51074 435.57431
74.415604 240.76111 436.75717
75.6166 240.7484 436.98956
76.640541 240.99911 438.16687
77.843445 240.98682 438.39273
79.217537 240.71152 437.66562
80.417183 240.69963 437.88394
81.782814 240.42484 437.14841
82.97921 240.41339 437.35928
84.175316 240.40216 437.56665
85.212624 240.65414 438.72217
86.722511 240.11726 437.01883
88.06842 239.84366 436.26282
89.258133 239.83328 436.45551
90.595695 239.56012 435.69135
91.782265 239.55016 435.87677
92.825645 239.80331 437.01303
94.154594 239.53084 436.23749
95.202652 239.78433 437.36765
96.661041 239.24942 435.62921
97.843727 239.24048 435.79736
99.026184 239.23169 435.9621
100.20839 239.22311 436.1235
101.51514 238.95197 435.32483
102.44997 239.4693 437.39337
103.51453 239.72403 438.50253
104.81802 239.45343 437.69348
106.00172 239.4458 437.83856
107.29704 239.17566 437.02191
108.58698 238.90573 436.20135
109.76491 238.89865 436.33582
110.94266 238.8918 436.46707
112.12022 238.88512 436.595
113.39648 238.61598 435.75983
114.57111 238.60968 435.88095
115.74557 238.60355 435.99878
116.91988 238.5976 436.11337
118.09403 238.59181 436.2247
119.1821 238.84879 437.29391
120.35853 238.84335 437.39899
121.61559 238.57556 436.53925
122.78915 238.5705 436.63763
124.03818 238.30313 435.77081
125.20891 238.2984 435.86246
126.37951 238.29388 435.95099
127.48216 238.55197 436.99875
128.72037 238.28531 436.11829
129.82797 238.54373 437.15997
131.0007 238.53989 437.23584
132.17336 238.53619 437.30844
133.3459 238.53267 437.37778
134.46603 238.79173 438.40747
135.64098 238.78854 438.47061
136.86304 238.5231 437.56668
138.07983 238.25786 436.65936
139.20738 238.51756 437.67664
140.37946 238.51506 437.72687
141.55147 238.51271 437.77383
142.68916 238.77292 438.78204
143.89532 238.5085 437.85825
145.06717 238.50665 437.89572
146.26549 238.24258 436.96536
147.4586 237.9787 436.03168
148.62517 237.97734 436.05945
149.79169 237.97615 436.08401
150.95819 237.97511 436.10544
152.12466 237.97424 436.12372
153.29111 237.97354 436.13882
154.45755 237.97301 436.15076
155.6181 238.23495 437.12445
156.79039 237.9724 436.1651
157.95537 238.49704 438.0975
159.12321 237.97244 436.16681
160.28075 237.448 434.233
161.44904 237.71077 435.19092
162.6225 237.97372 436.14569
163.78897 237.97447 436.13229
164.98499 238.50009 438.04544
166.15665 238.50117 438.02563
167.30843 238.24007 437.0379
168.47757 238.24147 437.01181
169.62167 237.98068 436.01788
170.76067 237.72005 435.021
171.92479 237.72192 434.98547
173.1218 237.98636 435.91129
174.2886 237.98859 435.86938
175.49347 238.25336 436.78848
176.66299 238.25592 436.74017
177.83258 238.25864 436.68863
179.04799 238.52393 437.59775
180.22032 238.52699 437.5397
181.34181 238.26779 436.51483
182.56523 238.53363 437.41403
183.68173 238.27475 436.38309
184.85184 238.27847 436.31235
186.08328 238.54483 437.20145
187.31999 238.81137 438.08698
188.42917 238.55316 437.0437
189.74026 239.08253 438.88489
190.84711 238.82465 437.8353
191.94888 238.56693 436.78287
193.12238 238.57187 436.68951
194.29599 238.57697 436.5928
195.38785 238.31973 435.53156
196.55916 238.32516 435.42865
197.64354 238.06824 434.36157
198.81258 238.07404 434.25247
199.88951 237.8174 433.17963
201.05627 237.82355 433.0643
202.32065 238.09247 433.90567
203.59036 238.3616 434.74329
204.76282 238.36832 434.61765
205.83026 238.11252 433.5296
207.10831 238.38226 434.35657
208.39171 238.65219 435.17969
209.79346 239.18506 436.95712
210.97464 239.19275 436.81412
212.2742 239.46335 437.62543
213.21693 238.94589 435.56094
214.39618 238.9541 435.40829
215.57565 238.96249 435.25235
216.75537 238.9711 435.09308
217.93532 238.9799 434.93045
219.3829 239.51462 436.67554
220.43222 239.26096 435.55029
221.75439 239.53323 436.33197
223.08203 239.80576 437.10953
224.12694 239.55267 435.97488
225.3136 239.56267 435.79126
226.64984 239.83586 436.5574
227.68779 239.58328 435.41376
228.72083 239.33086 434.26752
229.90604 239.34164 434.07062
231.25122 239.61571 434.82181
232.43964 239.62692 434.61758
233.46347 239.37521 433.45932
234.6499 239.38681 433.24866
236.17682 239.92496 434.93381
237.02374 239.41061 432.81693
238.21117 239.42282 432.59583
239.57681 239.69849 433.3194
240.7675 239.71112 433.09076
241.77545 239.46066 431.9115
243.70709 240.52707 435.46301
245.09499 240.8038 436.16833
246.29755 240.8174 435.92349
247.88756 241.35806 437.56516
248.89995 241.10867 436.36749
249.9075 240.85942 435.16727
250.70886 240.34683 433.02124
251.70413 240.09784 431.81662
252.90115 240.11258 431.55173
254.51701 240.65479 433.1666
255.72009 240.66998 432.89328
257.35245 241.2128 434.49725
258.99573 241.75595 436.09512
260.21048 241.77188 435.80823
261.20343 241.52429 434.5791
262.19153 241.27679 433.34741
263.40237 241.2933 433.05066
264.38348 241.04611 431.81342
266.05814 241.59082 433.38184
267.27292 241.60796 433.07309
268.48813 241.62527 432.76056
269.7038 241.64276 432.44421
271.40646 242.18861 433.99063
272.6283 242.20656 433.66525
273.85056 242.22469 433.336
275.07327 242.24298 433.00287
276.29645 242.26143 432.66583
277.52008 242.28006 432.32492
278.74414 242.29886 431.98013
279.96866 242.31778 431.63138
281.45795 242.60127 432.20618
282.95294 242.88498 432.77554
284.18405 242.90445 432.41342
285.41559 242.92404 432.04736
286.92242 243.20828 432.60159
288.435 243.49277 433.15033
289.6731 243.51277 432.77063
291.47723 244.06226 434.23074
293.00684 244.34726 434.76242
294.54218 244.63245 435.28836
295.79242 244.65295 434.8891
297.33643 244.93839 435.40433
298.29407 244.69412 434.07831
299.54538 244.71475 433.66669
300.19446 244.2054 431.41904
301.74506 244.49101 431.91608
302.99469 244.51161 431.49301
303.93536 244.26706 430.15259
305.18286 244.28754 429.7222
307.37421 245.10362 432.02203
308.31287 244.85883 430.67007
309.88611 245.14447 431.13504
311.78729 245.69539 432.50256
313.04889 245.71558 432.04681
314.31055 245.7356 431.58691
315.57227 245.75542 431.12283
316.83398 245.77502 430.65463
318.0957 245.79442 430.1824
319.3573 245.81351 429.7059
320.95984 246.09796 430.12717
322.91119 246.64783 431.44296
324.18024 246.66605 430.95117
325.79797 246.94965 431.35403
327.42068 247.23288 431.7507
328.33966 246.98407 430.34805
329.60986 247.00055 429.83902
331.95825 247.81416 432.00934
336.4953 250.22293 439.52942
340.71429 252.36565 446.13364
345.34229 254.77415 453.6076
349.64676 256.91638 460.16766
353.61963 258.79224 465.81699
355.37579 259.07117 466.11957
357.13599 259.34924 466.41583
358.13873 259.09415 464.93466
359.90143 259.37024 465.22076
360.8959 259.11298 463.7341
361.88345 258.85449 462.24594
363.64627 259.12708 462.51837
365.80621 259.66458 463.66467
368.76724 260.73309 466.56
371.34793 261.53406 468.56497
373.13855 261.80115 468.80685
374.93182 262.06659 469.04303
377.13434 262.59656 470.14746
378.11615 262.3262 468.62601
379.08966 262.05405 467.10394
380.88385 262.31226 467.32187
382.67972 262.56848 467.53467
383.21811 262.02426 465.13904
-45.027466 251.59177 428.08032
-42.941055 251.06218 426.9339
-41.270004 250.79948 426.65247
-40.412323 251.07259 428.11337
-38.740997 250.80658 427.82407
-37.472641 250.80777 428.40549
-36.20195 250.8075 428.98395
-34.533905 250.53706 428.68082
-33.654007 250.8028 430.13138
-32.37706 250.79848 430.70026
-30.711014 250.52423 430.38379
-29.817825 250.78627 431.82779
-28.535767 250.77849 432.38635
-26.872818 250.50099 432.05594
-25.213776 250.22253 431.71964
-23.184631 249.67461 430.48987
-21.164841 249.12585 429.25186
-19.523438 248.84499 428.89551
-18.252609 248.83197 429.4241
-16.617279 248.54967 429.05679
-14.986465 248.26677 428.6835
-13.718567 248.25177 429.19827
-12.450043 248.23615 429.70908
-11.534027 248.48842 431.11227
-9.911438 248.20337 430.7189
-8.6414642 248.18623 431.21777
-8.0613403 248.70525 433.51138
-6.4429779 248.41895 433.10376
-4.8296509 248.13235 432.69
-2.8842773 247.57735 431.36771
-1.6183777 247.55844 431.84415
-0.020523071 247.27116 431.41208
1.572113 246.9837 430.97388
2.8328705 246.96414 431.436
4.0936127 246.94437 431.89398
5.0330048 247.19235 433.25616
6.6148376 246.90434 432.79761
7.8752747 246.88412 433.24323
9.4488983 246.59598 432.77353
10.70636 246.57559 433.20987
11.963577 246.55518 433.64218
13.831375 245.99933 432.24258
15.385544 245.71126 431.75006
16.634079 245.69086 432.16727
18.179764 245.40289 431.66385
19.130219 245.65002 432.98935
20.669983 245.36218 432.47601
22.204117 245.07446 431.95691
23.158829 245.32162 433.27185
24.402695 245.30145 433.6637
25.927795 245.01405 433.12988
26.610352 245.52855 435.35751
28.132019 245.24138 434.81482
29.374298 245.22156 435.19049
31.158287 244.6676 433.71259
32.662888 244.38101 433.15308
34.161797 244.09464 432.58807
35.391869 244.07544 432.94461
36.882004 243.78949 432.36945
37.850716 244.03754 433.6459
39.079468 244.0188 433.99066
40.56041 243.7334 433.40146
41.535683 243.98183 434.66843
42.763138 243.96358 435.00146
44.479607 243.41208 433.46622
45.943008 243.12759 432.85727
46.921783 243.37662 434.11017
48.615921 242.82596 432.55792
49.830666 242.80878 432.86896
50.581764 243.32483 435.04742
52.029877 243.04144 434.41599
53.245949 243.0248 434.71637
54.461594 243.00833 435.01297
55.897957 242.72569 434.36765
57.328651 242.4433 433.71735
58.537804 242.42752 434.0015
59.533279 242.67819 435.22189
60.533562 242.92903 436.43985
61.954765 242.64758 435.77292
62.959488 242.89874 436.98465
64.171844 242.88391 437.25156
65.58403 242.60318 436.57184
67.188194 242.05661 434.94388
68.196564 242.30856 436.14221
69.594551 242.02859 435.44882
70.986946 241.7489 434.75073
72.373764 241.46945 434.04803
73.201332 241.98814 436.17923
74.584831 241.70915 435.46884
75.783417 241.69632 435.70114
76.804939 241.94955 436.87747
78.005447 241.9371 437.10315
79.377151 241.65909 436.37668
80.574394 241.64709 436.59485
81.604996 241.90105 437.75909
82.967941 241.62369 437.0206
84.00312 241.87802 438.17874
85.04319 242.13251 439.33435
86.555939 241.59018 437.63315
88.057991 241.04816 435.92679
89.247902 241.03763 436.11975
90.585678 240.76172 435.3566
91.772446 240.75162 435.54227
92.958939 240.74174 435.72458
94.004837 240.99756 436.85727
95.193405 240.98804 437.03314
96.516876 240.71326 436.25107
97.8349 240.43871 435.46481
98.887581 240.69525 436.58514
100.19995 240.42111 435.79141
101.38212 240.41263 435.94974
102.44189 240.66971 437.06104
103.62621 240.66156 437.21295
104.8103 240.65364 437.36157
105.9942 240.64589 437.50681
107.28972 240.37302 436.6911
108.47063 240.36566 436.82938
109.75797 240.0932 436.00616
110.93591 240.08624 436.13751
112.11365 240.07945 436.26566
113.39011 239.80762 435.43134
114.56491 239.80122 435.55267
115.73956 239.79501 435.67068
116.82292 240.05417 436.7453
118.08836 239.78311 435.89691
119.09065 240.3078 437.9259
120.3532 240.03711 437.07074
121.52968 240.03177 437.1727
122.706 240.02664 437.27142
123.8822 240.02167 437.36691
125.13129 239.75174 436.49768
126.30464 239.74713 436.58649
127.47788 239.74271 436.67203
128.71628 239.47334 435.79233
129.76135 239.99942 437.79568
130.99695 239.73041 436.90936
132.11224 239.99173 437.94458
133.3974 239.45807 436.0889
134.46275 239.98477 438.08066
135.68765 239.71648 437.18088
136.90729 239.44839 436.27765
138.12169 239.18048 435.37094
139.2048 239.70781 437.35086
140.37704 239.70525 437.40109
141.54921 239.70287 437.44818
142.68706 239.96564 438.45566
143.86171 239.96359 438.4964
145.0654 239.69672 437.57019
146.23737 239.69501 437.60446
147.43323 239.42847 436.67166
148.60254 239.42709 436.69949
149.79059 239.16089 435.76007
150.95724 239.15984 435.78156
152.12389 239.15897 435.79984
153.2905 239.15823 435.81497
154.46555 238.89272 434.86267
155.62955 238.89233 434.8714
156.79355 238.89212 434.87704
157.95683 239.15701 435.84372
159.11967 238.62717 433.91446
160.2811 238.62746 433.91064
161.44955 238.89285 434.8678
162.62318 239.15842 435.82184
163.80199 239.42418 436.77264
164.98599 239.69006 437.72009
166.15782 239.69118 437.70035
167.30975 239.42746 436.71326
168.47906 239.42889 436.68716
169.62332 239.16547 435.69388
170.76247 238.90225 434.69763
171.92676 238.90416 434.66208
173.09109 238.90623 434.62338
174.25549 238.90848 434.58154
175.45795 239.17593 435.50003
176.58447 238.9135 434.48831
177.79224 239.18127 435.40021
179.00522 239.44922 436.30865
180.17514 239.45233 436.25067
181.2942 239.19055 435.22656
182.51521 239.45903 436.12509
183.6293 239.19757 435.09488
184.79698 239.20135 435.02423
186.08727 239.73544 436.87494
187.26033 239.73958 436.79758
188.4335 239.7439 436.71698
189.6758 240.01347 437.59485
190.7802 239.75302 436.54608
191.87956 239.49272 435.49442
193.1274 239.76285 436.36224
194.22185 239.5029 435.30457
195.3932 239.50824 435.20477
196.5647 239.51378 435.10181
197.64925 239.25429 434.03525
198.81845 239.26018 433.92603
199.89555 239.00101 432.8537
201.0625 239.00723 432.73825
202.32706 239.27887 433.57874
203.49693 239.28546 433.45645
204.76961 239.5575 434.28961
205.83722 239.29922 433.20218
207.11545 239.57166 434.02817
208.50945 240.10963 435.80817
209.80101 240.38254 436.62613
211.09798 240.65567 437.44016
212.40033 240.92903 438.25024
213.46655 240.67181 437.14316
214.52783 240.41479 436.03348
215.71008 240.42334 435.87695
216.76404 240.16663 434.76157
217.94418 240.17554 434.59869
219.25829 240.45013 435.3873
220.30518 240.19394 434.26291
221.62498 240.46898 435.04407
222.95023 240.74423 435.82098
224.13681 240.75417 435.64047
225.17697 240.4987 434.50366
226.51083 240.77463 435.26926
227.69824 240.78517 435.07852
228.88597 240.79593 434.88437
229.91689 240.54118 433.7356
231.2623 240.81802 434.48572
232.4509 240.82938 434.28122
233.47493 240.57516 433.12344
234.49405 240.32112 431.96307
235.84851 240.59885 432.698
236.69038 240.07933 430.58322
238.0481 240.35748 431.3107
239.23346 240.37003 431.08627
240.41914 240.38275 430.85834
241.60518 240.39572 430.62689
243.72028 241.73877 435.12155
245.10841 242.01828 435.82584
246.50214 242.29805 436.52548
248.09502 242.84416 438.16473
249.11018 242.59233 436.96689
250.12051 242.34064 435.76648
250.92462 241.82294 433.62097
252.12669 241.83772 433.35828
253.32916 241.85268 433.09186
254.74127 242.13409 433.76273
255.94716 242.14954 433.48846
257.5824 242.69778 435.08987
259.01144 242.98004 435.74609
260.22644 242.99619 435.45889
261.21951 242.74608 434.23004
262.20779 242.49612 432.99872
263.19125 242.24628 431.76498
264.40009 242.26309 431.46466
266.07501 242.81323 433.0311
267.28995 242.83052 432.72192
268.50534 242.84799 432.40891
269.96191 243.13232 433.02539
271.18082 243.15019 432.70407
272.64612 243.43501 433.31079
274.11713 243.72006 433.91217
275.34265 243.73856 433.57788
276.5686 243.75719 433.23969
277.53854 243.50906 431.9686
279.02185 243.79494 432.55151
279.9874 243.54703 431.27405
281.21249 243.56625 430.92093
282.97205 244.11978 432.41574
283.93362 243.87221 431.12796
285.16266 243.89186 430.76218
286.94196 244.44604 432.23962
288.73221 245.00053 433.70984
289.97302 245.02066 433.32883
291.77994 245.57556 434.78607
293.31232 245.86336 435.3157
294.56226 245.88387 434.92004
295.81256 245.90445 434.52029
297.35666 246.1926 435.03427
298.31427 245.94571 433.7085
299.56561 245.96637 433.29642
300.51593 245.71942 431.96509
302.06921 246.00772 432.45993
303.0148 245.76064 431.12213
303.95535 245.51341 429.78198
304.89081 245.26605 428.43954
307.07959 246.09 430.73749
308.3327 246.11038 430.29657
310.22571 246.66652 431.66904
312.12949 247.22273 433.03366
313.71875 247.51089 433.48337
314.98553 247.53088 433.02112
315.92181 247.28253 431.64978
317.18594 247.30203 431.18024
318.45001 247.32127 430.70654
319.71399 247.34024 430.22879
320.97778 247.35886 429.74689
322.58508 247.64546 430.16089
323.5047 247.39505 428.7709
325.11676 247.68092 429.17474
327.08539 248.23485 430.46921
328.35553 248.2515 429.96396
329.98212 248.53612 430.34946
332.3327 249.35728 432.51611
336.87195 251.78937 440.02762
341.45804 254.22134 447.51572
345.72327 256.38452 454.08978
349.65961 258.27869 459.75296
353.63177 260.17233 465.39661
355.38702 260.45331 465.69839
356.39005 260.19586 464.22202
358.14789 260.47488 464.51361
360.29279 261.02158 465.68268
361.67462 261.02963 465.07831
362.27759 260.49896 462.70752
364.04175 260.77328 462.97824
365.41534 260.77753 462.36407
368.37238 261.85553 465.25775
370.5499 262.39447 466.38528
373.13696 263.20065 468.38022
374.92853 263.46756 468.61612
377.12921 264.00153 469.7196
378.51855 263.99609 469.0715
379.90472 263.98874 468.42044
381.70203 264.24817 468.63602
383.08383 264.23676 467.97827
384.88153 264.49194 468.18497
-45.016846 252.87234 427.68777
-42.932312 252.33884 426.54214
-41.263077 252.07478 426.26086
-40.812531 252.62302 428.59317
-38.73735 252.0842 427.43118
-37.870865 252.35782 428.88736
-36.996765 252.62997 430.34302
-35.324951 252.35789 430.0426
-34.048676 252.3558 430.61554
-33.160309 252.62375 432.06522
-31.102997 252.07637 430.87054
-29.823669 252.0705 431.43237
-28.54274 252.06349 431.99078
-26.880844 251.7841 431.66107
-25.222778 251.50372 431.3255
-23.568665 251.22241 430.98404
-21.547089 250.66901 429.74881
-19.903854 250.38603 429.39441
-18.264877 250.10233 429.034
-16.993912 250.08907 429.55887
-15.000122 249.53284 428.29529
-13.73288 249.51828 428.81024
-12.820663 249.77414 430.21567
-11.54953 249.75836 430.72388
-9.9273987 249.47101 430.33148
-8.6579285 249.45421 430.83063
-7.7332001 249.70789 432.22433
-6.4603577 249.69016 432.71643
-4.5075073 249.13031 431.40314
-2.9022522 248.84108 430.9834
-1.3021088 248.55161 430.55756
-0.039047241 248.53265 431.0293
1.2240906 248.51343 431.49689
2.4872589 248.49397 431.96042
4.0744019 248.20366 431.51321
4.6922607 248.72499 433.78253
6.2766266 248.43437 433.32614
7.8555908 248.14369 432.86374
9.1157684 248.12341 433.3056
10.375763 248.10306 433.74335
11.943649 247.81224 433.2648
14.116867 246.9808 430.95428
15.365646 246.96042 431.37601
16.614136 246.94 431.7937
18.159851 246.64938 431.29156
19.405136 246.62898 431.70013
20.357895 246.87871 433.02206
21.89473 246.58826 432.5051
23.139008 246.56796 432.90149
24.382935 246.54773 433.29379
25.344864 246.79747 434.60281
26.311691 247.04721 435.90936
28.112488 246.48743 434.44638
29.081161 246.73729 435.7457
30.867935 246.17793 434.27069
32.643791 245.61884 432.78845
34.142853 245.32968 432.22467
35.109879 245.58005 433.508
36.602821 245.29126 432.93481
37.574265 245.54179 434.21173
38.550507 245.79242 435.48624
39.784241 245.77364 435.82904
41.017548 245.755 436.16785
42.497818 245.46716 435.57205
44.217148 244.9102 434.03958
45.683395 244.62289 433.43253
46.904427 244.6051 433.75302
48.598831 244.04901 432.2027
49.813759 244.03168 432.51419
50.796616 244.28369 433.75671
52.013306 244.26669 434.06131
53.229576 244.24988 434.36206
54.445404 244.23328 434.65912
55.881989 243.94781 434.01498
57.31292 243.66266 433.36584
58.522255 243.64673 433.65045
59.517906 243.89987 434.87045
60.72905 243.88431 435.14822
61.939796 243.86896 435.42227
62.944679 244.12259 436.63367
64.3601 243.83881 435.95932
65.569656 243.8241 436.22238
67.174088 243.27209 434.59631
68.377663 243.25781 434.85092
69.773262 242.9751 434.15814
71.163284 242.69266 433.46063
72.547722 242.41046 432.75851
73.372833 242.9343 434.88803
74.390007 243.18964 436.07007
75.591415 243.17661 436.30316
76.615707 243.43231 437.47964
77.819023 243.41971 437.70615
79.193565 243.13885 436.98117
80.393623 243.12668 437.20013
81.593361 243.11472 437.41553
82.79277 243.10297 437.62744
83.991882 243.09143 437.83585
85.032135 243.34839 438.99094
86.54512 242.80069 437.2916
87.894073 242.52151 436.53806
89.0868 242.51086 436.73169
90.427383 242.23216 435.96997
91.762505 241.95372 435.20401
92.806229 242.21188 436.33932
93.995262 242.20204 436.51883
95.184029 242.19241 436.69498
96.507721 241.91484 435.91379
97.693382 241.90564 436.08279
98.878815 241.89661 436.24835
100.064 241.88779 436.41058
101.24895 241.87915 436.56943
102.43369 241.87073 436.72495
103.61819 241.86249 436.87708
104.68547 242.12241 437.98218
105.87216 242.11453 438.12793
107.17046 241.83891 437.31345
108.35414 241.83145 437.45227
109.64428 241.55624 436.63025
110.82499 241.54916 436.76208
112.00551 241.5423 436.89069
113.18585 241.53558 437.01596
114.46233 241.26123 436.17935
115.63973 241.25491 436.29779
116.81699 241.24878 436.41296
117.99407 241.24283 436.52487
119.08505 241.50487 437.59311
120.26443 241.49925 437.6987
121.44366 241.49385 437.80106
122.70096 241.22084 436.93976
123.95293 240.94806 436.07489
125.1266 240.94321 436.16702
126.22969 241.20625 437.21686
127.40569 241.20174 437.3027
128.64685 240.9297 436.42407
129.69467 241.46095 438.42621
130.87292 241.45697 438.50256
132.05107 241.45316 438.57568
133.28406 241.18185 437.68365
134.40709 241.44603 438.71219
135.63474 241.17509 437.81342
136.80995 241.17197 437.87347
138.0743 240.63376 436.0054
139.20216 240.89864 437.02136
140.37457 240.89603 437.07169
141.54692 240.89362 437.11884
142.71921 240.89136 437.16272
143.89143 240.8893 437.20349
145.09271 240.61978 436.27795
146.26227 240.61804 436.31223
147.47968 240.08124 434.41681
148.64398 240.07985 434.44461
149.78946 240.34622 435.43256
150.95628 240.34517 435.45404
152.12309 240.34427 435.47235
153.26779 240.87872 437.4144
154.44817 240.61057 436.46292
155.62338 240.34259 435.50821
156.79012 240.34235 435.51382
157.95686 240.34229 435.51627
159.11987 239.80722 433.5885
160.28145 239.8075 433.58463
161.45007 240.07553 434.54111
162.63348 240.61133 436.45786
163.80284 240.61211 436.44443
164.98701 240.88065 437.39117
166.15901 240.88176 437.37134
167.33104 240.88306 437.3483
168.5031 240.88449 437.32208
169.6501 240.6185 436.32947
170.79199 240.35266 435.33377
171.95903 240.35461 435.29813
173.09326 240.08911 434.29633
174.25783 240.09137 434.25439
175.42245 240.09384 434.20932
176.58713 240.09645 434.16101
177.79507 240.36691 435.07217
179.00824 240.63751 435.9798
180.17831 240.64066 435.92172
181.24664 240.10863 433.9361
182.51874 240.64746 435.79596
183.633 240.38344 434.76642
184.80084 240.38727 434.69568
186.09132 240.92665 436.54477
187.26456 240.93085 436.46729
188.37148 240.6675 435.42535
189.61136 240.93976 436.30261
190.71335 240.67676 435.25467
191.88446 240.68164 435.16443
193.13249 240.95447 436.0314
194.22711 240.69196 434.9743
195.39864 240.69737 434.87436
196.65483 240.97076 435.73096
197.74214 240.70877 434.66483
198.8244 240.4469 433.59583
199.99396 240.45306 433.48322
201.16367 240.45937 433.36728
202.43102 240.73373 434.2066
203.60367 240.74043 434.08389
204.87912 241.01523 434.91589
206.05472 241.02231 434.78632
207.33833 241.29753 435.6109
208.51691 241.30499 435.47443
209.92169 241.8486 437.24829
211.10585 241.85651 437.10458
212.4084 242.1326 437.91367
213.47482 241.87288 436.80716
214.53625 241.61331 435.69794
215.59274 241.35393 434.58609
216.64429 241.0947 433.47156
217.82201 241.10367 433.30878
219.13374 241.38101 434.09683
220.31454 241.39041 433.92694
221.49564 241.40002 433.75375
222.8185 241.67804 434.53015
224.00269 241.68808 434.34976
225.04044 241.43011 433.2139
226.3719 241.70877 433.97882
227.55693 241.71942 433.78821
228.74225 241.73026 433.59418
229.92786 241.74133 433.39676
231.11377 241.75259 433.19586
232.29999 241.76407 432.99149
233.48651 241.77573 432.78369
234.67334 241.7876 432.57239
235.8605 241.7997 432.35767
236.87526 241.54352 431.19174
238.06047 241.556 430.97046
239.06808 241.30016 429.79904
240.43192 241.58157 430.51746
241.61816 241.59467 430.28571
243.54782 242.6824 433.83102
244.93359 242.96468 434.53473
246.32495 243.24722 435.23383
247.72189 243.53006 435.92822
248.73201 243.27567 434.73184
249.7373 243.02144 433.53296
250.53632 242.49857 431.38968
251.93741 242.78226 432.06903
253.34412 243.06619 432.74356
254.96573 243.61932 434.35345
255.96255 243.36598 433.13861
257.59808 243.91969 434.73816
259.02734 244.20474 435.39325
260.02277 243.952 434.16782
260.79105 243.43033 432.0029
261.99921 243.4469 431.70963
263.20782 243.46368 431.41269
264.41684 243.48065 431.11188
266.09201 244.03624 432.67642
267.30716 244.05367 432.36679
268.28464 243.80199 431.12021
269.73877 244.08908 431.73615
271.19858 244.37642 432.34686
272.41809 244.39461 432.02121
273.63806 244.41296 431.69174
275.36096 244.97046 433.21768
276.33322 244.71971 431.9501
277.55713 244.73862 431.60828
279.04065 245.02728 432.18997
280.52985 245.31613 432.76624
281.23151 244.79617 430.5592
282.99127 245.3551 432.05197
283.95294 245.105 430.7645
285.45441 245.39456 431.32184
286.96155 245.68433 431.8736
288.75195 246.24417 433.3418
289.99289 246.26437 432.96027
291.51706 246.55469 433.49512
292.76141 246.57512 433.10474
294.0061 246.59558 432.71024
295.25116 246.61613 432.31174
296.79001 246.90686 432.82608
298.3345 247.19772 433.33469
299.58582 247.21841 432.92212
300.53607 246.96881 431.59109
301.78537 246.98943 431.1712
303.34158 247.2804 431.65979
303.97534 246.76013 429.40741
305.22272 246.78055 428.97614
307.09949 247.3419 430.36041
308.03516 247.09164 429.0101
309.92548 247.65297 430.3815
311.82651 248.21432 431.74503
313.08774 248.23431 431.28845
314.67688 248.5248 431.73279
316.60181 249.08592 433.07526
317.20465 248.56371 430.79706
318.13257 248.31192 429.4209
319.73203 248.6015 429.84491
320.99545 248.6199 429.36267
321.91486 248.36694 427.97726
322.82874 248.11354 426.58994
324.78412 248.6727 427.89175
326.39795 248.96046 428.2894
327.66229 248.9767 427.78607
329.28308 249.26349 428.17267
332.34705 250.63441 432.12445
336.52365 252.8186 438.73682
341.47156 255.54503 447.10928
345.36862 257.45746 452.78714
349.67181 259.64072 459.33417
353.27042 261.28088 464.08481
355.39752 261.83511 465.27316
356.39954 261.57434 463.79764
358.15625 261.85522 464.0885
359.91669 262.13498 464.37326
361.29468 262.14218 463.77023
362.28235 261.87674 462.28305
364.82751 262.69556 464.31201
366.2049 262.69879 463.69583
369.16562 263.78629 466.58438
371.74579 264.60077 468.58429
374.33893 265.41364 470.57373
375.73233 265.41052 469.9324
377.9364 265.94843 471.03259
379.32895 265.94159 470.38278
380.30637 265.6615 468.86029
381.68964 265.6507 468.20609
383.48636 265.90912 468.41672
385.28436 266.16528 468.62247
-45.004883 254.15193 427.29199
-43.332901 253.88849 427.01685
-41.254883 253.3492 425.86591
-40.400589 253.62993 427.32385
-38.329681 253.08705 426.16162
-37.467377 253.36443 427.61523
-36.199692 253.36629 428.19272
-34.534546 253.09264 427.89035
-33.65741 253.36552 429.33853
-32.383087 253.36307 429.90677
-30.719513 253.08533 429.59137
-29.444031 253.08031 430.15179
-28.16687 253.07414 430.70889
-26.508667 252.79291 430.37869
-24.854248 252.51064 430.04272
-23.203705 252.2274 429.7009
-21.185654 251.6694 428.46616
-20.283752 251.93214 429.88788
-18.642944 251.64633 429.52945
-17.006439 251.3598 429.16507
-15.013306 250.7988 427.9032
-14.105118 251.05843 429.31085
-12.479416 250.76993 428.92947
-11.564621 251.02827 430.33148
-10.643982 251.28596 431.7316
-9.3697052 251.26944 432.23303
-8.4401855 251.526 433.62823
-7.1624756 251.5085 434.12265
-5.5445862 251.21709 433.7132
-3.5944824 250.6519 432.39682
-1.9893341 250.35992 431.97409
-0.72128296 250.34109 432.44812
1.2054596 249.77528 431.1105
2.4683838 249.756 431.5744
3.7313385 249.73645 432.03415
4.6729279 249.98991 433.39645
5.9384613 249.96994 433.84894
7.5199585 249.67667 433.38867
9.0960388 249.38336 432.92249
10.355927 249.36305 433.36066
11.923752 249.06964 432.88342
14.097046 248.23029 430.57568
15.345734 248.20993 430.99796
16.294037 248.4624 432.33005
18.139938 247.89627 430.91522
19.090332 248.14864 432.24002
20.337936 248.1282 432.64587
21.58522 248.10779 433.04764
23.119156 247.81473 432.52701
24.078812 248.06706 433.83899
25.043396 248.31935 435.1485
26.291916 248.29909 435.53482
28.092865 247.73395 434.07391
29.061584 247.98639 435.37289
30.848572 247.42162 433.8999
32.624596 246.85713 432.41977
33.857971 246.83759 432.78201
34.82769 247.09042 434.06583
36.323448 246.79886 433.49463
37.55555 246.77969 433.845
38.531906 247.03284 435.1192
40.018501 246.74181 434.53394
41.249313 246.72308 434.87253
42.479713 246.70456 435.20721
44.199303 246.14215 433.67667
45.665756 245.85205 433.07086
46.647408 246.10608 434.32385
48.107758 245.81641 433.70892
49.562408 245.52701 433.08884
50.548027 245.78146 434.3317
51.76754 245.76428 434.63733
52.986603 245.74728 434.93924
54.42907 245.4588 434.30133
55.644684 245.44223 434.595
57.297035 244.8826 433.01044
58.506584 244.8665 433.29538
59.50238 245.12216 434.51511
60.713715 245.10645 434.7933
62.132774 244.81943 434.12808
63.135216 245.07561 435.3385
64.548248 244.78908 434.66476
65.555145 245.04558 435.86896
67.357498 244.21681 433.30283
68.558662 244.20242 433.55728
69.759453 244.18826 433.80817
71.149704 243.90302 433.11176
72.534363 243.61804 432.4108
73.359634 244.14697 434.53909
74.376991 244.40482 435.72073
75.757988 244.12051 435.00854
76.603065 244.64984 437.13025
77.980774 244.366 436.41043
79.352951 244.0824 435.68604
80.550606 244.0701 435.90485
81.581573 244.32904 437.06818
82.944962 244.04617 436.33188
84.14167 244.0345 436.5401
85.020943 244.56494 438.64377
86.534187 244.01181 436.94614
87.883362 243.72989 436.1937
89.076286 243.71907 436.38757
90.417091 243.43762 435.62692
91.752434 243.15643 434.862
92.796349 243.41708 435.99677
93.985573 243.4071 436.17651
95.036758 243.66812 437.30566
96.228058 243.65854 437.47903
97.419113 243.64917 437.64899
98.739929 243.36929 436.86166
99.927902 243.36032 437.02451
101.11565 243.35156 437.1839
102.30316 243.343 437.33997
103.61009 243.06401 436.53748
104.67754 243.32645 437.642
105.97885 243.04791 436.83215
107.27478 242.76956 436.01825
108.45605 242.76201 436.15698
109.63713 242.75465 436.29239
110.71394 243.01799 437.3815
111.99873 242.74048 436.55319
113.17926 242.7337 436.67868
114.45593 242.45663 435.84296
115.53979 242.72067 436.91971
116.81096 242.444 436.07687
117.89969 242.7084 437.14758
118.99342 242.97296 438.21545
120.17557 242.96729 438.32147
121.35756 242.96179 438.42419
122.61763 242.68607 437.56403
123.94801 242.1402 435.74045
125.19489 241.8649 434.87271
126.29556 242.13052 435.92175
127.46915 242.12598 436.00757
128.64262 242.12158 436.09012
129.7533 242.3877 437.13019
130.86903 242.65396 438.16733
132.04736 242.65012 438.24057
133.28053 242.37613 437.34933
134.45609 242.37262 437.41595
135.68134 242.099 436.51779
136.85413 242.09584 436.57782
138.07146 241.8226 435.67291
139.19951 242.09007 436.68823
140.37209 242.08743 436.73862
141.58145 241.81476 435.82379
142.75133 241.81245 435.86765
143.92114 241.81036 435.90839
145.12003 241.53818 434.98346
146.26062 241.80667 435.98016
147.45425 241.53485 435.0488
148.62131 241.53342 435.07666
149.78833 241.53217 435.10138
150.97153 241.26086 434.16022
152.10866 241.8004 436.10391
153.26715 242.06989 437.08182
154.45616 241.52887 435.16833
155.62895 241.25826 434.21436
156.79327 241.25803 434.21997
157.9576 241.25797 434.22241
159.12006 240.98785 433.25885
160.28625 241.25836 434.21777
161.45763 241.52899 435.17346
162.63417 241.79985 436.12598
163.8159 242.07086 437.07526
164.98804 242.07181 437.05856
166.1602 242.07297 437.0387
167.33241 242.07425 437.01559
168.50464 242.07571 436.98932
169.65181 241.80713 435.99741
170.82155 241.80894 435.96484
171.99133 241.81091 435.92902
173.12831 241.54282 434.92783
174.26019 241.27489 433.92365
175.463 241.54761 434.84048
176.63045 241.55028 434.79202
177.79796 241.55312 434.74039
179.01131 241.82642 435.64725
180.13321 241.55933 434.62756
181.1991 241.02209 432.64343
182.4688 241.56619 434.50183
183.63672 241.5699 434.43423
184.74606 241.30347 433.40237
186.03415 241.84818 435.25015
187.26883 242.12274 436.13336
188.37592 241.85683 435.09207
189.54697 241.86143 435.00821
190.71814 241.86621 434.92108
191.88943 241.87115 434.83075
193.13765 242.14667 435.69681
194.23244 241.88161 434.64029
195.40414 241.88712 434.54025
196.66054 242.16322 435.396
197.748 241.89868 434.33041
198.83044 241.63428 433.26205
200.00018 241.64047 433.1492
201.17007 241.6469 433.03314
202.43762 241.92398 433.87155
203.61044 241.93077 433.74866
204.88611 242.20828 434.57974
206.06189 242.21545 434.44998
207.3457 242.49339 435.27359
208.52448 242.50098 435.13699
209.81645 242.77936 435.95309
210.99821 242.78732 435.80945
212.29839 243.06613 436.61795
213.48317 243.07452 436.46732
214.5448 242.81247 435.35867
215.72745 242.82123 435.20169
216.78174 242.55948 434.08734
217.8311 242.29791 432.97037
219.14304 242.57797 433.75729
220.18768 242.31676 432.63431
221.36636 242.32648 432.46124
222.54529 242.3364 432.28479
224.01279 242.88818 434.00851
225.19746 242.89854 433.82446
226.53177 243.18002 434.58801
227.71959 243.19083 434.3967
228.90771 243.20181 434.20197
230.09612 243.21304 434.00381
231.12509 242.95349 432.85291
232.31149 242.9651 432.64828
233.49823 242.97691 432.44016
234.85283 243.25998 433.17645
236.04279 243.27223 432.96088
237.06033 243.01361 431.79495
238.24835 243.02625 431.57288
239.43671 243.03909 431.34726
240.44484 242.78098 430.17276
241.63129 242.79424 429.94067
243.37549 243.62143 432.53824
244.75888 243.90646 433.24136
246.14786 244.19177 433.93982
247.34879 244.20601 433.69083
248.74634 244.49181 434.38043
249.95065 244.5065 434.12363
250.95389 244.24997 432.92209
252.15636 244.26503 432.65854
253.77261 244.82332 434.27139
255.19043 245.11041 434.93878
256.40195 245.12619 434.66251
257.61389 245.1422 434.38248
258.82623 245.15842 434.09882
259.81921 244.90314 432.87439
260.80737 244.64801 431.64752
261.79071 244.39297 430.41812
