ply
format ascii 1.0
comment PCL generated
element vertex 1593
property float x
property float y
property float z
element camera 0
property float view_px
property float view_py
property float view_pz
property float x_axisx
property float x_axisy
property float x_axisz
property float y_axisx
property float y_axisy
property float y_axisz
property float z_axisx
property float z_axisy
property float z_axisz
property float focal
property float scalex
property float scaley
property float centerx
property float centery
property int viewportx
property int viewporty
property float k1
property float k2
end_header
-28.567245 148.59285 432.45724
-27.306686 148.58383 433.00037
-26.436844 148.63667 434.45749
-25.174103 148.62767 434.9928
-23.526505 148.5569 434.60294
-21.884583 148.48621 434.20633
-20.248367 148.41556 433.80307
-18.617935 148.34502 433.39328
-17.367783 148.33626 433.90204
-16.489944 148.38924 435.33264
-14.868927 148.31888 434.9064
-13.986771 148.37193 436.33038
-12.735977 148.36336 436.82269
-11.124557 148.29321 436.38025
-9.1604614 148.16156 434.99985
-7.9193573 148.15323 435.4761
-6.3256226 148.08339 435.01456
-4.737793 148.01364 434.54672
-3.155899 147.944 434.07266
-1.9252319 147.936 434.52899
-0.69515991 147.92807 434.98102
0.19430542 147.9817 436.36731
1.0884247 148.03537 437.75137
2.3218536 148.02763 438.19281
3.5546417 148.01997 438.63013
4.7867737 148.01241 439.06332
6.3450165 147.9435 438.54926
7.5731964 147.9361 438.97336
8.8007355 147.92877 439.39331
10.027603 147.92154 439.8093
11.25386 147.9144 440.22113
12.479446 147.90732 440.62906
13.393463 147.96165 441.98141
15.236984 147.83214 440.48352
16.458008 147.82533 440.87863
17.981445 147.75735 440.31879
19.498993 147.68948 439.7533
21.010651 147.62172 439.18231
22.221329 147.6153 439.5593
23.723892 147.54774 438.97812
25.220627 147.4803 438.39157
26.424225 147.47415 438.75549
27.342636 147.52927 440.07227
28.829742 147.46211 439.47195
29.752213 147.51736 440.78281
31.232964 147.45039 440.17343
32.707886 147.38354 439.5589
33.905502 147.3779 439.8996
35.102554 147.37233 440.23666
36.299103 147.36685 440.57001
37.231377 147.42252 441.86243
38.690567 147.35612 441.22589
40.144043 147.28983 440.58429
41.59182 147.22363 439.93765
43.287148 147.09651 438.32068
44.720894 147.03053 437.66348
45.900894 147.02563 437.96823
46.83493 147.08183 439.23703
48.016609 147.07709 439.53543
48.71727 147.19437 441.76797
49.903244 147.18976 442.06067
50.853706 147.24617 443.32001
52.041412 147.24168 443.60641
53.228699 147.23727 443.88934
54.415558 147.23294 444.16882
55.826698 147.16776 443.47235
57.010162 147.16356 443.74432
58.632202 147.03766 442.06552
60.026604 146.97273 441.35522
61.201134 146.96878 441.61533
62.586998 146.90402 440.89667
63.758224 146.90019 441.14944
64.929085 146.89645 441.39893
65.895668 146.95361 442.62219
67.068443 146.94998 442.86557
68.042122 147.00725 444.0838
69.216827 147.00374 444.32108
70.004028 147.12192 446.51349
71.183289 147.11853 446.74521
72.362228 147.11519 446.97363
73.540871 147.11191 447.19879
74.902458 147.04791 446.43951
76.258614 146.98398 445.67593
77.431221 146.9809 445.89038
78.603577 146.97787 446.10153
79.775665 146.9749 446.30942
80.606804 147.09351 448.48123
81.951294 147.02989 447.69962
82.960014 147.08783 448.88278
83.973656 147.14581 450.06354
84.672188 147.32529 453.21243
85.228516 147.56552 457.34628
85.960098 147.74503 460.49408
87.01149 147.80315 461.66815
88.367218 147.7399 460.86606
90.158981 147.4946 457.09808
92.363579 147.06732 450.36096
94.247971 146.76154 445.5914
95.827606 146.57722 442.79175
97.528427 146.33232 438.99814
99.074219 146.14818 436.18768
100.73608 145.90343 432.38263
101.98987 145.84077 431.54117
103.61794 145.59619 427.72571
104.85339 145.53365 426.87598
106.20493 145.41052 425.03192
107.42722 145.3481 424.17471
108.52798 145.34637 424.30536
109.40127 145.46597 426.41635
110.5069 145.46432 426.54175
111.39535 145.584 428.64868
112.29395 145.70369 430.75388
113.51287 145.64154 429.87878
114.5249 145.70067 430.98636
115.44371 145.82047 433.08484
116.56404 145.81906 433.19424
117.59114 145.8783 434.29462
118.71384 145.87697 434.39835
119.83641 145.87569 434.49924
120.95889 145.87444 434.5972
122.16411 145.81262 433.69745
123.28384 145.81146 433.78934
124.32578 145.87093 434.87338
125.44791 145.86984 434.95959
126.49738 145.92938 436.03845
127.62192 145.92838 436.11902
128.8138 145.86681 435.20081
130.00047 145.8053 434.27927
131.18196 145.74382 433.35452
132.47768 145.56122 430.43387
133.64363 145.49983 429.50238
134.80438 145.43849 428.56781
135.90793 145.43776 428.62689
136.91249 145.55821 430.677
137.92726 145.6787 432.7247
138.90793 145.85979 435.76724
139.86218 146.10149 439.80484
140.91531 146.22206 441.84558
141.94203 146.40323 444.88132
143.01819 146.52388 446.91705
144.10455 146.64455 448.9502
145.2301 146.7047 449.98291
146.36075 146.76488 451.01282
147.49649 146.82509 452.03986
148.67982 146.76421 451.06812
149.87668 146.64282 449.0954
151.07936 146.46089 446.12143
152.26663 146.27902 443.14426
153.43851 146.09717 440.16391
154.59499 145.91537 437.18054
155.71268 145.97585 438.18671
156.83876 145.9758 438.19186
157.96486 145.97578 438.19415
159.0891 145.91524 437.19537
160.21704 145.97586 438.18997
161.33617 145.91539 437.18542
162.46925 145.97607 438.17416
163.6075 146.0368 439.16006
164.78021 146.21869 442.13907
165.95111 146.34006 444.11697
167.11247 146.40089 445.09369
168.30136 146.52234 447.06531
169.45068 146.52269 447.03806
170.60001 146.52309 447.00781
171.74939 146.52351 446.97467
172.89879 146.52397 446.93851
174.01303 146.46391 445.90186
175.12218 146.40387 444.8624
176.26657 146.40445 444.8176
177.3681 146.3445 443.77258
178.46457 146.28456 442.72482
179.60396 146.28525 442.67136
180.69283 146.2254 441.61807
181.77661 146.16557 440.56213
182.85532 146.10579 439.50351
183.92896 146.04604 438.4422
184.99753 145.98633 437.37836
186.18788 146.04782 438.30411
187.25145 145.98817 437.23471
188.4471 146.04974 438.15433
189.71907 146.17195 440.06622
190.70662 146.05183 437.9928
191.76024 145.99234 436.91232
192.96648 146.05408 437.81946
194.09653 146.05525 437.72839
195.14273 145.99588 436.6398
196.2704 145.99713 436.54297
197.39819 145.99843 436.44327
198.61775 146.06039 437.33456
199.55983 145.94054 435.24133
200.68536 145.94197 435.13306
201.81104 145.94344 435.02182
203.03876 146.00557 435.90054
204.16724 146.00713 435.78311
205.40292 146.06935 436.65506
206.64388 146.13164 437.5235
207.77788 146.13333 437.39658
209.02682 146.19571 438.25815
210.16368 146.19749 438.12491
211.18073 146.13867 436.99771
212.19278 146.07988 435.86816
213.45004 146.14246 436.7168
214.32961 146.02309 434.59192
215.58977 146.08577 435.43417
216.85526 146.1485 436.27277
217.99066 146.1506 436.11868
219.12625 146.15276 435.96155
220.40257 146.21565 436.78961
221.39798 146.15721 435.63818
222.38844 146.09882 434.48447
223.6705 146.16187 435.30261
224.6562 146.10356 434.14352
225.94382 146.16673 434.95471
227.23682 146.22997 435.76205
228.37659 146.23253 435.58002
229.5166 146.23514 435.39484
230.82059 146.29855 436.19122
231.7973 146.24054 435.01523
232.7691 146.18256 433.83698
234.25049 146.30692 435.60645
235.39429 146.30981 435.40524
236.36169 146.25198 434.21848
237.68266 146.31577 434.99338
238.82727 146.31883 434.78271
240.15656 146.38275 435.5498
241.30429 146.38594 435.33228
242.64191 146.45001 436.09155
243.79285 146.45332 435.8671
244.74933 146.39587 434.66046
245.70096 146.33847 433.45169
247.04756 146.4028 434.19656
247.99464 146.3455 432.9823
248.93689 146.28825 431.76593
250.70508 146.47452 434.45261
251.85828 146.47827 434.20538
253.22473 146.54297 434.93015
254.59671 146.60776 435.65045
256.19232 146.73352 437.34024
257.13672 146.67667 436.10406
258.07629 146.61986 434.86575
259.4628 146.68497 435.56976
260.39798 146.62828 434.32593
261.32837 146.57164 433.0799
262.72128 146.63696 433.77255
264.35608 146.76335 435.43033
265.28513 146.70691 434.17468
266.93378 146.8335 435.82245
268.10519 146.8382 435.52847
269.27707 146.84296 435.23099
270.20013 146.78679 433.9635
271.37033 146.7917 433.6597
272.54099 146.79669 433.35242
273.71216 146.80176 433.0416
274.88382 146.80688 432.72723
275.79364 146.75104 431.44626
277.22864 146.8174 432.08792
278.66934 146.88387 432.72446
280.11581 146.95044 433.35602
281.29529 146.95599 433.02237
282.75067 147.02277 433.64438
284.48987 147.15079 435.21997
285.39822 147.09546 433.91516
286.86841 147.16252 434.5224
288.05853 147.16852 434.16806
289.24921 147.17461 433.80997
290.44049 147.18076 433.44812
291.63239 147.187 433.08252
292.82489 147.19333 432.71313
294.61594 147.32224 434.24451
296.11652 147.39003 434.81732
297.31876 147.39665 434.43396
298.52161 147.40335 434.04669
299.72507 147.41013 433.65558
300.30487 147.29434 431.36444
301.50439 147.30125 430.96722
302.70447 147.30826 430.56607
304.22528 147.37671 431.10638
305.75201 147.44528 431.64093
307.61005 147.57538 433.11328
309.15128 147.6442 433.63525
311.02911 147.77455 435.09314
312.5849 147.84361 435.60236
313.8107 147.8513 435.16568
315.03717 147.85909 434.72488
315.58185 147.74391 432.40396
316.46042 147.69029 431.01978
318.0274 147.75978 431.50546
318.90192 147.70627 430.11484
320.47546 147.77592 430.59015
322.05493 147.8457 431.0592
323.28314 147.85397 430.59006
324.87177 147.92392 431.04755
327.19122 148.11726 433.35864
328.797 148.18745 433.80139
330.40863 148.25774 434.2377
333.13751 148.51323 437.44791
337.38074 149.01579 444.34811
342.04291 149.58044 452.15121
346.37512 150.08371 459.00665
350.75052 150.58734 465.8399
354.40143 150.96771 470.80804
356.92545 151.1629 472.99734
358.2984 151.17273 472.41776
359.27991 151.12073 470.91531
361.04529 151.19246 471.24396
361.62479 151.07855 468.81845
362.59363 151.02649 467.30728
363.95975 151.03632 466.70688
365.32599 151.04613 466.10178
366.28433 150.99396 464.58087
369.28992 151.25165 467.60632
370.25073 151.19943 466.07462
372.45367 151.33319 467.26254
374.24841 151.40494 467.5347
-36.141144 149.87682 429.0163
-34.880295 149.86768 429.58609
-33.619354 149.85852 430.15146
-32.358368 149.84932 430.71246
-31.498657 149.90462 432.18277
-29.836533 149.83087 431.82117
-28.575775 149.82166 432.36887
-27.708405 149.87688 433.82932
-26.445389 149.86765 434.36926
-25.182632 149.85843 434.90472
-23.535004 149.78484 434.5152
-21.893036 149.7113 434.11896
-20.256821 149.63785 433.71616
-18.24913 149.50012 432.38275
-17.376144 149.55548 433.81558
-16.126419 149.54654 434.32013
-14.877213 149.53766 434.82031
-13.995041 149.59308 436.24432
-12.744186 149.58427 436.73679
-11.493912 149.57555 437.22495
-9.8856506 149.50266 436.77747
-8.2832642 149.42987 436.32358
-6.6868134 149.35719 435.86343
-5.0962524 149.28462 435.39694
-3.5116272 149.21216 434.92422
-2.2782288 149.20392 435.38165
-0.70278931 149.13165 434.89755
0.18670654 149.18765 436.28387
1.4181976 149.17964 436.7287
2.3143768 149.23576 438.10953
3.8792877 149.16386 437.6059
4.7794647 149.22009 438.98032
6.6645203 149.0844 437.52371
7.5660248 149.14079 438.89087
9.115097 149.06931 438.36627
10.339432 149.06189 438.78146
11.563095 149.05455 439.19266
12.47258 149.11121 440.54721
13.697617 149.10403 440.95123
15.23027 149.03305 440.40219
16.757065 148.96219 439.84741
17.974915 148.95529 440.23788
19.792953 148.8208 438.7211
21.004333 148.8141 439.10202
22.215057 148.80751 439.47919
23.425201 148.80098 439.85245
24.924637 148.73077 439.26697
26.130966 148.72444 439.63181
27.3367 148.71819 439.99286
28.541855 148.71202 440.35013
29.746445 148.70593 440.70364
30.950455 148.69995 441.05344
32.153915 148.69403 441.39948
33.356842 148.6882 441.74176
34.559196 148.68246 442.08044
35.761017 148.6768 442.41544
36.962326 148.67122 442.7467
38.424225 148.60208 442.11115
39.880402 148.53304 441.47052
41.330841 148.46411 440.82495
42.775589 148.39528 440.17435
44.46534 148.26294 438.5528
45.896088 148.19434 437.89175
46.830193 148.25296 439.1604
48.011932 148.24808 439.45892
48.952942 148.30682 440.7226
49.898705 148.36563 441.98404
50.849236 148.4245 443.24326
52.037003 148.41989 443.52982
53.22435 148.41536 443.81287
54.411285 148.41089 444.09241
55.597801 148.40651 444.36859
57.006027 148.3387 443.6683
58.408669 148.271 442.96344
59.805733 148.20337 442.254
61.19722 148.13583 441.54007
62.583176 148.06839 440.82159
63.754456 148.06447 441.07446
64.925385 148.06061 441.32404
66.09597 148.05682 441.57028
67.266212 148.0531 441.81323
68.237358 148.11285 443.03082
69.409538 148.10925 443.2677
70.194206 148.2325 445.45932
71.179924 148.29239 446.67014
72.358917 148.28897 446.89871
73.537621 148.2856 447.1239
74.899284 148.21893 446.36484
76.255501 148.15234 445.6015
77.428169 148.14917 445.81598
78.600578 148.14606 446.02722
79.772713 148.14301 446.23523
80.433556 148.33 449.39008
81.445168 148.39037 450.57672
82.626869 148.38747 450.77682
83.645721 148.44794 451.95834
84.189415 148.69835 456.09277
84.91095 148.88547 459.24179
85.802605 149.00932 461.40405
86.70433 149.13322 463.56473
88.065277 149.06731 462.76361
89.862259 148.81166 458.99716
91.927551 148.42957 453.24942
93.67775 148.1741 449.4697
95.40715 147.91875 445.6839
96.978943 147.72673 442.88058
98.535103 147.53479 440.07205
100.07564 147.34294 437.25839
101.47144 147.2144 435.42923
103.10988 146.95946 431.61578
104.47964 146.83105 429.77728
105.83895 146.70271 427.93451
107.18782 146.57445 426.08759
108.29378 146.57266 426.21884
109.17224 146.69736 428.33014
110.17196 146.75887 429.44794
111.06816 146.88361 431.55545
112.08046 146.94519 432.66882
113.20118 146.94362 432.78714
114.32178 146.94208 432.9025
115.44226 146.94058 433.01489
116.56264 146.93913 433.12433
117.68289 146.93773 433.2309
118.80305 146.93637 433.33447
119.92311 146.93504 433.43512
121.04306 146.93376 433.53284
122.24576 146.86935 432.63312
123.28268 146.93134 433.71957
124.32466 146.99335 434.80353
125.44682 146.99222 434.88974
126.49634 147.05431 435.96844
127.62091 147.05327 436.04904
128.88026 146.92596 434.13522
130.06442 146.86185 433.21378
131.24336 146.79779 432.28906
132.47684 146.67062 430.36496
133.64284 146.60664 429.43365
134.74904 146.60585 429.49576
135.85518 146.6051 429.55493
136.9118 146.66753 430.60812
137.92661 146.79314 432.65558
138.95164 146.91876 434.70053
139.94513 147.10757 437.74033
140.91476 147.35956 441.77499
141.94153 147.54842 444.81027
143.0177 147.67418 446.8457
144.10411 147.79997 448.87851
145.22969 147.86267 449.91113
146.334 147.98854 451.93848
147.47235 148.05132 452.96545
148.63704 148.05099 452.99182
149.85774 147.86133 450.02158
151.06303 147.67169 447.04822
152.26646 147.41898 443.07361
153.44936 147.16631 439.09579
154.59488 147.03992 437.11084
155.70676 147.16609 439.11487
156.83873 147.10292 438.12204
157.96414 147.16603 439.12228
159.09099 147.10292 438.12366
160.22154 147.16611 439.11813
161.34326 147.10309 438.11371
162.48849 147.22946 440.10028
163.6319 147.29277 441.08594
164.80978 147.48236 444.06439
166.00308 147.672 447.03967
167.17218 147.73541 448.01614
168.36882 147.862 449.98727
169.50092 147.79922 448.96213
170.65543 147.79964 448.93182
171.74983 147.67381 446.90335
172.89928 147.67429 446.86716
174.01355 147.61166 445.83066
175.12274 147.54909 444.79141
176.22684 147.48654 443.74936
177.32585 147.42403 442.70459
178.46524 147.42468 442.65405
179.55664 147.36224 441.60373
180.69357 147.36299 441.54745
181.72423 147.23749 439.49506
182.80042 147.17514 438.43671
183.87152 147.11285 437.37573
184.99841 147.11374 437.30829
186.12538 147.11467 437.23788
187.25243 147.11563 437.16458
188.4481 147.17979 438.08405
189.649 147.24402 439.00015
190.7077 147.18195 437.92242
191.76137 147.1199 436.84213
192.88881 147.12108 436.75415
194.01634 147.12228 436.6633
195.06 147.06036 435.57501
196.18517 147.06166 435.47849
197.31041 147.06299 435.37897
198.52747 147.12755 436.27029
199.56125 147.0658 435.17111
200.59001 147.00406 434.06952
201.81253 147.06876 434.95151
203.0403 147.1335 435.83002
204.06427 147.0719 434.72003
205.29744 147.13673 435.5921
206.53589 147.20163 436.46063
207.66736 147.20337 436.33392
208.91379 147.26836 437.19559
210.04811 147.27019 437.06265
211.06264 147.20885 435.93594
212.19469 147.21075 435.79721
213.3269 147.21274 435.65555
214.45927 147.21474 435.51083
215.72206 147.28004 436.35257
216.99017 147.34541 437.19058
217.9928 147.28433 436.04736
219.26642 147.34981 436.8786
220.40482 147.35207 436.71802
221.40027 147.29112 435.56671
222.53648 147.29349 435.40042
223.67288 147.29591 435.23102
224.80948 147.29839 435.05856
226.09975 147.3642 435.86917
227.39539 147.43007 436.6759
228.53778 147.43271 436.49335
229.68042 147.43541 436.30771
230.98705 147.50148 437.10345
231.9664 147.44098 435.92715
232.94083 147.38051 434.74854
234.25336 147.44675 435.534
235.22311 147.38638 434.35004
236.18799 147.32607 433.16385
237.50647 147.3925 433.939
238.83035 147.45901 434.70996
239.9753 147.46222 434.49606
241.12051 147.4655 434.27899
242.45561 147.53221 435.03848
243.604 147.53561 434.81445
244.55795 147.47568 433.60849
245.70438 147.4792 433.37854
247.05107 147.5462 434.12317
247.99821 147.48643 432.90903
249.14563 147.49014 432.6694
250.50107 147.55736 433.40265
251.65175 147.56122 433.15598
253.01569 147.6286 433.88104
254.38516 147.69606 434.60162
255.97826 147.82707 436.29163
257.36145 147.89471 437.00269
258.30368 147.83546 435.76385
259.69284 147.90327 436.46698
260.63068 147.84413 435.22256
261.56372 147.78506 433.97601
262.72568 147.78957 433.69754
264.36053 147.92123 435.35489
265.28967 147.86235 434.09937
266.69696 147.93065 434.77832
268.10989 147.99905 435.45251
269.28183 148.00397 435.15497
270.20496 147.94534 433.88754
271.37521 147.95039 433.58362
272.54596 147.95552 433.27625
273.46011 147.89709 432.00104
274.88892 147.96602 432.65088
275.79883 147.90773 431.36996
276.96896 147.91316 431.04913
278.40717 147.98236 431.68616
280.12128 148.11534 433.27884
281.30081 148.12106 432.94504
283.03168 148.25429 434.526
284.49557 148.32391 435.14191
285.68463 148.32993 434.79483
287.1575 148.39977 435.401
288.06445 148.34216 434.08957
289.5437 148.4122 434.68671
290.44659 148.35475 433.36938
291.63855 148.36118 433.00363
293.1275 148.4315 433.58707
294.9213 148.5658 435.11713
295.82135 148.50865 433.78619
297.021 148.51544 433.4035
298.22131 148.52232 433.01703
299.42224 148.52928 432.62662
300.62375 148.53632 432.23224
301.82596 148.54346 431.83401
303.02881 148.55066 431.43188
304.55231 148.62192 431.97092
305.75909 148.62932 431.55991
307.29187 148.70081 432.08838
308.83057 148.7724 432.61093
311.03644 148.97217 435.01074
312.25903 148.97998 434.57895
313.81824 149.05194 435.08282
314.70618 148.99585 433.70309
315.58948 148.93979 432.32114
316.12421 148.81967 430.00012
318.03513 148.95609 431.42221
318.90973 148.90019 430.03168
320.13147 148.90851 429.57275
322.06287 149.04527 430.97531
323.29114 149.05376 430.50595
325.23969 149.19077 431.89395
327.56192 149.39215 434.20331
329.53555 149.52943 435.57336
331.15256 149.60258 436.0072
334.25735 149.93303 440.14099
338.50873 150.45668 447.03625
343.17914 151.04503 454.83435
347.51953 151.5694 461.68484
351.52197 152.02975 467.59082
354.79456 152.36162 471.63428
356.93475 152.50046 472.90164
358.30774 152.51053 472.32187
359.68103 152.52063 471.73718
361.44916 152.59521 472.06433
362.42844 152.54086 470.55331
364.60214 152.68001 471.78275
365.17657 152.5611 469.35007
366.55075 152.57118 468.74118
367.51709 152.51669 467.21677
370.12018 152.72049 469.32809
371.08627 152.66591 467.79398
373.29446 152.80515 468.97888
375.09451 152.87973 469.24826
-36.149628 151.10701 428.92325
-34.888855 151.09769 429.49319
-33.627975 151.08832 430.05878
-32.367035 151.07892 430.61993
-31.106094 151.0695 431.17667
-29.84523 151.06006 431.72897
-28.584503 151.05063 432.27686
-27.717163 151.10825 433.73727
-26.454132 151.09879 434.27737
-25.191391 151.08936 434.81308
-23.928955 151.07993 435.3443
-22.666855 151.07054 435.87109
-20.64537 150.92726 434.54822
-19.012146 150.85104 434.14017
-17.759277 150.84181 434.65039
-16.134979 150.76573 434.23035
-14.885712 150.75661 434.73071
-14.00351 150.81441 436.15466
-13.116531 150.87222 437.57639
-11.502304 150.79642 437.13568
-10.252548 150.78752 437.61969
-8.6474457 150.7119 437.16724
-6.6949921 150.56963 435.7753
-5.4549713 150.56097 436.24335
-3.5196381 150.41895 434.83685
-2.2861786 150.41049 435.29446
-0.7106781 150.3354 434.8107
0.17889404 150.3938 436.19699
1.4104614 150.38556 436.642
2.6414032 150.37743 437.08282
3.8716888 150.36935 437.51953
4.7718964 150.42798 438.89395
6.330307 150.35347 438.38058
7.2345123 150.41223 439.74869
8.7863312 150.33794 439.22531
10.013367 150.33029 439.64157
11.239761 150.32274 440.0538
12.151932 150.38177 441.40924
13.690628 150.30789 440.86615
14.915085 150.3006 441.26639
16.444595 150.22694 440.71286
17.665146 150.21985 441.10431
19.485947 150.07999 439.58884
20.699997 150.07309 439.97083
22.208633 149.99989 439.39572
23.418839 149.99319 439.76917
24.918381 149.92021 439.18399
25.837479 149.98006 440.50452
27.045914 149.97362 440.86652
28.253799 149.96727 441.22464
29.46106 149.961 441.5791
30.667786 149.95483 441.92975
31.873947 149.94873 442.27667
33.351128 149.87646 441.65976
34.553558 149.87056 441.99857
35.755478 149.86473 442.33362
36.956863 149.85899 442.66501
38.418846 149.78712 442.02979
39.6166 149.78156 442.35315
41.069725 149.7099 441.70859
42.517166 149.63832 441.05896
44.20961 149.50069 439.43863
45.643059 149.42934 438.7785
46.825325 149.42424 439.08066
48.007126 149.41922 439.3793
49.188492 149.41429 439.67441
50.131714 149.47556 440.93515
51.079704 149.53687 442.1937
52.032471 149.59825 443.45001
53.449776 149.5275 442.76218
54.406891 149.589 444.01285
55.593491 149.58449 444.28903
57.001778 149.51399 443.58908
58.184982 149.50964 443.85788
59.584724 149.43932 443.14929
60.978897 149.36908 442.43616
62.367516 149.29895 441.71851
63.750587 149.22888 440.9964
64.921577 149.22493 441.24606
66.296181 149.15503 440.51563
67.463905 149.15121 440.75809
68.432518 149.21346 441.9751
69.602165 149.20976 442.21152
70.3843 149.33807 444.40234
71.367477 149.40045 445.61258
72.543961 149.39693 445.84067
73.720131 149.39348 446.06552
75.079285 149.32416 445.30615
76.613655 149.18898 443.56131
77.781219 149.18575 443.7749
78.77301 149.24847 444.96756
79.769699 149.31125 446.15787
80.600929 149.43999 448.3291
81.274467 149.63463 451.48245
81.963234 149.8293 454.63525
82.829849 149.95811 456.80289
83.386475 150.21872 460.93878
84.278404 150.34758 463.10406
85.490143 150.34476 463.2963
86.853951 150.27615 462.49908
88.362106 150.14175 460.71121
90.006882 149.94159 457.93164
91.780548 149.67569 454.15921
93.675385 149.34404 449.39291
95.126038 149.20999 447.58392
96.566208 149.07602 445.77026
98.130142 148.8763 442.96338
99.678467 148.67665 440.15131
100.95294 148.6087 439.31299
102.60173 148.34341 435.50162
103.98184 148.20979 433.66476
105.3515 148.07625 431.82364
106.82954 147.87698 428.98755
107.82701 147.94093 430.11081
108.82947 148.00491 431.23178
109.83694 148.06894 432.35031
110.84942 148.133 433.46649
111.86691 148.1971 434.58023
113.09622 148.1297 433.70663
114.21942 148.12813 433.82236
115.34253 148.12659 433.935
116.5612 148.05934 433.05148
117.6815 148.05789 433.15808
118.89224 147.99075 432.26797
120.00977 147.9894 432.36847
121.1272 147.98808 432.46597
122.24453 147.98682 432.56061
123.28149 148.05133 433.64691
124.32352 148.11588 434.73068
125.52086 148.049 433.82196
126.56784 148.11362 434.9003
127.75989 148.04683 433.98538
129.01414 147.91437 432.07162
130.19321 147.84767 431.14996
131.30476 147.84674 431.22101
132.47598 147.78012 430.29312
133.64203 147.71355 429.362
134.74826 147.71275 429.42413
135.85443 147.71198 429.48334
136.9111 147.77695 430.53635
137.97284 147.84196 431.58673
138.99535 147.97273 433.63135
139.9863 148.16922 436.67047
140.9534 148.43146 440.70441
141.97763 148.62802 443.73907
143.05128 148.7589 445.77411
144.16666 148.82413 446.80917
145.25821 148.95508 448.83887
146.33362 149.15178 451.86343
147.4482 149.28281 453.88776
148.61549 149.28247 453.91415
149.82013 149.15079 451.94217
151.03059 148.95345 448.96933
152.23918 148.69046 444.99548
153.42725 148.42751 441.01846
154.57796 148.29599 439.03384
155.69499 148.42729 441.0376
156.83214 148.36154 440.04495
157.96271 148.42722 441.04504
159.09657 148.42725 441.04443
160.23044 148.42731 441.04086
161.35733 148.36171 440.03659
162.50774 148.49324 442.0228
163.66841 148.6248 444.00598
164.85403 148.82211 446.98383
166.05507 149.01945 449.9585
167.25172 149.15115 451.93225
168.43628 149.21719 452.9053
169.55118 149.08617 450.88257
170.68335 149.02087 449.85458
171.78036 148.88992 447.82639
172.89978 148.82472 446.79288
173.9789 148.69385 444.75928
175.12332 148.69441 444.71738
176.22745 148.6293 443.67548
177.32649 148.56424 442.63089
178.46593 148.56493 442.58035
179.55737 148.49994 441.53012
180.69434 148.5007 441.47385
181.7782 148.43578 440.41818
182.85698 148.37091 439.35986
183.93069 148.30606 438.29889
184.99934 148.24126 437.23529
186.12634 148.2422 437.16486
187.25342 148.24321 437.09152
188.38058 148.24423 437.01532
189.50781 148.24532 436.93619
190.63513 148.24643 436.85406
191.68625 148.18185 435.77408
192.89001 148.24879 436.68106
194.099 148.31578 437.58459
195.22923 148.31708 437.49057
196.35956 148.31841 437.39349
197.49001 148.31978 437.29355
198.71223 148.38695 438.18423
199.75121 148.32266 437.08469
200.78514 148.25841 435.9827
202.01285 148.32571 436.86398
203.14384 148.32732 436.74921
204.17044 148.26318 435.6391
205.29913 148.26488 435.51862
206.53761 148.33238 436.3869
207.66913 148.33417 436.26016
208.8008 148.336 436.13049
209.93259 148.33786 435.99771
210.94458 148.274 434.87146
212.0741 148.27597 434.733
213.2038 148.27798 434.59161
214.20596 148.21423 433.45755
215.5939 148.34796 435.289
216.8595 148.41595 436.1272
217.99501 148.41818 435.97305
219.13069 148.42046 435.8158
220.40712 148.48862 436.64343
221.25948 148.35931 434.5047
222.39316 148.36176 434.33875
223.67532 148.43007 435.1564
224.81198 148.43262 434.98392
225.94885 148.43521 434.80835
227.24197 148.50372 435.61523
228.38185 148.50642 435.43304
229.68315 148.57507 436.23254
230.82608 148.5779 436.04373
231.8029 148.51489 434.86798
232.77481 148.45193 433.68991
233.9133 148.45491 433.49261
234.87796 148.39204 432.30963
235.83771 148.32922 431.12448
237.15106 148.3983 431.9003
238.46986 148.46745 432.67203
239.79413 148.53668 433.43967
241.12383 148.60599 434.20313
242.26939 148.60942 433.98273
243.41528 148.6129 433.75919
244.75621 148.68243 434.51102
245.70795 148.62007 433.3024
246.85475 148.62376 433.06918
248.00188 148.6275 432.83267
249.35448 148.69733 433.56952
250.50488 148.70122 433.32602
251.86594 148.77121 434.05463
253.23251 148.84128 434.77881
254.82016 148.97748 436.47287
256.20044 149.04773 437.18762
257.36563 149.05202 436.92471
258.75449 149.12245 437.63098
259.92303 149.12689 437.36075
260.86353 149.06531 436.11581
262.0303 149.06989 435.83936
263.19751 149.07454 435.55957
264.60141 149.14539 436.24579
265.29431 149.01793 434.02084
266.70169 149.08894 434.69955
268.11472 149.16006 435.37347
269.53342 149.23126 436.0426
270.2099 149.10405 433.80844
271.88403 149.24162 435.43539
273.06006 149.24692 435.1265
273.72238 149.11987 432.88586
274.8942 149.12531 432.57132
276.0665 149.13083 432.2532
277.23932 149.13641 431.93149
278.68021 149.20836 432.5675
280.12686 149.28041 433.19849
281.57925 149.35257 433.82428
283.03748 149.42484 434.44504
284.77948 149.56354 436.01886
285.69058 149.50339 434.71341
287.16351 149.57597 435.31921
288.07056 149.51598 434.00787
289.54993 149.58878 434.60471
290.45288 149.52892 433.28741
291.93869 149.60191 433.87512
293.13394 149.60861 433.50458
294.92786 149.74826 435.03418
296.12961 149.75516 434.65439
297.33197 149.76215 434.27072
298.22809 149.70276 432.93381
299.42908 149.7099 432.54318
300.94287 149.78366 433.09644
301.83298 149.72447 431.75034
303.03589 149.73189 431.34799
304.55951 149.80594 431.88672
305.76636 149.81354 431.47562
307.29919 149.88782 432.00363
309.16602 150.02881 433.4682
311.04401 150.16997 434.92499
311.93335 150.11134 433.55255
313.48999 150.1861 434.05701
314.37534 150.12759 432.67822
314.57355 149.93578 429.42206
316.13208 150.01074 429.91403
317.69656 150.08585 430.39999
318.91776 150.09431 429.9451
320.13956 150.10284 429.48596
321.71652 150.17822 429.95535
322.9422 150.18692 429.48682
324.52832 150.2625 429.94464
326.84534 150.47186 432.25531
328.81372 150.61455 433.62689
330.7933 150.75737 434.98996
333.89557 151.10101 439.12366
338.14447 151.64568 446.01834
343.18823 152.32458 454.73981
347.52881 152.87 461.58853
351.53137 153.34882 467.49301
354.42023 153.62692 470.61432
356.94437 153.83823 472.80206
358.70654 153.91557 473.14081
360.08249 153.92593 472.55478
362.2478 154.07047 473.79681
363.62958 154.08087 473.19876
365.0116 154.09128 472.59589
365.58862 153.96741 470.16223
366.155 153.84341 467.72845
366.71069 153.71933 465.29465
368.89789 153.86394 466.49832
370.2691 153.87411 465.87601
372.47192 154.01872 467.06277
373.84796 154.02882 466.42856
-36.158325 152.33737 428.82654
-34.897598 152.32785 429.39667
-33.63678 152.3183 429.96243
-31.971954 152.23895 429.6116
-31.516251 152.3688 431.99399
-30.252731 152.35913 432.54761
-28.593414 152.27979 432.18115
-27.726135 152.33978 433.64163
-26.463104 152.33011 434.18188
-24.812454 152.25084 433.79871
-23.937897 152.31082 435.24918
-22.675781 152.30121 435.77612
-21.034119 152.22206 435.37622
-19.020996 152.07346 434.04626
-17.768097 152.064 434.55667
-16.143753 151.98511 434.13699
-14.89444 151.97577 434.63754
-14.012238 152.03593 436.06152
-12.397369 151.95724 435.62552
-11.149673 151.94807 436.11304
-9.5438995 151.86957 435.66525
-8.6559296 151.92993 437.07501
-7.0566559 151.85159 436.61658
-5.8139191 151.84271 437.08582
-3.8758545 151.69525 435.68091
-2.6396484 151.68655 436.13965
-0.71875 151.53935 434.72037
0.17085266 151.60011 436.10666
1.7398834 151.52243 435.61301
2.9682465 151.51408 436.05307
4.1959686 151.50581 436.48901
5.0935822 151.56685 437.86252
6.6494293 151.48956 437.3486
7.5510712 151.55072 438.71573
9.1003418 151.47363 438.1918
10.643677 151.39668 437.66211
11.548645 151.45807 439.01889
12.458267 151.51952 440.37335
13.683441 151.51195 440.77774
14.90799 151.50446 441.1781
16.131897 151.49707 441.57449
17.355179 151.48976 441.96695
19.479126 151.2755 439.50162
20.991089 151.19942 438.93158
22.201996 151.19244 439.30899
23.704865 151.11659 438.72879
24.911926 151.10982 439.09772
25.831116 151.17207 440.41818
27.039627 151.16547 440.78033
28.247574 151.15894 441.13861
29.734375 151.08362 440.53552
30.661736 151.14616 441.84399
32.142189 151.07104 441.23184
33.345268 151.06488 441.57443
34.816765 150.98997 440.9527
36.016144 150.98401 441.28717
37.214981 150.97813 441.61801
38.674469 150.90353 440.9823
39.869667 150.89784 441.30518
41.064377 150.89223 441.62439
42.511902 150.81793 440.97507
43.953728 150.74374 440.32083
45.389847 150.66966 439.66171
46.574814 150.66441 439.9646
47.7593 150.65926 440.26404
48.943344 150.65417 440.55991
50.12693 150.64917 440.85233
51.074966 150.71294 442.11084
52.027794 150.77676 443.36707
53.44519 150.70331 442.6795
54.629677 150.69861 442.95868
55.813744 150.69398 443.23441
57.219536 150.62079 442.53409
58.180695 150.68497 443.77557
59.580513 150.61195 443.06726
60.97477 150.53903 442.3544
62.363457 150.4662 441.63705
63.746605 150.39346 440.91522
64.917664 150.38939 441.16495
66.088379 150.38539 441.41138
67.258759 150.38147 441.65445
68.428802 150.37761 441.89426
69.402328 150.44235 443.10889
70.380707 150.50717 444.32129
71.363937 150.57202 445.53143
72.72892 150.49989 444.77991
73.902565 150.49635 445.00433
75.075935 150.49289 445.22543
76.61039 150.35248 443.48099
77.778023 150.34915 443.69464
78.769844 150.41437 444.88724
79.593651 150.54811 447.06
80.257164 150.75037 450.21436
80.935905 150.95264 453.36813
81.464676 151.2234 457.50528
82.339081 151.35727 459.67386
83.063507 151.5596 462.82568
83.960625 151.69354 464.99155
85.48735 151.55376 463.21347
86.851219 151.4825 462.4165
88.509171 151.27448 459.64267
90.151436 151.06653 456.86334
92.067169 150.72186 452.10416
93.53096 150.58252 450.30054
94.984253 150.44325 448.49228
96.290207 150.37247 447.66769
97.725113 150.23334 445.85059
99.281212 150.02592 443.04019
100.69259 149.88695 441.21381
102.22005 149.67969 438.39343
103.85588 149.40413 434.57816
105.22816 149.26538 432.73773
106.59001 149.12671 430.89316
107.59267 149.19316 432.01685
108.60031 149.25967 433.13824
109.61297 149.3262 434.25726
110.63064 149.39278 435.37381
111.75928 149.39105 435.49597
112.99121 149.32104 434.62289
114.21786 149.2511 433.74631
115.341 149.24951 433.85904
116.55972 149.17966 432.97574
117.68007 149.17818 433.08231
118.89085 149.10843 432.19244
120.00843 149.10704 432.29291
121.21131 149.03738 431.39648
122.32612 149.03609 431.49091
123.28028 149.17145 433.57132
124.32234 149.23853 434.65497
125.51972 149.16905 433.74643
126.63931 149.16792 433.82962
127.82884 149.09853 432.91467
129.08058 148.96089 431.00107
130.25711 148.89162 430.0795
131.36615 148.89066 430.15042
132.53485 148.82146 429.2225
133.64117 148.82059 429.28754
134.74747 148.81976 429.34961
135.85368 148.81897 429.40887
136.91039 148.88649 430.46173
137.97217 148.95406 431.51193
139.03903 149.02167 432.55951
139.98569 149.29413 436.59485
141.03122 149.43007 438.63431
142.01372 149.70259 442.66528
143.08484 149.83859 444.69986
144.1662 149.97466 446.7319
145.22885 150.179 449.75848
146.28049 150.45166 453.77991
147.37642 150.65608 456.80145
148.55147 150.65573 456.828
149.76382 150.51891 454.85654
150.98203 150.31386 451.88431
152.19836 150.04059 447.91132
153.40514 149.6991 442.93744
154.561 149.56242 440.95325
155.68321 149.69887 442.9567
156.82881 149.56229 440.96658
157.96272 149.56227 440.96884
159.09662 149.56229 440.9682
160.23051 149.56236 440.96463
161.36443 149.56247 440.95819
162.52698 149.7674 443.94162
163.69283 149.9041 445.92438
164.88362 150.10912 448.9017
166.08983 150.31418 451.87573
167.27185 150.38275 452.85159
168.43665 150.3831 452.827
169.57652 150.31522 451.80197
170.7113 150.24738 450.77411
171.78084 150.04303 447.74893
172.93292 150.04353 447.71268
174.01465 149.90753 445.67938
175.12392 149.83984 444.64041
176.22809 149.77219 443.59866
177.37007 149.77286 443.55093
178.46663 149.70528 442.50363
179.55812 149.63774 441.45361
180.69513 149.63852 441.39728
181.77902 149.57106 440.3418
182.85785 149.50363 439.28363
183.93159 149.43625 438.22278
185.00027 149.3689 437.15936
186.12733 149.36987 437.08893
187.18845 149.30261 436.02011
188.38165 149.37196 436.9393
189.50893 149.37306 436.86014
190.63628 149.37421 436.77798
191.68744 149.3071 435.69821
192.89124 149.37663 436.60492
194.01886 149.37791 436.51401
195.23056 149.44754 437.41425
196.36093 149.44891 437.31717
197.49142 149.45032 437.21713
198.71368 149.52011 438.10764
199.7527 149.45328 437.00827
200.88351 149.45483 436.89938
202.01443 149.45642 436.78751
203.24745 149.5264 437.6651
204.27664 149.45975 436.55481
205.40794 149.46149 436.43402
206.53938 149.46326 436.31027
207.78319 149.53345 437.17477
208.91748 149.53532 437.04474
210.0519 149.53725 436.91165
211.0665 149.47086 435.78516
212.19864 149.47289 435.64639
213.08072 149.33821 433.52505
214.20804 149.34033 433.38092
215.46581 149.41087 434.2229
216.72888 149.48149 435.06122
217.86185 149.48376 434.90732
219.133 149.5545 435.73849
220.26892 149.55688 435.57813
221.2619 149.49092 434.42749
222.39563 149.49341 434.26141
223.67786 149.56438 435.07889
224.81458 149.56699 434.90631
225.95149 149.56964 434.73065
227.24466 149.64079 435.53729
228.54321 149.71204 436.34006
229.68594 149.71487 436.1543
230.82895 149.71777 435.96545
231.80582 149.65227 434.78979
232.94669 149.65529 434.59512
233.91632 149.58987 433.41452
234.88101 149.52452 432.23163
236.0175 149.52769 432.02844
237.15427 149.53094 431.82217
238.47311 149.60275 432.59363
239.79744 149.67465 433.36099
240.94019 149.6781 433.14423
242.27284 149.75014 433.90375
243.41879 149.75372 433.68011
244.7598 149.82591 434.4317
245.90894 149.82965 434.20111
247.05841 149.83344 433.96725
248.20819 149.8373 433.73019
249.35832 149.84122 433.48987
250.71651 149.9138 434.22205
251.86992 149.91789 433.97464
253.23659 149.99065 434.69858
254.82431 150.13211 436.39218
255.98657 150.13643 436.13309
257.14923 150.14082 435.8707
258.53558 150.21394 436.57727
259.92749 150.28716 437.27927
261.09656 150.29178 437.00555
262.26599 150.29649 436.72836
263.43585 150.30128 436.44785
264.84244 150.37486 437.13312
265.53802 150.24239 434.9079
266.7066 150.24741 434.61768
267.87561 150.25249 434.32397
269.0451 150.25766 434.02686
269.96573 150.19415 432.76019
271.63733 150.33702 434.38736
272.81085 150.34245 434.07907
273.72772 150.27916 432.80322
275.15933 150.35356 433.45178
276.07199 150.29041 432.17032
277.24487 150.29617 431.84854
278.68588 150.37085 432.48422
280.13263 150.44563 433.11487
281.58514 150.52054 433.74039
283.04343 150.59557 434.36081
284.50748 150.6707 434.97601
285.69672 150.67703 434.62869
287.16977 150.75238 435.23422
287.79095 150.62102 432.9671
289.26779 150.69656 433.56442
290.16818 150.63428 432.24799
291.65146 150.71002 432.83612
293.14056 150.78589 433.41888
294.63556 150.86188 433.99615
295.83478 150.86896 433.61703
297.03461 150.87613 433.23413
298.23505 150.88338 432.84723
299.12659 150.82164 431.50818
300.63785 150.89815 432.06189
301.52536 150.83656 430.71671
302.72574 150.84416 430.31512
304.2468 150.92099 430.85437
305.12833 150.8596 429.49997
306.98138 151.00583 430.97256
308.84564 151.15219 432.43744
311.05182 151.36794 434.83582
311.94122 151.30695 433.46344
313.16196 151.31525 433.02817
314.38333 151.32362 432.58871
315.2641 151.2628 431.20776
316.14014 151.20201 429.82455
318.39789 151.41858 432.18106
319.97369 151.49664 432.65845
320.85162 151.43608 431.26266
322.43396 151.51433 431.72964
323.66504 151.52328 431.25891
324.5368 151.46288 429.85345
326.85394 151.68027 432.16336
328.82239 151.82837 433.53436
331.16992 152.04608 435.8241
334.27496 152.40298 439.95557
339.27313 153.10774 448.69766
343.94925 153.74341 456.48962
348.29535 154.30992 463.33438
352.30341 154.80722 469.23505
355.19769 155.09604 472.35315
356.95419 155.17618 472.69855
357.93799 155.11708 471.19983
359.70044 155.1973 471.53326
361.8631 155.34726 472.77582
363.24225 155.35788 472.17877
365.02142 155.43823 472.49075
366.4035 155.44885 471.88278
367.38037 155.38969 470.3584
367.94403 155.26068 467.92123
370.13922 155.41077 469.1207
371.1051 155.35138 467.58661
373.31323 155.50145 468.77039
374.27588 155.44193 467.228
-36.991135 153.71272 430.54288
-35.725143 153.70297 431.11554
-34.052399 153.6208 430.77313
-32.384933 153.53865 430.42392
-31.525345 153.60115 431.8941
-30.261887 153.59128 432.44797
-28.998505 153.58139 432.99734
-28.521835 153.71605 435.37546
-27.253494 153.70612 435.91824
-25.597473 153.62398 435.53772
-24.332336 153.61411 436.07043
-23.067551 153.60425 436.59872
-21.043289 153.4501 435.27817
-19.407318 153.36819 434.87204
-18.151718 153.35851 435.38373
-16.152725 153.20465 434.04007
-14.534134 153.12302 433.61432
-14.021149 153.25764 435.96478
-12.40625 153.17613 435.52924
-11.158478 153.16673 436.01691
-9.9112701 153.15741 436.50024
-9.0205841 153.22012 437.91098
-7.0652618 153.06699 436.52121
-6.1731262 153.12982 437.92441
-4.2322998 152.97693 436.52109
-2.648056 152.89609 436.04532
-1.0697174 152.81537 435.56326
-0.17741394 152.87849 436.95053
1.3943481 152.79797 436.45822
2.625412 152.7894 436.89948
3.5237732 152.85272 438.27701
4.7561951 152.8443 438.71091
6.6416016 152.69241 437.25592
7.5432892 152.75597 438.62302
9.0926666 152.67609 438.09946
10.636108 152.59634 437.57013
11.857376 152.58841 437.98093
12.450806 152.72395 440.28137
13.676071 152.71617 440.68591
14.900696 152.7085 441.08646
16.124695 152.7009 441.483
17.954224 152.55017 439.9751
19.472137 152.47119 439.41101
20.984207 152.39233 438.84131
22.19519 152.38519 439.2189
23.405563 152.37813 439.59265
24.615372 152.37115 439.96252
25.824554 152.36427 440.32858
27.033173 152.35748 440.69083
28.52327 152.2793 440.09259
30.007568 152.20122 439.48901
30.655533 152.33768 441.75491
32.136063 152.2598 441.14319
33.339241 152.25348 441.48587
34.810837 152.17583 440.86444
36.010284 152.16971 441.19907
37.473 152.09227 440.56805
38.668793 152.08633 440.89465
39.86409 152.08049 441.21762
40.80291 152.14609 442.50107
42.253151 152.06906 441.85275
43.697678 151.99213 441.19949
45.136505 151.91531 440.54132
46.324142 151.90991 440.84503
47.754234 151.8333 440.17776
48.938339 151.82808 440.47382
50.122009 151.82294 440.7663
51.305229 151.8179 441.05536
52.255524 151.88417 442.31088
53.900307 151.73679 440.65244
54.852356 151.80322 441.9017
56.033905 151.79848 442.17691
56.992935 151.86504 443.42114
58.176277 151.86044 443.69016
59.359245 151.85593 443.95569
60.756172 151.7803 443.24371
62.14753 151.70479 442.52722
63.533363 151.62935 441.80618
64.707085 151.62515 442.05655
66.084435 151.5499 441.32721
67.254868 151.54587 441.57043
68.42498 151.5419 441.8103
69.398567 151.60913 443.02484
70.376991 151.67642 444.23718
71.551338 151.67265 444.46814
72.725342 151.66896 444.69595
73.899063 151.66533 444.92041
75.255775 151.59067 444.1611
76.607025 151.51611 443.39761
77.774719 151.5127 443.61133
78.591087 151.65146 445.78571
79.417511 151.79027 447.95865
80.083641 152.00015 451.11298
80.597221 152.2811 455.25003
81.131195 152.56206 459.3873
81.848175 152.772 462.54062
82.74044 152.91093 464.70862
83.957687 152.9079 464.90512
85.79425 152.6209 461.15671
87.609947 152.334 457.40186
89.404808 152.04721 453.64053
91.031685 151.83153 450.85944
92.642906 151.61594 448.07281
93.812454 151.61336 448.2428
94.981812 151.61084 448.40958
96.150986 151.60837 448.57324
97.722786 151.3931 445.76862
99.147278 151.24884 443.94742
100.56129 151.10468 442.12183
102.21793 150.81868 438.31299
103.72985 150.60373 435.48822
104.98337 150.53072 434.63861
106.46925 150.3159 431.80463
107.47452 150.38489 432.9285
108.59847 150.38298 433.05908
109.61117 150.45204 434.17798
110.62888 150.52115 435.2944
111.75757 150.51938 435.41663
112.98955 150.44676 434.54373
114.21626 150.37418 433.66733
115.33944 150.37257 433.78015
116.55821 150.30011 432.89703
117.6786 150.29858 433.00369
118.88943 150.22623 432.11398
120.00705 150.22481 432.21451
121.12457 150.22342 432.31213
122.15913 150.29297 433.40082
123.19875 150.36255 434.48706
124.32113 150.3613 434.57632
125.5937 150.21835 432.67334
126.71077 150.21719 432.75638
127.96777 150.07436 430.84644
129.21443 149.93156 428.93286
130.321 149.93054 429.0065
131.42751 149.92957 429.07721
132.53395 149.92863 429.14511
133.58316 149.9986 430.20596
134.74664 149.92688 429.27225
135.85291 149.92607 429.33151
136.95911 149.92531 429.38797
138.01837 149.99542 430.4379
139.0827 150.06558 431.48517
140.0686 150.27745 434.52304
141.06984 150.48936 437.55872
142.08644 150.70131 440.59207
143.11839 150.91328 443.62305
144.19722 151.05446 445.65463
145.22841 151.33734 449.6777
146.28008 151.62027 453.69839
147.35225 151.90321 457.71661
148.50865 151.97369 458.74048
149.7262 151.83173 456.76944
150.93346 151.68979 454.79526
152.17108 151.3354 449.82571
153.38303 150.98106 444.85278
154.55249 150.76843 441.87158
155.67729 150.91 443.87463
156.8255 150.7683 441.88495
157.96201 150.76828 441.88721
159.09666 150.69746 440.88907
160.23502 150.76837 441.883
161.36456 150.69763 440.879
162.5367 150.98111 444.85941
163.71725 151.19379 447.8392
164.91322 151.40652 450.81586
166.10736 151.54846 452.79193
167.29198 151.61961 453.76758
168.45938 151.61996 453.74289
169.57693 151.4787 451.72079
170.71175 151.40829 450.69312
171.78133 151.19626 447.66852
172.90082 151.12595 446.63525
173.98001 150.98482 444.60236
175.12451 150.98541 444.56042
176.22873 150.91521 443.51889
177.32785 150.84505 442.47461
178.42189 150.77492 441.42755
179.55888 150.77567 441.37418
180.64534 150.70563 440.32162
181.7267 150.6356 439.26636
182.85873 150.63649 439.20447
183.99083 150.63741 439.13956
185.06212 150.56752 438.07611
186.19177 150.56853 438.00552
187.3215 150.56958 437.93198
188.45131 150.57066 437.8555
189.51006 150.50093 436.78116
190.63745 150.50211 436.69901
191.76494 150.50333 436.61392
192.89252 150.50461 436.52591
194.10158 150.57678 437.42905
195.2319 150.57814 437.33493
196.36234 150.57954 437.23785
197.49286 150.58099 437.13782
198.62349 150.58249 437.03479
199.75424 150.58403 436.92886
200.8851 150.58562 436.81992
202.01607 150.58725 436.70801
203.24913 150.65984 437.58539
204.38292 150.66158 437.46729
205.40973 150.59245 436.35446
206.5412 150.59427 436.23062
207.89731 150.73799 438.08606
208.91939 150.66901 436.96484
210.05386 150.67097 436.83176
211.06851 150.60207 435.70538
212.20071 150.60414 435.56656
213.08282 150.46439 433.44553
214.33789 150.53751 434.29062
215.46802 150.53973 434.14313
216.73112 150.61298 434.98111
217.86417 150.61531 434.82724
218.85939 150.54672 433.6824
220.13078 150.62015 434.51028
221.12123 150.55167 433.36005
222.39816 150.6252 434.18112
223.53214 150.62781 434.0119
224.66634 150.63048 433.83969
225.95419 150.70421 434.64999
227.24742 150.77802 435.45642
228.38742 150.78087 435.27414
229.68884 150.85481 436.07309
230.83188 150.85779 435.88412
231.97516 150.86082 435.69214
233.11867 150.86392 435.49689
234.09091 150.79604 434.31592
235.05827 150.7282 433.13275
236.02072 150.6604 431.94739
237.15753 150.66373 431.741
238.47647 150.7382 432.51224
239.80084 150.81276 433.2793
241.13069 150.88739 434.04224
242.2764 150.89101 433.82172
243.42239 150.89468 433.59799
244.76347 150.96956 434.3493
245.71533 150.90225 433.14093
247.06223 150.97726 433.88474
248.21207 150.98123 433.64755
249.56741 151.05643 434.3833
250.92828 151.13171 435.11469
252.29466 151.20708 435.84164
253.6666 151.28255 436.56418
255.04407 151.35811 437.28223
256.20901 151.36255 437.02249
257.37433 151.36707 436.7594
258.76337 151.44289 437.46509
259.93207 151.44757 437.19464
260.87268 151.38107 435.94989
262.03961 151.38591 435.67331
263.44064 151.46208 436.36292
264.61102 151.46709 436.07889
265.30405 151.32957 433.85452
266.71161 151.40601 434.53256
267.88071 151.41125 434.2388
269.05026 151.41656 433.94156
270.22028 151.42195 433.64078
271.6427 151.49878 434.30167
272.81628 151.50436 433.99326
273.73322 151.43863 432.71753
274.90518 151.44437 432.40271
276.34 151.52158 433.04663
277.25061 151.45609 431.76236
278.95929 151.60493 433.35864
280.40872 151.68248 433.98822
281.59113 151.68869 433.65326
283.04953 151.76645 434.27335
284.79175 151.91583 435.84616
285.98367 151.92235 435.49792
287.45944 152.00046 436.10233
288.3692 151.93564 434.79025
289.56287 151.94243 434.43082
290.46594 151.87776 433.11365
292.24573 152.02786 434.65381
293.7402 152.10654 435.23462
295.24054 152.18532 435.80991
296.44513 152.19263 435.42902
297.65027 152.2 435.04416
298.85608 152.20749 434.65549
299.75293 152.14337 433.31467
300.9574 152.15103 432.91904
302.16241 152.15877 432.51941
303.36816 152.1666 432.11591
304.89462 152.24625 432.65302
305.78149 152.18251 431.29681
307.63995 152.33415 432.76703
309.18158 152.41417 433.2876
311.05978 152.5661 434.74323
311.94928 152.50273 433.37088
313.50604 152.58308 433.87451
315.06879 152.66357 434.37213
315.9549 152.6004 432.98923
316.83636 152.53728 431.60419
319.09949 152.76189 433.95786
320.33142 152.77086 433.49863
320.86017 152.63599 431.16864
322.4426 152.71704 431.63519
324.03094 152.79822 432.09552
324.9054 152.73547 430.68906
326.86276 152.88885 432.0679
328.83133 153.04237 433.43832
331.9147 153.41229 437.58142
334.28415 153.63826 439.85748
338.9093 154.29713 447.67236
343.95886 155.02856 456.38718
348.30511 155.61613 463.2301
351.55096 155.98752 467.28577
355.59161 156.50356 473.16669
357.3508 156.58655 473.51053
358.33722 156.52513 472.01068
360.10242 156.60822 472.34256
361.87323 156.69135 472.66736
363.25232 156.70219 472.07004
365.03149 156.78537 472.38162
366.41354 156.79623 471.77347
367.79559 156.80705 471.16043
368.76974 156.74545 469.63248
370.14899 156.75616 469.01096
371.11487 156.6944 467.47696
372.90698 156.77742 467.75363
