ply
format ascii 1.0
comment PCL generated
element vertex 1591
property float x
property float y
property float z
element camera 0
property float view_px
property float view_py
property float view_pz
property float x_axisx
property float x_axisy
property float x_axisz
property float y_axisx
property float y_axisy
property float y_axisz
property float z_axisx
property float z_axisy
property float z_axisz
property float focal
property float scalex
property float scaley
property float centerx
property float centery
property int viewportx
property int viewporty
property float k1
property float k2
end_header
81.662491 129.37663 443.31705
82.990784 129.35274 442.53055
84.148582 129.35107 442.72595
85.306129 129.34944 442.91827
86.623405 129.32565 442.12061
87.620567 129.34627 443.29352
88.622658 129.3669 444.46411
89.781921 129.36539 444.64426
90.940971 129.36389 444.82129
92.099808 129.36244 444.99524
93.402954 129.33887 444.17679
94.416916 129.35963 445.33374
95.714539 129.33611 444.5083
96.733284 129.35693 445.65982
97.756996 129.37776 446.80893
99.04895 129.35434 445.97348
100.33557 129.33095 445.13437
101.4904 129.32974 445.2832
102.64508 129.32855 445.42902
103.79961 129.32738 445.57172
104.83524 129.34837 446.70401
105.75964 129.39153 448.82693
106.58058 129.4568 451.94116
107.30573 129.54424 456.0477
108.37677 129.56531 457.17188
109.34691 129.60851 459.28763
110.53387 129.60751 459.41257
112.02306 129.54019 456.55038
113.49671 129.47292 453.68356
114.85919 129.42778 451.80731
116.49051 129.31638 446.94083
117.73402 129.29343 446.05151
119.06024 129.2484 444.16284
120.29072 129.22551 443.26639
121.59877 129.18054 441.37018
122.65576 129.2019 442.45975
123.87312 129.17911 441.55334
125.08528 129.15631 440.64352
126.36476 129.11147 438.73325
127.49396 129.11084 438.814
128.62308 129.11023 438.89175
129.81697 129.08755 437.96896
130.88112 129.10909 439.03854
131.95033 129.13065 440.10553
133.19604 129.08595 438.17551
134.32228 129.08546 438.23859
135.39645 129.10709 439.29706
136.52515 129.10664 439.35443
137.60692 129.1283 440.40753
138.73808 129.1279 440.45917
139.82745 129.14961 441.50681
141.00029 129.12718 440.55374
142.09471 129.14893 441.59576
143.19423 129.1707 442.63501
144.26736 129.21457 444.67081
145.32178 129.28053 447.70331
146.33885 129.39069 452.73215
147.38153 129.50084 457.7587
148.44984 129.61102 462.78275
149.61844 129.63292 463.80603
150.85655 129.56653 460.82788
152.10635 129.45604 455.84708
153.31952 129.36763 451.86264
154.5374 129.21303 444.87585
155.69598 129.14674 441.88474
156.82933 129.14671 441.88989
157.96341 129.12463 440.89243
159.09419 129.12463 440.89178
160.22498 129.12466 440.88824
161.34183 129.08057 438.88232
162.47704 129.10272 439.87271
163.58109 129.05867 437.86118
164.68956 129.03673 436.84647
165.82738 129.05894 437.82825
166.93076 129.03703 436.80786
168.07375 129.0593 437.78372
169.17204 129.03743 436.75769
170.29272 129.03766 436.72833
171.38338 129.01584 435.69672
172.46893 128.99405 434.66248
173.54939 128.97226 433.62546
174.70026 128.99466 434.58383
175.81598 128.99501 434.54028
176.97462 129.01746 435.49265
178.13844 129.03993 436.44189
179.30745 129.06242 437.38803
180.48163 129.08495 438.33105
181.76726 129.15167 441.26755
183.06836 129.21841 444.20035
184.26836 129.24101 445.13318
185.53439 129.28574 447.0607
186.68396 129.2863 446.98914
187.89957 129.30899 447.91217
188.98331 129.28751 446.83701
190.13309 129.28815 446.75656
191.20929 129.26672 445.67606
192.35666 129.26741 445.58978
193.34653 129.22392 443.5072
194.40758 129.20256 442.41895
195.46359 129.18121 441.32816
196.60106 129.18199 441.2308
197.73863 129.18279 441.13049
198.87631 129.18362 441.02725
199.91988 129.16237 439.92572
201.15198 129.18536 440.8118
202.19063 129.16415 439.70483
203.32617 129.16508 439.58994
204.56633 129.18816 440.46631
205.59763 129.16701 439.35114
206.73355 129.16801 439.22733
207.8696 129.16905 439.10046
209.0058 129.17012 438.97067
210.14212 129.1712 438.83786
211.5184 129.21658 440.6871
212.53769 129.19559 439.55539
213.67703 129.19676 439.41324
214.81654 129.19795 439.26807
215.826 129.17703 438.12857
216.96327 129.17828 437.97772
218.23604 129.20172 438.8143
219.65204 129.24733 440.63736
220.79755 129.24867 440.47632
221.80017 129.22789 439.32266
222.94348 129.22929 439.15582
224.08698 129.23071 438.98587
225.0799 129.21001 437.82455
226.06786 129.18933 436.66098
227.51871 129.23518 438.45764
228.50452 129.21455 437.28824
229.80759 129.23831 438.09
230.95236 129.23991 437.90146
232.26364 129.26375 438.69571
233.41147 129.26543 438.50055
234.73096 129.28934 439.28723
235.88187 129.29108 439.08533
237.03302 129.29285 438.88028
238.18445 129.29466 438.67209
239.15442 129.27429 437.4776
240.48811 129.29839 438.24609
241.45346 129.27808 437.0462
242.79291 129.30223 437.8074
243.94574 129.30421 437.58325
245.29355 129.32846 438.33649
246.44955 129.33051 438.10535
247.60591 129.3326 437.87103
248.76257 129.33472 437.63339
249.91956 129.33688 437.39258
251.0769 129.33907 437.14847
252.23456 129.34131 436.90109
253.60536 129.36583 437.6272
254.98169 129.39041 438.34891
256.14563 129.39278 438.09045
257.53046 129.41745 438.80383
258.69775 129.41989 438.53815
260.09116 129.44466 439.24298
261.26178 129.44717 438.96991
262.20193 129.42743 437.72083
263.60434 129.45233 438.41367
264.77621 129.45497 438.1304
265.94855 129.45764 437.84372
267.36261 129.4827 438.5238
268.53842 129.48547 438.22958
269.46814 129.46594 436.96298
270.3931 129.44644 435.69427
271.81683 129.47168 436.35852
273.24622 129.49696 437.01785
274.42438 129.49995 436.70618
276.12216 129.54773 438.32187
277.30652 129.55081 438.00168
278.75613 129.57632 438.64191
279.67676 129.55711 437.35049
280.86267 129.56033 437.01953
281.50388 129.51877 434.76117
282.68564 129.52206 434.42444
283.59009 129.50299 433.12369
285.05078 129.52881 433.73996
286.23422 129.53224 433.39224
287.70392 129.55817 433.99893
289.17944 129.58417 434.60028
290.36981 129.58775 434.2399
292.14798 129.63634 435.78711
293.93719 129.68501 437.32727
294.84106 129.66629 435.99823
296.64465 129.7151 437.5267
297.85123 129.71898 437.14322
298.75171 129.70041 435.80432
300.26627 129.7269 436.36459
301.78668 129.75346 436.91922
302.68384 129.73502 435.57031
304.21088 129.7617 436.11539
304.78418 129.72078 433.81311
305.99261 129.72501 433.40302
307.20172 129.72929 432.98898
308.08368 129.71103 431.6264
309.62189 129.73801 432.1488
311.16602 129.76505 432.66525
313.38757 129.83737 435.0592
314.94891 129.86458 435.56183
316.17523 129.86922 435.11868
317.05847 129.85126 433.73257
318.97607 129.90129 435.15778
320.20697 129.9061 434.70111
321.08691 129.88828 433.30438
322.67072 129.91585 433.77518
323.90356 129.92081 433.30585
324.7774 129.90311 431.89941
326.00879 129.90814 431.42255
327.24078 129.91324 430.94144
329.2085 129.96385 432.31543
331.1875 130.01456 433.68091
335.04224 130.17917 439.67572
340.06158 130.41231 448.43057
345.13477 130.64572 457.15927
349.49997 130.83382 464.01288
354.29199 131.04495 471.76743
355.2699 131.02814 470.276
356.24298 131.01135 468.78204
358.77747 131.08597 470.96497
360.14551 131.09212 470.38004
361.51385 131.0983 469.79025
364.48096 131.19604 472.86124
366.26282 131.22525 473.17236
367.24017 131.20869 471.6481
369.02759 131.23798 471.94705
369.99982 131.22147 470.41553
370.96661 131.20494 468.88147
372.75928 131.23431 469.16345
373.72043 131.2178 467.62216
-39.330856 131.64568 437.26392
-36.821213 131.56296 435.10495
-35.140274 131.53136 434.76105
-33.868393 131.5253 435.32483
-32.596634 131.51927 435.88416
-30.13002 131.43686 433.68829
-28.866653 131.43092 434.23517
-27.210495 131.39957 433.85831
-25.950302 131.39372 434.39508
-24.302811 131.36247 434.00595
-22.661026 131.3313 433.61014
-21.024948 131.30019 433.20764
-20.153961 131.31992 434.64813
-18.524139 131.28891 434.23465
-17.648773 131.3087 435.66852
-16.76857 131.32851 437.10013
-15.145584 131.29765 436.67123
-13.528488 131.26689 436.2359
-12.28093 131.26151 436.72531
-10.311966 131.20557 435.34598
-9.0709381 131.2003 435.82471
-8.5419006 131.24565 438.16766
-6.9437408 131.21519 437.70456
-5.7019043 131.21007 438.17145
-4.4606934 131.205 438.63409
-2.875061 131.17476 438.15427
-1.9802551 131.19502 439.54672
-0.4012146 131.1649 439.05652
1.1718445 131.13486 438.5603
2.0700073 131.15527 439.94208
3.9683228 131.10016 438.49261
5.1970062 131.0955 438.92316
6.4250031 131.0909 439.34967
7.9762726 131.06119 438.82639
9.5216217 131.03156 438.29721
10.423737 131.05226 439.65729
11.962509 131.02275 439.11826
12.868576 131.04355 440.47217
14.400772 131.01416 439.92346
15.618958 131.00995 440.3201
17.752975 130.93053 437.85724
19.264893 130.90137 437.2908
20.470657 130.89734 437.67242
21.675827 130.89337 438.05014
23.470352 130.83936 436.51373
24.376694 130.86055 437.83823
25.577423 130.85675 438.20374
26.777557 130.853 438.56552
27.977127 130.84929 438.92349
28.894226 130.87064 440.23688
30.095276 130.86703 440.58817
31.019096 130.88846 441.89639
32.495674 130.85995 441.27966
34.237907 130.80653 439.69559
35.431519 130.80313 440.03067
36.624603 130.79977 440.36212
38.344353 130.74655 438.76132
39.792198 130.71835 438.11902
40.717545 130.74011 439.40326
42.159157 130.71204 438.7525
43.59507 130.68401 438.0968
45.025299 130.65604 437.43625
45.953941 130.67796 438.7077
47.378036 130.65009 438.03876
48.553734 130.64719 438.33481
49.488808 130.66922 439.59787
50.666222 130.6664 439.8876
52.078156 130.63873 439.20227
53.019745 130.66089 440.45688
54.425652 130.63332 439.76343
55.598801 130.63068 440.03888
56.771553 130.62807 440.31091
58.165886 130.60065 439.60489
59.335258 130.59813 439.86966
60.721054 130.5708 439.15515
61.887115 130.56837 439.4126
63.264404 130.54114 438.68976
64.21814 130.56363 439.9176
65.383125 130.56131 440.16516
66.547775 130.55904 440.40945
67.71212 130.55679 440.65036
68.876114 130.5546 440.88809
70.235893 130.52762 440.14224
71.590195 130.5007 439.39209
72.939026 130.47383 438.63773
73.905724 130.49658 439.84271
75.248779 130.46979 439.08096
76.220085 130.4926 440.28049
77.376854 130.49066 440.49454
78.355339 130.51353 441.68918
79.338737 130.53644 442.88153
80.499886 130.53459 443.08694
81.831032 130.50803 442.30414
82.821411 130.53101 443.48831
84.146919 130.50452 442.69824
85.467033 130.47806 441.90424
86.621811 130.47639 442.09302
87.619011 130.4995 443.26581
88.775932 130.49789 443.44873
89.780411 130.52106 444.61658
90.939484 130.51952 444.79367
92.098366 130.51801 444.96759
93.257042 130.51651 445.13843
94.557449 130.49034 444.31659
95.713173 130.48892 444.48087
96.868729 130.48753 444.642
97.889893 130.51089 445.79071
99.179291 130.48485 444.95508
100.33432 130.48355 445.10696
101.4892 130.48228 445.25583
102.76781 130.45634 444.40964
103.79846 130.47983 445.54434
104.95287 130.47865 445.68402
105.75853 130.55159 448.79941
106.69311 130.59984 450.92032
107.52678 130.67279 454.03281
108.48421 130.72108 456.15021
109.34587 130.79407 459.25964
110.53288 130.79303 459.38458
111.92131 130.74265 457.51721
113.20114 130.717 456.64053
114.66701 130.64201 453.77008
116.21043 130.5424 449.89972
117.55218 130.49217 448.01559
118.88356 130.44199 446.12753
120.20457 130.39182 444.23553
121.4324 130.36636 443.33597
122.57479 130.3656 443.42944
123.79475 130.34019 442.52328
125.00951 130.31482 441.61377
126.21903 130.28947 440.7009
127.35339 130.28882 440.78201
128.48767 130.28818 440.86014
129.62187 130.28757 440.93533
130.75601 130.28699 441.0076
131.8304 130.31108 442.0748
133.08125 130.26125 440.1452
134.26723 130.23608 439.21039
135.29198 130.2849 441.26733
136.42583 130.28444 441.32495
137.55963 130.284 441.37964
138.64906 130.30823 442.43015
139.74359 130.33249 443.47787
140.96075 130.28282 441.52618
142.02115 130.33177 443.56726
143.15988 130.33145 443.60754
144.26707 130.3558 444.64413
145.2926 130.45409 448.67572
146.28589 130.60168 454.70364
147.38132 130.67538 457.7312
148.44965 130.79837 462.75504
149.65561 130.77354 461.77921
150.90472 130.67484 457.80157
152.16039 130.52686 451.82135
153.36333 130.42819 447.83701
154.56256 130.28029 441.85016
155.69594 130.28023 441.85828
156.8326 130.25555 440.86374
157.96268 130.28018 441.86569
159.09605 130.28018 441.86505
160.22502 130.25558 440.86185
161.34886 130.231 439.85571
162.47713 130.23108 439.84644
163.56909 130.15727 436.83533
164.70436 130.18204 437.81989
165.82753 130.18219 437.80194
166.95073 130.18236 437.78116
168.11867 130.23183 439.75635
169.22211 130.20741 438.73029
170.37543 130.2323 439.70007
171.44376 130.18329 437.66907
172.53445 130.15894 436.63467
173.62007 130.1346 435.59756
174.73834 130.13493 435.55673
175.81635 130.11064 434.51413
177.06078 130.18497 437.46399
178.22975 130.21002 438.41299
179.3559 130.21045 438.36029
180.58324 130.26021 440.30148
181.82089 130.31 442.23929
183.06888 130.3598 444.17361
184.32716 130.40965 446.10434
185.53496 130.43486 447.03378
186.74796 130.46011 447.95984
187.96616 130.48538 448.88266
188.98395 130.43671 446.81009
190.06265 130.41272 445.73239
191.20996 130.41341 445.64908
192.20491 130.36479 443.56924
193.18965 130.31621 441.48715
194.32697 130.31697 441.39578
195.38043 130.29309 440.30521
196.51535 130.29388 440.20807
197.65039 130.29472 440.108
198.78552 130.29559 440.00494
199.92075 130.29648 439.89899
201.15288 130.32207 440.785
202.09221 130.27365 438.68326
203.32713 130.2993 439.56314
204.46283 130.30029 439.44525
205.59865 130.30132 439.3244
206.73459 130.30235 439.20047
207.87067 130.30344 439.07361
209.00688 130.30453 438.94379
210.26057 130.33037 439.80374
211.39964 130.33153 439.66757
212.53886 130.33272 439.52838
213.55319 130.30923 438.39438
214.69012 130.31047 438.24948
215.95746 130.33646 439.0928
216.96454 130.31305 437.95071
218.10201 130.31439 437.79678
219.65338 130.38991 440.61014
220.7989 130.39131 440.44904
221.94464 130.39273 440.28488
223.09055 130.3942 440.11761
224.08842 130.37096 438.95862
225.08136 130.34775 437.79733
226.22272 130.34929 437.62161
227.52023 130.37561 438.4303
228.66461 130.37723 438.24799
229.97029 130.40363 439.04919
230.79031 130.3558 436.88785
232.2653 130.40703 438.66821
233.41316 130.40878 438.47302
234.38986 130.38579 437.28979
235.88362 130.43715 439.05765
237.03482 130.439 438.85257
238.00711 130.41611 437.66086
239.15627 130.41803 437.44989
240.49002 130.44476 438.21832
241.45538 130.42197 437.01849
242.79486 130.44879 437.77957
243.94772 130.45085 437.55536
245.29556 130.47775 438.3085
246.45163 130.4799 438.07736
247.608 130.48209 437.84299
248.76471 130.4843 437.60538
249.92172 130.48656 437.36447
251.07909 130.48885 437.12027
252.44699 130.51601 437.85022
253.60764 130.51839 437.59891
254.76863 130.5208 437.3443
256.14798 130.5481 438.06204
257.53287 130.57545 438.77527
258.47702 130.55313 437.53503
259.86789 130.5806 438.24048
261.03598 130.58322 437.96799
262.20447 130.58589 437.69211
263.37338 130.58859 437.41281
264.77884 130.61624 438.10153
265.9512 130.61905 437.81482
267.36536 130.64679 438.49478
268.29724 130.62477 437.23105
269.71747 130.65263 437.90277
270.64508 130.63069 436.63342
271.8197 130.63371 436.32938
273.50351 130.68666 437.95538
274.6843 130.68979 437.64297
276.12515 130.71791 438.29239
277.57172 130.74609 438.9368
279.02405 130.77434 439.57623
279.9473 130.7527 438.28415
281.40585 130.78105 438.91486
281.77969 130.70952 435.69333
282.68887 130.68799 434.39471
283.59338 130.66647 433.09399
284.77365 130.67001 432.75064
285.9545 130.67361 432.40363
287.70734 130.72729 433.96893
288.60626 130.70598 432.65579
290.37335 130.75981 434.20972
291.85797 130.78867 434.80112
293.05222 130.79254 434.43228
294.2471 130.79646 434.05975
296.04547 130.8506 435.58963
297.5509 130.87973 436.16003
298.44882 130.85875 434.82202
300.27014 130.9131 436.33362
301.47867 130.91733 435.93839
303.00244 130.94672 436.48813
304.2149 130.95105 436.08411
305.10809 130.9303 434.729
306.31921 130.93474 434.31799
307.53101 130.93922 433.90295
308.74344 130.94377 433.48389
310.28699 130.97354 434.00427
311.50339 130.97821 433.5762
314.06342 131.08372 436.91049
315.29172 131.08853 436.47046
316.17966 131.06818 435.08658
317.75031 131.09831 435.57791
319.32697 131.12852 436.06317
319.86261 131.08304 433.7319
321.09152 131.0881 433.27194
323.02969 131.14377 434.67734
324.26523 131.14896 434.20694
325.50134 131.15419 433.73218
326.7381 131.15948 433.2532
328.34039 131.19014 433.70065
329.94855 131.22087 434.14157
331.93292 131.27702 435.5047
336.16602 131.48541 442.42432
340.81793 131.71941 450.24872
345.51831 131.95366 458.04907
350.26727 132.18817 465.82523
354.29749 132.37215 471.73038
354.88922 132.32758 469.31699
357.41534 132.41016 471.50778
359.56631 132.46739 472.76718
360.93976 132.47382 472.17987
362.71042 132.50575 472.50522
365.68561 132.61418 475.57233
366.67087 132.59528 474.04944
368.05591 132.60188 473.43796
369.03342 132.58301 471.90878
370.41595 132.58966 471.28882
371.7984 132.59631 470.66391
373.59644 132.62856 470.9433
374.56293 132.6097 469.39957
-39.336426 132.89462 437.22461
-37.235794 132.83202 435.97809
-36.364868 132.85379 437.4621
-34.277603 132.79129 436.20062
-32.602142 132.75694 435.84552
-30.932159 132.72264 435.48361
-29.267746 132.6884 435.11493
-27.215897 132.62616 433.82031
-26.346039 132.64812 435.27744
-24.308167 132.58601 433.96823
-22.281357 132.52402 432.65009
-21.030273 132.51808 433.17032
-19.779572 132.51219 433.68604
-18.152374 132.47838 433.27164
-16.905319 132.47258 433.77756
-16.030411 132.49478 435.20703
-15.150726 132.517 436.63428
-13.533569 132.48341 436.1991
-11.922333 132.44989 435.75754
-10.677994 132.44434 436.24167
-9.0758972 132.41096 435.78833
-7.8354034 132.40552 436.26282
-6.2425079 132.37228 435.79788
-5.3563385 132.39481 437.1991
-4.1177368 132.38953 437.6608
-2.8797913 132.38431 438.11829
-1.6425018 132.37915 438.57166
-0.7456665 132.40184 439.96085
0.8301239 132.36897 439.46567
2.0654602 132.36398 439.90643
3.9638367 132.3035 438.45724
5.1925659 132.29863 438.88791
6.7471924 132.26607 438.36972
7.9719543 132.26132 438.79129
9.5173492 132.2289 438.2623
10.419495 132.252 439.62238
11.326263 132.27513 440.98019
12.864426 132.24289 440.43741
14.396683 132.21074 439.88889
15.614914 132.20633 440.28558
17.749008 132.11897 437.823
19.260956 132.08705 437.25674
20.466766 132.08286 437.63846
21.969604 132.05107 437.06198
23.466583 132.01935 436.48004
24.372955 132.04295 437.80453
25.863495 132.01137 437.21341
26.773926 132.03506 438.53195
27.973541 132.03119 438.88998
29.172592 132.02737 439.24429
30.091766 132.05119 440.55472
31.29229 132.04747 440.90237
33.040352 131.98868 439.3237
34.23455 131.98508 439.66248
35.697044 131.95396 439.03479
36.887543 131.95047 439.3656
38.341156 131.91949 438.72849
39.528053 131.91611 439.0513
40.972816 131.88525 438.40491
41.900307 131.90948 439.68628
43.84523 131.82373 437.09735
44.771767 131.84805 438.37164
46.198967 131.81743 437.707
47.620522 131.78687 437.03754
48.550888 131.81133 438.30267
49.726158 131.80833 438.59534
50.901016 131.80539 438.88449
52.075424 131.80251 439.17029
53.017067 131.8271 440.4248
54.423019 131.79684 439.73151
55.596199 131.79408 440.00699
56.768982 131.79137 440.27914
57.94136 131.7887 440.54791
59.332779 131.75864 439.83798
60.718605 131.72864 439.12366
61.884705 131.7261 439.38113
63.262062 131.6962 438.65833
64.215813 131.72115 439.8862
65.380836 131.71873 440.13382
66.545547 131.71637 440.37805
67.7099 131.71404 440.61908
68.87394 131.71175 440.85684
70.233765 131.68211 440.11105
71.588104 131.65253 439.36105
72.74604 131.65036 439.58801
73.903694 131.64822 439.81174
75.061058 131.64613 440.03226
76.218124 131.64409 440.2496
77.374931 131.64206 440.46368
78.353455 131.66742 441.65823
79.336876 131.69281 442.85056
80.670898 131.66356 442.07147
81.829239 131.66168 442.27332
82.987335 131.65985 442.47202
84.31031 131.63071 441.68158
85.465347 131.62894 441.87354
86.620155 131.62721 442.06238
87.617371 131.65282 443.2352
88.619514 131.67845 444.40573
89.778847 131.67682 444.58591
90.93795 131.6752 444.763
92.096855 131.67363 444.93695
93.400063 131.64479 444.11871
94.697937 131.616 443.29657
95.851112 131.61453 443.46051
97.004112 131.61308 443.62134
98.156944 131.61168 443.77905
99.177971 131.63757 444.92462
100.4621 131.60895 444.0853
101.48793 131.63492 445.22546
102.64266 131.63362 445.37131
103.79725 131.63237 445.51404
104.95169 131.63113 445.65369
105.87358 131.68446 447.77606
106.91924 131.71054 448.90344
107.74778 131.79117 452.01514
108.91708 131.79004 452.14438
109.87442 131.84344 454.25848
110.73854 131.92412 457.36496
112.02109 131.89583 456.49176
113.20016 131.89481 456.60971
114.47478 131.86658 455.72955
115.93028 131.78391 452.85532
117.37029 131.70126 449.9765
118.61888 131.67314 449.08478
120.033 131.59058 446.19763
121.26601 131.56252 445.29855
122.41355 131.56172 445.39246
123.63867 131.53372 444.48682
124.93369 131.47853 442.58096
126.14581 131.45059 441.66833
127.35273 131.42268 440.75244
128.41963 131.44925 441.82794
129.55643 131.44861 441.90332
130.69316 131.448 441.97577
131.77013 131.47464 443.04309
133.02359 131.41965 441.1138
134.15756 131.41911 441.17728
135.23949 131.44583 442.23615
136.42537 131.41814 441.2955
137.51231 131.44489 442.34869
138.60434 131.47168 443.39929
139.70146 131.49847 444.44708
140.88203 131.47089 443.49448
141.98419 131.49774 444.53668
143.09146 131.52461 445.57608
144.17232 131.57872 447.61194
145.23448 131.66005 450.64426
146.31201 131.74141 453.6741
147.3573 131.8772 458.70007
148.47069 131.9586 461.72479
149.69276 131.90399 459.74954
150.93678 131.79501 455.77206
152.16026 131.68607 451.79126
153.37421 131.54993 446.80765
154.55408 131.44104 442.82037
155.69589 131.41377 441.82889
156.82928 131.41373 441.83401
157.96196 131.44092 442.83591
159.09793 131.44093 442.8353
160.22507 131.38657 440.83252
161.35591 131.38663 440.82608
162.46768 131.33231 438.81754
163.56921 131.278 436.80624
164.67517 131.25093 435.79175
165.81047 131.27829 436.77338
166.95091 131.30568 437.75201
168.11888 131.36029 439.72708
169.24727 131.36052 439.70038
170.40318 131.38797 440.67004
171.50415 131.36105 439.63828
172.60001 131.33415 438.60379
173.69078 131.30727 437.56653
174.81421 131.30762 437.52554
175.89735 131.28078 436.48282
177.06117 131.30838 437.43484
178.23016 131.33603 438.3837
179.40436 131.36368 439.32947
180.58371 131.39137 440.27209
181.8214 131.4463 442.20972
183.12511 131.52849 445.142
184.32773 131.55626 446.07458
185.47472 131.55685 446.00607
186.68517 131.58469 446.93225
187.90082 131.61253 447.85513
188.91608 131.55876 445.78287
190.06334 131.55945 445.70251
191.13702 131.53294 444.62231
192.20564 131.50645 443.53946
193.26921 131.48 442.45404
194.32774 131.45355 441.36609
195.46518 131.45436 441.2717
196.60269 131.4552 441.17432
197.65125 131.42883 440.07834
198.78641 131.42973 439.97531
199.92166 131.43066 439.86929
201.05704 131.43161 439.76031
202.19252 131.43259 439.64835
203.43004 131.46085 440.52783
204.46384 131.43462 439.4155
205.5997 131.43568 439.29462
206.73566 131.43677 439.17072
207.98398 131.46515 440.03717
209.12277 131.46629 439.90698
210.26173 131.46748 439.77386
211.52074 131.49596 440.63007
212.54007 131.46992 439.49847
213.55441 131.44392 438.36447
214.69141 131.44522 438.2196
215.95876 131.47382 439.06281
216.8331 131.42061 436.92993
218.23871 131.47656 438.7572
219.65479 131.53256 440.57999
220.65985 131.50673 439.42914
221.80301 131.50821 439.26523
222.94638 131.50974 439.09836
224.08994 131.51128 438.92834
225.08292 131.48557 437.76715
226.2243 131.48717 437.5914
227.36589 131.48882 437.41254
228.66624 131.51781 438.21765
229.81085 131.51953 438.0322
230.9557 131.52127 437.84366
232.10077 131.52306 437.65201
233.24609 131.52487 437.45724
234.39165 131.52672 437.25931
235.88547 131.58328 439.02701
236.68353 131.53053 436.8541
238.00902 131.55984 437.63016
239.1582 131.56184 437.41919
240.30765 131.56387 437.20505
241.27048 131.53859 436.00574
242.60742 131.56805 436.76721
243.75772 131.57021 436.54343
245.10301 131.59976 437.297
246.45378 131.62938 438.04633
247.6102 131.63165 437.81189
248.96936 131.66135 438.55313
249.92398 131.63631 437.33328
251.08139 131.6387 437.08911
252.23914 131.64113 436.84161
253.18445 131.6162 435.61417
254.55568 131.64612 436.33679
255.93246 131.67609 437.05499
257.31482 131.70612 437.76868
258.47955 131.70877 437.50348
259.87045 131.73891 438.20871
261.03857 131.74165 437.93619
262.20712 131.74443 437.66025
263.60962 131.77472 438.35291
265.01776 131.80507 439.04092
266.19275 131.808 438.75351
267.36816 131.81097 438.46265
268.54407 131.814 438.16833
269.47382 131.78958 436.90176
270.14972 131.73769 434.66501
271.82269 131.79584 436.29712
273.2522 131.82655 436.95621
274.17346 131.80229 435.67834
275.86871 131.86066 437.29434
277.57492 131.91908 438.90399
278.49768 131.89497 437.61548
279.68317 131.89844 437.28802
281.13916 131.92952 437.91934
281.51044 131.85039 434.69876
282.69226 131.854 434.36188
283.5968 131.83006 433.06113
285.05762 131.86136 433.67715
286.24112 131.86511 433.32935
287.71094 131.89653 433.93573
288.89819 131.90041 433.57974
290.37704 131.93195 434.17633
291.56812 131.93593 433.81201
293.056 131.96761 434.39868
294.54974 131.99936 434.97995
295.74792 132.00352 434.60266
297.25079 132.03542 435.1738
298.45282 132.03969 434.78796
299.96484 132.07172 435.34875
301.17078 132.07611 434.95438
302.69196 132.10828 435.50479
303.90182 132.11281 435.10159
305.43225 132.14511 435.64151
306.64606 132.14975 435.22952
308.18567 132.18219 435.75867
309.07562 132.15919 434.3934
310.29141 132.164 433.9693
311.84094 132.19666 434.48358
314.06796 132.28496 436.87503
314.95795 132.26218 435.49435
316.18433 132.26723 435.05103
317.41135 132.27235 434.60358
318.63904 132.27753 434.15195
319.86737 132.28275 433.69611
321.09637 132.28802 433.23608
323.03461 132.34911 434.6412
324.62711 132.38239 435.10437
325.86597 132.38786 434.6286
326.7431 132.36548 433.2168
329.07535 132.4548 435.5253
329.95367 132.43253 434.10486
331.93811 132.49409 435.46774
335.7984 132.69553 441.45917
340.82336 132.98106 450.21017
345.90216 133.26691 458.93503
350.65387 133.52505 466.7092
354.68692 133.72746 472.61267
356.44019 133.76201 472.96408
357.81018 133.7686 472.38748
358.789 133.74718 470.88641
360.94568 133.80994 472.13843
362.31943 133.81665 471.54614
365.69162 133.96379 475.53021
367.48157 133.99872 475.83752
367.65701 133.92128 472.4819
369.44714 133.95627 472.7793
370.83231 133.96317 472.15796
371.39142 133.91379 469.71115
372.77112 133.92068 469.08255
374.56891 133.95578 469.35696
-38.107071 134.05148 434.44922
-36.83252 134.04494 435.02341
-35.96431 134.06912 436.50626
-33.475952 133.9705 434.32941
-32.607864 133.99472 435.80328
-30.539536 133.92693 434.52487
-28.877747 133.88986 434.15518
-27.221558 133.85287 433.77875
-25.961319 133.84656 434.31567
-24.313766 133.80968 433.92697
-22.286896 133.74223 432.60907
-21.035782 133.73608 433.12939
-20.164749 133.76054 434.56992
-18.911819 133.75444 435.08246
-17.285049 133.71785 434.66379
-16.407471 133.7424 436.09436
-14.787064 133.70593 435.66479
-13.172546 133.66953 435.22885
-11.563904 133.63321 434.78638
-10.322159 133.62744 435.26953
-8.3643036 133.56078 433.88232
-7.4848175 133.5856 435.28897
-5.8945313 133.54956 434.82324
-5.0109711 133.57448 436.22342
-4.122757 133.59943 437.62137
-2.8847656 133.59398 438.07898
-1.9898682 133.619 439.47141
-0.75054932 133.61366 439.9216
0.82531738 133.578 439.42657
2.0606842 133.5728 439.86746
3.9591522 133.50693 438.41849
5.8463593 133.44116 436.96173
7.0691833 133.43616 437.38657
8.6152954 133.40091 436.86176
10.155487 133.36572 436.33109
10.415039 133.45184 439.58417
11.637894 133.44707 439.99374
13.173477 133.41206 439.4502
14.081619 133.4377 440.80099
15.302536 133.43309 441.19861
17.13382 133.36804 439.68896
18.953979 133.30309 438.17197
20.162476 133.29871 438.55457
21.667999 133.26414 437.97903
23.462646 133.19945 436.44308
24.953827 133.16505 435.85593
26.149414 133.16092 436.22
27.057266 133.18704 437.53772
28.254318 133.18301 437.89505
29.450775 133.17905 438.24866
30.646675 133.17514 438.59857
31.84201 133.17128 438.94476
33.31086 133.13731 438.32605
34.502487 133.13358 438.66415
35.693588 133.12988 438.99863
36.884148 133.12624 439.32947
38.074203 133.12265 439.65668
39.524742 133.089 439.01541
40.711174 133.08553 439.33472
41.897095 133.08211 439.65051
43.588913 133.01855 438.02878
44.518089 133.04532 439.30371
46.195923 132.9819 437.67157
47.372139 132.9787 437.97122
48.547905 132.97556 438.26743
49.963402 132.94238 437.58984
50.898132 132.96938 438.84933
52.072594 132.96635 439.13513
53.246635 132.96339 439.41751
54.190483 132.99049 440.66925
55.366302 132.98761 440.94543
56.766304 132.95477 440.24423
57.716751 132.98198 441.48758
59.3302 132.91924 439.80322
60.716095 132.88655 439.08896
61.882202 132.88391 439.34656
63.259598 132.85133 438.62393
64.422432 132.84879 438.87424
65.378464 132.87625 440.09933
66.747055 132.84383 439.36511
67.707603 132.87135 440.58466
69.070358 132.83902 439.8429
70.231537 132.83667 440.07687
71.39241 132.83438 440.30759
72.743896 132.80219 439.55399
73.901588 132.79996 439.77774
74.873215 132.82771 440.98044
76.216087 132.79565 440.21567
77.192329 132.82347 441.4129
77.995468 132.88123 443.59143
79.1595 132.8792 443.80063
80.496147 132.84729 443.02213
81.657097 132.84534 443.22443
82.985512 132.81352 442.43817
84.308517 132.78174 441.64789
85.463593 132.77991 441.83984
86.458473 132.80798 443.01541
87.45829 132.83611 444.1886
88.463058 132.86423 445.35947
89.777214 132.83266 444.55219
90.786697 132.86086 445.71762
92.095284 132.82935 444.90335
93.543045 132.76802 443.09607
94.838364 132.7366 442.27368
95.988998 132.73508 442.43729
97.139465 132.73358 442.59775
98.289749 132.73212 442.75516
99.43985 132.7307 442.90958
100.46075 132.75914 444.05203
101.6131 132.75778 444.20059
102.7653 132.75644 444.3461
103.79599 132.78497 445.48071
104.95045 132.78371 445.62042
105.98858 132.81229 446.74985
107.14532 132.81107 446.88376
108.07981 132.86954 449.0014
109.24144 132.86836 449.12976
110.19107 132.92688 451.24298
111.04752 133.01521 454.34836
112.2216 133.01413 454.46896
113.29737 133.04289 455.58109
114.47379 133.04187 455.69577
115.83626 132.98126 453.81693
117.27885 132.8909 450.93863
118.44212 132.88997 451.04291
119.8614 132.79968 448.15643
121.01676 132.79881 448.25403
122.33251 132.73839 446.35593
123.48256 132.73759 446.44708
124.85785 132.64745 443.54504
126.00003 132.6467 443.62967
127.14214 132.64598 443.71127
128.21675 132.67508 444.78726
129.42612 132.64464 443.86569
130.50574 132.67378 444.93607
131.65013 132.67319 445.0061
132.90875 132.61304 443.07727
134.04788 132.61249 443.14105
135.13496 132.64174 444.20007
136.326 132.61147 443.25977
137.37122 132.67055 445.31165
138.51529 132.67009 445.36389
139.6593 132.66968 445.41321
140.80328 132.66928 445.45959
141.9106 132.69868 446.50189
143.05707 132.69833 446.54242
144.10904 132.78732 449.57727
145.17635 132.87634 452.60956
146.23267 132.99516 456.63855
147.35707 133.05446 458.66653
148.4917 133.11377 460.69171
149.71126 133.05403 458.71655
150.93663 132.96455 455.73874
152.16014 132.84534 451.75827
153.36313 132.72615 447.77448
154.54559 132.60699 443.78748
155.68999 132.57716 442.79611
156.82597 132.57712 442.8013
157.96196 132.5771 442.80359
159.09979 132.60689 443.80243
160.22952 132.54739 441.7998
161.35599 132.51768 440.79382
162.47733 132.48801 439.785
163.59354 132.45834 438.77325
164.71931 132.45848 438.75821
165.87956 132.51819 440.73904
167.0105 132.51837 440.71808
168.18619 132.57813 442.69287
169.3223 132.57837 442.66592
170.48593 132.6084 443.63528
171.56454 132.54915 441.60428
172.69818 132.54947 441.56873
173.76149 132.49026 439.53235
174.85233 132.46085 438.49231
175.93806 132.43147 437.44958
177.06158 132.43188 437.40274
178.23062 132.4621 438.35156
179.40482 132.49234 439.29727
180.63478 132.5524 441.23804
181.92821 132.64226 444.17355
183.18137 132.70238 446.10727
184.27003 132.67317 445.04385
185.41447 132.67377 444.97559
186.55899 132.67441 444.90427
187.70357 132.67506 444.83005
188.77968 132.64597 443.75558
189.92184 132.64668 443.67563
191.06409 132.64742 443.59262
192.20641 132.64819 443.50674
193.19119 132.58939 441.42493
194.32857 132.59021 441.3335
195.38208 132.56125 440.24304
196.51706 132.56213 440.14587
197.56306 132.53323 439.0502
198.78732 132.56396 439.94272
199.8284 132.53511 438.84158
201.1548 132.59572 440.7226
202.19353 132.56691 439.61572
203.32916 132.56796 439.50076
204.4649 132.56903 439.38281
205.60077 132.57013 439.26187
206.73679 132.57126 439.138
207.98511 132.60225 440.0043
209.12396 132.60344 439.87418
210.38028 132.63451 440.73361
211.64189 132.66559 441.58945
212.41885 132.57738 438.4736
213.55571 132.57869 438.33167
214.56511 132.55019 437.1954
215.82991 132.58141 438.03879
216.96725 132.58282 437.88782
218.24011 132.61411 438.72415
219.51831 132.64545 439.55679
220.66132 132.64694 439.39597
221.66145 132.61864 438.24286
222.80228 132.62021 438.07629
223.9433 132.62181 437.90665
225.08452 132.62346 437.73401
226.07256 132.59526 436.5705
227.36755 132.62685 437.37933
228.50941 132.62859 437.19739
229.65149 132.63037 437.01236
230.79378 132.63217 436.82419
231.77005 132.60413 435.64731
233.07909 132.63591 436.4386
234.22211 132.63783 436.24109
235.53937 132.66971 437.02475
236.68547 132.67171 436.82053
238.19017 132.73358 438.57986
238.97847 132.67581 436.40265
240.30972 132.70786 437.17136
241.08565 132.65015 434.99014
242.42004 132.68227 435.75195
243.75989 132.71445 436.50958
244.91055 132.71672 436.28268
246.25877 132.74899 437.03238
247.41263 132.75134 436.79843
248.76926 132.78371 437.54007
249.92636 132.78616 437.2991
251.29141 132.81862 438.03262
252.24158 132.79117 436.80731
253.61249 132.82373 437.53314
254.77357 132.82635 437.27844
255.71704 132.79903 436.04498
257.53799 132.89174 438.70898
258.70538 132.8945 438.44315
259.87317 132.89732 438.17392
261.26968 132.93019 438.87445
262.44086 132.93311 438.5979
263.37891 132.90602 437.34604
264.78448 132.93906 438.03448
265.71817 132.91206 436.77707
266.88843 132.91515 436.48746
268.3031 132.94835 437.1637
269.23035 132.92146 435.89786
270.1528 132.89462 434.62985
271.57407 132.92798 435.29437
273.00101 132.96141 435.95401
274.17667 132.9648 435.64282
275.87201 133.02844 437.25864
277.31607 133.06207 437.9035
278.76587 133.09575 438.54337
279.95398 133.09938 438.21509
281.41269 133.13319 438.84561
282.05923 133.07664 436.58609
282.9711 133.05026 435.28677
283.87827 133.02391 433.98523
285.06128 133.02777 433.64102
286.24481 133.03169 433.29309
287.71466 133.06586 433.89932
288.90201 133.06989 433.54324
290.38092 133.10419 434.13971
291.57202 133.10835 433.77533
292.76373 133.11255 433.4072
293.65726 133.08658 432.08148
295.75198 133.18163 434.56558
297.55902 133.24654 436.08871
298.76373 133.25101 435.70197
300.27844 133.28581 436.26178
301.79907 133.32069 436.81601
303.01093 133.32536 436.4158
304.22348 133.33009 436.01163
305.43671 133.33487 435.60358
306.65054 133.33971 435.19141
307.53986 133.31427 433.83014
308.42456 133.28886 432.46667
310.29605 133.35457 433.93094
311.51257 133.35965 433.50275
313.06549 133.39516 434.01187
314.96277 133.46114 435.45554
316.53021 133.49681 435.95166
316.72882 133.4109 432.68738
318.64398 133.47713 434.11282
319.87238 133.48257 433.65689
320.74976 133.45763 432.26114
323.03967 133.55455 434.60162
324.63229 133.59065 435.0647
325.87115 133.59636 434.58878
327.11066 133.60211 434.10852
328.35074 133.60791 433.62402
329.22379 133.58324 432.20572
331.57318 133.68074 434.49884
334.68506 133.83946 438.63593
340.45343 134.21228 449.24176
345.52966 134.52432 457.96667
349.89795 134.77548 464.81702
355.0766 135.0881 473.49091
356.44626 135.09489 472.91913
357.42737 135.07111 471.42172
359.57843 135.13925 472.6806
362.1348 135.23813 474.84848
363.1196 135.21446 473.33533
366.09756 135.34421 476.40036
367.89017 135.382 476.70627
368.06824 135.29701 473.34958
370.26874 135.36557 474.55823
370.83856 135.31126 472.11157
372.22375 135.31842 471.48529
373.19305 135.29482 469.94513
375.4119 135.36351 471.12585
-38.936508 135.35953 436.2243
-36.429443 135.25278 434.06525
-35.157501 135.24603 434.63376
-33.481918 135.20602 434.2836
-32.212784 135.19934 434.84198
-30.147095 135.12613 433.56271
-28.883636 135.11952 434.10983
-27.620438 135.11293 434.6525
-26.357529 135.10638 435.19073
-24.70726 135.06665 434.80331
-22.292664 134.96059 432.56454
-21.041489 134.95419 433.0849
-19.790771 134.94785 433.60092
-17.786484 134.87523 432.26129
-16.916336 134.90213 433.69296
-16.041428 134.92908 435.12253
-14.423615 134.88979 434.69208
-13.17807 134.88368 435.18512
-11.933075 134.87762 435.67377
-9.9665833 134.80547 434.29422
-9.086441 134.83261 435.70514
-7.4901733 134.79369 435.24591
-5.8997955 134.75482 434.7803
-5.3666229 134.81514 437.11649
-3.7801666 134.77641 436.64142
-2.5447998 134.77077 437.09818
-1.6525421 134.79817 438.48969
-0.41578674 134.79263 438.93893
1.4946442 134.72122 437.50235
2.3902283 134.74878 438.88324
4.2861328 134.67754 437.43362
5.5122986 134.67227 437.86356
7.0644226 134.63412 437.34476
8.6105804 134.59608 436.82016
9.8295135 134.59102 437.23608
10.410416 134.65179 439.54257
11.949356 134.61395 439.00406
12.855545 134.64192 440.35794
13.766357 134.66994 441.70956
14.989944 134.66515 442.10818
16.823944 134.59473 440.59958
18.646774 134.52441 439.08374
20.158234 134.48701 438.51392
21.663818 134.44969 437.9386
23.458542 134.37965 436.40289
24.657379 134.37529 436.77161
25.855652 134.37099 437.13654
27.053314 134.36674 437.49771
28.250397 134.36255 437.85513
29.44693 134.35843 438.20883
30.922165 134.32159 437.59918
31.838249 134.35033 438.90512
33.307159 134.31364 438.28653
35.04174 134.24429 436.70093
35.958832 134.27318 437.99658
37.146828 134.26941 438.32678
38.334312 134.26567 438.65335
39.521294 134.26201 438.97632
40.966171 134.22571 438.3302
41.893753 134.25482 439.61151
43.332428 134.21864 438.95694
44.765419 134.18254 438.29742
45.944756 134.17914 438.60126
47.123619 134.1758 438.90164
48.544823 134.13988 438.22897
49.480011 134.16927 439.49191
50.895126 134.13345 438.81104
52.069633 134.13031 439.09689
53.01133 134.15984 440.35144
54.187599 134.15678 440.63107
55.363464 134.15379 440.90726
56.538925 134.15083 441.18008
57.935997 134.11536 440.47504
59.546906 134.04736 438.79031
60.713448 134.04457 439.05124
62.093834 134.00926 438.33264
63.25705 134.00658 438.58636
64.210876 134.03647 439.81412
65.375977 134.03386 440.06183
66.540756 134.0313 440.30621
67.705193 134.02878 440.5473
69.068008 133.99376 439.80557
70.033112 134.02385 441.01968
71.196617 134.02145 441.25095
72.741661 133.95409 439.51688
73.711044 133.98428 440.72223
74.871056 133.98203 440.94333
76.213974 133.94731 440.17868
77.190247 133.97762 441.37589
78.171417 134.00795 442.57083
79.332924 134.00584 442.77954
80.494164 134.00377 442.98511
81.655159 134.00174 443.18747
82.983597 133.96729 442.4014
84.306648 133.93286 441.61121
85.624298 133.8985 440.81702
86.456688 133.96155 442.97861
87.456535 133.99216 444.15179
88.616127 133.99034 444.33521
89.775513 133.98857 444.5155
90.934685 133.98685 444.69266
92.240753 133.95271 443.87802
93.541451 133.91862 443.05963
94.978745 133.85214 441.24799
96.126846 133.85057 441.41122
97.274765 133.84903 441.57141
98.422501 133.84752 441.72849
99.570068 133.84604 441.88254
100.58842 133.87701 443.02463
101.73823 133.8756 443.17285
102.76397 133.90662 444.30981
103.91605 133.90526 444.4523
104.94919 133.93634 445.58414
105.98734 133.96745 446.7135
107.14412 133.96619 446.84747
108.30075 133.96497 446.97839
109.34878 133.99615 448.09973
110.4018 134.02737 449.21866
111.45984 134.05861 450.33511
112.5229 134.08987 451.44897
113.59097 134.12117 452.56036
114.66406 134.1525 453.66919
115.92836 134.11909 452.78513
117.18739 134.08574 451.89758
118.2653 134.11714 452.99771
119.43363 134.11621 453.09943
120.76749 134.05058 451.20599
122.01072 134.01735 450.30499
123.24873 133.98416 449.40054
124.63176 133.88628 446.49933
125.8542 133.85315 445.58771
127.07145 133.82005 444.6727
128.21606 133.81934 444.75159
129.36063 133.81865 444.82751
130.50511 133.81799 444.90045
131.64954 133.81737 444.97043
132.85103 133.78442 444.03961
133.99277 133.78384 444.10355
135.13445 133.78331 444.16452
136.27606 133.78279 444.22256
137.37076 133.81464 445.27603
138.47052 133.84651 446.32678
139.61714 133.84607 446.37619
140.7637 133.84567 446.4227
141.83701 133.90996 448.46378
142.95456 133.94194 449.50348
144.01425 134.03862 452.53827
145.06036 134.16765 456.56964
146.20604 134.19971 457.60126
147.35683 134.23178 458.62991
148.51273 134.26389 459.6557
149.7484 134.16669 456.68137
150.98479 134.03717 452.70438
152.17355 133.97235 450.72284
153.37399 133.84291 446.73932
154.54552 133.74582 443.75211
155.6841 133.74576 443.76025
156.82596 133.71338 442.76602
157.96124 133.7457 443.76776
159.10167 133.77805 444.7666
160.23399 133.71342 442.76407
161.37001 133.71349 442.75757
162.49651 133.68124 441.74875
163.61787 133.64903 440.73709
164.76347 133.6815 441.72134
165.91422 133.714 442.70251
167.05031 133.7142 442.68149
168.23114 133.7791 444.65598
169.37241 133.77934 444.62894
170.5137 133.77962 444.599
171.62497 133.74759 443.56711
172.73114 133.71558 442.53244
173.79703 133.65125 440.49609
174.92821 133.65163 440.45483
176.0191 133.61971 439.41196
177.1478 133.62013 439.3649
178.36742 133.68527 441.31183
179.59735 133.75044 443.25537
180.78703 133.78331 444.19736
182.03503 133.84854 446.13412
183.18195 133.84912 446.07156
184.27065 133.81737 445.00824
185.35426 133.78564 443.94229
186.49623 133.7863 443.87112
187.63828 133.78699 443.79706
188.71184 133.75534 442.72284
189.92258 133.78844 443.63998
191.13852 133.82156 444.55377
192.2072 133.78999 443.47107
193.27083 133.75845 442.3858
194.41078 133.75931 442.29413
195.46689 133.72783 441.20355
196.51796 133.69637 440.11041
197.564 133.66493 439.0148
198.78827 133.69826 439.9072
199.9236 133.69925 439.80115
201.15581 133.73265 440.68692
202.19456 133.70132 439.58014
203.43216 133.73479 440.45944
204.5705 133.7359 440.34119
205.49484 133.67227 438.23257
206.62831 133.67345 438.10895
207.8741 133.70705 438.97543
209.01041 133.70828 438.84555
210.14685 133.70955 438.71268
211.40335 133.74324 439.569
212.42017 133.71217 438.43784
213.55707 133.71353 438.2959
214.69411 133.71494 438.15094
215.96152 133.74878 438.99393
216.96869 133.71782 437.85199
218.10623 133.71931 437.69794
219.51981 133.78569 439.52069
220.52237 133.75484 438.37033
221.80609 133.78886 439.19595
222.94954 133.7905 439.02905
224.09315 133.79218 438.85901
225.08618 133.76143 437.69778
226.22763 133.76317 437.52203
227.21335 133.7325 436.35593
228.35265 133.73431 436.17435
229.65329 133.76862 436.97614
230.79562 133.77049 436.7879
232.10446 133.80489 437.58218
233.58755 133.87178 439.35754
234.56691 133.84132 438.17401
235.88937 133.87584 438.95663
237.04068 133.87793 438.75146
238.01306 133.84756 437.55984
239.16232 133.84973 437.34879
240.31184 133.85193 437.13455
241.0878 133.78915 434.95349
242.42224 133.82394 435.71518
243.76215 133.85876 436.47275
244.71817 133.82861 435.26544
246.06384 133.86354 436.0155
247.41501 133.89851 436.76129
248.56921 133.90102 436.52408
249.72379 133.90355 436.2836
251.08627 133.93867 437.01752
252.24411 133.94131 436.76996
253.40228 133.94398 436.5191
254.56082 133.94672 436.26495
255.9377 133.98206 436.98291
257.32013 134.01744 437.69632
258.48499 134.02031 437.43103
259.65021 134.02322 437.16238
261.04419 134.05879 437.86337
262.44379 134.09442 438.55978
263.38184 134.06488 437.30798
264.5513 134.06799 437.02515
265.72119 134.07117 436.73889
266.89151 134.07437 436.44922
268.06229 134.07764 436.15607
269.23349 134.08095 435.8595
270.15601 134.05167 434.59149
271.5773 134.08774 435.25586
273.00433 134.12387 435.91541
274.18002 134.1274 435.60416
275.61584 134.16367 436.25458
277.31955 134.23268 437.86444
278.50458 134.2364 437.54041
279.95758 134.27287 438.17578
281.41635 134.30942 438.80618
282.33557 134.28058 437.5083
283.25006 134.25179 436.20822
284.15991 134.22302 434.90601
285.34558 134.22705 434.56094
286.24869 134.19838 433.25369
288.00433 134.26807 434.81747
288.90598 134.23949 433.50357
290.6759 134.30933 435.05597
291.57611 134.28087 433.73541
293.06409 134.31805 434.32175
294.55798 134.35533 434.90271
296.05771 134.39268 435.47815
297.25922 134.39726 435.09604
298.76813 134.43477 435.66132
300.28287 134.47234 436.22095
301.80353 134.50999 436.77496
303.0155 134.51485 436.37469
303.9108 134.48688 435.02267
305.44135 134.52475 435.56226
306.97778 134.5627 436.09604
307.86981 134.53488 434.73383
309.41287 134.57298 435.25778
310.96185 134.61115 435.77579
311.51746 134.55054 433.46103
313.40619 134.62181 434.91132
314.96777 134.6602 435.41333
315.51212 134.5997 433.09088
316.73395 134.60522 432.64517
318.64917 134.67685 434.07034
319.17957 134.61646 431.74127
320.75497 134.65518 432.21851
322.69073 134.72707 433.62418
323.92371 134.73291 433.15445
325.87659 134.80496 434.54544
326.75381 134.77785 433.13367
328.35626 134.81697 433.58051
329.59698 134.82304 433.09161
330.83826 134.82918 432.59833
334.69077 135.06737 438.59146
339.70804 135.40527 447.34372
344.77917 135.74348 456.06979
349.52319 136.04884 463.8454
354.31567 136.35448 471.59644
355.29373 136.32828 470.10501
357.82269 136.435 472.29355
359.19318 136.44212 471.71191
361.35263 136.51579 472.96219
363.52304 136.58955 474.20294
366.10413 136.69667 476.35031
367.49438 136.70403 475.74109
368.0748 136.64478 473.29953
369.05225 136.6188 471.77029
370.02441 136.59282 470.23865
372.23022 136.66689 471.43484
373.19952 136.6409 469.89468
375 136.68166 470.16745
-38.119217 136.53435 434.35287
-36.844681 136.52737 434.92722
-35.163696 136.4845 434.58411
-33.084335 136.40576 433.31989
-31.416855 136.36299 432.96191
-30.55159 136.392 434.43018
-28.889755 136.34929 434.06088
-27.626541 136.34248 434.60367
-26.363617 136.33571 435.14203
-25.101028 136.32896 435.6759
-22.68367 136.21486 433.43863
-21.047455 136.17244 433.03693
-19.417007 136.1301 432.6286
-17.792358 136.08781 432.21375
-16.547836 136.08136 432.71884
-15.303848 136.07495 433.21964
-14.060379 136.06857 433.71606
-13.183807 136.09796 435.13791
-11.575089 136.056 434.69592
-10.333282 136.04979 435.17932
-8.7336731 136.00797 434.72552
-7.1399841 135.96622 434.26541
-5.5522308 135.92458 433.79907
-4.6712494 135.95424 435.19821
-3.0900574 135.91272 434.72144
-2.5501709 135.97809 437.05203
-0.97291565 135.93671 436.56586
0.25857544 135.93097 437.01334
1.8265991 135.88974 436.51587
3.0541382 135.88416 436.9541
4.6129303 135.84308 436.44556
5.8365021 135.83762 436.87463
7.7126312 135.7612 435.41071
8.6056824 135.79138 436.77518
10.145981 135.75063 436.24493
11.361664 135.74544 436.65607
11.94458 135.81125 438.95935
13.164246 135.80615 439.36426
14.38327 135.80113 439.76517
15.293488 135.8316 441.11282
16.819397 135.79126 440.55521
18.642319 135.71559 439.03961
20.153809 135.67543 438.47003
21.659454 135.63536 437.89487
23.159225 135.59535 437.31427
24.360764 135.59082 437.68387
25.851486 135.55096 437.09323
26.762024 135.58191 438.41177
27.961807 135.57755 438.77002
29.442917 135.5379 438.16577
30.359604 135.56898 439.47537
31.834335 135.5295 438.86221
33.577393 135.45476 437.28271
34.76651 135.45071 437.62021
35.686241 135.48201 438.91663
36.876915 135.47807 439.24759
38.067039 135.4742 439.57501
39.256691 135.47037 439.89871
40.704231 135.43135 439.25348
41.890259 135.42764 439.5694
43.32901 135.38875 438.91489
44.511459 135.38516 439.22302
45.941429 135.34641 438.55948
47.120346 135.34293 438.85992
48.298805 135.33951 439.15689
49.476837 135.33614 439.45032
50.654411 135.33282 439.74036
51.596588 135.36475 440.99823
52.775917 135.36153 441.28195
54.184608 135.32318 440.58969
55.587715 135.2849 439.89276
56.760628 135.28185 440.16504
58.155151 135.24368 439.45953
59.544106 135.20558 438.74948
60.927513 135.16754 438.03488
62.091125 135.1647 438.29199
63.254387 135.16191 438.54578
64.417305 135.15915 438.7962
65.579857 135.15645 439.04343
66.538231 135.1889 440.26563
67.903999 135.15118 439.52786
68.866867 135.18372 440.74466
69.834602 135.21628 441.9592
