ply
format ascii 1.0
comment PCL generated
element vertex 1592
property float x
property float y
property float z
element camera 0
property float view_px
property float view_py
property float view_pz
property float x_axisx
property float x_axisy
property float x_axisz
property float y_axisx
property float y_axisy
property float y_axisz
property float z_axisx
property float z_axisy
property float z_axisz
property float focal
property float scalex
property float scaley
property float centerx
property float centery
property int viewportx
property int viewporty
property float k1
property float k2
end_header
63.340111 189.09209 437.4209
64.517105 189.08395 437.67599
65.693726 189.07596 437.92767
66.668182 189.22192 439.14325
67.846664 189.21417 439.38864
69.024796 189.20657 439.63071
70.202576 189.1991 439.86935
71.38002 189.19176 440.10464
72.934761 188.87708 438.39676
74.106354 188.87003 438.62436
75.461266 188.70941 437.87769
76.810684 188.54895 437.12674
78.15461 188.38864 436.37152
78.965469 188.68945 438.52911
80.306221 188.52942 437.76685
81.470818 188.52313 437.97366
82.467041 188.67061 439.15094
83.633667 188.66457 439.35175
84.800018 188.65866 439.54929
85.966118 188.65285 439.74353
87.131958 188.64716 439.93457
88.297554 188.6416 440.12234
89.615494 188.48259 439.3306
90.778008 188.47726 439.5116
92.087723 188.31853 438.71222
93.53688 188.00644 436.93146
94.690971 188.00146 437.10168
95.984528 187.84314 436.29053
97.409805 187.53146 434.49689
98.421005 187.68033 435.63556
99.43718 187.82925 436.77176
100.58766 187.82483 436.92596
101.73796 187.82053 437.07697
102.88808 187.81631 437.22485
104.15962 187.65878 436.38901
105.42586 187.50137 435.54941
106.57028 187.4975 435.68738
107.60068 187.64708 436.8038
108.85867 187.49001 435.95404
109.89389 187.63977 437.06494
111.04028 187.63626 437.19086
112.18651 187.63286 437.31372
113.3326 187.62955 437.43353
114.47856 187.62631 437.55023
115.72024 187.46985 436.68042
116.86336 187.46683 436.7908
118.00635 187.46388 436.8981
119.32549 187.1544 435.03394
120.46309 187.15167 435.1347
121.60059 187.14902 435.23254
122.73798 187.14644 435.32721
123.87526 187.14397 435.41901
124.86191 187.44815 437.47836
126.00414 187.44583 437.56451
127.2164 187.29033 436.6619
128.35587 187.28818 436.74179
129.49527 187.28613 436.81863
130.63457 187.28418 436.89258
131.7738 187.28229 436.96344
132.91296 187.28049 437.03131
134.05205 187.27878 437.09625
135.19106 187.27716 437.15817
136.37956 187.12236 436.2301
137.56287 186.96767 435.29883
138.74095 186.81305 434.36435
139.91386 186.65854 433.42664
141.00304 186.81055 434.46057
142.13402 186.80942 434.50424
143.23082 186.96158 435.53256
144.36427 186.96062 435.5704
145.4687 187.11295 436.59305
146.60466 187.11212 436.62503
147.74059 187.11139 436.65402
148.89777 186.95752 435.69208
150.03107 186.95694 435.71515
151.18048 186.80322 434.74707
152.32474 186.64961 433.77609
153.46385 186.49606 432.802
154.58095 186.64902 433.80127
155.70319 186.80203 434.79761
156.83383 186.80194 434.80286
157.96378 186.95512 435.79337
159.09514 186.80197 434.8045
160.2258 186.80209 434.8009
161.34947 186.64911 433.80618
162.47757 186.64938 433.79666
163.61783 186.80295 434.77234
164.74854 186.80341 434.75696
165.89653 186.95714 435.72656
167.01001 186.80453 434.71722
168.14078 186.80522 434.69296
169.29655 186.9592 435.65356
170.42996 186.96004 435.62329
171.5634 186.96095 435.59006
172.69688 186.96196 435.55389
173.86568 187.11627 436.50226
174.96397 186.9642 435.47256
176.05719 186.81221 434.44009
177.14532 186.66028 433.40488
178.36499 186.96817 435.32837
179.45065 186.81641 434.28732
180.63263 186.97122 435.21735
181.81979 187.12613 436.14413
182.90051 186.97461 435.09442
183.97617 186.82317 434.04202
185.1687 186.97832 434.95953
186.23936 186.82703 433.90149
187.50333 187.13565 435.79874
188.70897 187.29108 436.70648
189.84859 187.29333 436.62521
190.91446 187.14236 435.55551
192.0517 187.14479 435.46844
193.18904 187.14731 435.37836
194.32649 187.1499 435.28528
195.46404 187.15257 435.18912
196.77512 187.46198 437.05875
197.91805 187.46484 436.95609
198.96925 187.31448 435.86655
200.01544 187.1642 434.77444
201.25061 187.32068 435.64658
202.2919 187.17056 434.54892
203.5325 187.32722 435.41443
204.67365 187.33066 435.29382
205.92226 187.48753 436.1524
206.95641 187.33777 435.04333
208.09802 187.34149 434.91351
209.23981 187.34529 434.78061
210.38173 187.34918 434.64462
211.52385 187.35321 434.50558
212.78889 187.51073 435.34393
213.80859 187.36151 434.21823
215.07916 187.51926 435.04971
216.09407 187.37022 433.91843
217.37019 187.5282 434.74304
218.51602 187.53284 434.58508
219.52377 187.38406 433.4455
220.80826 187.5424 434.25967
222.09811 187.70087 435.06995
223.10135 187.5524 433.92172
224.39682 187.71111 434.72495
225.54654 187.7164 434.54773
226.69647 187.7218 434.36731
227.84668 187.72731 434.18372
228.83818 187.57935 433.02161
229.9863 187.58508 432.83209
231.29875 187.74454 433.6138
232.44997 187.75052 433.41742
233.77072 187.91025 434.19135
235.09692 188.07011 434.96112
236.07971 187.92282 433.78156
237.23465 187.92929 433.57184
238.56949 188.08957 434.33044
239.72763 188.09631 434.11374
240.88606 188.10318 433.89368
242.23221 188.2639 434.64056
243.58388 188.42477 435.38312
244.36331 188.12451 433.21387
245.52306 188.1319 432.98059
247.0787 188.44701 434.68027
248.24432 188.45468 434.4393
249.41031 188.46248 434.19498
250.98779 188.77811 435.88019
251.95157 188.63235 434.66211
253.33203 188.79448 435.37241
254.50473 188.80287 435.1134
255.89378 188.96532 435.81512
257.06989 188.974 435.54865
258.2464 188.98285 435.27875
259.42331 188.99181 435.00531
260.60065 189.00092 434.72842
261.77844 189.01018 434.44803
263.18823 189.17363 435.12466
264.13531 189.02914 433.87677
265.31442 189.03885 433.58585
266.49402 189.04868 433.29138
267.67404 189.05869 432.99335
268.85455 189.06882 432.69174
270.28278 189.23329 433.34314
271.71674 189.39796 433.98959
272.65146 189.25436 432.72058
274.34674 189.57365 434.31296
275.5376 189.58463 433.99124
276.98926 189.75005 434.6189
278.44669 189.91566 435.24142
279.64435 189.92715 434.90714
280.8425 189.93878 434.56909
281.77039 189.79617 433.27713
283.24048 189.96252 433.88181
284.44031 189.97461 433.53244
285.64066 189.98685 433.17935
286.27899 189.69025 430.92825
287.75916 189.85727 431.51538
288.09888 189.40627 428.31503
289.86938 189.72818 429.8392
291.06738 189.74112 429.46857
292.85486 190.06351 430.9801
294.65344 190.38615 432.48447
296.4632 190.70906 433.98154
297.67932 190.72275 433.59018
299.20105 190.89136 434.13455
300.72864 191.06018 434.67316
301.95181 191.07434 434.26807
303.17554 191.08865 433.85892
304.3999 191.1031 433.44574
305.94312 191.2726 433.96375
307.17126 191.28732 433.54141
308.40002 191.30217 433.11502
309.30316 191.16211 431.75198
310.5304 191.17715 431.31827
312.4212 191.50247 432.74164
313.32068 191.36266 431.36795
314.55225 191.37802 430.92075
316.80267 191.85904 433.25259
318.04321 191.87469 432.79407
318.93951 191.73515 431.40546
320.52582 191.90619 431.8642
322.81812 192.388 434.16418
324.06854 192.40399 433.68549
325.67487 192.57542 434.12427
327.64496 192.90236 435.47726
328.9046 192.91855 434.98251
329.80124 192.77928 433.56482
330.69287 192.63994 432.14496
333.4231 193.27827 435.30496
336.17487 193.91685 438.45197
340.4444 195.17816 445.24292
344.75681 196.43996 452.01181
349.49139 197.85791 459.67053
353.89203 199.12065 466.39355
356.02704 199.44925 467.6351
358.56012 199.93367 469.77615
359.9389 199.95064 469.18301
361.3175 199.96742 468.58511
362.30057 199.82813 467.07742
364.07407 200.00037 467.3754
364.24969 199.54863 464.05508
366.42572 199.87631 465.24545
367.39374 199.73579 463.72513
369.17319 199.90695 464.00116
370.54584 199.92172 463.37225
372.74573 200.24832 464.53247
372.8718 199.79395 461.20557
375.49692 200.27585 463.24756
-41.487762 196.1868 434.10953
-39.791962 196.01468 433.80316
-37.693207 195.68359 432.59079
-36.818741 195.82805 434.07108
-34.73201 195.49646 432.84427
-32.655411 195.1647 431.60843
-31.382614 195.14981 432.17188
-30.109482 195.13466 432.73105
-27.661697 194.64401 430.56653
-26.396057 194.62857 431.11359
-25.13028 194.61296 431.65631
-24.247894 194.75554 433.10464
-22.97934 194.73961 433.6398
-21.710846 194.7236 434.17068
-19.691483 194.39102 432.8707
-18.055695 194.21671 432.47623
-16.425446 194.04239 432.07529
-15.535645 194.18436 433.50076
-14.275986 194.16815 434.00656
-13.016586 194.15192 434.5079
-11.757523 194.13567 435.00494
-9.7851563 193.80347 433.65625
-7.823822 193.47142 432.29904
-6.2250214 193.29745 431.85623
-4.9808044 193.28149 432.33087
-3.73703 193.26559 432.80124
-2.1501923 193.09192 432.34155
-0.91000366 193.07617 432.8024
0.32969666 193.06049 433.25897
1.5688629 193.04491 433.7114
2.8075256 193.0294 434.15955
4.0456238 193.01401 434.60355
5.2831879 192.9987 435.0434
6.1952362 193.14108 436.4115
7.7566528 192.96841 435.91049
8.9925537 192.95345 436.33777
10.227875 192.9386 436.76096
11.776993 192.76642 436.2439
13.320236 192.59445 435.72098
14.548523 192.58005 436.1301
16.38913 192.25104 434.65762
17.914795 192.07965 434.11728
19.434586 191.90845 433.57129
20.649994 191.89473 433.96088
22.160706 191.72391 433.40442
23.079041 191.86772 434.72827
24.00206 192.01163 436.04993
24.929749 192.15564 437.36929
25.862167 192.29973 438.68631
26.799225 192.44392 440.00107
28.301254 192.27405 439.41943
29.79744 192.1044 438.8324
31.287834 191.93497 438.2399
32.50016 191.92273 438.59143
33.981567 191.75366 437.98907
35.190193 191.74176 438.33221
36.662651 191.57309 437.72006
37.867592 191.56152 438.05493
39.590279 191.23639 436.4801
40.788948 191.22517 436.80606
42.241005 191.05731 436.17398
43.687332 190.88963 435.5368
44.630547 191.03574 436.80627
45.578522 191.18192 438.07339
47.01815 191.01474 437.42395
48.21122 191.00449 437.72736
49.165596 191.15106 438.98566
50.360352 191.14108 439.28253
51.787682 190.97462 438.61603
52.978928 190.96497 438.90512
54.397537 190.79886 438.22961
55.585297 190.78952 438.51102
56.995232 190.62378 437.82663
58.17955 190.61476 438.10037
59.580849 190.44937 437.4072
60.761749 190.44064 437.67337
62.154442 190.27559 436.97153
63.122353 190.42365 438.19543
64.302071 190.41534 438.45132
65.48143 190.4072 438.70374
66.6604 190.3992 438.95279
67.839027 190.39131 439.19839
69.017281 190.38358 439.44064
70.195198 190.37598 439.67947
71.372765 190.3685 439.91498
72.738838 190.20483 439.17758
74.099396 190.04135 438.43585
75.27079 190.0343 438.66031
76.803993 189.71484 436.93945
77.969589 189.70808 437.15628
79.134895 189.70145 437.36981
80.299904 189.69495 437.58005
81.464622 189.68857 437.78705
82.629059 189.68231 437.99078
83.627686 189.83237 439.16504
84.794174 189.82634 439.36264
85.960381 189.82043 439.5571
86.968575 189.97079 440.7233
88.292038 189.80899 439.93622
89.6101 189.64731 439.14505
90.772743 189.64188 439.32611
92.082573 189.48047 438.52734
93.53186 189.16309 436.74753
94.686066 189.15804 436.91788
95.979736 188.99704 436.10727
97.405136 188.68008 434.31458
98.416435 188.83145 435.45294
99.432701 188.98288 436.58884
100.5833 188.97839 436.7431
101.7337 188.974 436.89423
102.88391 188.96971 437.04227
104.15557 188.80952 436.20694
105.30286 188.80545 436.34836
106.44997 188.80148 436.48679
107.59692 188.79761 436.62204
108.7437 188.79384 436.75421
109.89034 188.79016 436.88333
111.0368 188.78659 437.00937
112.18314 188.78313 437.13235
113.32932 188.77975 437.25223
114.57381 188.62053 436.38617
115.71715 188.61736 436.49969
116.95364 188.45836 435.6268
118.09416 188.45537 435.73395
119.41083 188.14069 433.87042
120.54595 188.13789 433.97104
121.59797 188.29108 435.05295
122.73544 188.28847 435.1478
123.87282 188.28595 435.23959
124.85954 188.59525 437.29822
126.00186 188.5929 437.3844
127.14409 188.59061 437.4675
128.42133 188.27673 435.57675
129.55823 188.27464 435.6535
130.75746 188.11681 434.74149
131.8318 188.27072 435.798
132.96846 188.26891 435.86584
134.05037 188.423 436.9169
135.24159 188.2655 435.99243
136.37805 188.26393 436.05124
137.56143 188.10663 435.12039
138.73962 187.9494 434.18631
139.91261 187.79227 433.24905
141.00186 187.94687 434.28268
142.13292 187.94571 434.32635
143.2298 188.10043 435.35428
144.36334 188.09946 435.39218
145.46785 188.25433 436.41443
146.63031 188.09772 435.45898
147.76373 188.09695 435.48795
148.91843 187.94049 434.5264
150.03053 188.0957 435.53699
151.18002 187.93942 434.56943
152.33794 187.62738 432.61105
153.46355 187.62704 432.62512
154.58073 187.78258 433.62396
155.70889 187.78241 433.6322
156.83377 187.93808 434.62518
157.96379 188.09384 435.61526
159.09523 187.93811 434.62683
160.22597 187.93825 434.6232
161.34972 187.78267 433.62891
162.47791 187.78296 433.61938
163.60609 187.78333 433.6069
164.73431 187.78378 433.59155
165.87982 187.94012 434.56088
166.9908 187.78493 433.55188
168.11909 187.78561 433.52765
169.27238 187.9422 434.48792
170.43085 188.09885 435.4451
171.5945 188.2556 436.39917
172.69794 188.1008 435.37561
173.86681 188.25772 436.32358
174.96519 188.1031 435.29431
176.05847 187.94855 434.26218
177.14668 187.79407 433.22736
178.32089 187.95132 434.16324
179.45219 187.95282 434.10925
180.58356 187.95442 434.05237
181.76823 188.11194 434.97888
182.9023 188.11369 434.91583
184.03644 188.11554 434.84985
185.23163 188.27332 435.76675
186.3685 188.27536 435.69467
187.57156 188.43332 436.60507
188.71118 188.43552 436.52682
189.85089 188.43781 436.44553
190.91684 188.28433 435.37616
191.97775 188.13089 434.30417
193.11261 188.13345 434.21426
194.32913 188.29198 435.10571
195.38264 188.13882 434.02536
196.60452 188.29752 434.91031
197.8317 188.45634 435.79181
198.88042 188.30344 434.70285
200.01854 188.30653 434.59451
201.2538 188.46565 435.46616
202.2952 188.31302 434.36887
203.43372 188.31639 434.25137
204.67712 188.47583 435.11319
205.81853 188.4794 434.98938
206.96008 188.48309 434.86252
208.10179 188.48686 434.73257
209.24367 188.49074 434.59958
210.3857 188.49472 434.46353
211.52791 188.49879 434.32434
212.79308 188.65898 435.1622
213.93822 188.66327 435.01654
214.95561 188.51163 433.88834
216.09856 188.51613 433.73682
217.50787 188.83282 435.53958
218.52071 188.68149 434.40277
219.66681 188.68629 434.24149
220.81316 188.69122 434.07712
222.24655 189.00847 435.86417
223.10648 188.70142 433.73892
224.40207 188.86279 434.54163
225.55188 188.86819 434.36423
226.70193 188.87369 434.18369
227.69589 188.72313 433.02463
229.00278 188.88501 433.81299
230.15359 188.89087 433.62286
231.30466 188.89685 433.4296
232.62268 189.05913 434.2066
233.77689 189.06534 434.00641
234.75949 188.91544 432.83032
235.91167 188.92191 432.62415
236.88708 188.77222 431.44299
238.2169 188.93518 432.202
239.55219 189.0983 432.95679
240.70816 189.10526 432.73706
242.05185 189.26868 433.48386
243.59106 189.58861 435.19559
244.37061 189.28328 433.02695
245.72566 189.44716 433.76172
246.88849 189.4548 433.52444
248.25204 189.61902 434.25098
249.21518 189.47052 433.03986
250.79025 189.79147 434.72464
251.9597 189.79971 434.47278
253.34033 189.96457 435.18246
254.29977 189.81659 433.95886
255.90236 190.13829 435.6243
256.64145 189.83405 433.4313
258.03406 189.99954 434.12491
259.20853 190.00867 433.8519
260.38342 190.01791 433.57535
261.55872 190.02731 433.29538
262.96606 190.1935 433.97202
263.91064 190.04652 432.72482
265.32416 190.21307 433.39319
266.74329 190.37979 434.05661
267.92609 190.38998 433.75772
269.10938 190.4003 433.45514
270.54037 190.56757 434.10522
271.72723 190.57825 433.79483
272.91461 190.58905 433.4808
274.35757 190.7569 434.11725
275.80627 190.9249 434.74857
277.26074 191.09314 435.37485
278.45801 191.10464 435.04398
279.65576 191.1163 434.70938
280.58588 190.97116 433.42056
281.51129 190.82611 432.12955
282.97894 190.99521 432.73419
284.17627 191.00748 432.38531
285.65286 191.17697 432.98013
286.5726 191.03246 431.67621
288.0556 191.20232 432.26181
288.68463 190.90088 430.00677
290.17139 191.07108 430.58389
291.3721 191.08423 430.21207
293.16241 191.41206 431.72159
294.66672 191.58287 432.28214
296.47665 191.91119 433.77798
297.6929 191.92511 433.38632
298.90973 191.93915 432.99066
300.12714 191.95334 432.59097
301.34515 191.96765 432.18729
302.87674 192.13957 432.71616
304.09857 192.15419 432.3035
305.63928 192.32646 432.82159
307.50671 192.65649 434.26767
308.73822 192.67157 433.83994
309.6441 192.52914 432.4761
310.87408 192.5444 432.04105
312.43616 192.7175 432.53201
313.33572 192.57529 431.15848
314.90417 192.7486 431.63913
316.81793 193.0799 433.04102
318.4007 193.25357 433.50839
319.29968 193.11166 432.11896
320.88873 193.28552 432.57581
322.83374 193.61746 433.94974
324.0842 193.63364 433.4707
325.33511 193.64987 432.9874
327.66071 194.14023 435.26035
328.92041 194.1566 434.76526
330.18036 194.17297 434.26575
331.07465 194.0312 432.84488
333.80762 194.68021 436.00168
336.56213 195.32947 439.14542
340.83453 196.61189 445.93118
344.39627 197.57826 450.86951
349.12839 199.0199 458.52478
353.52649 200.30368 465.24487
355.65875 200.63762 466.48627
358.18906 201.12996 468.62665
359.95508 201.30545 468.94135
361.72629 201.4808 469.24915
362.71167 201.33899 467.74036
364.88571 201.67249 468.93994
365.06625 201.213 465.61835
366.84393 201.38742 465.90396
367.4082 201.08569 463.48273
369.18729 201.25948 463.75803
370.55954 201.27425 463.12891
372.34491 201.44731 463.3916
372.88452 201.14374 460.96225
374.67047 201.31592 461.21506
-40.674637 197.13272 432.08463
-38.984528 196.95807 431.77649
-37.706345 196.94429 432.3606
-36.022659 196.76897 432.0405
-34.343674 196.59335 431.71378
-32.269958 196.25636 430.47794
-31.396927 196.40256 431.94412
-29.729889 196.22629 431.59879
-28.067841 196.04985 431.24673
-27.188568 196.19531 432.70236
-26.303802 196.34053 434.15601
-25.030121 196.32458 434.69818
-23.375549 196.14757 434.32538
-22.104492 196.13139 434.85767
-20.082504 195.79343 433.56009
-18.444138 195.61632 433.16757
-16.811218 195.43921 432.76849
-15.551346 195.42288 433.27896
-13.92688 195.24579 432.86798
-12.670181 195.22943 433.36865
-11.413803 195.21307 433.86505
-9.8008881 195.0361 433.43686
-8.193634 194.85922 433.0022
-6.5921326 194.68243 432.56125
-5.6941071 194.82678 433.9606
-4.0987549 194.65015 433.509
-2.8527222 194.63406 433.97647
-1.6071777 194.61806 434.43964
-0.023895264 194.44177 433.97137
1.2180176 194.42595 434.42508
2.4594116 194.41022 434.87457
3.7002716 194.39458 435.31989
5.268219 194.21881 434.8299
6.1803284 194.36362 436.19797
7.4195557 194.3483 436.63071
8.6582031 194.33308 437.0593
10.213318 194.1579 436.54898
11.448181 194.14297 436.96841
13.306 193.80811 435.51062
14.843521 193.63351 434.98264
16.681702 193.29912 433.51053
17.597183 193.44482 434.84851
19.119781 193.27078 434.30411
20.337952 193.25684 434.69495
21.851471 193.08319 434.14008
22.772552 193.22937 435.46469
23.988968 193.21587 435.84366
24.916824 193.36226 437.16281
26.134735 193.34903 437.53479
27.069305 193.49567 438.8486
28.568863 193.32301 438.26694
29.785065 193.31026 438.62726
31.275635 193.13802 438.03555
32.215851 193.28517 439.33621
33.430397 193.27289 439.68503
34.911453 193.10118 439.07953
36.122314 193.08922 439.41995
37.594414 192.91794 438.80478
39.319939 192.58737 437.23178
40.521355 192.57596 437.55881
41.976212 192.40529 436.92813
43.676636 192.07541 435.33771
44.619995 192.22391 436.60693
45.568085 192.37253 437.87393
47.007881 192.20261 437.22519
48.201126 192.19217 437.52881
49.155624 192.34119 438.78693
50.350525 192.33104 439.08405
51.778015 192.1618 438.41827
52.969398 192.15199 438.70761
54.388184 191.98312 438.03278
55.576088 191.97363 438.31439
56.986191 191.80515 437.63068
58.170647 191.79596 437.90463
59.354691 191.78693 438.17514
60.753143 191.61896 437.47855
61.933777 191.61024 437.74155
63.114021 191.60167 438.00107
64.500916 191.43419 437.29178
65.473373 191.58493 438.50977
66.652496 191.57678 438.75897
67.632011 191.72777 439.97183
69.009644 191.5609 439.24725
69.993645 191.71213 440.45435
71.365387 191.54556 439.72198
72.731606 191.37918 438.9852
74.0923 191.21298 438.24411
75.447502 191.04692 437.49863
76.797188 190.88104 436.7489
77.962914 190.87416 436.96588
79.128342 190.86742 437.1796
80.120171 191.01962 438.362
81.458313 190.85431 437.59714
82.622864 190.84795 437.80109
83.787148 190.84171 438.00168
84.951164 190.83557 438.19907
86.114906 190.82957 438.39319
87.278397 190.8237 438.58408
88.441635 190.81793 438.77176
89.75724 190.65358 437.98074
90.917404 190.64807 438.16156
92.224777 190.48399 437.36298
93.526756 190.32004 436.56036
94.681061 190.31491 436.73087
95.974861 190.15121 435.92078
97.263275 189.98767 435.10681
98.411789 189.98286 435.26706
99.428146 190.13681 436.40274
100.57885 190.13223 436.55707
101.85614 189.96918 435.72922
102.87967 190.1234 436.85648
104.15144 189.96054 436.02167
105.29883 189.95641 436.16324
106.44604 189.95236 436.30176
107.47919 190.10698 437.41788
108.62865 190.10312 437.55045
109.8867 189.94086 436.69861
111.13945 189.77867 435.84308
112.1797 189.93367 436.94778
113.427 189.77171 436.0856
114.57058 189.76837 436.20221
115.80988 189.60663 435.3331
116.95061 189.60349 435.44339
118.09122 189.60045 435.55063
119.31984 189.43903 434.67145
120.5432 189.27771 433.78873
121.59531 189.43341 434.87027
122.81329 189.27229 433.98108
123.94818 189.26973 434.07272
125.00769 189.42572 435.1459
126.07225 189.58176 436.2164
127.21199 189.57947 436.29947
128.41919 189.41881 435.39441
129.55618 189.41669 435.47125
130.75551 189.25623 434.55966
131.88977 189.25427 434.63034
133.02394 189.25243 434.69806
134.04866 189.56747 436.73444
135.23997 189.40738 435.81042
136.37653 189.40576 435.86926
137.513 189.40427 435.92514
138.69385 189.24443 434.99164
139.86949 189.08469 434.05496
140.9614 189.24182 435.08826
142.09511 189.24065 435.13211
143.19464 189.39795 436.15973
144.36238 189.23856 435.21085
145.46698 189.396 436.2327
146.62952 189.23677 435.27771
147.76303 189.23602 435.3067
148.89651 189.23534 435.33273
150.02998 189.23474 435.35577
151.19569 188.91747 433.40137
152.32397 188.91704 433.4184
153.45226 188.91669 433.4325
154.58051 188.91641 433.44366
155.70876 188.91623 433.45181
156.83371 189.07449 434.44446
157.96381 189.23285 435.43414
159.09718 189.23291 435.43347
160.22615 189.07466 434.44247
161.34998 188.9165 433.44855
162.46867 188.75842 432.45169
163.60652 188.91718 433.42657
164.73482 188.91763 433.41116
165.86313 188.91818 433.39279
166.99146 188.91881 433.37149
168.11983 188.91951 433.3472
169.27321 189.07869 434.3071
170.43176 189.23795 435.26385
171.56535 189.23889 435.23056
172.69901 189.23993 435.19431
173.86795 189.39946 436.14185
174.96642 189.24225 435.11285
176.05978 189.08514 434.08118
177.19106 189.08652 434.03314
178.32237 189.08798 433.98212
179.45375 189.08951 433.92819
180.63588 189.24954 434.85727
181.82323 189.40967 435.78314
182.95995 189.41148 435.71997
184.03835 189.25494 434.66818
185.17264 189.25691 434.59912
186.30702 189.25897 434.5271
187.50761 189.41956 435.43723
188.64474 189.4218 435.35907
189.85323 189.58258 436.2627
190.91927 189.42654 435.1937
191.98027 189.2706 434.1221
193.1152 189.27319 434.0321
194.33182 189.43433 434.92307
195.30128 189.12015 432.85922
196.52069 189.28149 433.74396
197.83467 189.60146 435.60855
198.88347 189.44601 434.51984
199.92725 189.29066 433.42868
201.16003 189.45242 434.30008
202.29852 189.45578 434.18564
203.43716 189.4592 434.06812
204.57593 189.46274 433.94757
205.71484 189.4664 433.82397
206.85393 189.47012 433.69733
207.99315 189.47397 433.5676
209.24759 189.63647 434.41537
210.38972 189.6405 434.27921
211.53204 189.64467 434.13995
212.79732 189.80753 434.97726
213.94257 189.81189 434.83151
214.96005 189.65775 433.70361
215.97256 189.50369 432.5733
217.24634 189.66699 433.39719
218.38979 189.67178 433.23929
219.53343 189.67667 433.07828
220.81815 189.84036 433.89139
222.10825 190.00418 434.70059
223.11168 189.85072 433.55289
224.40741 190.01479 434.35504
225.55734 190.02026 434.17758
226.70749 190.02586 433.99683
227.85791 190.03159 433.81296
229.16751 190.19617 434.60034
230.1595 190.04337 433.43564
231.47479 190.20822 434.21576
232.62885 190.21442 434.01859
233.78316 190.22075 433.81824
234.93774 190.2272 433.61465
236.09264 190.23378 433.40784
237.07076 190.08163 432.22644
238.40331 190.24731 432.98444
239.55908 190.25427 432.76779
240.71518 190.26135 432.54788
241.87158 190.26859 432.32471
243.40836 190.5938 434.03589
244.37802 190.44237 432.83679
245.53802 190.45 432.60318
246.89618 190.61676 433.3335
248.05948 190.62468 433.09268
249.22314 190.63274 432.84851
250.79837 190.95901 434.5322
251.96797 190.96739 434.28015
253.13795 190.97591 434.02469
254.30832 190.98456 433.76581
255.6951 191.1525 434.46686
256.65027 191.00232 433.23776
257.82187 191.01141 432.96863
258.77005 190.86148 431.73441
260.16626 191.03003 432.4198
261.11011 190.88034 431.1799
262.74405 191.2085 432.81677
263.92038 191.21835 432.52954
265.57086 191.54692 434.15555
266.75336 191.55713 433.85992
267.93631 191.56747 433.56076
268.87503 191.41864 432.30154
270.30362 191.58865 432.9516
271.48801 191.59946 432.6416
272.67291 191.61044 432.328
274.36856 191.94046 433.91806
276.0752 192.27075 435.50165
277.27209 192.28229 435.17422
278.73248 192.45351 435.79459
279.66742 192.30583 434.50821
280.59766 192.15826 433.21957
281.52319 192.0108 431.92862
282.7175 192.02307 431.58401
283.63623 191.87582 430.28781
285.38651 192.20776 431.83041
286.30371 192.06079 430.5274
287.78427 192.23343 431.11307
288.69739 192.08673 429.80405
290.47357 192.41953 431.32419
291.67709 192.43292 430.95123
293.47025 192.7662 432.45871
295.27451 193.09973 433.95892
296.7901 193.27362 434.51141
298.00916 193.28775 434.11856
298.92365 193.14204 432.78284
300.14124 193.15643 432.38284
301.66971 193.33101 432.91583
302.89105 193.3457 432.50684
304.11304 193.36052 432.09384
305.97217 193.69574 433.54547
307.20056 193.71089 433.12247
308.75311 193.88635 433.6279
309.65906 193.74152 432.26407
310.88913 193.75699 431.82867
312.45129 193.93288 432.31879
313.68518 193.94859 431.87415
314.91949 193.96439 431.42523
316.83344 194.3011 432.82578
318.75848 194.63803 434.21817
319.6601 194.49371 432.82776
321.25195 194.67044 433.28284
322.49933 194.68672 432.80875
324.10004 194.86365 433.2522
324.99548 194.71942 431.84766
326.96039 195.05711 433.2002
328.57553 195.23428 433.62552
329.83289 195.25079 433.12674
331.09048 195.26727 432.62357
333.82355 195.92691 435.77814
336.94962 196.7476 439.83405
341.22485 198.05118 446.61456
344.0358 198.71164 449.72418
348.76544 200.17694 457.37598
352.77887 201.32082 463.18304
354.9057 201.66005 464.42542
357.4306 202.16028 466.56631
359.97137 202.66054 468.69565
361.34955 202.67749 468.09714
362.33203 202.5331 466.58972
364.50317 202.87186 467.78922
365.08142 202.5657 465.37186
366.45538 202.58156 464.75604
367.82874 202.59708 464.13568
369.20135 202.61221 463.51077
370.57318 202.62695 462.88141
371.53 202.47992 461.35184
372.89719 202.49371 460.71487
374.26324 202.50702 460.07367
-40.274139 198.23224 430.9538
-38.587082 198.05504 430.64508
-37.311966 198.04132 431.22818
-36.036102 198.02724 431.80716
-33.955261 197.68521 430.58041
-32.283981 197.50676 430.24658
-31.41127 197.65556 431.71259
-29.744446 197.47662 431.36795
-27.691101 197.13383 430.11121
-26.814728 197.28189 431.56552
-25.932831 197.42969 433.01782
-24.661987 197.41367 433.55914
-23.010193 197.23398 433.18607
-21.741943 197.21771 433.71759
-19.722656 196.87442 432.42017
-17.714142 196.53117 431.11404
-16.086594 196.35138 430.71362
-15.199661 196.49835 432.13782
-13.577866 196.31854 431.72662
-12.323837 196.30206 432.22659
-11.070145 196.28558 432.72232
-9.8167572 196.26907 433.21365
-7.8552551 195.92624 431.8591
-6.9595032 196.073 433.26163
-5.7098999 196.05661 433.73904
-4.1144562 195.87718 433.28827
-2.8684082 195.86093 433.75616
-1.622818 195.84474 434.21976
-0.039398193 195.66565 433.75226
1.2025757 195.64963 434.20636
2.4440308 195.6337 434.65625
4.0153198 195.45499 434.17221
5.253067 195.43927 434.61276
6.4902954 195.42368 435.0491
7.726944 195.4082 435.48135
8.9630585 195.39282 435.90939
10.515686 195.21486 435.39899
12.062439 195.03708 434.88269
13.603363 194.8595 434.36047
15.138397 194.68211 433.83249
16.974121 194.34233 432.36075
17.887085 194.49048 433.69775
18.804718 194.6387 435.0325
20.025665 194.62453 435.4245
21.541992 194.44803 434.87125
22.46582 194.5966 436.19659
23.394333 194.74527 437.51962
24.903671 194.56927 436.95288
26.121719 194.55585 437.32516
27.056412 194.70488 438.63885
28.556152 194.52943 438.05798
30.050079 194.3542 437.47165
30.988342 194.50366 438.7753
32.203598 194.491 439.1282
33.687988 194.31633 438.52805
34.899529 194.30402 438.87259
36.374969 194.12976 438.2626
37.844643 193.95569 437.64743
39.308548 193.78185 437.02707
40.510124 193.77025 437.35434
41.711182 193.75882 437.67795
43.414429 193.42355 436.08942
44.360542 193.57445 437.35913
45.557487 193.56351 437.67102
46.997475 193.39081 437.02295
48.190842 193.38022 437.3269
49.14547 193.53165 438.58484
50.340515 193.52133 438.88223
51.768181 193.34937 438.21713
52.959724 193.33937 438.50668
54.37867 193.16776 437.83255
55.791969 192.99634 437.15366
57.199631 192.8251 436.46997
58.381638 192.81578 436.74356
59.563217 192.80661 437.0137
60.7444 192.79761 437.28033
61.925179 192.78874 437.54355
62.895927 192.94168 438.76761
64.285561 192.77145 438.0596
65.465187 192.763 438.31247
66.64444 192.75471 438.56189
67.624084 192.90816 439.77448
69.001854 192.73857 439.0506
69.985992 192.89224 440.25742
71.16642 192.88449 440.4938
72.535378 192.71536 439.75815
73.898819 192.54642 439.01819
75.256752 192.37764 438.27383
76.609177 192.20901 437.52518
77.956116 192.04057 436.77225
79.121674 192.03369 436.98608
80.113609 192.18839 438.16827
81.281158 192.18176 438.37604
82.616577 192.01389 437.60806
83.780983 192.00754 437.80884
84.945107 192.00131 438.00641
86.108986 191.99519 438.20065
87.272583 191.98921 438.39172
88.435944 191.98335 438.57956
89.751678 191.8163 437.78906
90.911949 191.8107 437.97009
92.21946 191.64392 437.172
93.521553 191.47729 436.37
94.675987 191.47206 436.54059
95.969894 191.30569 435.73111
97.258438 191.13947 434.91766
98.272507 191.29582 436.05582
99.423523 191.29105 436.21341
100.57431 191.28639 436.36795
101.72492 191.28183 436.51932
102.87535 191.27737 436.66751
104.14725 191.11188 435.83325
105.17566 191.26881 436.95465
106.44205 191.10355 436.11349
107.47529 191.26067 437.22931
108.62485 191.25676 437.36203
109.88301 191.09181 436.51068
111.02969 191.0881 436.63687
112.17621 191.0845 436.76007
113.42361 190.91989 435.89838
114.56729 190.9165 436.01508
115.71082 190.91321 436.12878
116.85422 190.91 436.23938
118.08821 190.74582 435.3642
119.31694 190.58176 434.48547
120.5404 190.41779 433.60327
121.6756 190.41498 433.70099
122.81068 190.41229 433.79578
123.94566 190.40967 433.88751
125.08054 190.40717 433.97623
126.1426 190.56577 435.0462
127.27986 190.56342 435.12912
128.48459 190.40015 434.22433
129.61909 190.39799 434.30109
130.81593 190.23489 433.38977
131.94771 190.23294 433.46039
133.07941 190.23105 433.52792
134.15633 190.39024 434.57794
135.29045 190.38853 434.63974
136.42451 190.3869 434.69846
137.6055 190.22437 433.76843
138.73688 190.22293 433.82114
139.86819 190.22156 433.87085
140.96017 190.38126 434.90375
142.09396 190.38007 434.94763
143.22771 190.37894 434.98849
144.39297 190.21695 434.03995
145.49507 190.37698 435.0614
146.65512 190.21515 434.10672
147.7623 190.37534 435.12234
148.89587 190.37465 435.14841
150.01071 190.535 436.15826
151.17908 190.21255 434.20471
152.32359 190.05115 433.23495
153.45193 190.0508 433.24905
154.58028 190.05051 433.26019
155.7086 190.05032 433.2684
156.83035 190.37213 435.24756
157.9631 190.53307 436.23682
159.09914 190.53311 436.23615
160.23074 190.3723 435.24554
161.36423 190.37253 435.23895
162.48814 190.21188 434.24252
163.61908 190.21225 434.22998
164.73532 190.05177 433.22772
165.88098 190.21329 434.19614
166.99213 190.05295 433.18802
168.12057 190.05368 433.1637
169.29903 190.3764 435.10977
170.43268 190.37729 435.07944
171.56636 190.37828 435.04614
172.73279 190.54031 435.99628
173.90439 190.70242 436.94327
175.00551 190.54269 435.91464
176.10153 190.38303 434.88321
177.23546 190.38441 434.83499
178.36943 190.38589 434.78384
179.45534 190.22647 433.74396
180.58687 190.22812 433.68692
181.77173 190.39087 434.61246
182.85013 190.2317 433.56406
183.98186 190.23361 433.49808
185.17465 190.39664 434.41425
186.37268 190.55974 435.32709
187.50981 190.56192 435.25186
188.64703 190.56421 435.17365
189.85562 190.72762 436.07678
190.99559 190.73007 435.99231
191.98282 190.41055 433.93689
193.11786 190.41319 433.8468
194.41614 190.73804 435.72086
195.38824 190.41873 433.65756
196.52362 190.42166 433.55844
197.83769 190.74683 435.42209
198.8866 190.58887 434.3338
199.93045 190.431 433.24289
201.06633 190.4343 433.13165
202.30193 190.59879 433.99927
203.33849 190.44119 432.90009
204.57953 190.60591 433.76105
205.71854 190.6096 433.63733
206.85771 190.6134 433.51056
208.10953 190.77847 434.36127
209.36667 190.94365 435.20828
210.51147 190.94777 435.07166
211.53625 190.79083 433.95242
212.80164 190.95636 434.78918
213.82161 190.79959 433.66437
214.83662 190.64294 432.53714
215.97719 190.64758 432.38568
217.25107 190.81357 433.20901
218.39462 190.81844 433.05103
219.67667 190.98468 433.86707
220.96408 191.15105 434.67929
222.25688 191.31755 435.48755
223.263 191.16162 434.33975
224.56143 191.32837 435.14093
225.71407 191.33398 434.96292
226.71317 191.17836 433.80682
228.02005 191.3455 434.5972
229.33237 191.5128 435.38354
230.32704 191.35751 434.21869
231.48094 191.36371 434.02466
232.6351 191.37003 433.82739
233.62024 191.21507 432.6546
234.77237 191.22162 432.45129
235.92477 191.22829 432.24475
236.90044 191.07365 431.06415
238.41019 191.4035 432.79233
239.5661 191.41058 432.57556
240.72232 191.41779 432.35544
241.87886 191.42514 432.13211
243.4158 191.75568 433.84222
244.19295 191.44023 431.67551
245.35048 191.44797 431.4422
246.70619 191.61743 432.17242
247.86703 191.62547 431.93192
249.02823 191.63365 431.68808
250.80664 192.12689 434.33643
251.97639 192.13541 434.08423
253.14651 192.14407 433.82852
254.31702 192.15288 433.56943
255.70395 192.32355 434.26981
256.44061 192.00919 432.07861
257.60974 192.01842 431.80984
258.7793 192.02779 431.53754
259.94925 192.03731 431.26181
261.11963 192.04697 430.98254
262.52213 192.21866 431.65912
263.93024 192.3905 432.33081
265.34406 192.56256 432.99774
266.52408 192.57291 432.70255
267.94666 192.74533 433.36035
269.13022 192.75601 433.05731
270.31427 192.76685 432.75067
271.49884 192.77785 432.44046
272.68384 192.78899 432.12653
274.12457 192.96234 432.76224
275.8288 193.29799 434.34534
277.02319 193.30969 434.01837
278.48117 193.48367 434.63873
279.67926 193.49571 434.30353
280.87787 193.5079 433.9646
281.26437 193.03363 430.77539
282.72974 193.20831 431.37933
283.64862 193.05865 430.08331
285.39908 193.396 431.62469
286.59784 193.40895 431.26761
288.08118 193.58441 431.85168
288.99701 193.43533 430.54193
290.77606 193.77356 432.06003
291.6904 193.62476 430.74338
293.18918 193.80096 431.30789
294.69385 193.97739 431.86685
296.50415 194.31656 433.36026
298.02316 194.49344 433.90707
299.24289 194.5079 433.5098
300.77097 194.68515 434.04602
301.99454 194.69995 433.63989
303.21866 194.71487 433.22964
304.12769 194.56721 431.88055
305.987 194.90788 433.33093
307.21552 194.92322 432.90753
308.76819 195.1015 433.41214
309.67419 194.95424 432.0484
310.90436 194.96991 431.61261
312.13513 194.9857 431.1727
313.36639 195.00159 430.72858
314.93506 195.18054 431.20761
316.50952 195.35962 431.68042
318.77423 195.86501 433.99786
320.02081 195.88138 433.53198
321.61536 196.06091 433.9852
322.51526 195.91425 432.58731
324.11603 196.09396 433.02994
324.65594 195.78407 430.7052
326.61829 196.12714 432.05746
327.86993 196.14374 431.56476
329.48541 196.32367 431.98486
330.74036 196.34027 431.48242
333.8396 197.17392 435.55075
337.70877 198.33475 441.43179
341.98956 199.65948 448.20599
345.55948 200.65765 453.13458
350.29996 202.14682 460.77722
353.55984 202.98212 464.75708
354.92224 202.99951 464.17911
357.0596 203.34406 465.41101
359.9877 204.01591 468.44577
360.97287 203.86923 466.94205
363.13879 204.21347 468.14722
365.31506 204.5576 469.34317
365.89825 204.24628 466.92407
366.87372 204.09836 465.40536
368.24933 204.11389 464.78357
368.80661 203.80122 462.3616
370.58679 203.97983 462.62985
371.95718 203.99408 461.99588
373.74329 204.17181 462.25168
375.11407 204.18506 461.60782
-39.873505 199.32668 429.8201
-38.59967 199.31343 430.40747
-36.509979 198.96683 429.19504
-35.644669 199.11926 430.6709
-33.566772 198.77203 429.44412
-32.298004 198.75739 430.01141
-31.028732 198.74243 430.57449
-29.759048 198.7272 431.13333
-27.705872 198.37912 429.87784
-26.440887 198.36346 430.42584
-25.56189 198.51385 431.8768
-24.293884 198.4978 432.41733
-22.264008 198.14926 431.1344
-21.00119 198.13297 431.66397
-19.362869 197.95049 431.2775
-17.35704 197.60191 429.97156
-16.102448 197.58543 430.48489
-15.583191 197.90088 432.82404
-14.323654 197.88422 433.33087
-12.702118 197.7016 432.91617
-11.445755 197.68491 433.41324
-10.189743 197.66824 433.9061
-8.2254944 197.31995 432.55386
-7.3270874 197.46912 433.95728
-6.0748138 197.45255 434.4361
-4.4766693 197.27029 433.98727
-3.2278748 197.25381 434.45645
-1.6385956 197.07178 433.99606
0.28321838 196.72426 432.60309
1.1869507 196.87366 433.98392
2.7615051 196.69202 433.50592
3.9998627 196.67603 433.95105
5.2377319 196.66011 434.39194
6.1499481 196.80975 435.75986
7.7117767 196.62865 435.26132
8.947998 196.61307 435.68976
10.817902 196.26697 434.24631
12.362183 196.0864 433.72992
13.900604 195.90604 433.20764
15.123978 195.8911 433.61612
16.65332 195.71109 433.08313
17.569016 195.86162 434.42087
18.489395 196.01224 435.75638
20.011734 195.8327 435.20963
21.824249 195.48831 433.71631
22.452179 195.80438 435.98239
23.671524 195.79044 436.36285
25.178421 195.61166 435.79605
26.108521 195.76302 437.11197
27.04335 195.91446 438.42551
28.263046 195.90111 438.79111
29.482193 195.88791 439.1528
30.700783 195.87489 439.51065
31.918823 195.86201 439.86462
33.406013 195.68451 439.26602
34.620346 195.672 439.61154
36.363037 195.33017 438.05292
37.832893 195.15332 437.43848
39.037758 195.14136 437.77051
40.242104 195.12956 438.09882
41.699921 194.95331 437.47034
43.152 194.77725 436.83673
44.100861 194.93054 438.10696
45.546707 194.75487 437.46469
46.986855 194.57938 436.81735
47.939468 194.73312 438.07809
48.896843 194.88696 439.33646
50.330353 194.71201 438.67697
51.525108 194.70169 438.97098
52.949875 194.5271 438.3024
54.368988 194.35272 437.62897
55.557205 194.34291 437.91104
57.1903 194.00455 436.26773
58.152382 194.15942 437.50314
59.336716 194.15009 437.77408
60.735504 193.97661 437.0788
61.91642 193.96759 437.34225
62.887291 194.12297 438.5661
64.2771 193.95 437.8587
65.456856 193.94144 438.11182
66.636246 193.933 438.36148
67.815277 193.92471 438.60773
68.99395 193.91656 438.85056
69.978195 194.07269 440.05713
71.350235 193.9007 439.32605
72.716751 193.72888 438.59058
74.077751 193.55722 437.85071
75.433235 193.38574 437.10648
76.783226 193.21442 436.35794
77.770691 193.37134 437.54547
79.114891 193.20032 436.78934
80.106949 193.35747 437.97119
81.445358 193.18674 437.20761
82.610168 193.18015 437.41183
83.940262 193.00974 436.64032
84.938957 193.16734 437.81046
86.102943 193.16113 438.00491
87.424477 192.99112 437.22235
88.585373 192.98517 437.40988
89.74601 192.97934 437.59421
90.90641 192.97363 437.77533
92.214027 192.80418 436.97787
93.371384 192.79872 437.15219
94.528503 192.79338 437.3233
95.825119 192.62433 436.51477
97.116371 192.45541 435.70227
98.267685 192.45044 435.86316
99.286827 192.60938 436.9985
100.44032 192.60463 437.1535
101.72043 192.4362 436.32703
102.74673 192.59544 437.45398
104.02132 192.42726 436.62061
105.17148 192.42296 436.76273
106.32149 192.41876 436.9017
107.47131 192.41467 437.03763
108.62098 192.41068 437.17038
109.77048 192.4068 437.30011
110.91984 192.40302 437.4267
112.17265 192.23563 436.56915
113.31914 192.23207 436.6893
114.46547 192.22861 436.80643
115.70757 192.06155 435.93857
116.85106 192.05829 436.04922
118.08516 191.89148 435.17459
119.22583 191.88843 435.27893
120.45197 191.72182 434.39743
121.58983 191.71896 434.49551
122.72758 191.71619 434.59052
123.94308 191.54991 433.6991
125.15334 191.38373 432.80426
126.21292 191.54488 433.87372
127.34769 191.54248 433.95642
128.54996 191.37659 433.052
129.68198 191.3744 433.12863
130.8139 191.37228 433.20218
132.00562 191.2067 432.28812
133.13483 191.20479 432.35562
134.20926 191.36655 433.40509
135.34091 191.36481 433.46677
136.47249 191.36316 433.52545
137.604 191.36157 433.58109
138.73546 191.36011 433.63385
139.86687 191.35872 433.68362
140.99821 191.35741 433.73035
142.0928 191.51974 434.76001
143.1925 191.68217 435.7869
144.36043 191.51756 434.83887
145.46518 191.68016 435.85995
146.62788 191.51572 434.90585
147.76157 191.51495 434.93491
148.87395 191.6778 435.9473
150.01015 191.67715 435.9704
151.1786 191.34953 434.01773
152.30962 191.34909 434.03482
153.44063 191.34872 434.04898
154.57161 191.34845 434.06015
155.70261 191.34825 434.06839
156.83029 191.51167 435.06015
157.96384 191.51166 435.06253
159.09923 191.67523 436.04831
160.23093 191.51184 435.0582
161.36449 191.51208 435.05161
162.49806 191.51239 435.04205
163.61951 191.34924 434.04303
164.73582 191.18617 433.04117
165.88159 191.35028 434.00916
166.99281 191.18738 433.0014
168.12134 191.18811 432.97711
169.29988 191.51604 434.9223
170.43361 191.51694 434.89194
171.56738 191.51794 434.85861
172.73389 191.68257 435.80832
173.90559 191.84729 436.75482
175.00679 191.68498 435.72656
176.14331 191.68633 435.68124
177.27989 191.68774 435.63287
178.41652 191.68927 435.5816
179.50508 191.52728 434.54196
180.58856 191.3654 433.49957
181.77353 191.53076 434.42465
182.85201 191.36903 433.37656
183.98383 191.37097 433.31058
185.17671 191.53662 434.22623
186.37485 191.70236 435.13861
187.51205 191.70457 435.06329
188.64935 191.70689 434.98499
189.85805 191.87294 435.88766
190.92426 191.71182 434.81937
191.909 191.38716 432.76492
193.12054 191.55348 433.65836
194.33736 191.71991 434.54831
195.39113 191.55914 433.46899
196.5266 191.56212 433.36984
197.75148 191.72885 434.25003
198.88977 191.73203 434.14456
199.93372 191.57161 433.05405
201.06969 191.57497 432.94269
202.30539 191.74213 433.80981
203.44421 191.7457 433.69211
204.58319 191.74936 433.57138
205.72231 191.75313 433.44757
206.9715 191.92075 434.30112
208.226 192.08847 435.15097
209.25568 191.9288 434.03754
210.51567 192.09676 434.88062
211.42032 191.77356 432.78259
212.68324 191.94171 433.61914
213.70073 191.78244 432.49493
214.84122 191.78708 432.34653
215.85135 191.62799 431.21713
217.25589 191.96043 433.01773
218.39955 191.96539 432.85962
219.82001 192.29816 434.65186
221.11014 192.46722 435.4631
222.40564 192.63641 436.27039
223.41446 192.478 435.12256
224.71561 192.64746 435.92276
225.71971 192.48926 434.76932
226.7189 192.33118 433.61356
228.02594 192.50101 434.40338
229.49738 192.83493 436.16275
230.65628 192.84114 435.97086
231.65134 192.6835 434.80307
232.8082 192.68994 434.60516
233.79602 192.5325 433.43219
234.77898 192.37518 432.25696
235.75703 192.21796 431.07938
236.90727 192.22485 430.86984
238.41718 192.56001 432.59702
239.75549 192.73129 433.34952
240.91443 192.73865 433.12872
242.07372 192.74612 432.90472
243.6134 193.082 434.61325
244.58589 192.92566 433.41412
245.55353 192.76941 432.21268
246.71414 192.77744 431.97531
248.07556 192.94983 432.7005
249.03645 192.79393 431.49054
250.60944 193.13087 433.1727
251.77672 193.13951 432.92075
252.94438 193.1483 432.66544
254.11244 193.15723 432.40671
255.49692 193.33063 433.10696
256.44974 193.17554 431.87888
257.84027 193.34927 432.57114
259.01251 193.35883 432.29797
260.18524 193.36853 432.02142
261.3584 193.37839 431.74133
262.99533 193.71727 433.37531
264.17456 193.72748 433.08691
265.82806 194.0668 434.70996
267.25296 194.24187 435.37006
268.44141 194.25262 435.06903
269.63037 194.26352 434.76434
270.81979 194.27457 434.45609
272.00974 194.2858 434.14417
272.94757 194.13254 432.87512
274.64624 194.47336 434.46216
276.09814 194.64978 435.09067
277.03488 194.49695 433.81125
278.49304 194.67374 434.43091
279.95694 194.85074 435.04529
280.89005 194.69835 433.75616
281.54755 194.38126 431.51642
283.01569 194.55875 432.11874
284.21347 194.57159 431.76901
285.69061 194.7495 432.36151
286.89215 194.7627 432.00336
288.3783 194.94098 432.58582
289.58359 194.9545 432.21915
291.07877 195.13318 432.79147
292.28784 195.14703 432.4162
293.79205 195.32614 432.9783
295.59937 195.67055 434.47519
297.11798 195.85008 435.02518
298.6424 196.02985 435.56949
299.56238 195.87938 434.23227
300.78549 195.89423 433.8298
302.31958 196.07449 434.35941
302.92035 195.75906 432.07745
304.14252 195.77429 431.66373
305.68365 195.95502 432.17932
307.23065 196.13593 432.68903
308.45984 196.15158 432.26114
309.68958 196.16734 431.82913
310.91983 196.18321 431.39294
312.15063 196.19919 430.95264
313.38196 196.21526 430.50812
314.61383 196.23141 430.05945
316.18579 196.4133 430.53244
318.10577 196.76099 431.92416
319.34705 196.77747 431.45981
320.58878 196.79399 430.99124
321.83093 196.81058 430.51846
323.42639 196.99301 430.96222
324.67206 197.00967 430.47983
326.27625 197.19226 430.91193
327.52521 197.20898 430.41989
329.13806 197.39165 430.84021
330.39026 197.40837 430.33847
333.85583 198.42123 435.31961
338.09668 199.76662 442.11035
342.75449 201.27859 449.7915
347.08356 202.62497 456.53711
351.45535 203.9718 463.26044
354.34103 204.65421 466.32507
355.32379 204.50552 464.83664
357.46362 204.85541 466.06601
359.61395 205.20526 467.28622
360.59613 205.05597 465.78375
362.36371 205.23911 466.08557
364.53436 205.58844 467.28253
365.11182 205.27182 464.86655
366.0816 205.12123 463.35049
368.26379 205.46968 464.52783
368.82062 205.15173 462.10669
371.01178 205.49945 463.27023
373.21262 205.84683 464.42459
375.42291 206.19379 465.56961
376.38428 206.04037 464.02823
-39.885574 200.58517 429.57855
-39.022461 200.74115 431.06238
-36.930481 200.38931 429.85229
-35.658051 200.37534 430.43051
-33.982697 200.19193 430.10474
-32.312057 200.00822 429.77246
-31.043076 199.99326 430.33575
-29.773666 199.978 430.89487
-28.112289 199.79355 430.5452
-26.844864 199.77783 431.09464
-25.577209 199.7619 431.63977
-23.925781 199.57693 431.27264
-22.279602 199.39191 430.89899
-21.016953 199.37552 431.42896
-19.378693 199.19031 431.04324
-17.74585 199.00507 430.65109
-16.118408 198.81978 430.25232
-15.966919 199.30893 433.50546
-14.339844 199.12354 433.09811
-12.718292 198.93817 432.68423
-11.821609 199.08984 434.09952
-10.205963 198.90451 433.67493
-8.2416534 198.55081 432.32407
-7.6949158 198.87085 434.64828
-6.4399567 198.85403 435.12848
-4.4927521 198.50064 433.75861
-2.9002838 198.3157 433.30435
-1.6545868 198.29915 433.76868
0.26737976 197.94623 432.37704
1.5068359 197.92987 432.83096
2.7457886 197.9136 433.28067
3.6538391 198.06554 434.65494
5.222168 197.88133 434.16751
6.1344757 198.03339 435.53525
7.3739929 198.01746 435.96915
8.9327545 197.83369 435.46643
10.485672 197.65009 434.9577
12.032745 197.46669 434.44308
13.262115 197.45135 434.8577
14.490891 197.43616 435.26831
16.025696 197.25327 434.73785
16.946732 197.40614 436.0773
17.872498 197.55908 437.41437
19.400299 197.37669 436.87012
21.218277 197.02682 435.37985
22.144958 197.18019 436.70578
23.657852 196.99841 436.14542
25.164886 196.81683 435.57947
26.38063 196.80302 435.9516
27.312927 196.95691 437.26422
28.530151 196.94339 437.62936
30.024445 196.76254 437.04462
30.962959 196.91682 438.34799
32.178528 196.90378 438.70151
33.933014 196.55612 437.15466
35.142235 196.54347 437.49905
36.350937 196.53098 437.83966
37.820953 196.35135 437.22604
39.025978 196.33919 437.55835
40.230484 196.32719 437.88693
41.688492 196.14815 437.25919
42.889351 196.13651 437.57965
44.089722 196.12505 437.89648
45.535759 195.94658 437.25488
46.976089 195.76831 436.60828
48.169762 195.75739 436.91281
49.124672 195.91367 438.17032
50.32003 195.90303 438.46823
51.514931 195.89255 438.76254
