ply
format ascii 1.0
comment PCL generated
element vertex 1593
property float x
property float y
property float z
element camera 0
property float view_px
property float view_py
property float view_pz
property float x_axisx
property float x_axisy
property float x_axisz
property float y_axisx
property float y_axisy
property float y_axisz
property float z_axisx
property float z_axisy
property float z_axisz
property float focal
property float scalex
property float scaley
property float centerx
property float centery
property int viewportx
property int viewporty
property float k1
property float k2
end_header
215.58524 151.8833 453.23758
216.7641 151.88557 453.08679
217.81285 151.81694 451.94397
218.59094 151.60643 448.82144
219.21835 151.32498 444.70966
220.10135 151.18549 442.57339
220.83363 150.97504 439.44791
221.69382 150.8356 437.30869
222.68961 150.76718 436.15466
223.53214 150.62781 434.0119
224.51546 150.55948 432.8537
225.34036 150.42018 430.70758
226.15518 150.28091 428.56006
227.1185 150.21271 427.39587
228.0769 150.14453 426.22943
229.03036 150.07642 425.06082
230.14525 150.07939 424.8736
231.26038 150.08241 424.6832
232.20422 150.01443 423.50717
233.31726 150.01758 423.31116
234.43057 150.02078 423.11212
235.36487 149.95296 421.92871
236.4761 149.95627 421.72394
237.58762 149.95966 421.51605
238.6994 149.96309 421.30511
240.0011 150.0377 422.07034
241.30824 150.1124 422.83145
242.62088 150.18718 423.58841
243.74162 150.19092 423.36349
244.86267 150.1947 423.13535
245.98402 150.19856 422.90402
246.90059 150.13133 421.69345
248.02003 150.13533 421.45636
249.56046 150.28175 423.16614
251.32452 150.49947 425.84497
252.88898 150.64612 427.54321
255.33661 151.07771 433.12921
257.37433 151.36707 436.7594
259.20996 151.58536 439.40939
261.28741 151.875 443.02393
263.38611 152.16483 446.63019
264.35052 152.09851 445.3765
265.77756 152.1748 446.05988
266.97394 152.17992 445.76953
267.93188 152.1138 444.5072
268.88507 152.04776 443.24258
269.58939 151.91046 441.00867
270.28378 151.77319 438.77386
270.7189 151.56464 435.57236
271.39078 151.42743 433.33655
272.0527 151.29025 431.09995
272.96182 151.2245 429.82629
274.12595 151.23019 429.51361
275.55292 151.30737 430.15967
276.72067 151.31325 429.83914
278.42413 151.46208 431.43689
280.13852 151.61104 433.02805
281.59113 151.68869 433.65326
283.04953 151.76645 434.27335
284.51367 151.84433 434.88824
285.14166 151.70784 432.62653
286.32629 151.7144 432.27686
288.08331 151.86412 433.83469
288.98578 151.79935 432.52124
290.46594 151.87776 433.11365
292.83331 152.17101 436.56018
294.62946 152.3213 438.09174
296.1377 152.40015 438.66455
297.65179 152.47911 439.23187
298.56317 152.41492 437.8938
299.46997 152.3508 436.55356
300.37207 152.28671 435.21103
301.26959 152.22272 433.86636
303.10693 152.37387 435.3587
305.27304 152.59692 437.78918
306.17511 152.5332 436.43164
307.39526 152.54129 436.01559
308.94156 152.62125 436.53842
309.83765 152.55775 435.17148
310.7291 152.49429 433.80222
311.94928 152.50273 433.37088
313.84204 152.65494 434.81363
315.06879 152.66357 434.37213
316.2962 152.67229 433.92645
317.86816 152.75299 434.41287
318.75287 152.68996 433.02258
319.63293 152.62697 431.6301
321.2121 152.70795 432.1019
323.15173 152.86101 433.49969
324.38818 152.87022 433.02676
325.98505 152.95152 433.47968
327.58783 153.03293 433.92627
329.56174 153.18649 435.29459
330.07535 153.05188 432.94601
333.54309 153.49405 438.00543
337.78973 154.08076 444.89755
342.45538 154.73999 452.69174
346.79099 155.32748 459.53903
352.31335 156.1319 469.12909
354.44 156.28694 470.405
356.5777 156.44211 471.67166
358.72644 156.59738 472.92899
358.92676 156.3914 469.59106
360.29498 156.40219 469.00327
362.85507 156.62988 471.15518
365.03149 156.78537 472.38162
366.41354 156.79623 471.77347
369.41663 157.09656 474.80579
370.80939 157.10742 474.18317
372.61261 157.19066 474.46457
374.00775 157.20145 473.83099
375.40265 157.21216 473.19263
376.37851 157.15031 471.6441
-38.236176 155.17369 433.16272
-36.96225 155.1637 433.73923
-35.28154 155.07867 433.40082
-34.414032 155.14355 434.87894
-31.935959 154.90862 432.70349
-30.669861 154.89853 433.2587
-29.403839 154.88841 433.80942
-28.13797 154.8783 434.35574
-26.481689 154.79333 433.98007
-25.218948 154.78323 434.51633
-24.341766 154.84798 435.96793
-22.694351 154.76312 435.57553
-21.052628 154.67831 435.17645
-19.7939 154.66833 435.69382
-18.161011 154.58368 435.28265
-16.533875 154.49911 434.86487
-14.912552 154.41463 434.44055
-14.030304 154.47955 435.86453
-12.415329 154.39522 435.42938
-11.890106 154.53484 437.77618
-9.9202423 154.37604 436.40079
-8.6735535 154.36655 436.88004
-7.0741425 154.28258 436.42245
-5.8312683 154.27325 436.89203
-4.2409973 154.18948 436.42285
-3.6927338 154.32932 438.754
-2.4490814 154.32021 439.21182
-1.2060699 154.31117 439.66547
0.036315918 154.30223 440.11487
1.9475861 154.14452 438.68134
3.5155334 154.06137 438.18011
5.0774841 153.97836 437.67297
6.9603729 153.82111 436.21765
7.8594818 153.88705 437.58386
9.406311 153.8044 437.05981
10.628311 153.79617 437.47479
11.84967 153.78806 437.88577
13.384033 153.70575 437.34607
14.601471 153.69783 437.74817
15.509918 153.76425 439.0947
16.728745 153.75648 439.48969
17.643845 153.82304 440.83084
18.864044 153.81546 441.21884
20.381439 153.73381 440.65125
21.89299 153.65228 440.07806
22.813522 153.71916 441.40607
24.898514 153.48959 438.91528
25.817841 153.55667 440.23566
27.026535 153.5497 440.59802
28.516724 153.46875 440.00018
30.001129 153.38791 439.39694
31.479729 153.30721 438.78842
32.952507 153.22662 438.17474
34.147911 153.22018 438.51538
35.073753 153.28786 439.81262
36.537079 153.20758 439.18564
37.730865 153.20142 439.51529
39.185318 153.12137 438.87885
40.375465 153.11539 439.20053
41.82106 153.03557 438.55478
43.260956 152.95584 437.90405
44.193672 153.02408 439.17883
45.131111 153.09238 440.45145
46.564362 153.01294 439.7887
47.991943 152.93362 439.12109
49.413849 152.85442 438.44873
50.830109 152.7753 437.77158
52.240738 152.6963 437.08963
53.413216 152.69125 437.3728
54.585266 152.68628 437.65256
55.529587 152.75519 438.89987
56.478683 152.82417 440.14505
57.876862 152.74562 439.44348
58.830368 152.81473 440.68304
60.00563 152.81013 440.94696
61.394844 152.73186 440.23358
62.778526 152.65366 439.51563
63.947487 152.64931 439.76831
65.322662 152.57129 439.04208
66.488342 152.56711 439.28757
67.653664 152.56299 439.52982
68.81868 152.55893 439.76868
69.983353 152.55496 440.00433
71.14772 152.55106 440.23663
72.120728 152.62091 441.44452
73.47551 152.54347 440.69156
74.824821 152.46611 439.93433
75.802116 152.53615 441.13342
77.145683 152.45894 440.36874
78.661919 152.30818 438.61868
79.465416 152.45204 440.79037
80.797836 152.37508 440.01422
82.124832 152.29817 439.23398
83.278633 152.29497 439.43265
84.432175 152.29182 439.62823
85.748116 152.21515 438.83667
86.898605 152.21213 439.02551
88.363808 152.06201 437.24164
89.663574 151.98557 436.43823
90.95797 151.90918 435.63089
92.097275 151.90643 435.8056
93.089211 151.97729 436.96362
94.086098 152.04823 438.11942
95.087944 152.11919 439.27274
96.094749 152.1902 440.4238
97.380226 152.11418 439.59677
98.66037 152.03824 438.76599
99.803482 152.03587 438.91998
100.94643 152.03357 439.07092
102.0892 152.03133 439.21881
103.10783 152.10265 440.35318
104.37427 152.02699 439.5054
105.51657 152.0249 439.6442
106.77499 151.94937 438.78937
108.02812 151.8739 437.931
109.16485 151.87196 438.06003
110.19289 151.94357 439.17752
111.43788 151.86827 438.30923
112.57422 151.8665 438.42932
113.81126 151.79129 437.5542
114.84651 151.8631 438.66049
116.07817 151.78799 437.7789
117.21146 151.78644 437.88684
118.4352 151.71144 436.99854
119.47772 151.78342 438.09366
120.78152 151.63509 436.20538
121.90927 151.6337 436.30093
123.03691 151.63237 436.39359
124.16447 151.63109 436.48328
125.29194 151.62984 436.57001
126.41932 151.62865 436.65387
127.54663 151.62749 436.73468
128.60641 151.69981 437.80768
129.73615 151.69875 437.88287
130.8658 151.69772 437.95511
131.93564 151.77017 439.01996
133.06773 151.76924 439.08649
134.30898 151.62151 437.15845
135.38377 151.69408 438.21481
136.51312 151.69327 438.27243
137.68933 151.61909 437.33087
138.81601 151.61838 437.38251
139.90088 151.6911 438.42767
141.03003 151.69048 438.47363
142.19579 151.61647 437.51999
143.3223 151.61592 437.56
144.41728 151.68883 438.5939
145.5463 151.68835 438.62817
146.70166 151.61453 437.66257
147.78043 151.76096 439.68497
148.91194 151.7606 439.71057
150.04343 151.7603 439.73322
151.19099 151.68665 438.75586
152.30634 151.75983 439.76987
153.44875 151.68625 438.78653
154.5692 151.75951 439.79474
155.70062 151.7594 439.80289
156.83203 151.75935 439.80807
157.96344 151.75934 439.8103
159.09486 151.75937 439.80969
160.2307 151.83282 440.80344
161.36469 151.83293 440.79694
162.49869 151.83308 440.78757
163.64481 151.90668 441.7724
164.7814 151.90691 441.75711
165.90076 151.83379 440.74179
167.01501 151.7607 439.7236
168.14655 151.76105 439.69965
169.30302 151.83484 440.66971
170.43716 151.83528 440.63986
171.54126 151.76236 439.61026
172.70554 151.83629 440.57141
173.83978 151.83685 440.53275
174.93629 151.76404 439.49457
176.06805 151.76469 439.4502
177.19986 151.76538 439.40286
178.37717 151.83954 440.34888
179.51164 151.8403 440.29556
180.64616 151.84113 440.23932
181.78075 151.84198 440.18018
182.97112 151.91632 441.11377
183.99178 151.77042 439.0574
185.12398 151.77141 438.98956
186.25626 151.77245 438.91879
187.5206 151.92038 440.8353
188.65816 151.92151 440.75827
189.93806 152.06955 442.66782
191.08093 152.07079 442.58453
192.22386 152.07205 442.49823
193.36688 152.07336 442.40897
194.42859 152.00128 441.32275
195.56924 152.00269 441.22775
196.70999 152.00414 441.12976
197.67259 151.8587 439.04211
198.9001 151.93372 439.9317
200.13286 152.00877 440.81781
201.27405 152.01041 440.70786
202.61417 152.15906 442.57959
203.96468 152.30775 444.44724
205.22105 152.38304 445.319
206.37558 152.3849 445.19562
207.63994 152.4603 446.06046
208.68506 152.38878 444.93976
209.84003 152.39079 444.80731
210.87772 152.31935 443.68134
212.39034 152.54199 446.51321
213.91855 152.76471 449.34006
215.33725 152.914 451.17252
216.76639 153.06335 453.00049
217.8152 152.99222 451.85776
218.7262 152.84758 449.72421
219.49164 152.62946 446.60083
220.24181 152.41133 443.47641
220.97672 152.19324 440.35107
222.12582 152.19585 440.18576
222.83794 151.97781 437.05753
223.83141 151.90695 435.901
224.66904 151.76254 433.75629
225.34311 151.5446 430.62469
226.47003 151.54744 430.44742
227.4386 151.47675 429.28259
228.241 151.33249 427.13132
229.52464 151.40909 427.92987
230.48097 151.33853 426.7579
231.43237 151.26802 425.58371
232.37886 151.19757 424.40735
233.49455 151.20081 424.21088
234.43381 151.13045 423.02972
235.72668 151.20744 423.80853
236.66132 151.13721 422.62219
237.77547 151.14067 422.41373
239.07693 151.2179 423.18182
240.19424 151.2215 422.96667
241.31186 151.22519 422.74844
242.81934 151.37633 424.48315
243.74536 151.30646 423.28003
245.06644 151.38406 424.02887
245.98792 151.31432 422.8205
247.10968 151.31834 422.58594
248.23178 151.32245 422.34818
249.77489 151.47415 424.05695
251.11578 151.55219 424.78598
253.1088 151.85164 428.4317
255.55914 152.29883 434.01587
257.59961 152.59863 437.64459
259.88452 152.97238 442.23718
261.96991 153.27252 445.84906
263.61948 153.42516 447.51114
264.81766 153.43024 447.22699
265.78259 153.36157 445.96988
266.97906 153.36681 445.67938
267.93707 153.29826 444.41711
268.40729 153.082 441.21744
269.35059 153.01355 439.95203
270.04242 152.87125 437.71814
270.7243 152.72899 435.48337
271.39624 152.58676 433.24786
272.05823 152.44458 431.01151
272.96741 152.37639 429.73795
274.39139 152.45621 430.38797
275.55872 152.46214 430.07086
276.46155 152.39417 428.78879
278.16248 152.54831 430.38672
279.87439 152.70258 431.97809
281.59729 152.85701 433.5629
283.33124 153.01158 435.14111
284.7981 153.09222 435.75488
285.99011 153.09892 435.40649
287.18271 153.1057 435.05441
288.6618 153.18668 435.65396
290.1467 153.26779 436.24817
291.63745 153.34903 436.83704
293.42786 153.50455 438.37341
295.22937 153.66025 439.90274
296.44391 153.66769 439.52222
297.05569 153.52682 437.23679
298.57056 153.60866 437.7998
299.17041 153.4679 435.51071
300.37955 153.47568 435.11707
301.58936 153.48355 434.71948
303.4295 153.64011 436.21045
304.96332 153.72252 436.74854
306.82324 153.87939 438.22531
307.40326 153.73903 435.92017
308.94958 153.82178 436.44257
310.50189 153.90466 436.95905
311.06799 153.76447 434.64725
312.29089 153.77313 434.21475
313.8504 153.85631 434.71704
314.73859 153.79071 433.3374
315.96341 153.79962 432.89252
317.53284 153.88312 433.37949
318.41492 153.81769 431.99017
319.99091 153.90138 432.4668
321.57278 153.9852 432.93719
323.5152 154.14371 434.3334
325.11157 154.22775 434.79022
326.35394 154.2373 434.3107
327.9595 154.32155 434.75583
330.30136 154.55522 437.05038
330.45239 154.341 433.7731
335.03464 155.02313 441.60739
338.54568 155.48151 446.64377
342.841 156.08969 453.51007
347.17944 156.69824 460.35428
352.70477 157.53156 469.9407
353.68243 157.46764 468.45383
356.97455 157.85269 472.47971
358.73676 157.93858 472.81714
358.54507 157.65016 468.56271
359.91064 157.66115 467.97589
362.07086 157.82196 469.21344
364.24194 157.98285 470.44159
366.02118 158.06885 470.74783
368.61633 158.30481 472.86917
371.22754 158.54086 474.97852
373.444 158.70197 476.16702
374.01782 158.5629 473.71582
374.99658 158.49875 472.17093
377.64426 158.7348 474.24393
-37.009476 156.18472 430.33029
-36.562332 156.32982 432.72156
-35.290985 156.3196 433.29257
-34.019562 156.30933 433.85922
-32.748138 156.29903 434.42145
-31.078064 156.21117 434.06534
-29.809418 156.20084 434.61746
-28.934204 156.26796 436.08124
-27.272583 156.18013 435.70831
-26.004501 156.16978 436.24704
-25.507294 156.31427 438.62036
-23.469208 156.14914 437.31107
-21.822128 156.06148 436.91467
-20.558044 156.05124 437.43445
-18.919769 155.96371 437.02588
-16.915298 155.79897 435.68564
-15.29126 155.71164 435.26285
-14.039703 155.70166 435.76074
-12.424637 155.6145 435.32596
-11.538086 155.68187 436.74332
-9.5708008 155.51768 435.36755
-9.0387115 155.66234 437.70856
-7.0831757 155.49837 436.32004
-6.1909637 155.56595 437.72321
-4.9459991 155.55646 438.18979
-4.0470276 155.62415 439.58734
-2.4579163 155.53772 439.11014
-1.5548859 155.60551 440.50113
0.027648926 155.5193 440.01352
1.9390411 155.35619 438.5806
3.8392029 155.19324 437.13971
5.3986206 155.10744 436.63208
6.9521332 155.02176 436.11838
8.1754913 155.01315 436.54169
9.7197876 154.92772 436.01715
10.93924 154.91931 436.4314
12.158035 154.91101 436.84167
13.689865 154.82593 436.30148
14.90477 154.81783 436.70288
15.810654 154.88666 438.04852
17.026947 154.87872 438.44281
17.636368 155.02449 440.73294
18.556168 155.09351 442.07184
20.076324 155.00905 441.50537
21.885803 154.84798 439.98108
22.806412 154.91727 441.30908
24.601563 154.75647 439.77301
26.098297 154.67253 439.18463
27.304443 154.66541 439.54642
28.510025 154.65839 439.90442
29.994507 154.5748 439.30157
31.473221 154.49133 438.69345
32.397614 154.56125 439.99725
34.141594 154.4014 438.42087
35.067505 154.47148 439.71808
36.264526 154.46506 440.05225
37.724831 154.38214 439.42117
39.179367 154.29936 438.7851
40.111023 154.36978 440.06985
41.559326 154.2872 439.42517
42.748573 154.28125 439.73975
43.686569 154.3519 441.0159
44.877441 154.34613 441.32407
46.3134 154.26395 440.66229
47.74366 154.1819 439.99573
49.168274 154.09996 439.32431
50.587234 154.01813 438.64807
52.000549 153.9364 437.9671
53.175705 153.9312 438.25104
54.350441 153.92609 438.53149
55.297424 153.99745 439.77936
56.473923 153.99249 440.05362
57.872177 153.91124 439.35242
59.045288 153.90645 439.61929
60.218033 153.90173 439.88272
61.390396 153.89711 440.14276
62.774147 153.81622 439.42517
63.943184 153.81177 439.67798
65.318443 153.73108 438.952
66.4842 153.72678 439.19757
67.649597 153.72255 439.43991
68.814674 153.7184 439.67889
70.371872 153.56177 437.95941
71.143852 153.71033 440.14703
72.499016 153.63013 439.39758
73.848709 153.55003 438.64386
75.007057 153.54626 438.86554
75.981812 153.6188 440.06406
77.322868 153.53894 439.29926
78.658485 153.45915 438.53015
79.462029 153.60809 440.70157
80.794533 153.52846 439.92563
81.951218 153.52509 440.12808
82.939857 153.59799 441.31021
84.098625 153.59474 441.50671
85.582428 153.43924 439.73257
86.895622 153.35997 438.93768
88.203415 153.28079 438.13889
89.660736 153.12552 436.35114
90.9552 153.04651 435.54404
91.944817 153.11983 436.70462
92.939384 153.19319 437.86288
94.083481 153.19049 438.03232
94.943359 153.34009 440.17255
96.092224 153.33749 440.33652
97.377777 153.25883 439.50974
98.657974 153.18025 438.6792
99.801147 153.17783 438.83322
100.94414 153.17548 438.98425
101.9604 153.24925 440.12119
103.22964 153.17091 439.27701
104.37215 153.16873 439.41888
105.63334 153.09052 438.56769
106.88924 153.01236 437.71283
108.13985 152.93427 436.8544
109.27406 152.9323 436.98322
110.40813 152.93037 437.10904
111.43607 153.00458 438.22339
112.57246 153.00275 438.34348
113.80956 152.92494 437.4686
114.84485 152.99927 438.57471
116.07657 152.92155 437.69336
117.2099 152.91995 437.80133
118.34312 152.91838 437.90628
119.47625 152.91687 438.00824
120.69469 152.83937 437.1138
121.9079 152.76193 436.21597
123.03559 152.76057 436.30862
124.24091 152.68324 435.40433
125.36586 152.68198 435.49088
126.49072 152.68076 435.57455
127.54549 152.75557 436.64987
128.67276 152.75444 436.72787
129.79997 152.75336 436.80292
130.92709 152.7523 436.875
131.99442 152.8273 437.93951
133.12399 152.82634 438.00592
134.30811 152.74944 437.07379
135.43498 152.74857 437.13419
136.51233 152.82373 438.18756
137.64168 152.82295 438.24225
138.81531 152.74623 437.29794
139.85844 152.89749 439.33914
140.9902 152.89685 439.38522
142.15857 152.82027 438.43188
143.2877 152.8197 438.47198
144.41678 152.81918 438.50919
145.51691 152.89467 439.54016
146.6485 152.89424 439.57162
147.78006 152.89384 439.60013
148.91161 152.89349 439.62564
150.02446 152.96915 440.64532
151.17464 152.89291 439.66812
152.30614 152.89268 439.68497
153.43761 152.8925 439.69891
154.56908 152.89236 439.70996
155.70055 152.89226 439.71805
156.832 152.89221 439.72324
157.96346 152.8922 439.72549
159.09491 152.89221 439.72485
160.22636 152.89229 439.72128
161.35783 152.8924 439.71481
162.4893 152.89255 439.70541
163.6208 152.89275 439.69312
164.73763 152.81702 438.68091
165.88382 152.89325 439.65973
167.01535 152.89359 439.63873
168.14691 152.89395 439.61475
169.30345 152.97032 440.58466
170.41013 152.89481 439.55807
171.54176 152.89529 439.52533
172.67345 152.89583 439.48972
173.76996 152.82042 438.45465
174.89915 152.82104 438.41324
176.02838 152.8217 438.36893
177.15767 152.8224 438.32166
178.33246 152.89914 439.26761
179.4644 152.89993 439.21442
180.54581 152.82478 438.16251
181.78163 152.97765 440.09494
182.86058 152.90257 439.03726
183.87614 152.75156 436.98148
185.06413 152.82857 437.90924
186.19388 152.82962 437.83859
187.38971 152.90672 438.75992
188.59074 152.98389 439.67795
189.86813 153.13708 441.58728
191.08218 153.21436 442.49854
192.22516 153.21565 442.41223
193.36824 153.21701 442.32291
194.51141 153.2184 442.23062
195.65468 153.21985 442.13541
196.71147 153.14531 441.04373
197.76324 153.07082 439.94965
198.90169 153.07239 439.84586
200.13449 153.15007 440.73175
201.37256 153.22778 441.61414
202.61591 153.30557 442.49304
203.96646 153.45946 444.36023
205.2229 153.53735 445.23172
206.4846 153.61533 446.09973
207.64191 153.61728 445.97299
208.68707 153.54324 444.85242
209.72723 153.46924 443.72943
210.99722 153.54742 444.58426
212.51248 153.77783 447.41513
213.92079 153.93225 449.25156
215.5898 154.23891 453.06195
216.89647 154.3174 453.90002
217.81763 154.16763 451.76852
218.99435 154.17014 451.61169
219.76498 153.94435 448.48813
220.38235 153.64249 444.37604
221.40105 153.56898 443.22516
222.41476 153.49554 442.07187
223.13208 153.26988 438.94348
224.13075 153.19652 437.78622
224.9736 153.04706 435.64111
225.65286 152.82147 432.50925
226.78502 152.8244 432.33115
227.75876 152.75121 431.16556
228.72757 152.67807 429.99771
229.85526 152.68115 429.81122
230.65042 152.53194 427.6554
231.77342 152.53514 427.46359
232.72513 152.4622 426.28644
233.67192 152.38931 425.10715
234.79051 152.3927 424.90701
235.90936 152.39615 424.70374
236.66475 152.24719 422.53668
238.14787 152.40323 424.2879
239.45459 152.48312 425.05472
240.38751 152.4106 423.85962
241.50778 152.41438 423.64078
243.01794 152.57079 425.37454
243.94662 152.49844 424.17105
245.27036 152.57874 424.91904
246.19449 152.50652 423.71021
247.52406 152.58699 424.45078
248.65141 152.59122 424.21185
249.77911 152.59552 423.9697
251.12009 152.67624 424.69843
253.32874 153.06248 429.3168
255.99994 153.60162 435.87198
258.26642 153.98825 440.47095
260.55927 154.37506 445.06064
262.87848 154.76207 449.64093
264.53854 154.92004 451.30005
265.05389 154.69604 448.10361
265.78775 154.54849 445.87659
266.74799 154.47743 444.61734
267.22565 154.25351 441.41974
267.68811 154.02962 438.2225
268.86777 154.03517 437.92584
269.55447 153.88783 435.6936
270.48053 153.81703 434.42587
271.40186 153.74628 433.15594
271.80933 153.52255 429.95587
272.97314 153.52846 429.64645
273.87769 153.45789 428.37085
275.03986 153.46396 428.05505
276.46756 153.54669 428.69687
278.16858 153.70615 430.29422
279.88062 153.86575 431.88507
282.14932 154.17877 435.38736
283.61316 154.26207 436.00522
285.08273 154.34549 436.61786
286.83887 154.50569 438.18204
288.32269 154.58939 438.78342
290.09833 154.74989 440.33466
291.30789 154.75714 439.97018
292.80923 154.8412 440.55539
294.31647 154.9254 441.13525
295.82953 155.00974 441.70959
295.85312 154.71027 437.52267
297.06311 154.71797 437.13974
298.27374 154.72577 436.75293
298.56409 154.50317 433.51636
299.76804 154.51111 433.12427
301.59711 154.67288 434.62204
303.43738 154.83484 436.11237
304.97131 154.92004 436.65005
306.51117 155.00537 437.18192
307.73419 155.0139 436.76468
309.60873 155.17644 438.22818
310.51025 155.1082 436.85944
311.73785 155.11702 436.42899
312.63275 155.04892 435.05478
313.52295 154.98087 433.67834
314.74722 154.9899 433.2374
315.97211 154.99904 432.7923
316.85367 154.93115 431.40726
319.11707 155.17178 433.75928
320.69843 155.25833 434.23346
322.28571 155.345 434.70145
324.58813 155.58615 437.02682
326.1926 155.6731 437.48019
327.44299 155.68292 436.99734
329.41919 155.84729 438.36771
331.40656 156.01181 439.72949
332.66928 156.02193 439.2294
337.26773 156.72781 447.05511
339.67523 156.9702 449.31003
344.73053 157.75418 458.01788
348.70398 158.30653 463.93237
352.71521 158.85922 469.82672
354.46069 158.94778 470.18008
357.75827 159.34615 474.20245
358.74731 159.28 472.70142
359.33942 159.13635 470.28113
361.10486 159.22511 470.6073
362.47858 159.23639 470.0119
365.05231 159.48029 472.15146
366.03162 159.414 470.6308
369.03207 159.7356 473.66211
372.05389 160.05731 476.67905
373.86502 160.14626 476.95602
375.26801 160.1575 476.31842
375.83875 160.01334 473.86386
378.07297 160.17975 475.02866
-37.430954 157.50122 431.12613
-35.343842 157.33049 429.88293
-34.487259 157.40033 431.3606
-33.221268 157.38992 431.92508
-31.955215 157.37946 432.48511
-30.290512 157.28885 432.12711
-29.423233 157.35844 433.59183
-28.550735 157.42799 435.05444
-26.891785 157.33737 434.68082
-26.014359 157.40688 436.13678
-25.131897 157.47633 437.59058
-23.47908 157.38579 437.20126
-22.211945 157.37527 437.72684
-20.567856 157.28485 437.32529
-18.929535 157.1945 436.91718
-17.296982 157.10423 436.50241
-15.300888 156.93417 435.15524
-14.415939 157.00383 436.58026
-12.434189 156.83398 435.21909
-11.186264 156.82393 435.70737
-9.9388885 156.81392 436.19131
-8.6920776 156.80399 436.67096
-6.7391205 156.63461 435.28214
-5.8495026 156.70459 436.68423
-4.607132 156.69492 437.15002
-3.7107544 156.76498 438.5466
-2.8096771 156.8351 439.94086
-1.563858 156.82561 440.39587
-0.31867981 156.81621 440.84665
1.2606659 156.72728 440.35428
3.4983826 156.47931 437.97607
5.3900757 156.3111 436.52893
6.9436798 156.22263 436.01569
8.815567 156.05475 434.55386
10.033096 156.04607 434.9715
11.25 156.03748 435.38504
12.466278 156.02898 435.79459
13.681885 156.02058 436.20016
14.896866 156.01228 436.60178
15.802841 156.08351 437.94733
16.713455 156.15479 439.29062
17.628677 156.22614 440.63171
18.849075 156.21817 441.02002
20.068832 156.21031 441.40448
21.878464 156.04388 439.88077
23.091736 156.03625 440.2558
24.594406 155.94942 439.67325
26.091232 155.8627 439.08524
27.29747 155.85541 439.44724
28.503143 155.84821 439.80539
29.987747 155.76187 439.20291
30.912781 155.83411 440.51041
32.116753 155.82719 440.8573
33.863464 155.66199 439.28223
34.792076 155.73448 440.58008
36.258232 155.64871 439.9545
37.454811 155.64221 440.28516
38.912064 155.55667 439.65015
40.363579 155.47125 439.0101
41.553406 155.46507 439.32846
42.742722 155.45898 439.64325
43.931564 155.45297 439.95444
44.871758 155.52614 441.22757
46.307808 155.44124 440.56613
47.738174 155.35648 439.8999
49.403221 155.19278 438.26135
50.581932 155.18726 438.55295
52.230476 155.0238 436.90359
53.170578 155.09749 438.15634
54.575333 155.01326 437.46695
55.519783 155.0871 438.71411
56.469032 155.16098 439.95905
57.867378 155.07703 439.25818
59.040581 155.07211 439.52509
60.213387 155.06729 439.78867
61.385826 155.06255 440.04883
62.557892 155.05788 440.30566
63.729591 155.0533 440.55917
65.107536 154.96991 439.83401
66.275948 154.96548 440.08026
67.444016 154.96115 440.32321
69.009399 154.79916 438.6091
70.171623 154.795 438.84439
71.1399 154.86975 440.05429
72.495155 154.78688 439.30511
73.656433 154.78293 439.53067
74.817429 154.77907 439.75293
75.978134 154.77527 439.97195
77.138557 154.77153 440.18771
78.47683 154.68909 439.41943
79.458572 154.76428 440.60959
80.618172 154.76076 440.81577
81.777504 154.75731 441.01877
82.768791 154.83269 442.20114
84.095428 154.75061 441.41507
85.5793 154.58987 439.64142
86.732491 154.5867 439.83084
88.042953 154.50485 439.03265
89.657822 154.26564 436.26102
90.800018 154.2627 436.43942
91.792259 154.33852 437.60028
92.93663 154.33568 437.77283
94.080795 154.3329 437.94229
94.94072 154.48758 440.08215
96.229088 154.40622 439.25909
97.375259 154.40363 439.41965
98.655518 154.3224 438.58939
99.798737 154.31993 438.74353
100.9418 154.3175 438.89453
102.08469 154.31516 439.04248
103.2274 154.31285 439.18747
104.49138 154.23195 438.33987
105.75007 154.15111 437.48859
106.88719 154.14897 437.62375
108.13785 154.06827 436.76559
109.38323 153.98763 435.90381
110.40622 154.0643 437.02039
111.54021 154.06238 437.14325
112.67407 154.06052 437.26315
113.70696 154.13733 438.37183
114.84315 154.13556 438.48599
116.07492 154.05525 437.60489
117.30144 153.97501 436.72031
118.43214 153.9734 436.82507
119.56274 153.97185 436.92682
120.69324 153.97034 437.02567
121.9065 153.8903 436.12805
122.95395 153.9675 437.21445
124.16188 153.88756 436.31052
125.28944 153.88626 436.39737
126.41693 153.88499 436.4812
127.47431 153.96236 437.55658
128.67165 153.88261 436.64014
129.79889 153.8815 436.71518
130.92607 153.88043 436.78732
131.99344 153.95798 437.85165
133.12305 153.957 437.91809
134.25259 153.95605 437.98163
135.38208 153.95517 438.04218
136.46205 154.03288 439.09549
137.6409 153.95352 438.15454
138.77023 153.95277 438.20636
139.85776 154.03061 439.25125
140.98956 154.02994 439.2973
142.12134 154.02933 439.34042
143.28716 153.9502 438.38428
144.44778 153.87111 437.42511
145.51645 154.02771 439.45227
146.64807 154.02725 439.4837
147.77969 154.02686 439.5123
148.91127 154.0265 439.53787
150.02417 154.10472 440.55725
151.17439 154.02591 439.58032
152.30592 154.02568 439.5972
153.43744 154.02548 439.61108
154.56895 154.02534 439.6221
155.70045 154.02525 439.63025
156.83195 154.02519 439.63544
157.96346 154.02518 439.6377
159.09496 154.02519 439.63705
160.22205 153.94673 438.63663
161.35098 153.94684 438.63013
162.47993 153.94701 438.62076
163.6089 153.9472 438.60849
164.75256 154.02599 439.59009
165.90137 154.10481 440.56873
167.03551 154.10513 440.54764
168.14731 154.02698 439.52695
169.30388 154.10593 440.49661
170.43811 154.10638 440.46674
171.54228 154.02835 439.4375
172.67401 154.0289 439.40179
173.80577 154.02948 439.36325
174.93758 154.03012 439.32172
175.98874 153.8737 437.28513
177.1584 153.95297 438.23398
178.33324 154.03229 439.17969
179.41719 153.95456 438.13071
180.59727 154.03397 439.07034
181.78255 154.11343 440.00674
182.91727 154.11438 439.94458
183.99376 154.0368 438.88428
185.12605 154.03784 438.81638
186.25841 154.03894 438.74554
187.52286 154.1972 440.66122
188.66051 154.19839 440.58417
189.94052 154.35678 442.49289
191.15718 154.43665 443.40369
192.2265 154.35941 442.32315
193.29077 154.2822 441.24008
194.51285 154.36221 442.14154
195.57216 154.2851 441.05286
196.62643 154.20802 439.96167
197.76482 154.20959 439.86084
198.8116 154.13261 438.76434
200.13617 154.29149 440.64264
201.27745 154.29321 440.53259
202.51826 154.37361 441.4115
203.96831 154.6113 444.27026
205.22479 154.69182 445.14154
206.48656 154.7724 446.00922
207.64391 154.77441 445.88245
208.80139 154.77647 445.75259
209.84418 154.69995 444.62946
211.11681 154.78078 445.48376
212.27473 154.783 445.3447
213.80051 155.02127 448.17059
215.3419 155.25961 450.99149
216.64348 155.34071 451.82993
217.8201 155.34322 451.67618
218.99689 155.34576 451.51923
219.76756 155.11234 448.39627
220.66098 154.95761 446.25952
221.82547 154.96031 446.09497
222.70383 154.80569 443.95419
223.57205 154.65109 441.81171
224.57852 154.57524 440.6535
225.27824 154.342 437.52209
226.11618 154.1875 435.375
227.10008 154.11179 434.211
228.07904 154.03612 433.04474
229.21429 154.03925 432.85999
230.18597 153.96368 431.68878
231.15274 153.88817 430.51532
232.11458 153.8127 429.33963
233.0715 153.73729 428.16177
234.02353 153.66193 426.98169
234.97063 153.58661 425.79938
235.73355 153.43254 423.63434
236.85016 153.43614 423.42838
238.15149 153.51862 424.19897
239.45828 153.60118 424.96555
240.5809 153.605 424.74921
241.89606 153.68774 425.508
243.02185 153.6917 425.28488
244.34537 153.7746 426.03571
245.47438 153.77873 425.80576
246.60373 153.78293 425.5726
247.73341 153.7872 425.33624
248.86343 153.79153 425.09665
250.20413 153.87488 425.82828
251.33743 153.87939 425.5817
253.33328 154.19971 429.2251
256.44089 154.91492 437.72412
258.71271 155.31458 442.3208
261.23419 155.7934 447.8797
263.78726 156.27245 453.42792
265.00076 156.27777 453.14337
265.29022 155.96719 448.9765
266.02676 155.81462 446.74921
266.04437 155.42502 441.61557
266.75317 155.27251 439.38821
267.69357 155.19907 438.12711
268.38507 155.04665 435.89734
269.31332 154.97333 434.63251
270.48621 154.97916 434.33075
270.90369 154.74777 431.13193
271.56058 154.59552 428.89752
272.72186 154.60156 428.58859
273.10431 154.37027 425.38898
274.78351 154.53476 426.99857
276.47369 154.6994 428.60181
278.4425 154.94336 431.15884
280.42749 155.18752 433.70789
282.42871 155.43184 436.2489
283.89523 155.51791 436.86563
285.92377 155.76257 439.39175
287.1264 155.76967 439.03998
288.61301 155.85614 439.64023
290.96326 156.1806 443.09998
292.18082 156.18806 442.733
293.39893 156.19562 442.36206
294.61768 156.20329 441.98737
295.24414 156.05234 439.70523
295.56158 155.82205 436.47162
296.76901 155.82993 436.08932
297.36841 155.67911 433.80472
298.26483 155.60771 432.46793
300.08548 155.77472 433.97156
301.60507 155.86243 434.52121
303.44547 156.02975 436.01093
304.66199 156.03825 435.60327
306.5195 156.20589 437.07968
307.41977 156.13509 435.71909
309.29181 156.30301 437.18289
310.19073 156.23236 435.81506
311.74652 156.32097 436.32568
312.64148 156.25049 434.95154
313.8678 156.25967 434.51361
315.09479 156.26897 434.0715
315.63971 156.11899 431.75214
317.20667 156.2081 432.23923
319.12616 156.37704 433.65479
320.35834 156.38667 433.19495
322.29501 156.55591 434.59613
324.95215 156.88483 437.85214
326.55936 156.97461 438.30405
327.8125 156.9847 437.82001
329.79144 157.15453 439.18866
331.78156 157.32449 440.54871
333.78287 157.49463 441.90021
338.01892 158.14432 448.79507
341.17838 158.55464 452.89551
345.11682 159.12512 458.8269
348.71448 159.61598 463.81635
353.10712 160.26714 470.62988
354.47137 160.27853 470.06174
356.60925 160.45004 471.32642
359.53668 160.78177 474.41696
360.13406 160.63318 471.99466
361.90485 160.72482 472.31808
363.68118 160.8165 472.63431
366.6629 161.14864 475.68246
367.25018 160.99991 473.24527
370.664 161.4124 477.18253
372.88055 161.58441 478.3746
375.1076 161.75644 479.55695
376.93182 161.84822 479.82254
378.34506 161.85966 479.17499
379.75793 161.871 478.52258
-37.852646 158.82314 431.91788
-35.762909 158.64697 430.67651
-34.903763 158.71922 432.15533
-33.23111 158.62582 431.81018
-31.965134 158.61517 432.37042
-30.699142 158.60448 432.92621
-29.829269 158.67647 434.39209
-28.954132 158.74838 435.85577
-27.683182 158.73759 436.40054
-26.412445 158.72681 436.94083
-25.141998 158.71602 437.47668
-23.489151 158.62265 437.08783
-21.84201 158.52934 436.69232
-20.577896 158.51868 437.21255
-18.939514 158.42549 436.80484
-16.934906 158.24989 435.466
-15.31076 158.15692 435.04413
-14.425766 158.22896 436.46906
-12.079895 157.97125 434.18082
-11.195969 158.04341 435.59711
-9.5898285 157.95078 435.15146
-7.9895935 157.85828 434.69946
-6.3952332 157.76588 434.24115
-5.5082397 157.83826 435.64227
-4.6165009 157.91068 437.04105
-3.7200623 157.98312 438.43759
-2.4762115 157.97336 438.89612
-1.5730591 158.04591 440.28708
-0.32778931 158.0363 440.73807
1.5864716 157.86235 439.30743
3.4895172 157.68857 437.8688
5.7108307 157.43282 435.48181
7.2619171 157.34154 434.96802
8.8070221 157.25043 434.44843
10.024658 157.24153 434.86621
11.560577 157.15065 434.33578
11.825363 157.38818 437.5799
13.360031 157.29749 437.04141
14.888779 157.20695 436.49725
15.794846 157.28056 437.84271
16.705505 157.35425 439.18604
17.923965 157.34601 439.57767
18.841293 157.41983 440.91562
20.359009 157.32985 440.34918
21.870895 157.23999 439.77713
22.791641 157.31407 441.10504
24.587051 157.14256 439.57013
26.083969 157.0531 438.9826
27.290329 157.04562 439.34473
28.496094 157.03824 439.703
29.980804 156.94913 439.10092
30.905907 157.02377 440.40839
32.658539 156.85312 438.83911
33.856827 156.84616 439.18094
35.054558 156.83931 439.5191
36.518181 156.75081 438.89322
37.448433 156.8259 440.18436
38.905785 156.73763 439.54971
40.098808 156.73117 439.87253
41.291328 156.72482 440.19177
42.73674 156.63689 439.54343
43.925652 156.63074 439.85477
45.114113 156.62468 440.16254
46.547653 156.53708 439.50079
47.732544 156.53122 439.80087
49.397705 156.36221 438.16287
50.814255 156.27496 437.48669
51.754852 156.35101 438.74283
52.932777 156.34554 439.02759
54.340225 156.25858 438.33917
55.514694 156.2533 438.61649
56.464012 156.32965 439.86133
57.86245 156.24298 439.16077
59.035728 156.23796 439.42783
60.208633 156.233 439.69147
61.381142 156.22815 439.95178
62.341507 156.30486 441.18259
63.515877 156.30016 441.43677
64.896507 156.21405 440.71249
66.067574 156.20953 440.95941
67.641151 156.04218 439.25076
69.005203 155.95638 438.51331
70.363747 155.87067 437.77151
71.329491 155.94791 438.9808
72.682228 155.86238 438.23148
73.652534 155.93976 439.43521
74.999504 155.85439 438.67834
75.791069 156.01328 440.85635
77.134865 155.92807 440.09256
78.473221 155.84296 439.32455
79.455017 155.92064 440.51462
80.614693 155.91702 440.72083
81.774086 155.9135 440.92392
82.765419 155.99136 442.10623
84.092133 155.90663 441.32043
85.413452 155.82198 440.53055
86.729355 155.73741 439.73669
87.882385 155.73422 439.92303
89.499916 155.48721 437.1525
90.492424 155.56548 438.31631
91.789398 155.48122 437.50708
92.639465 155.64087 439.65128
93.933441 155.55673 438.83536
94.938026 155.63522 439.98871
96.226456 155.55122 439.16592
97.235809 155.62982 440.31381
98.653 155.46472 438.49655
99.79628 155.46217 438.65073
100.9394 155.4597 438.80182
101.95576 155.53851 439.93851
103.22511 155.45493 439.09485
104.36774 155.45261 439.23676
105.62905 155.36914 438.38611
106.88507 155.28575 437.5318
108.1358 155.20242 436.67383
109.2701 155.20035 436.80276
110.40428 155.19833 436.92868
111.6443 155.11519 436.06055
112.67223 155.19449 437.17157
113.90686 155.11145 436.29694
115.03795 155.10965 436.41064
116.16893 155.10791 436.52136
117.2998 155.10622 436.62906
118.33999 155.18576 437.72647
119.47321 155.18416 437.82852
120.60633 155.18262 437.92758
121.8222 155.09998 437.03046
122.95256 155.09854 437.12341
124.16055 155.01599 436.21973
125.28816 155.01465 436.30655
126.48827 154.93222 435.39636
127.54313 155.01213 436.47144
128.73795 154.92981 435.55505
129.86267 154.92867 435.62997
130.98732 154.92757 435.70197
131.99242 155.08879 437.76083
133.12207 155.08778 437.8273
134.25168 155.08682 437.89081
135.43326 155.00479 436.95605
136.5107 155.08505 438.00909
137.64012 155.08423 438.06384
138.7695 155.08347 438.11563
139.85706 155.16385 439.16034
140.94971 155.24429 440.20239
142.08409 155.24365 440.24564
143.25252 155.16194 439.28983
144.41577 155.08028 438.33093
145.51596 155.16089 439.36145
146.62128 155.24155 440.38931
147.75549 155.24112 440.41791
148.88969 155.24075 440.4436
150.00519 155.32153 441.46283
151.15802 155.24014 440.48611
152.29216 155.23991 440.50302
153.43727 155.15862 439.52039
154.56883 155.15846 439.5314
155.70622 155.07726 438.54282
156.83192 155.15829 439.54465
157.96419 155.07718 438.55026
159.09315 155.07721 438.54962
160.21773 154.99617 437.54938
161.35112 155.07739 438.53961
162.47058 154.99644 437.53357
163.60913 155.07776 438.51794
164.73814 155.078 438.50272
165.88443 155.15941 439.4812
167.01605 155.15974 439.46011
168.14771 155.16013 439.43616
169.27939 155.16055 439.40921
170.4386 155.24214 440.37573
171.54282 155.16154 439.34665
172.67459 155.16211 439.31097
173.8064 155.1627 439.2724
174.90047 155.08224 438.23489
175.98944 155.00182 437.1947
177.11624 155.00255 437.14752
178.28856 155.08446 438.09305
179.41803 155.0853 438.03998
180.59816 155.1673 438.97937
181.7303 155.16821 438.92026
182.86252 155.16919 438.85825
183.93648 155.08908 437.79828
185.06624 155.09013 437.73053
186.32297 155.25352 439.6492
187.52403 155.33583 440.56976
188.66173 155.33704 440.49261
189.9418 155.5006 442.40091
191.08479 155.50191 442.31747
192.15158 155.42212 441.23737
193.29218 155.42354 441.14822
194.51431 155.50616 442.04944
195.57367 155.42651 440.96097
196.71457 155.42807 440.86285
197.76642 155.34851 439.76901
198.90495 155.35017 439.66516
200.13788 155.43306 440.5506
201.27921 155.43483 440.44049
202.61949 155.59901 442.31085
203.97018 155.76328 444.17722
205.22673 155.84642 445.04822
206.38142 155.84842 444.92474
207.64595 155.93169 445.78885
208.8035 155.93381 445.65897
209.84633 155.85477 444.53598
211.11902 155.9382 445.39001
212.27701 155.94049 445.25095
213.68028 156.10529 447.08698
215.09402 156.27017 448.9187
216.51825 156.43513 450.74603
217.69235 156.43768 450.59259
218.73376 156.35904 449.44815
219.7702 156.28046 448.3013
220.9397 156.28319 448.1391
221.82822 156.12344 446.00034
222.99295 156.12627 445.83258
224.01215 156.04788 444.67572
224.87807 155.88826 442.53085
225.7339 155.72868 440.38446
226.42615 155.48784 437.25171
227.41525 155.40964 436.08704
228.55807 155.4128 435.90405
229.5399 155.3347 434.73444
230.6806 155.33798 434.54562
231.65515 155.25999 433.37097
232.45584 155.10071 431.21188
233.418 155.02283 430.03326
234.2011 154.86362 427.871
234.97414 154.70445 425.70752
236.0957 154.70808 425.50363
237.03568 154.6304 424.31671
238.33966 154.71555 425.08655
239.64911 154.8008 425.85226
240.96404 154.88612 426.61383
241.89996 154.80872 425.41537
243.41548 154.97563 427.14706
244.34944 154.89835 425.94275
245.87852 155.06548 427.66547
246.81055 154.98834 426.45526
247.94287 154.99272 426.21823
249.07556 154.99719 425.97803
250.20859 155.00174 425.73456
251.12901 154.92485 424.51419
253.55347 155.41861 430.10333
256.88202 156.23869 439.57236
259.15915 156.6514 444.1666
261.90933 157.22739 450.69427
264.24438 157.64052 455.26852
265.23468 157.56444 454.01257
265.52676 157.24367 449.84579
265.79849 156.92291 445.68045
266.28619 156.68373 442.48483
266.99768 156.5262 440.25717
267.94073 156.45033 438.99548
268.87903 156.37454 437.73163
269.81256 156.29881 436.46561
270.49207 156.14148 434.23242
271.41351 156.06586 432.96271
271.82111 155.82692 429.76361
272.72791 155.7514 428.49103
273.62997 155.67596 427.21628
275.05212 155.76405 427.86237
276.215 155.77052 427.54276
278.44891 156.10416 431.05975
280.43402 156.35623 433.60797
282.70828 156.69028 437.10672
284.45303 156.86093 438.68018
286.48694 157.11357 441.20395
287.97565 157.2027 441.80682
289.47021 157.29198 442.40433
291.54254 157.54515 444.90594
293.34259 157.71661 446.44504
293.98889 157.56061 444.16449
294.62527 157.40463 441.8833
295.54828 157.33064 440.55298
295.27017 156.92886 435.41763
296.17334 156.85493 434.08618
297.6806 156.94507 434.65051
298.57977 156.87131 433.31296
300.4032 157.04372 434.81516
302.55008 157.29834 437.25635
304.08356 157.38904 437.79718
305.30548 157.39778 437.38763
307.48859 157.65295 439.80536
308.07401 157.49768 437.49921
309.62598 157.5889 438.01855
310.85571 157.59805 437.59088
311.75537 157.52513 436.21899
312.65039 157.45227 434.84485
313.8768 157.46167 434.40668
314.76514 157.38892 433.02707
315.99017 157.3985 432.58157
317.21588 157.40814 432.13196
318.44214 157.41788 431.67804
320.36774 157.59236 433.08676
322.3045 157.767 434.48724
324.60718 158.02419 436.81079
326.56909 158.19917 438.1936
328.18225 158.2919 438.63864
329.80133 158.38474 439.0773
332.1568 158.64259 441.36392
333.79294 158.73569 441.78745
338.02921 159.40643 448.68021
341.18878 159.82999 452.77914
345.50336 160.50148 459.63165
348.72522 160.92564 463.69644
352.35547 161.43266 468.66635
352.9465 161.27901 466.26093
355.84698 161.62115 469.36639
357.99054 161.79816 470.62323
358.57715 161.6445 468.20569
361.12659 161.90431 470.36349
362.89752 161.99876 470.68158
365.87393 162.34152 473.73087
367.66376 162.43608 474.03107
370.67499 162.77905 477.0553
373.2995 163.03931 479.15591
376.35052 163.38249 482.1524
377.76932 163.39427 481.50708
380.01984 163.57173 482.668
382.28064 163.74918 483.81918
-37.450409 159.97952 430.89105
-35.772781 159.88342 430.55753
-34.507034 159.87271 431.12677
-32.837112 159.77654 430.78088
-32.376633 159.93643 433.164
-30.709305 159.84018 432.80804
-29.839478 159.91458 434.2739
-29.357803 160.0742 436.65302
-27.693497 159.97792 436.28259
-26.42276 159.9669 436.82306
-25.152313 159.9559 437.3591
-23.499451 159.85973 436.97076
-22.232285 159.84877 437.49673
-20.9655 159.83786 438.01828
-18.949722 159.65671 436.68893
-17.689072 159.64589 437.1994
-16.059555 159.55005 436.78015
-14.802536 159.53937 437.28079
-12.453903 159.27361 434.99454
-11.205887 159.26309 435.48331
-9.2409668 159.08267 434.10855
-7.9993591 159.07233 434.58658
-6.4049072 158.97711 434.12866
-5.517868 159.05188 435.52982
-4.6260986 159.12666 436.92859
-4.075058 159.28638 439.25977
-2.4856567 159.1915 438.78381
-1.5824738 159.26643 440.1748
-0.33712769 159.25661 440.62601
1.5772552 159.07724 439.19604
3.480423 158.89807 437.75812
5.7018738 158.63431 435.37204
6.9261627 158.62497 435.79996
8.4740448 158.53102 435.28168
10.016006 158.43721 434.75754
10.914108 158.51289 436.11545
11.816849 158.58864 437.47116
13.351639 158.49516 436.93311
14.880508 158.40182 436.38934
15.786606 158.47783 437.73483
16.697357 158.55391 439.07806
17.915909 158.54547 439.46991
18.532806 158.70625 441.75778
20.053268 158.61346 441.1926
21.567886 158.52081 440.6218
22.783981 158.51279 440.99799
24.869537 158.25143 438.51047
26.363968 158.15921 437.92245
27.567795 158.15157 438.28397
28.488861 158.22847 439.59738
29.973694 158.1366 438.99564
31.175781 158.12927 439.34589
32.377319 158.12204 439.69238
33.850006 158.03053 439.07639
35.316895 157.93916 438.45529
36.24514 158.0166 439.7493
37.178047 158.09412 441.04117
38.638138 158.00307 440.40759
39.575233 158.08075 441.6936
41.029083 157.98993 441.0513
42.223801 157.98352 441.36777
43.418037 157.97719 441.6806
44.859962 157.88672 441.02484
46.296204 157.79639 440.36417
47.726784 157.70615 439.69855
49.392052 157.53185 438.06122
50.570938 157.52606 438.35303
51.749374 157.52037 438.64142
52.927383 157.51477 438.92633
54.104958 157.50925 439.20779
55.509499 157.41968 438.51563
56.458885 157.49847 439.76038
57.635239 157.49324 440.03156
58.811195 157.48807 440.29932
59.986755 157.483 440.56372
61.161949 157.47801 440.82471
62.548569 157.38904 440.10858
63.51123 157.46829 441.33652
64.891937 157.3795 440.61261
66.26712 157.29082 439.88422
67.435333 157.28625 440.12741
69.000908 157.11375 438.41437
70.555794 156.94136 436.69595
71.519005 157.02109 437.9046
72.678169 157.01688 438.13303
74.025505 156.92877 437.37976
75.181473 156.92473 437.6012
75.970528 157.08868 439.77832
77.311821 157.00081 439.01431
78.291374 157.08093 440.207
79.451378 157.07715 440.41653
80.611099 157.07347 440.62289
81.770592 157.06984 440.82596
82.92981 157.06628 441.02588
84.088776 157.06281 441.22263
85.410149 156.97551 440.43314
87.04628 156.7205 437.67249
88.036728 156.80115 438.84198
89.496849 156.6302 437.05612
90.641754 156.62711 437.23502
91.786453 156.62407 437.41086
92.636581 156.78879 439.5546
93.930618 156.70203 438.73904
94.935249 156.78302 439.8923
96.223747 156.69638 439.06976
97.370033 156.69366 439.23047
98.516129 156.69099 439.38809
99.662041 156.68839 439.54269
100.80779 156.68585 439.69418
101.95336 156.68336 439.84262
103.22278 156.59714 438.99924
104.36545 156.59479 439.1412
105.62683 156.5087 438.2908
106.8829 156.42267 437.43677
108.13369 156.33672 436.5791
109.3792 156.25082 435.71777
110.51085 156.24876 435.84348
111.53638 156.33054 436.95703
112.67033 156.32858 437.07703
113.80418 156.32669 437.19397
114.9379 156.32486 437.30798
116.07149 156.32307 437.41904
117.20499 156.32133 437.52707
118.24779 156.4034 438.62448
119.55963 156.23428 436.74161
120.69023 156.23271 436.84048
121.90359 156.14746 435.94342
123.03143 156.146 436.03619
124.2369 156.06085 435.13254
125.36199 156.05948 435.21924
126.487 156.05817 435.30295
127.54191 156.14063 436.37775
128.80421 155.97198 434.46747
129.9913 155.8871 433.54782
130.98625 156.05341 435.60858
132.05113 156.13603 436.67239
133.17827 156.13501 436.73868
134.25073 156.21774 437.79715
135.38031 156.2168 437.85776
136.50984 156.21591 437.91541
137.63933 156.21509 437.97018
138.76874 156.21429 438.02206
139.89813 156.21355 438.07092
141.02747 156.21284 438.11688
142.15675 156.21219 438.15994
143.3201 156.1279 437.20419
144.44675 156.12735 437.24136
145.57336 156.12683 437.27557
146.6472 156.29373 439.29919
147.80272 156.20963 438.33154
148.91058 156.29294 439.35339
150.02356 156.37628 440.37238
151.17387 156.29231 439.39587
152.3055 156.29207 439.41272
153.4371 156.29187 439.42664
154.56871 156.29172 439.43771
155.70615 156.20795 438.44934
156.83188 156.29155 439.45099
157.96419 156.20786 438.45679
159.09322 156.20789 438.45615
160.22223 156.20796 438.45255
161.34428 156.1244 437.44965
162.47076 156.12457 437.44031
163.60936 156.20847 438.42444
164.72374 156.12503 437.41284
165.86751 156.20901 438.39111
166.99661 156.20935 438.37009
168.12573 156.20975 438.34619
169.2549 156.21017 438.31934
170.41158 156.29434 439.28568
171.54337 156.29488 439.2529
172.67517 156.29544 439.21722
173.77182 156.21237 438.18271
174.93892 156.29672 439.13705
176.0305 156.21376 438.09695
177.15991 156.21451 438.04965
178.28938 156.21532 437.99942
179.4189 156.21616 437.94632
180.49785 156.13336 436.89508
181.73126 156.3017 438.82632
182.86351 156.3027 438.76428
183.87921 156.13634 436.70972
185.06734 156.22113 437.63675
186.32413 156.38968 439.55496
187.52524 156.47459 440.47528
188.66296 156.47583 440.39813
189.9431 156.64456 442.30597
191.08614 156.6459 442.2225
192.22926 156.64729 442.13608
193.37248 156.64874 442.04669
194.51581 156.65024 441.95432
195.65921 156.65179 441.85898
196.71616 156.56967 440.76788
197.76807 156.48758 439.67429
198.90665 156.48927 439.57034
200.04535 156.49103 439.4635
201.28101 156.57658 440.34537
202.52194 156.6622 441.22375
203.76813 156.74789 442.09866
205.01959 156.83363 442.96994
