ply
format ascii 1.0
comment PCL generated
element vertex 1593
property float x
property float y
property float z
element camera 0
property float view_px
property float view_py
property float view_pz
property float x_axisx
property float x_axisy
property float x_axisz
property float y_axisx
property float y_axisy
property float y_axisz
property float z_axisx
property float z_axisy
property float z_axisz
property float focal
property float scalex
property float scaley
property float centerx
property float centery
property int viewportx
property int viewporty
property float k1
property float k2
end_header
270.47983 176.40984 408.03055
271.3324 176.28564 406.76535
272.71625 176.4287 407.40634
274.10583 176.57193 408.04239
276.04767 176.98257 410.5787
277.17816 176.99255 410.25137
279.14465 177.40369 412.77371
281.12744 177.81509 415.2879
282.55902 177.95934 415.89465
283.13733 177.70251 413.64996
283.99466 177.57951 412.35275
284.84729 177.45659 411.05353
284.81244 176.93228 406.91327
285.94464 176.94328 406.55792
287.67651 177.22215 408.0882
288.81512 177.23346 407.72382
289.95428 177.2449 407.35574
292.63129 177.92621 411.69437
294.71503 178.33995 414.13809
296.81522 178.75398 416.57278
301.45477 180.24057 426.51401
304.88101 181.19165 432.67737
307.38293 181.74097 436.01111
309.58334 182.15652 438.39667
311.14838 182.30408 438.901
311.40491 181.9151 435.6597
312.30862 181.79448 434.28775
313.54156 181.80814 433.84656
314.43848 181.68764 432.46912
316.00912 181.83575 432.95157
317.58563 181.98401 433.42783
318.82349 181.99809 432.96887
320.75623 182.28101 434.36182
322.35028 182.42972 434.81937
323.24524 182.30966 433.41846
324.84564 182.45856 433.86545
326.45184 182.60757 434.30606
327.3429 182.48764 432.89423
329.31848 182.77138 434.24606
330.93933 182.92067 434.6684
332.19745 182.93542 434.1644
336.42496 184.02747 441.00607
341.44305 185.38942 449.66138
345.38544 186.34781 455.54056
349.74454 187.44135 462.31519
354.14655 188.53537 469.06738
354.7467 188.28165 466.66452
356.88486 188.56714 467.90982
358.25415 188.58292 467.32394
360.40845 188.86839 468.55295
361.78302 188.884 467.95523
363.95313 189.1694 469.16779
365.73322 189.31976 469.46454
367.1153 189.33499 468.84915
368.90277 189.48505 469.13297
369.87817 189.36478 467.60425
371.67004 189.51442 467.87628
373.0528 189.52872 467.24106
374.43488 189.54269 466.60123
374.55859 189.15076 463.26343
-38.500198 185.08133 429.52438
-36.820435 184.93045 429.20422
-35.959854 185.05472 430.6832
-34.688934 185.04105 431.25623
-33.015717 184.88956 430.91965
-31.746765 184.87552 431.48288
-30.874084 184.99887 432.9494
-29.20816 184.84697 432.59631
-27.938675 184.83249 433.14648
-27.446213 185.09279 435.5145
-25.785492 184.94063 435.14597
-24.513367 184.92583 435.68411
-22.860809 184.77362 435.30334
-21.591629 184.75873 435.83154
-19.572235 184.46922 434.52194
-18.308807 184.45435 435.03906
-16.305939 184.16499 433.71417
-15.048462 184.15018 434.2204
-13.426773 183.99818 433.80127
-12.172699 183.98343 434.29776
-10.200577 183.69449 432.9437
-8.9526672 183.67987 433.42941
-7.7051849 183.6653 433.9108
-6.809433 183.78781 435.31412
-5.5602722 183.77332 435.78793
-4.3116455 183.75891 436.25751
-3.0635071 183.74458 436.72272
-1.8159332 183.73035 437.18375
0.10707092 183.44246 435.77814
1.3482361 183.42847 436.2287
2.9214935 183.27776 435.742
4.4889069 183.12721 435.24918
6.0503845 182.97685 434.75037
7.281311 182.96335 435.18134
8.5115967 182.94998 435.60825
9.7413025 182.93674 436.03104
10.970398 182.92361 436.44974
12.198914 182.9106 436.86432
13.426788 182.89772 437.2749
14.654099 182.88498 437.68137
16.187027 182.73582 437.14169
17.410446 182.72339 437.53934
18.934265 182.57458 436.98911
20.15387 182.56242 437.37787
21.372879 182.55042 437.76273
22.591293 182.53853 438.14362
23.809113 182.52679 438.52063
24.738541 182.65152 439.84161
26.528183 182.3674 438.31415
28.024155 182.21982 437.72919
28.954498 182.34496 439.0394
30.721405 182.06146 437.49411
32.202568 181.91441 436.8938
33.133842 182.03995 438.19336
34.608665 181.89325 437.58398
36.077713 181.7467 436.96936
36.74839 182.00876 439.21405
37.952179 181.99866 439.54678
39.155441 181.98868 439.87582
40.101814 182.11491 441.15817
41.306664 182.10519 441.48053
43.013275 181.82358 439.88248
44.211876 181.81419 440.1962
45.655922 181.66896 439.54654
47.094261 181.52391 438.89191
48.767578 181.24309 437.27136
49.71579 181.37024 438.52966
51.139694 181.22569 437.86108
52.557945 181.08131 437.18762
53.740273 181.07297 437.47305
54.694511 181.20061 438.71915
55.878593 181.1925 438.99817
57.062248 181.18454 439.27371
58.245483 181.1767 439.54581
59.428329 181.16898 439.81439
60.610771 181.16141 440.07956
62.004875 181.0182 439.3735
63.183945 181.01088 439.63123
64.569519 180.86797 438.9166
65.949516 180.72522 438.19751
67.323967 180.58263 437.47397
68.49379 180.57585 437.71652
69.663277 180.56918 437.95569
70.638527 180.69827 439.16315
71.809937 180.69183 439.39618
72.98101 180.68552 439.62592
73.965645 180.81491 440.82547
75.32222 180.67322 440.07544
76.673317 180.53165 439.32111
77.840561 180.5258 439.5372
78.655983 180.79114 441.70004
80.001015 180.64995 440.93497
81.170006 180.64441 441.14163
82.1707 180.77448 442.32153
83.507149 180.63365 441.54526
84.838173 180.49295 440.76492
85.843239 180.62332 441.936
87.168587 180.48285 441.14828
88.488525 180.3425 440.35657
89.803047 180.20229 439.56091
90.812332 180.33302 440.71991
92.121239 180.19302 439.91705
93.279999 180.18855 440.09039
94.438545 180.18417 440.26056
95.596878 180.17989 440.42752
96.892036 180.04033 439.61011
98.047394 180.03625 439.77048
99.202545 180.03226 439.9277
100.4868 179.89301 439.09946
101.63901 179.88922 439.25012
102.79103 179.8855 439.39764
104.06445 179.74657 438.55875
105.21355 179.74304 438.69974
106.24609 179.87492 439.82159
107.39745 179.87158 439.95676
108.65991 179.73302 439.10431
109.80839 179.72984 439.23297
110.95672 179.72676 439.35861
112.20844 179.58849 438.49579
113.45488 179.4503 437.62936
114.59764 179.44748 437.7453
115.74029 179.44475 437.85822
116.78957 179.57735 438.9545
117.93454 179.57475 439.06152
119.16749 179.43701 438.17865
120.30965 179.4346 438.27948
121.53466 179.29703 437.38989
122.75442 179.15955 436.49689
123.89113 179.15738 436.5882
125.02774 179.15527 436.67654
126.16426 179.15326 436.7619
127.3007 179.15132 436.84424
128.43704 179.14944 436.92355
129.63824 179.01245 436.01126
130.83424 178.87555 435.09561
131.96521 178.87392 435.16571
133.03888 179.00754 436.22205
134.22694 178.87086 435.29703
135.30562 179.00462 436.34763
136.38936 179.13846 437.39563
137.52515 179.13718 437.45114
138.61649 179.27113 438.49353
139.75473 179.26999 438.54324
140.89293 179.26892 438.59006
142.03108 179.26793 438.63379
143.20331 179.13184 437.68436
144.37036 178.99582 436.73181
145.47429 179.1302 437.75693
146.63612 178.99432 436.79828
147.74512 179.12885 437.81766
148.85924 179.26343 438.83417
150.01585 179.12776 437.86652
151.1512 179.12733 437.8866
152.28651 179.12697 437.90366
153.42181 179.12666 437.91769
154.56554 178.99129 436.93811
155.6924 179.12628 437.9371
156.82768 179.12619 437.94232
157.96367 178.99101 436.95377
159.09639 178.99106 436.95316
160.2291 178.99118 436.94955
161.36182 178.99136 436.94299
162.48499 178.85646 435.94272
163.61517 178.85678 435.93033
164.74536 178.85718 435.91498
165.85831 178.72249 434.90604
167.0058 178.85815 435.87543
168.13606 178.85876 435.85129
169.29132 178.99458 436.8147
170.42421 178.99532 436.78452
171.58723 179.13129 437.74182
172.72276 179.13217 437.70569
173.89359 179.26828 438.65686
174.95613 178.99896 436.63449
176.08922 179.00005 436.5896
177.17941 178.86603 435.55185
178.35556 179.00244 436.49091
179.4888 179.00374 436.43716
180.67278 179.14029 437.36993
181.86195 179.27693 438.2995
183.00053 179.27844 438.23654
184.13919 179.28004 438.17059
185.27792 179.28172 438.10168
186.54375 179.55388 440.00739
187.68777 179.55569 439.93213
188.83188 179.5576 439.85391
189.97607 179.55959 439.77267
191.19417 179.69685 440.67648
192.18839 179.42854 438.61325
193.40924 179.56598 439.51086
194.71686 179.83871 441.39246
195.8667 179.84111 441.29572
197.01663 179.84355 441.19592
198.25594 179.98135 442.0799
199.40869 179.98396 441.97379
200.46719 179.85141 440.8783
201.71457 179.98944 441.75235
202.86772 179.99231 441.63705
204.12309 180.13055 442.50424
205.38376 180.26889 443.36783
206.64972 180.4073 444.22772
208.03079 180.68112 446.06866
209.64714 181.22569 449.87421
210.9393 181.36444 450.7218
212.47191 181.77396 453.53329
213.77988 181.91295 454.3728
215.09319 182.05203 455.20847
216.28653 182.05589 455.05734
217.86366 182.46591 457.85065
219.19557 182.60535 458.67432
220.66585 182.88028 460.47583
221.87546 182.88457 460.30972
223.08527 182.88895 460.14035
224.2953 182.89345 459.96768
224.64554 182.08557 453.90955
224.96501 181.27768 447.85269
225.40224 180.60519 442.77679
225.81387 179.93269 437.70166
225.89261 178.98929 430.6698
226.71664 178.72316 428.53235
227.84825 178.72803 428.34946
228.8187 178.59752 427.18588
229.62021 178.33157 425.04291
230.24504 177.93019 421.92188
231.0238 177.66435 419.77664
231.62071 177.26303 416.65433
232.37674 176.9973 414.50705
233.29959 176.86716 413.33334
234.39708 176.87268 413.13184
235.49484 176.8783 412.92728
236.77762 177.01964 413.69308
237.69125 176.88986 412.50891
238.97978 177.03143 413.26746
239.88885 176.90187 412.07813
240.79306 176.77237 410.88669
241.49475 176.50729 408.72229
242.98738 176.785 410.43811
244.08505 176.79149 410.2092
244.97758 176.66237 409.00781
246.07333 176.66907 408.77307
246.95879 176.54013 407.56711
247.62616 176.27551 405.39154
248.49933 176.14673 404.18207
249.80455 176.28961 404.90332
251.11536 176.43266 405.62021
252.879 176.84753 408.263
254.65866 177.26262 410.8989
256.22549 177.54208 412.56396
257.80316 177.82173 414.22324
259.15759 177.96567 414.91394
260.51767 178.10979 415.6001
261.64417 178.11812 415.32022
262.52917 177.99062 414.07617
263.40942 177.8632 412.83011
264.03781 177.59987 410.62253
264.40649 177.20056 407.45566
265.51694 177.2094 407.16354
266.62787 177.21835 406.86804
267.9968 177.36356 407.52582
269.1113 177.3728 407.22281
271.01462 177.79057 409.78198
271.60715 177.52783 407.56097
272.99377 177.67368 408.20065
274.38611 177.8197 408.83533
276.33075 178.23836 411.36957
277.73987 178.38477 411.99265
279.99033 178.94019 415.46283
281.70007 179.22334 417.02335
282.8533 179.2341 416.67874
283.4343 178.97231 414.43378
284.29434 178.84689 413.13586
284.56641 178.44881 409.94247
284.82324 178.05067 406.75021
285.65866 177.92542 405.44949
287.08847 178.07318 406.03528
288.52414 178.22113 406.61575
290.57532 178.6423 409.07593
292.95032 179.20032 412.46896
295.34702 179.75868 415.8512
298.39093 180.59061 421.1026
302.41333 181.83292 429.15674
305.84781 182.80251 435.31433
308.35791 183.36255 438.64349
310.24313 183.64951 440.08859
311.16162 183.52641 438.71939
311.41818 183.12985 435.47897
311.99069 182.87001 433.17352
312.88715 182.74701 431.80032
314.45203 182.8978 432.28818
315.6835 182.91182 431.8392
317.25745 183.06288 432.31577
318.83728 183.2141 432.78613
320.07574 183.22845 432.32254
321.31476 183.24289 431.85471
322.55426 183.2574 431.38257
324.14941 183.40906 431.83087
325.7504 183.56082 432.27283
326.99661 183.57555 431.78574
328.9696 183.86467 433.13745
330.58783 184.01674 433.56012
332.58026 184.30614 434.89578
336.81067 185.41931 441.73285
341.83176 186.80762 450.38275
345.77695 187.78452 456.25769
349.75977 188.76181 462.11258
354.16199 189.87694 468.86127
355.53094 189.89302 468.28448
358.06165 190.32144 470.43817
359.82861 190.47495 470.75903
361.99353 190.76593 471.9823
363.7738 190.91936 472.28784
365.5593 191.07269 472.58636
366.9494 191.0883 471.97183
368.3392 191.10373 471.3526
369.72864 191.11893 470.72861
370.3006 190.85846 468.29535
372.09485 191.01083 468.56555
373.0661 190.88745 467.02896
374.44778 190.90146 466.38889
375.40942 190.77733 464.84689
-38.099899 186.18967 428.4259
-36.832932 186.17647 429.00638
-35.972672 186.30328 430.4852
-34.701965 186.28954 431.05844
-33.028976 186.13535 430.72256
-32.159439 186.26141 432.19211
-31.284317 186.38724 433.6597
-30.009781 186.3727 434.21686
-28.735077 186.35803 434.76962
-27.848907 186.48331 436.2287
-26.185593 186.32834 435.86203
-24.527649 186.17337 435.48865
-23.255692 186.15833 436.02264
-21.605988 186.00333 435.63708
-19.961823 185.84833 435.2449
-18.323227 185.69337 434.84616
-16.690201 185.53845 434.44077
-15.062851 185.38361 434.02896
-13.441101 185.22882 433.6105
-12.187027 185.21388 434.10736
-9.8555603 184.77982 431.83173
-8.9668579 184.90472 433.24048
-7.7193604 184.88995 433.72226
-6.4723206 184.87524 434.19968
-5.2257538 184.86058 434.67282
-4.3256683 184.98557 436.06949
-2.7341614 184.8315 435.60629
-1.489151 184.81708 436.06665
0.093322754 184.66327 435.59198
1.6699066 184.50963 435.11118
3.2406616 184.35614 434.62418
4.8055267 184.2028 434.13116
6.3645172 184.04965 433.63214
7.5928802 184.03598 434.06253
8.4985199 184.16173 435.42526
10.047806 184.009 434.91104
11.274368 183.9957 435.32916
12.186188 184.1217 436.68225
13.414185 184.10864 437.09314
14.641617 184.09567 437.49994
15.868423 184.08286 437.90268
17.094635 184.07016 438.30145
18.621216 183.91855 437.75278
19.843597 183.90614 438.14267
21.361084 183.75488 437.58353
22.872726 183.60382 437.01883
23.797592 183.73087 438.34201
25.014954 183.71906 438.71539
26.516937 183.56848 438.13654
28.013107 183.41811 437.55219
28.943527 183.54565 438.86234
30.987946 183.11794 436.3674
32.191956 183.10695 436.71841
33.395409 183.0961 437.06567
34.86779 182.94662 436.45615
36.067535 182.9361 436.79514
36.738304 183.20316 439.03928
37.942223 183.19287 439.37231
38.886627 183.32141 440.6575
40.092125 183.31137 440.98376
41.297112 183.30148 441.30637
42.752724 183.15314 440.66736
44.202621 183.00496 440.02332
45.646843 182.85696 439.37418
47.085312 182.70915 438.72021
48.518112 182.56152 438.06131
49.707138 182.55257 438.35876
50.895699 182.54376 438.65271
52.316704 182.39662 437.9805
53.73204 182.24965 437.30356
54.686401 182.37973 438.54947
55.870598 182.37148 438.8287
57.05439 182.36337 439.10443
58.237747 182.35538 439.37674
59.637985 182.20917 438.67929
60.817963 182.20145 438.94403
62.209618 182.05554 438.23795
63.386208 182.0481 438.4953
64.76931 181.9025 437.78067
65.942566 181.89532 438.03067
67.518845 181.61174 436.33801
68.686203 181.60484 436.58017
69.656693 181.73633 437.78976
70.63205 181.86789 438.99701
71.803566 181.86131 439.23019
73.163498 181.71667 438.48779
73.959503 181.98672 440.65936
75.316193 181.84235 439.90991
76.667412 181.69809 439.15613
77.834778 181.69212 439.37228
78.826065 181.82439 440.55988
79.99543 181.81863 440.77002
81.164513 181.81299 440.97687
82.333336 181.80746 441.18045
83.501884 181.80203 441.38074
84.833023 181.65863 440.60086
86.15873 181.51538 439.81693
87.479019 181.37225 439.02893
88.638794 181.36729 439.21512
89.79834 181.36243 439.39804
90.957634 181.35767 439.57788
92.116714 181.353 439.75446
93.130798 181.48643 440.90768
94.292015 181.48196 441.07837
95.453033 181.47758 441.24582
96.75087 181.33536 440.42926
97.90889 181.33118 440.59009
99.330475 181.05122 438.78452
100.61226 180.90932 437.95639
101.76198 180.90546 438.10678
102.91151 180.90169 438.25409
104.06088 180.89801 438.39828
105.21008 180.89444 438.53937
106.12627 181.16673 440.64459
107.2803 181.1633 440.78009
108.54543 181.02209 439.92834
109.69656 181.01886 440.05743
110.95367 180.87784 439.19867
112.20548 180.73692 438.33627
113.35104 180.73395 438.4556
114.49648 180.73108 438.57184
115.64177 180.72827 438.68506
116.78693 180.72556 438.79529
117.93199 180.72293 438.90237
119.16502 180.58255 438.01996
120.30727 180.58009 438.12079
121.53236 180.4399 437.23166
122.67182 180.43759 437.32623
123.73337 180.57318 438.40524
124.95044 180.43323 437.50641
126.16228 180.2934 436.60422
127.29878 180.2914 436.68658
128.50273 180.15172 435.77786
129.63649 180.1499 435.8541
130.77019 180.14815 435.92734
131.90379 180.14648 435.99765
133.09457 180.00711 435.07614
134.17081 180.14336 436.1293
135.30421 180.14191 436.1907
136.38803 180.27827 437.23831
137.5239 180.27698 437.29388
138.61531 180.4135 438.33597
139.75363 180.41234 438.38571
140.89191 180.41124 438.4325
142.03012 180.41023 438.47629
143.20242 180.27155 437.52725
144.36954 180.13293 436.57507
145.47353 180.26987 437.59985
146.63544 180.13141 436.6416
147.74451 180.26849 437.66058
148.87996 180.26791 437.68655
150.01538 180.2674 437.7095
151.15079 180.26694 437.72955
152.28618 180.26657 437.74664
153.43254 180.12854 436.77032
154.56534 180.1283 436.78146
155.69228 180.26587 437.78012
156.82762 180.26578 437.7854
157.96368 180.12802 436.79718
159.09647 180.12808 436.79654
160.22925 180.1282 436.79297
161.35506 179.99065 435.7959
162.48528 179.99091 435.78644
163.61552 179.99124 435.77408
164.74579 179.99164 435.75867
165.87607 179.9921 435.74036
167.00638 179.99265 435.71912
168.1367 179.99326 435.69495
169.26706 179.99393 435.66785
170.42499 180.13242 436.62787
171.58809 180.27098 437.58478
172.72368 180.27188 437.54861
173.89456 180.41058 438.49933
174.99501 180.27388 437.46744
176.09035 180.13725 436.43277
177.1806 180.00067 435.39536
178.35683 180.13968 436.33405
179.49014 180.14101 436.28021
180.62354 180.14241 436.22348
181.81021 180.28165 437.15274
183.00211 180.42096 438.07883
184.1992 180.56036 439.00156
185.34058 180.56207 438.93246
186.54555 180.70163 439.84875
187.75574 180.84128 440.76175
188.83383 180.70544 439.69522
189.9781 180.70746 439.61392
191.12247 180.70955 439.5296
192.19055 180.57393 438.4548
193.4115 180.71397 439.35193
194.63768 180.85413 440.24573
195.78503 180.85654 440.14914
197.01915 180.99686 441.03613
198.25853 181.13727 441.91968
199.41136 181.13994 441.81348
200.56433 181.1427 441.70425
201.81438 181.28339 442.57764
202.87064 181.14847 441.47659
204.1261 181.28932 442.34329
205.38684 181.4303 443.20639
206.76016 181.70923 445.05054
208.14392 181.9883 446.89044
209.76295 182.54324 450.69409
211.17279 182.82257 452.52478
212.71066 183.2399 455.3345
214.14401 183.51947 457.15601
215.34244 183.52332 457.00742
216.54103 183.52727 456.85562
217.99557 183.80719 458.66492
219.33015 183.9493 459.4877
220.6701 184.09152 460.30661
221.7442 183.95793 459.1593
222.81335 183.82443 458.00946
224.01831 183.82898 457.83743
224.65012 183.28165 453.74207
224.96964 182.45834 447.68726
225.55542 181.91104 443.59232
225.9697 181.22574 438.51846
226.20471 180.40237 432.46701
226.87772 179.99315 429.35138
227.69434 179.722 427.21271
228.66228 179.58899 426.0498
229.62527 179.45605 424.88458
230.2502 179.047 421.76456
231.19821 178.9142 420.59576
231.96956 178.64336 418.44937
232.7308 178.37256 416.3017
233.48199 178.10184 414.15283
234.58218 178.10747 413.95078
235.86478 178.25139 414.71912
236.96811 178.25725 414.51038
237.88443 178.12502 413.3259
239.17569 178.26932 414.08347
240.27994 178.2755 413.86533
240.99434 178.00533 411.70206
241.6987 177.7352 409.53775
242.9938 177.87994 410.28223
243.8887 177.74826 409.08368
244.98421 177.75497 408.85193
246.08008 177.7618 408.61707
246.96561 177.63039 407.41122
247.63307 177.36072 405.23627
248.93805 177.50621 405.96011
250.46704 177.79025 407.64563
251.78578 177.93607 408.36017
253.5574 178.3589 410.99985
255.34506 178.78197 413.63266
256.91986 179.0668 415.29489
258.04254 179.07487 415.02545
259.39975 179.22157 415.715
260.52588 179.22992 415.43823
261.6525 179.23842 415.15817
262.29572 178.96991 412.95395
263.41797 178.97861 412.6684
264.04645 178.71025 410.4614
264.66495 178.44194 408.25372
265.77814 178.45096 407.96072
266.89178 178.4601 407.66431
268.00592 178.46938 407.3645
269.12054 178.47879 407.06128
271.02408 178.90453 409.61914
272.14749 178.91428 409.30679
273.80756 179.20169 410.89774
275.20792 179.35056 411.52957
277.43393 179.91608 415.01199
278.57782 179.92651 414.68033
280.83636 180.49258 418.14642
281.99179 180.5034 417.80441
283.1478 180.51437 417.45883
283.73148 180.24757 415.2135
284.5943 180.1198 413.91498
284.86902 179.71411 410.72159
285.12854 179.30838 407.52942
286.26364 179.31979 407.17273
287.69888 179.4704 407.75616
288.83774 179.48209 407.39124
290.89172 179.9113 409.84912
293.57712 180.61911 414.18076
295.97934 181.18814 417.55945
299.65436 182.31438 424.68558
304.00308 183.71967 433.6709
307.45111 184.70786 439.82104
309.65396 185.13939 442.20691
311.22656 185.29254 442.71121
311.82709 185.0278 440.40436
311.76031 184.4843 436.22876
312.00421 184.08006 432.98965
313.23468 184.09412 432.54874
314.80231 184.24774 433.03491
316.03656 184.26202 432.58466
317.61328 184.41592 433.05951
319.19586 184.56998 433.52814
320.43707 184.58458 433.06323
321.67877 184.59924 432.59402
322.92096 184.61398 432.12051
324.1637 184.62878 431.64279
325.76471 184.78336 432.08398
327.37152 184.93805 432.5188
329.34726 185.23264 433.86838
330.96817 185.38754 434.28922
332.96332 185.68237 435.62259
337.19666 186.81668 442.45505
341.8468 188.09142 450.18259
346.1687 189.22675 456.97009
350.53351 190.36255 463.73532
354.55939 191.35883 469.56458
355.1619 191.095 467.16153
357.68985 191.53139 469.31473
359.45413 191.68765 469.63605
361.61627 191.98398 470.85934
362.99854 191.99994 470.25748
365.17642 192.29617 471.46429
366.56363 192.31186 470.85065
367.95053 192.32736 470.23227
368.93115 192.20233 468.70612
369.90601 192.07698 467.1777
371.2861 192.09164 466.54779
372.66556 192.10602 465.9133
373.62769 191.97964 464.37607
375.00281 191.9933 463.73376
-37.69957 187.29298 427.32449
-36.435577 187.27975 427.90396
-35.171021 187.26627 428.47931
-34.310516 187.39539 429.95367
-32.640366 187.23853 429.61725
-31.773758 187.36714 431.08548
-30.90152 187.49551 432.55173
-29.629776 187.4809 433.10797
-28.749191 187.60886 434.56903
-27.474594 187.59393 435.11777
-25.814011 187.43625 434.75064
-24.542068 187.42117 435.2894
-22.509003 187.12082 433.99643
-21.242615 187.10565 434.52417
-19.601105 186.94791 434.13156
-18.337799 186.93269 434.64948
-16.334839 186.63254 433.32681
-14.710098 186.47491 432.91458
-13.091019 186.31738 432.49588
-11.839569 186.30228 432.99197
-9.5106506 185.8602 430.71686
-8.9812622 186.12988 433.04788
-7.7337189 186.1149 433.52997
-6.8379517 186.24223 434.93314
-5.5886688 186.22736 435.40765
-4.6859131 186.35472 436.8053
-3.0916443 186.19781 436.34381
-1.8439026 186.18314 436.80545
0.079376221 185.88441 435.40216
1.9914703 185.58591 433.99078
3.226944 185.57162 434.43588
4.4618378 185.5575 434.87683
6.0236359 185.40147 434.37939
7.254715 185.38759 434.81113
8.1631165 185.51569 436.17462
9.3956757 185.50198 436.59897
10.62764 185.48843 437.01923
11.859039 185.47498 437.43536
13.401367 185.31985 436.90784
14.319992 185.44846 438.2554
15.549576 185.43539 438.65933
17.082199 185.28078 438.11707
18.307922 185.26802 438.51215
19.831451 185.11375 437.95932
21.349091 184.95969 437.40088
22.860886 184.80582 436.83685
24.07634 184.7937 437.21359
25.291229 184.78172 437.58643
26.790741 184.62839 437.00748
28.284424 184.47525 436.42307
29.492325 184.46375 436.78275
31.254356 184.16953 435.23798
32.455879 184.15837 435.5885
33.656853 184.14737 435.93527
34.857277 184.13651 436.27826
36.057175 184.12579 436.61749
36.72805 184.39786 438.86111
37.932091 184.38741 439.19443
39.135635 184.37708 439.52396
40.08226 184.50815 440.806
41.287369 184.49809 441.12888
42.743156 184.34695 440.49045
44.193214 184.19601 439.84698
45.391624 184.18643 440.1575
46.83287 184.03586 439.50479
48.268448 183.88544 438.84711
49.460197 183.87631 439.14551
50.887016 183.72626 438.47873
52.308159 183.57635 437.80716
53.493362 183.56769 438.09357
54.678131 183.55914 438.3765
55.862465 183.55075 438.65594
57.26886 183.40149 437.96722
58.449753 183.3934 438.23914
59.630257 183.38541 438.50745
60.810356 183.37756 438.77243
61.990059 183.36984 439.03394
63.169365 183.36226 439.29208
64.348305 183.3548 439.54678
65.526878 183.34746 439.79803
67.108498 183.05853 438.10739
68.281166 183.05148 438.3508
69.649994 182.90373 437.62051
70.819366 182.89694 437.85672
71.988419 182.89027 438.08957
73.157135 182.88373 438.31912
74.139381 183.01807 439.51773
75.310051 183.01173 439.74115
76.661407 182.86478 438.98782
77.828873 182.8587 439.20419
78.996056 182.85275 439.41727
80.162956 182.84689 439.62701
81.329559 182.84116 439.83356
82.495895 182.83553 440.03687
83.661957 182.83002 440.23691
84.990631 182.68396 439.45709
86.153595 182.67867 439.65021
87.473999 182.53287 438.86273
88.788994 182.38718 438.07114
89.793518 182.52284 439.23209
90.952927 182.51799 439.41199
92.112106 182.51324 439.58875
93.126274 182.64917 440.74173
94.287598 182.64461 440.91248
95.588333 182.4996 440.09988
96.746643 182.49525 440.26395
97.904762 182.49101 440.4249
99.194572 182.34633 439.60144
100.47904 182.20175 438.77411
101.63142 182.19781 438.92496
102.78364 182.19397 439.07266
103.93567 182.19022 439.21729
105.08752 182.18655 439.35883
106.12281 182.32346 440.48038
107.27692 182.31998 440.61606
108.43087 182.31657 440.74857
109.69336 182.17282 439.89392
110.84444 182.1696 440.01999
112.09892 182.02603 439.15833
113.24714 182.02301 439.27798
114.39523 182.02007 439.39456
115.54318 182.01721 439.50815
116.59776 182.15485 440.60431
117.83871 182.01175 439.72607
119.0744 181.86874 438.84433
120.2193 181.86623 438.9455
121.44705 181.7234 438.05695
122.58917 181.72105 438.15182
123.73119 181.71878 438.24362
124.94833 181.57622 437.34528
126.16025 181.43375 436.44345
127.29683 181.43173 436.52594
128.50085 181.28943 435.61755
129.6347 181.28757 435.69388
130.70609 181.42613 436.75531
131.84235 181.42442 436.82581
133.03577 181.28246 435.90491
134.16933 181.28088 435.96924
135.3028 181.27942 436.03067
136.38669 181.41835 437.07797
137.56958 181.27669 436.14456
138.61411 181.55611 438.17535
139.7525 181.55492 438.2251
140.89084 181.5538 438.27194
142.06583 181.41245 437.32635
143.23563 181.27116 436.37759
144.40024 181.12996 435.42566
145.53072 181.12915 435.46039
146.68756 180.9881 434.50232
147.79156 181.12775 435.5209
148.90068 181.26746 436.53659
150.0336 181.26694 436.55951
151.18265 181.12619 435.5896
152.29941 181.26611 436.59662
153.44327 181.12549 435.62064
154.57356 181.12524 435.63174
155.698 181.2654 436.63
156.83086 181.2653 436.63525
157.96442 181.12497 435.64743
159.0947 181.12503 435.64682
160.22498 181.12514 435.64319
161.35527 181.12532 435.63663
162.48558 181.1256 435.62717
163.61589 181.12593 435.61478
164.74623 181.12634 435.5994
165.85931 180.9865 434.59109
166.98712 180.98705 434.56985
168.13734 181.12798 435.53561
169.26778 181.12866 435.50842
170.39824 181.12944 435.47836
171.58894 181.4109 437.42459
172.69194 181.2715 436.3989
173.89558 181.55313 438.33878
174.99608 181.41386 437.30719
176.09151 181.27467 436.27292
177.18182 181.13554 435.23584
178.35812 181.27715 436.17407
179.44342 181.13817 435.13132
180.57431 181.13959 435.07465
181.81174 181.42178 436.99234
182.94791 181.42337 436.92947
184.1425 181.56537 437.85196
185.34233 181.70746 438.77124
186.54738 181.84964 439.68707
187.69156 181.85153 439.61179
188.83582 181.85352 439.53342
190.05141 181.99594 440.43964
191.19843 181.99808 440.35507
192.26917 181.85992 439.2804
193.49275 182.00261 440.17694
194.64006 182.00497 440.08328
195.78749 182.00745 439.9866
197.0217 182.15039 440.87326
198.26117 182.29344 441.75635
199.32227 182.15575 440.66425
200.47275 182.15855 440.55524
201.72031 182.30186 441.42841
202.87361 182.30486 441.31299
204.02705 182.30791 441.19443
205.39001 182.59196 443.04193
206.76341 182.87613 444.88519
208.14729 183.16043 446.72433
209.87885 183.86623 451.51007
211.40637 184.29126 454.32306
212.83192 184.57593 456.14783
214.14783 184.72026 456.9855
215.5918 185.00519 458.80173
216.79564 185.00923 458.64911
217.99969 185.01338 458.49335
219.33438 185.15814 459.31567
220.5414 185.16249 459.15302
221.47739 184.88583 457.02557
222.40326 184.60925 454.8963
223.45982 184.4733 453.74524
224.22472 184.05627 450.63239
224.82843 183.4987 446.53937
225.56021 183.08174 443.42502
226.27673 182.66481 440.30978
226.82431 182.10732 436.21579
227.35147 181.54984 432.12183
228.1759 181.27365 429.98257
228.99023 180.99751 427.84174
229.79449 180.72145 425.69958
230.42206 180.30475 422.58008
231.20355 180.02878 420.43558
231.97498 179.75287 418.28983
232.73633 179.47701 416.14279
233.84149 179.48267 415.94272
234.76741 179.34769 414.7659
236.0527 179.49432 415.53326
236.97403 179.35953 414.3512
238.07776 179.36562 414.13913
239.18182 179.37181 413.92398
240.09367 179.2373 412.73459
240.80557 178.96205 410.57242
241.90277 178.96855 410.3494
243.20062 179.11603 411.09283
244.30109 179.12277 410.86301
245.19641 178.98872 409.66147
246.29498 178.99568 409.42584
247.18323 178.86185 408.2197
248.06665 178.72809 407.01147
248.94522 178.59441 405.80121
250.69284 179.02473 408.45142
252.23538 179.3143 410.12979
254.01239 179.74509 412.76697
255.80542 180.1761 415.39719
257.38559 180.46631 417.05728
258.28214 180.3335 415.82385
259.40799 180.34186 415.55026
260.77097 180.49147 416.23456
261.9003 180.50012 415.95358
262.5462 180.22662 413.74927
263.4267 180.09433 412.50351
264.54953 180.10332 412.21436
265.17334 179.83002 410.00586
266.03949 179.69798 408.75397
267.66586 179.98984 410.36984
268.78796 179.99934 410.06766
269.91055 180.00899 409.76205
271.5593 180.30142 411.36188
272.42267 180.17004 410.09418
274.08551 180.46286 411.68335
275.75937 180.75592 413.26608
277.71753 181.19061 415.79361
279.14008 181.34271 416.41171
281.40411 181.9194 419.87442
282.28375 181.78897 418.58148
283.15869 181.65863 417.28635
283.74249 181.38683 415.04163
284.31635 181.11505 412.79642
284.58847 180.70172 409.60474
285.13974 180.42999 407.35947
286.27496 180.44157 407.00241
288.00995 180.73665 408.52872
289.45383 180.89027 409.10529
291.20844 181.18581 410.61823
294.20419 182.04861 415.88757
296.92212 182.77013 420.20276
300.2926 183.77567 426.38351
304.01614 184.92358 433.4863
307.46448 185.93024 439.63324
309.34677 186.22787 441.08112
310.59351 186.24188 440.64999
310.86273 185.83012 437.4108
311.44534 185.56029 435.10672
311.68665 185.14842 431.86945
312.91455 185.16266 431.42917
314.81628 185.46115 432.84641
316.0506 185.47565 432.39581
317.62744 185.63235 432.8699
319.21011 185.78925 433.3378
320.45135 185.80405 432.87253
321.69315 185.81891 432.40302
323.28796 185.97614 432.8541
324.1781 185.84885 431.45105
326.13715 186.14856 432.81436
328.10724 186.44847 434.16922
329.72516 186.60611 434.59473
331.34875 186.76385 435.01376
333.71521 187.2066 437.26355
337.21161 188.07706 442.25507
341.86206 189.37552 449.97855
346.56067 190.67453 457.6777
350.54916 191.68887 463.52399
354.57513 192.7036 469.34991
355.94662 192.72005 468.77136
358.09265 193.0218 470.00983
359.8595 193.18085 470.32925
362.02417 193.48259 471.55017
363.80423 193.64151 471.85434
365.58939 193.80032 472.15134
366.97906 193.81616 471.53622
368.36841 193.83179 470.91644
368.9455 193.56133 468.48657
369.51144 193.2905 466.05688
371.2998 193.44815 466.32816
373.50671 193.74857 467.49149
374.89032 193.76266 466.84976
376.6922 193.91946 467.10007
-37.711823 188.53682 427.11935
-36.858124 188.6691 428.59949
-35.591171 188.65555 429.17627
-34.728287 188.78717 430.65161
-33.457687 188.77307 431.22113
-32.186691 188.75873 431.78632
-30.915359 188.7442 432.3472
-29.249863 188.58412 431.99622
-28.372131 188.71461 433.45599
-27.100311 188.6996 434.00381
-25.442505 188.53922 433.63632
-24.556641 188.66925 435.0864
-22.904236 188.50873 434.70782
-21.257248 188.34821 434.32257
-19.991119 188.33282 434.84631
-19.097809 188.46252 436.28214
-17.089493 188.15689 434.96283
-15.092102 187.85139 433.63483
-13.470352 187.69104 433.21796
-11.854263 187.53073 432.79465
-9.5252075 187.08063 430.52106
-8.2825317 187.06551 431.00574
-7.7482758 187.34018 433.33405
-6.8524933 187.46994 434.73712
-5.6031494 187.45483 435.21194
-4.7003632 187.58463 436.60956
-3.1060181 187.4249 436.14886
-1.8581848 187.41003 436.61084
-0.27285767 187.25056 436.13864
1.6420593 186.94659 434.72937
2.8802795 186.9321 435.17578
3.787796 187.06232 436.55084
5.6824799 186.75885 435.12228
6.9163208 186.74472 435.55524
7.505249 187.01971 437.85522
9.0627594 186.86127 437.34521
10.61438 186.703 436.82928
11.531631 186.83377 438.18402
13.076767 186.67581 437.65811
14.307068 186.66241 438.06647
15.536774 186.64917 438.4707
16.765869 186.63603 438.87097
18.295425 186.47876 438.32455
19.520676 186.46594 438.71594
21.041107 186.30905 438.15906
23.141998 185.86395 435.70624
24.354965 185.85165 436.08249
25.279465 185.98367 437.40161
27.064407 185.68341 435.8757
28.27301 185.67157 436.23953
29.20105 185.80396 437.54861
30.965874 185.50433 436.00577
32.170174 185.49295 436.3573
33.373909 185.48175 436.70511
34.846611 185.32671 436.09692
36.046638 185.31583 436.43646
36.71759 185.5929 438.67957
37.660133 185.72615 439.9675
39.125465 185.57175 439.3429
39.815796 185.84909 441.5806
41.277473 185.69501 440.94791
42.482224 185.68494 441.26736
43.935043 185.5312 440.62524
45.382164 185.37766 439.97812
46.823593 185.2243 439.32599
48.2593 185.07114 438.66898
49.689346 184.91815 438.00699
50.878174 184.90903 438.30139
52.299492 184.75638 437.63037
53.48481 184.74756 437.91708
54.442001 184.88251 439.16327
55.854187 184.73032 438.47983
57.038223 184.72192 438.75601
58.221848 184.71364 439.02869
59.622368 184.56195 438.33243
60.802605 184.55396 438.59753
61.770325 184.68962 439.8259
62.952362 184.68188 440.08478
64.340942 184.53079 439.37244
65.51963 184.52332 439.6239
67.10141 184.22908 437.9342
68.274193 184.22191 438.17783
69.643158 184.07144 437.44809
70.81266 184.06451 437.68448
71.981834 184.05772 437.91745
72.961906 184.19443 439.11865
74.133011 184.18787 439.34558
75.30381 184.18143 439.56912
76.474289 184.17511 439.7894
77.822868 184.02557 439.0329
78.990158 184.0195 439.24609
80.157158 184.01355 439.45605
81.323891 184.00771 439.66272
82.490326 184.00198 439.86615
83.656502 183.99635 440.06631
84.985306 183.8476 439.28699
86.308655 183.69901 438.50369
87.626595 183.55051 437.71625
88.783997 183.54538 437.90225
89.788612 183.68353 439.06293
90.798164 183.82176 440.22125
91.96003 183.81693 440.3985
93.121674 183.81216 440.57254
94.283081 183.80753 440.74344
95.583931 183.65985 439.93134
96.879395 183.5123 439.11536
98.035042 183.50797 439.276
99.190475 183.50375 439.43356
100.47505 183.35652 438.60672
101.62753 183.35251 438.75766
102.77983 183.34859 438.90549
103.93195 183.34476 439.0502
105.20291 183.19797 438.20929
106.2357 183.33739 439.33029
107.50117 183.1908 438.48257
108.65006 183.18735 438.61462
109.79881 183.18399 438.74353
110.94739 183.18073 438.86942
112.19939 183.03453 438.00793
113.24414 183.17447 439.11197
114.39232 183.17146 439.22864
115.44453 183.31155 440.32733
116.59502 183.30872 440.43811
117.83606 183.16298 439.56033
119.07184 183.01733 438.67899
120.21683 183.01479 438.78021
121.44466 182.86932 437.89212
122.66724 182.72397 437.00064
123.80676 182.72166 437.09235
125.02142 182.57648 436.19415
126.15819 182.57434 436.27963
127.29485 182.5723 436.36215
128.56648 182.28442 434.4668
129.63287 182.42548 435.53055
130.76672 182.42366 435.60394
131.84067 182.56485 436.6622
133.03418 182.42026 435.7417
134.1678 182.41869 435.80615
135.24925 182.56009 436.85596
136.33578 182.70158 437.90311
137.56828 182.4144 435.9816
138.61288 182.69894 438.01166
139.79317 182.55482 437.07263
140.92902 182.55368 437.11929
142.1015 182.40973 436.17398
143.2347 182.40875 436.21472
144.43094 182.12206 434.27399
145.52994 182.26413 435.29791
146.68686 182.12048 434.34027
147.79092 182.2627 435.35849
148.92139 182.26208 435.38431
150.05182 182.26157 435.40723
151.16609 182.40399 436.41681
152.29906 182.40359 436.43384
153.43201 182.40329 436.44797
154.56494 182.40305 436.45908
155.69788 182.40288 436.46732
156.8275 182.54567 437.46231
157.96371 182.40276 436.47485
159.09663 182.4028 436.47415
160.22514 182.26004 435.48083
161.3555 182.26024 435.4743
162.47632 182.11761 434.47513
163.61627 182.26085 435.45239
164.74667 182.26126 435.43701
165.87709 182.26175 435.41867
167.00754 182.2623 435.3974
168.138 182.26294 435.37317
169.26851 182.26364 435.34601
170.45413 182.55022 437.29465
171.61995 182.69397 438.2507
172.72557 182.552 437.22522
173.93187 182.83882 439.16431
175.035 182.69699 438.133
176.09268 182.41234 436.10999
177.22603 182.41356 436.06201
178.35945 182.41487 436.01114
179.44482 182.27332 434.96866
180.57578 182.27478 434.91199
181.81329 182.56215 436.82889
182.94952 182.56377 436.76596
184.14421 182.70839 437.68805
185.34412 182.85309 438.60687
186.48572 182.85495 438.53467
187.69351 182.99982 439.44696
188.83784 183.00183 439.36859
189.98227 183.00392 439.28717
191.20061 183.14906 440.18973
192.27142 183.00836 439.11536
193.4951 183.15367 440.01144
194.72403 183.29907 440.90414
195.79001 183.1586 439.82101
197.02431 183.3042 440.70724
198.26385 183.44986 441.5899
199.32504 183.30963 440.49808
200.56999 183.45551 441.37418
201.72325 183.45844 441.26172
202.7771 183.31847 440.16153
203.92804 183.32158 440.04318
205.28854 183.61084 441.89011
206.76674 184.04327 444.71671
208.15071 184.33279 446.55499
209.99483 185.19464 452.32211
211.52504 185.6275 455.13358
212.95328 185.91742 456.95724
214.15172 185.92133 456.81171
215.59579 186.2115 458.62708
216.54912 185.92943 456.51093
217.74811 185.93362 456.35565
218.42542 185.36548 452.27289
219.48143 185.22672 451.13184
220.26125 184.80176 448.0275
221.16399 184.52002 445.9021
222.3382 184.52463 445.73425
223.65598 184.67249 446.54248
224.54131 184.39098 444.41006
225.56506 184.2527 443.25452
226.58389 184.11452 442.09653
227.29041 183.69 438.98074
227.98163 183.2655 435.86417
228.8165 182.98428 433.72385
229.31836 182.41666 429.62918
229.96384 181.99228 426.51074
230.42743 181.42467 422.4162
231.20901 181.14363 420.27237
232.1523 181.00592 419.10184
232.91632 180.72502 416.95499
233.8472 180.58748 415.78055
234.95277 180.59335 415.57721
236.24078 180.74268 416.34357
237.16476 180.60544 415.16122
238.08389 180.46826 413.97678
239.37799 180.61798 414.73276
240.29254 180.48102 413.54303
241.20221 180.34415 412.35123
242.10703 180.20734 411.15726
243.60788 180.50099 412.86874
244.71365 180.50789 412.63763
245.61429 180.37143 411.43527
246.71817 180.37856 411.19836
247.61171 180.24228 409.99127
248.07385 179.81902 406.84933
249.38431 179.96999 407.57095
251.1373 180.40826 410.2186
252.6852 180.70319 411.89484
254.2439 180.99832 413.56543
256.26599 181.58089 417.15707
257.62265 181.73282 417.85214
258.75342 181.74126 417.58044
260.11871 181.89349 418.26688
261.25293 181.90221 417.98776
262.14828 181.76733 416.74509
262.79694 181.4888 414.54065
263.68011 181.3541 413.2944
264.55853 181.21948 412.04611
265.43219 181.08495 410.79575
266.55347 181.09435 410.50024
268.18524 181.3916 412.11362
269.05508 181.25743 410.85434
270.18045 181.26727 410.54782
271.56912 181.42117 411.19183
272.96353 181.57526 411.83087
274.8999 182.01746 414.37015
276.58179 182.31595 415.94952
278.27469 182.61469 417.52234
279.97861 182.91367 419.08853
281.97217 183.35696 421.59753
282.57596 183.08006 419.3544
283.45361 182.94733 418.05862
284.04016 182.67053 415.81363
284.90576 182.53793 414.51447
285.18323 182.11703 411.32211
286.32855 182.1288 410.96518
287.47446 182.14069 410.60461
288.62091 182.15271 410.24026
290.07019 182.30917 410.81445
292.44006 182.89885 414.20734
294.8316 183.48886 417.58948
297.86523 184.36804 422.84018
301.55682 185.53656 429.95395
305.29126 186.70566 437.04953
307.79614 187.29741 440.37881
310.00201 187.74503 442.76068
310.93073 187.61478 441.39224
311.20264 187.19543 438.15305
311.45923 186.776 434.91519
312.36328 186.6458 433.54355
313.26254 186.51563 432.16959
314.83041 186.6749 432.65427
316.06482 186.68958 432.20331
317.64175 186.84912 432.67667
319.22455 187.00882 433.1438
320.46588 187.0238 432.67819
321.7077 187.03888 432.20831
323.65521 187.3438 433.5831
324.54807 187.21414 432.17917
326.5098 187.5193 433.54019
328.12207 187.67967 433.97144
329.73999 187.84012 434.39618
330.99774 187.85559 433.8952
334.09875 188.59653 437.9808
337.59805 189.48288 442.96844
342.25134 190.80508 450.68661
346.19974 191.83746 456.55072
350.56494 193.01547 463.30856
354.97296 194.19394 470.04385
355.96243 194.06529 468.55228
357.72116 194.22711 468.87912
359.48523 194.38889 469.19891
361.25452 194.55058 469.51169
362.63379 194.56677 468.91043
364.80872 194.87366 470.11606
366.59344 195.035 470.40765
367.5766 194.90517 468.88522
368.9599 194.92056 468.26285
369.11688 194.49899 464.93277
370.49103 194.5137 464.30478
372.27835 194.67371 464.57086
374.07013 194.83339 464.82996
375.86636 194.99274 465.08218
-38.136719 189.92902 427.8092
-36.870758 189.91574 428.39038
-36.011414 190.05026 429.86853
-34.741562 190.03635 430.44257
-33.873199 190.17026 431.91589
-32.999084 190.30385 433.3873
-30.929306 189.99313 432.13889
-29.657959 189.97833 432.69574
-28.386429 189.96335 433.24826
-27.114761 189.94823 433.79639
-25.07106 189.63721 432.51907
-24.571335 189.9176 434.87958
-22.918991 189.75433 434.50177
-21.272064 189.59103 434.11731
-19.630661 189.42776 433.72632
-18.740097 189.55994 435.16095
-16.73439 189.24896 433.84174
-15.106995 189.08575 433.43219
-13.485199 188.92258 433.01608
-11.869095 188.75951 432.59354
-9.8993073 188.44894 431.2431
-8.2972412 188.28607 430.80664
-7.4089813 188.41827 432.21091
-6.8672333 188.69795 434.53748
-5.6178436 188.68268 435.01263
-4.3689575 188.66745 435.48358
-3.120575 188.65231 435.95023
-1.8726959 188.63725 436.41257
-0.2872467 188.47498 435.94119
1.9632416 188.01831 433.60266
2.8661041 188.15088 434.97986
3.7736969 188.28351 436.35483
5.3410339 188.1218 435.86078
6.577652 188.10742 436.29498
7.1692963 188.38739 438.59537
9.049118 188.07901 437.15097
10.283966 188.06499 437.57275
11.518234 188.05109 437.99045
13.063522 187.89032 437.4653
14.293961 187.87672 437.8739
15.523773 187.86325 438.27853
16.753006 187.84991 438.67908
18.2827 187.68985 438.13342
19.806549 187.52997 437.58203
21.324509 187.3703 437.02505
23.129807 187.06401 435.51767
24.342911 187.05151 435.8942
25.555435 187.03918 436.26685
27.052628 186.88028 435.68851
28.261383 186.86826 436.05258
29.189529 187.00305 437.36157
30.954582 186.69801 435.81973
32.159004 186.68646 436.1716
33.362885 186.67505 436.51965
34.566216 186.66382 436.86398
35.768997 186.65271 437.20453
36.442665 186.93478 439.44785
37.649643 186.92392 439.78229
38.856071 186.91322 440.1131
39.805557 187.0491 441.39557
41.267387 186.89226 440.76355
42.472282 186.88199 441.08322
43.925285 186.72549 440.44177
45.618546 186.42282 438.8371
46.81414 186.41309 439.1438
48.250023 186.25714 438.48737
49.918381 185.95511 436.86591
51.104729 185.94586 437.15994
52.290649 185.93672 437.45032
53.476105 185.92776 437.73724
54.66114 185.91891 438.0206
55.845749 185.91022 438.30045
57.02993 185.90164 438.57678
57.993752 186.0394 439.81421
59.397034 185.88495 439.11911
60.579994 185.8768 439.38504
61.762535 185.86879 439.64758
62.944717 185.8609 439.90659
64.333435 185.70708 439.19485
65.30793 185.84552 440.4144
66.892456 185.54596 438.72623
68.067955 185.53864 438.97055
69.636208 185.23943 437.27237
70.805824 185.23239 437.50894
71.783768 185.37144 438.71268
73.144081 185.21867 437.97195
74.312706 185.21201 438.19855
75.481026 185.20547 438.42178
76.64904 185.19904 438.64169
78.173569 184.90094 436.9122
79.159973 185.04066 438.09821
80.497749 184.88873 437.33374
81.488747 185.02867 438.51419
82.820778 184.877 437.74237
83.816422 185.01714 438.91714
84.979858 185.01154 439.11377
86.303345 184.86023 438.3309
87.621399 184.70908 437.54404
88.778908 184.70383 437.73016
89.783623 184.84448 438.89059
90.943237 184.83945 439.07074
92.102615 184.83453 439.24774
93.116966 184.97545 440.40021
94.278496 184.9707 440.5712
95.579453 184.82036 439.75958
96.875031 184.67014 438.94412
98.030762 184.66574 439.10489
99.186295 184.66144 439.26257
100.34164 184.65724 439.41705
101.49681 184.65314 439.56842
102.77596 184.50346 438.73514
103.92818 184.49957 438.87994
105.19923 184.35011 438.03952
106.34853 184.34642 438.17783
107.49768 184.3428 438.31299
108.64666 184.33929 438.4451
109.79549 184.33588 438.57416
110.94417 184.33255 438.7001
112.19626 184.18372 437.83908
113.34207 184.18057 437.95865
114.48776 184.17752 438.07513
115.53748 184.32014 439.17325
116.59222 184.46286 440.26886
117.74267 184.46005 440.37668
118.98111 184.31177 439.49606
120.12875 184.30914 439.59753
121.44221 184.01552 437.72427
122.5845 184.01306 437.81924
123.80449 183.86517 436.9249
124.94399 183.86292 437.0137
126.15608 183.71521 436.11276
127.22272 183.85863 437.18216
128.49701 183.56555 435.28781
129.63101 183.56363 435.3642
130.70255 183.70729 436.42496
131.83896 183.70551 436.49554
133.03255 183.55832 435.57547
134.16626 183.5567 435.63992
135.29988 183.55518 435.70142
136.38391 183.69922 436.74811
137.52 183.69781 436.80377
138.65602 183.69653 436.85648
139.79199 183.6953 436.90619
140.96718 183.54866 435.96439
142.10049 183.54758 436.00803
143.26787 183.40112 435.06003
144.39853 183.40019 435.09766
145.55812 183.25388 434.14346
146.68614 183.25311 434.17514
147.79028 183.39789 435.19299
148.89954 183.54276 436.20804
150.03262 183.54221 436.23096
151.16566 183.54175 436.25104
152.29871 183.54135 436.2681
153.43173 183.54102 436.28217
154.57317 183.39529 435.30402
155.7036 183.39514 435.31216
156.83073 183.5405 436.30676
157.96445 183.39502 435.31973
159.09486 183.39505 435.31903
160.22087 183.24973 434.32611
161.34874 183.24992 434.31961
162.47662 183.2502 434.31012
163.61664 183.396 435.28696
164.74712 183.39642 435.27158
165.87761 183.39691 435.25323
167.00813 183.39749 435.23193
168.13867 183.39813 435.2077
169.29422 183.54431 436.16956
170.45496 183.6906 437.12836
171.62085 183.83694 438.08401
172.75923 183.83791 438.04773
173.93292 183.98441 438.99722
175.07396 183.98552 438.9549
176.13426 183.69574 436.93253
177.22731 183.55148 435.896
178.36079 183.55283 435.84506
179.49434 183.55423 435.79117
180.62796 183.55571 435.73428
181.81487 183.70276 436.66232
183.007 183.84991 437.5871
184.14595 183.85164 437.521
185.28499 183.85345 437.45193
186.48763 184.00085 438.36716
187.6955 184.14835 439.27905
188.8399 184.15039 439.20059
190.05566 184.29807 440.10596
191.20285 184.30029 440.02127
192.35013 184.3026 439.93362
193.57646 184.45053 440.8291
194.72652 184.453 440.73511
195.79257 184.31001 439.65231
197.02695 184.45822 440.53809
198.17734 184.46097 440.43497
199.23604 184.31821 439.34375
200.38411 184.32111 439.23483
201.62927 184.4697 440.10733
202.78018 184.47278 439.992
203.93121 184.47595 439.8736
205.39651 184.91606 442.70349
206.77014 185.21069 444.54514
208.04434 185.3598 445.39923
209.66116 185.94592 449.19849
211.06876 186.24094 451.02695
212.6044 186.68173 453.83334
213.91534 186.83133 454.67059
215.47713 187.2724 457.46744
216.55328 187.13092 456.33365
217.49657 186.84381 454.21625
218.16879 186.26538 450.13559
219.08667 185.97839 448.01508
219.85883 185.54575 444.9129
220.89212 185.4046 443.76889
221.92046 185.26355 442.62238
223.23062 185.41406 443.43124
224.40021 185.41895 443.2576
225.71857 185.5697 444.0589
226.89119 185.57481 443.87842
227.75665 185.28845 441.74017
228.29942 184.71054 437.64658
228.98065 184.27844 434.52951
229.48515 183.70058 430.43579
229.96924 183.12271 426.34232
230.59952 182.6907 423.2244
231.38377 182.4046 421.08078
232.32974 182.26443 419.91003
233.09642 181.97847 417.76331
234.207 181.98438 417.56204
235.31784 181.99039 417.35757
236.429 181.99651 417.15005
237.35568 181.8568 415.96747
238.46483 181.86313 415.75412
239.57431 181.8696 415.53766
240.68408 181.87617 415.31802
241.59903 181.73685 414.12534
242.90457 181.88968 414.8692
244.41597 182.18869 416.57764
245.53224 182.19579 416.34418
246.6489 182.203 416.10754
247.55775 182.06424 414.90048
248.46179 181.92557 413.69135
249.14771 181.64087 411.51416
250.2554 181.64851 411.26685
251.80046 181.94861 412.94592
253.35634 182.24892 414.61942
254.923 182.54942 416.2872
256.50049 182.85013 417.94919
257.85989 183.00482 418.64307
258.99338 183.01341 418.37045
260.12732 183.02216 418.09457
261.26169 183.03102 417.81528
262.39648 183.04002 417.53256
262.80585 182.61014 414.36887
