ply
format ascii 1.0
comment PCL generated
element vertex 1591
property float x
property float y
property float z
element camera 0
property float view_px
property float view_py
property float view_pz
property float x_axisx
property float x_axisy
property float x_axisz
property float y_axisx
property float y_axisy
property float y_axisz
property float z_axisx
property float z_axisy
property float z_axisz
property float focal
property float scalex
property float scaley
property float centerx
property float centery
property int viewportx
property int viewporty
property float k1
property float k2
end_header
274.70282 182.07516 432.22714
275.88544 182.08514 431.9054
277.33142 182.23401 432.53488
278.25229 182.10555 431.25098
279.70456 182.25473 431.87164
281.1626 182.40411 432.48709
282.6264 182.55368 433.09738
283.54422 182.42572 431.80014
284.73587 182.43677 431.45108
286.20923 182.58682 432.04776
287.12085 182.45924 430.74161
288.60059 182.60962 431.3291
290.37524 182.8992 432.85843
291.57767 182.91101 432.48795
293.07495 183.06198 433.05911
294.87506 183.35219 434.56949
295.78757 183.22542 433.24094
296.39316 182.95964 430.9671
298.20825 183.2504 432.46149
299.41949 183.26309 432.06583
300.94147 183.4151 432.60663
302.46936 183.56729 433.14169
304.00308 183.71967 433.6709
305.22467 183.73297 433.25653
306.4469 183.7464 432.8381
307.99304 183.89926 433.35156
309.21906 183.91293 432.92401
311.10303 184.20552 434.36053
312.66681 184.3589 434.85599
313.90259 184.37302 434.41318
315.47552 184.5267 434.89743
317.05435 184.68054 435.37552
319.32288 185.11363 437.70605
320.57416 185.12827 437.24142
321.47876 185.00339 435.84521
322.37854 184.87852 434.44669
323.6261 184.89333 433.97116
323.80847 184.48909 430.71851
325.04895 184.50391 430.23749
325.92935 184.379 428.82993
327.89447 184.67346 430.18372
329.13885 184.68842 429.68869
331.4892 185.12296 431.94647
336.08307 186.397 439.70117
340.72522 187.67165 447.43198
345.03912 188.80688 454.22278
350.15433 190.22256 462.82065
354.55939 191.35883 469.56458
355.54642 191.23505 468.07394
357.30264 191.3913 468.40341
358.28452 191.2673 466.90561
359.26102 191.14313 465.40536
361.02246 191.29907 465.71832
362.78915 191.45496 466.02432
364.56091 191.61069 466.32324
367.5473 192.18709 469.32797
369.33704 192.34262 469.60922
371.13162 192.49796 469.88336
372.93094 192.65305 470.15048
373.49332 192.38678 467.71222
374.87732 192.40086 467.07071
375.422 192.13373 464.63074
-38.112152 187.43594 428.22412
-37.255447 187.56561 429.70569
-35.578278 187.40916 429.38138
-35.11972 187.68112 431.76022
-33.042313 187.38136 430.52173
-32.572296 187.65277 432.89676
-31.694733 187.78107 434.36536
-30.8116 187.90915 435.83194
-28.35791 187.46613 433.65988
-27.474594 187.59393 435.11777
-25.814011 187.43625 434.75064
-24.925354 187.56378 436.20197
-23.270218 187.40601 435.82376
-21.998489 187.39078 436.35373
-20.726944 187.37549 436.87924
-18.710403 187.07518 435.56644
-16.334839 186.63254 433.32681
-14.710098 186.47491 432.91458
-13.091019 186.31738 432.49588
-11.839569 186.30228 432.99197
-10.229248 186.14487 432.56146
-8.9812622 186.12988 433.04788
-7.3797455 185.97263 432.60559
-6.4866333 186.10001 434.00775
-5.2400055 186.08514 434.48123
-3.9939117 186.07037 434.95047
-2.7483063 186.05566 435.41544
-1.5032196 186.04103 435.8761
0.079376221 185.88441 435.40216
1.6560974 185.72794 434.92209
2.8942108 185.71365 435.36813
4.1317596 185.69949 435.81006
5.6961823 185.54344 435.31357
6.9299316 185.52951 435.74619
8.1631165 185.51569 436.17462
10.034668 185.21826 434.72516
11.261353 185.20474 435.14359
12.801651 185.04953 434.61926
13.712936 185.17807 435.96826
14.937851 185.16495 436.37448
15.855865 185.29367 437.71802
16.778549 185.42249 439.05927
18.006912 185.4097 439.45517
19.234695 185.39705 439.84708
20.757614 185.24292 439.29028
21.981552 185.23059 439.67343
23.495377 185.07684 439.10629
24.71553 185.0648 439.48074
26.220291 184.91141 438.90338
27.154022 185.0412 440.21805
28.652405 184.88815 439.63132
30.144958 184.73529 439.03918
31.906433 184.44121 437.49063
33.112648 184.43015 437.8389
34.587799 184.27788 437.23083
36.057175 184.12579 436.61749
36.992287 184.25655 437.90707
38.193718 184.24611 438.23965
39.394646 184.23581 438.56845
40.595047 184.22565 438.89362
41.79493 184.21564 439.21509
43.245491 184.06454 438.57526
44.441772 184.05484 438.8887
45.637573 184.04527 439.19855
47.07621 183.8947 438.54517
48.509171 183.74431 437.88684
49.460197 183.87631 439.14551
50.651505 183.86734 439.44031
51.842354 183.85849 439.73157
53.032761 183.84978 440.01926
53.995033 183.98224 441.26691
55.412277 183.83278 440.58411
56.823883 183.68349 439.89658
58.009979 183.67535 440.16968
59.195679 183.66733 440.43921
60.595665 183.51849 439.73889
61.777962 183.51077 440.00098
62.959869 183.50316 440.25967
63.934502 183.63658 441.48312
65.322578 183.48834 440.76675
66.705078 183.34026 440.04593
67.683823 183.47403 441.26022
68.863914 183.46704 441.50186
70.043663 183.46021 441.74017
71.414421 183.31267 441.00366
72.590904 183.30608 441.23477
73.767075 183.29961 441.46249
74.942932 183.29324 441.68689
76.480431 183.00552 439.96121
77.472115 183.14017 441.15186
78.644463 183.13419 441.36591
79.816536 183.1283 441.5766
81.158943 182.98184 440.80881
82.159821 183.11688 441.98825
83.496506 182.97069 441.21304
84.664902 182.96527 441.41025
85.833031 182.95996 441.60422
87.1586 182.81413 440.8176
88.478767 182.66841 440.02682
89.640991 182.66345 440.21033
90.802979 182.65858 440.39063
92.112106 182.51324 439.58875
93.126274 182.64917 440.74173
94.429794 182.50404 439.93268
95.588333 182.4996 440.09988
96.746643 182.49525 440.26395
98.03923 182.35046 439.444
99.194572 182.34633 439.60144
100.34973 182.34227 439.75571
101.63142 182.19781 438.92496
102.90779 182.05347 438.09039
104.05724 182.04973 438.23471
105.32553 181.90558 437.39301
106.35565 182.0425 438.51395
107.39076 182.1795 439.63254
108.65341 182.03564 438.78094
109.69336 182.17282 439.89392
110.84444 182.1696 440.01999
111.89183 182.30692 441.12762
113.0452 182.30386 441.24783
114.10004 182.44135 442.35013
115.35153 182.29805 441.47903
116.41126 182.43567 442.57568
117.65736 182.29256 441.69794
118.8101 182.28995 441.80283
119.96272 182.28741 441.90466
121.11523 182.28496 442.00342
122.34801 182.14221 441.1123
123.41993 182.2803 442.19177
124.64737 182.13773 441.29422
125.79691 182.13559 441.38058
127.01644 181.99319 440.47638
128.02818 182.27194 442.5321
129.05011 182.55078 444.58557
129.95747 183.11038 448.61292
130.88533 183.67001 452.63849
131.94815 183.94902 454.68536
133.07587 184.08774 455.74109
134.36496 183.80551 453.82785
135.74277 183.24271 449.9332
137.05299 182.82034 447.02347
138.25896 182.67874 446.08823
139.45973 182.5372 445.14966
140.65532 182.39575 444.20792
141.77235 182.53503 445.24176
142.92859 182.53404 445.28326
144.24252 181.83154 440.37366
145.47276 181.40979 437.43973
146.71397 180.84778 433.51257
147.93459 180.28586 429.58197
149.13463 179.72403 425.64792
150.258 179.58321 424.68033
151.39233 179.30215 422.71991
152.51639 179.02118 420.75638
153.60815 179.02087 420.76993
154.69992 179.02065 420.78067
155.79167 179.02048 420.78857
156.88342 179.0204 420.79364
157.97589 178.88007 419.80569
159.06137 178.5995 417.82489
160.14099 178.4593 416.83133
161.20151 178.03856 413.8548
162.25618 177.75819 411.86569
163.31271 177.61821 410.86392
164.36414 177.47829 409.85944
165.41042 177.33841 408.8522
166.47144 177.33893 408.83224
167.48766 177.05888 406.82986
168.5186 176.91922 405.81467
169.57199 176.91992 405.78665
170.68562 177.20134 407.73514
171.74422 177.20219 407.70148
172.90858 177.62408 410.63339
174.0506 177.90573 412.57263
175.12216 177.9068 412.53018
176.19379 177.90794 412.48486
177.26544 177.90915 412.43671
178.33716 177.91043 412.3858
179.35826 177.77142 411.34329
180.42752 177.77286 411.28693
181.49684 177.77434 411.22775
182.50786 177.63554 410.17734
183.51379 177.49683 409.12451
184.57819 177.4985 409.05719
185.57657 177.35992 407.99927
186.63855 177.36176 407.92651
187.70061 177.36366 407.85104
188.83656 177.50601 408.76007
189.825 177.36771 407.69171
191.04523 177.6506 409.5817
192.19432 177.79321 410.48126
193.18047 177.65512 409.40457
194.42159 177.93829 411.28445
195.31613 177.65993 409.21628
196.38412 177.66245 409.11783
197.54663 177.80548 410.0022
198.81136 178.08902 411.86847
199.98697 178.23224 412.74585
201.37209 178.65642 415.58939
202.56342 178.79984 416.45941
203.5455 178.66245 415.35742
204.30289 178.2442 412.28522
205.26981 178.1069 411.17911
206.11673 177.82924 409.08743
206.95348 177.55159 406.99396
207.90024 177.41452 405.88174
209.08746 177.5585 406.73215
210.15468 177.56209 406.59686
211.47784 177.8468 408.42233
212.68102 177.9911 409.26205
214.15561 178.4166 412.06039
215.37463 178.56114 412.89221
217.0136 179.12747 416.66147
218.6734 179.69397 420.42487
220.35405 180.26065 424.18222
222.20151 180.96809 428.91281
224.37204 181.95694 435.59412
226.27673 182.66481 440.30978
228.0538 183.2323 444.04031
229.85178 183.79996 447.76425
230.71756 183.52396 445.61829
231.7347 183.38867 444.44745
232.58292 183.11281 442.29797
233.58765 182.97769 441.12286
234.24908 182.56125 437.99438
235.58243 182.70769 438.76553
236.74686 182.71353 438.55795
237.91156 182.71951 438.34711
238.89702 182.58484 437.15936
240.24187 182.73178 437.91559
241.40749 182.7381 437.69492
242.57341 182.74452 437.47092
243.73965 182.75107 437.24365
244.90625 182.75774 437.01309
245.87807 182.62369 435.80856
246.84503 182.48975 434.60172
248.20773 182.6376 435.33179
249.37309 182.64474 435.08841
250.74428 182.79289 435.81006
251.91296 182.80031 435.55942
253.29269 182.94878 436.27271
254.25146 182.81549 435.04788
255.4213 182.82329 434.78702
256.37305 182.69023 433.55716
257.54111 182.69827 433.29007
258.93323 182.84746 433.98398
260.10468 182.85576 433.70935
261.0477 182.72316 432.46817
262.68039 183.01389 434.1124
263.62164 182.88153 432.86484
264.79486 182.89038 432.57635
266.44714 183.18164 434.2056
267.86841 183.33197 434.86874
269.05081 183.34129 434.56766
270.48083 183.49197 435.22165
271.66684 183.5016 434.91275
272.60098 183.37013 433.64297
273.78537 183.38004 433.32761
274.45505 183.10751 431.09677
275.63519 183.11766 430.77551
276.81589 183.12794 430.45062
277.9971 183.13837 430.12204
279.71497 183.43167 431.69574
281.17316 183.58383 432.31061
282.63715 183.73618 432.92014
283.83099 183.74728 432.57382
285.30399 183.89999 433.17361
286.2204 183.7699 431.86978
287.13211 183.63991 430.56366
288.61203 183.79309 431.15054
290.3869 184.08804 432.6788
291.58942 184.10007 432.30801
293.38123 184.39546 433.82367
295.18411 184.6911 435.33206
296.09937 184.56197 434.00281
297.00992 184.43292 432.67126
298.83044 184.72914 434.16284
299.73956 184.60033 432.82419
301.26434 184.75519 433.36346
302.48221 184.76839 432.9577
303.70068 184.78174 432.548
304.60162 184.65334 431.19678
306.1394 184.80881 431.71634
307.35965 184.82254 431.29437
308.90652 184.97833 431.80295
310.45929 185.13431 432.3056
312.3493 185.43246 433.73499
313.58252 185.44678 433.29279
315.15289 185.60324 433.77725
316.38989 185.61777 433.32571
318.31134 185.91666 434.72772
319.55472 185.93143 434.26572
320.45135 185.80405 432.87253
321.69315 185.81891 432.40302
322.93542 185.83386 431.9292
323.82288 185.70654 430.52719
325.06342 185.72154 430.04584
326.30438 185.7366 429.56021
328.27222 186.0365 430.91171
329.88519 186.19409 431.33502
332.24097 186.63672 433.58905
336.46918 187.79205 440.41998
341.11426 189.09045 448.14563
345.05444 190.10425 454.01627
349.79071 191.40366 461.69547
354.19324 192.56097 468.4368
355.94662 192.72005 468.77136
357.70541 192.8791 469.09894
359.07971 192.8954 468.5098
360.06134 192.7688 467.00729
361.82803 192.92755 467.31726
363.20193 192.94339 466.7139
364.9762 193.1019 467.01093
367.96515 193.6889 470.01257
370.16321 193.99007 471.19458
371.14575 193.86226 469.66275
373.35596 194.16299 470.82938
373.92059 193.89156 468.3905
374.47375 193.61964 465.95197
375.43454 193.4903 464.41043
-38.949677 188.97354 429.81696
-37.678024 188.96021 430.40033
-36.405762 188.94656 430.97952
-35.132919 188.93268 431.55444
-33.055725 188.62762 430.31711
-32.585983 188.90416 432.69153
-31.311996 188.88959 433.2536
-30.037796 188.87485 433.81134
-27.98082 188.56927 432.54727
-27.100311 188.6996 434.00381
-25.442505 188.53922 433.63632
-24.17334 188.52402 434.17429
-22.904236 188.50873 434.70782
-21.635223 188.49338 435.23694
-19.991119 188.33282 434.84631
-18.352524 188.1723 434.44901
-15.979568 187.72166 432.2099
-14.724792 187.70636 432.71613
-13.105713 187.54602 432.29819
-12.216248 187.67572 433.71548
-10.60318 187.51547 433.28671
-9.3525238 187.50024 433.77451
-7.7482758 187.34018 433.33405
-6.5011292 187.32507 433.81213
-5.2544708 187.31003 434.28598
-4.0083008 187.29504 434.75558
-2.4192657 187.13539 434.29291
-1.1767578 187.12057 434.75293
0.065216064 187.10587 435.20871
1.977478 186.80193 433.79846
3.2130432 186.78748 434.24393
4.1179047 186.91772 435.61804
5.6824799 186.75885 435.12228
6.9163208 186.74472 435.55524
7.8274231 186.87521 436.91962
9.7018127 186.57231 435.4722
10.931259 186.55856 435.89188
12.16011 186.54492 436.30743
13.076767 186.67581 437.65811
14.307068 186.66241 438.06647
15.843094 186.50482 437.52979
16.765869 186.63603 438.87097
17.994385 186.62305 439.26718
19.222275 186.6102 439.65942
21.041107 186.30905 438.15906
22.262573 186.29654 438.54166
23.773941 186.14 437.9744
24.991592 186.12781 438.34836
26.208649 186.11575 438.71838
27.142517 186.24794 440.0329
28.641052 186.0921 439.4469
30.133759 185.93645 438.85547
31.620667 185.78101 438.25867
32.829666 185.76973 438.60794
34.577103 185.47067 437.0491
35.779755 185.45975 437.38937
37.246117 185.30507 436.77228
38.445084 185.29446 437.10437
39.384491 185.42789 438.38782
40.585045 185.41754 438.7132
41.78508 185.40735 439.03488
43.235794 185.25351 438.39575
44.432198 185.24362 438.70947
45.874107 185.09012 438.06097
47.066948 185.08057 438.36676
48.500053 184.92741 437.70908
49.45121 185.06186 438.96753
50.642647 185.0527 439.26257
51.833649 185.0437 439.55402
53.02417 185.03485 439.84201
54.214287 185.02612 440.12634
55.403961 185.01753 440.40723
56.593208 185.00909 440.6846
57.782028 185.00078 440.9585
58.970451 184.99261 441.22888
60.373184 184.84103 440.52969
61.55822 184.83313 440.79254
62.742851 184.82538 441.052
63.927109 184.81775 441.30801
65.315308 184.66678 440.59225
66.496246 184.65942 440.84082
67.676804 184.65221 441.08609
69.053558 184.50168 440.35794
70.036896 184.63812 441.56638
71.216438 184.63129 441.80142
72.395638 184.62454 442.03317
73.574509 184.61795 442.2616
74.753082 184.61145 442.4866
76.293297 184.31844 440.76239
77.466072 184.31221 440.97983
78.638542 184.30611 441.19397
79.810715 184.30014 441.40488
80.98262 184.29425 441.61246
82.322281 184.14523 440.84146
83.491043 184.1396 441.04205
84.496674 184.27731 442.21558
85.988068 183.98544 440.45694
87.31118 183.83694 439.67032
88.473747 183.83179 439.85718
89.788612 183.68353 439.06293
90.948128 183.67859 439.24298
92.107407 183.67374 439.41983
93.266464 183.66901 439.59351
94.56752 183.52122 438.78458
95.583931 183.65985 439.93134
96.879395 183.5123 439.11536
98.035042 183.50797 439.276
99.190475 183.50375 439.43356
100.34573 183.49963 439.58795
101.62753 183.35251 438.75766
102.90399 183.20551 437.92358
104.05354 183.20169 438.06799
105.32191 183.0549 437.22675
106.35213 183.19434 438.34744
107.38732 183.33383 439.4657
108.53878 183.3304 439.59808
109.6901 183.32703 439.72726
110.84126 183.32376 439.85342
111.99229 183.32057 439.9765
113.14317 183.31747 440.09653
114.19551 183.45749 441.19827
115.44453 183.31155 440.32733
116.40851 183.5947 442.40875
117.65469 183.44897 441.53146
118.71941 183.58928 442.62219
119.96022 183.44371 441.73828
121.02985 183.5842 442.82336
122.26529 183.4388 441.93292
123.41767 183.43646 442.02567
124.6452 183.29126 441.12848
125.79482 183.28909 441.2149
126.94434 183.28702 441.29837
128.02625 183.42796 442.36621
129.04825 183.71191 444.41895
129.95567 184.2818 448.44489
130.94341 184.7088 451.48108
131.94649 185.13586 454.51517
133.12895 185.1342 454.58237
134.41556 184.8468 452.66974
135.79089 184.27365 448.77655
137.05167 183.98642 446.85641
138.30211 183.69931 444.93283
139.45857 183.69807 444.98343
140.61497 183.69693 445.03098
141.73465 183.83875 446.06454
142.92764 183.69485 445.11707
144.17856 183.26524 442.18787
145.41403 182.83571 439.25516
146.66045 182.26337 435.32965
147.88629 181.69113 431.4007
149.09154 181.11896 427.46823
150.23882 180.83266 425.5116
151.39194 180.40355 422.56232
152.50249 180.26028 421.58914
153.60789 180.1171 420.6131
154.69972 180.11685 420.62384
155.79155 180.1167 420.63177
156.88008 180.25949 421.62659
157.97519 180.11658 420.63904
159.06331 179.83086 418.65891
160.14114 179.5452 416.67596
161.20872 179.25961 414.69031
162.26602 178.97409 412.70187
163.3252 178.83153 411.70044
164.37924 178.68903 410.69626
165.42818 178.5466 409.68939
166.49182 178.54712 409.66937
167.51068 178.26193 407.6676
168.54427 178.11969 406.65274
169.62782 178.26332 407.61401
170.74667 178.54991 409.56158
171.81047 178.55078 409.52768
173.01532 179.12335 413.44748
174.20293 179.55307 416.37469
175.24445 179.41127 415.34283
176.32384 179.41245 415.29715
177.40329 179.41368 415.24872
178.38658 179.12917 413.22025
179.41032 178.98763 412.17795
180.48222 178.98907 412.1214
181.55418 178.99059 412.06201
182.56784 178.84924 411.01181
183.51547 178.56503 408.97125
184.57993 178.56677 408.90393
185.57837 178.42563 407.84628
186.70909 178.57045 408.76089
187.7738 178.57239 408.68515
188.83859 178.57443 408.60663
189.97986 178.71948 409.51205
191.12637 178.86462 410.41425
192.19659 178.8669 410.3269
193.35101 179.01221 411.22281
194.33734 178.87166 410.14365
195.31862 178.73117 409.06207
196.38669 178.73373 408.96353
197.64368 179.0224 410.83267
198.8141 179.16815 411.71295
200.08936 179.45702 413.57458
201.37503 179.74599 415.43225
202.56644 179.89204 416.30182
203.5486 179.75212 415.20013
204.41589 179.46924 413.11255
205.38547 179.32944 412.00647
206.23503 179.04666 409.91513
207.19202 178.907 408.80475
208.14401 178.76743 407.69217
209.33646 178.91408 408.54144
210.53424 179.06084 409.38721
211.86523 179.35083 411.21082
212.94579 179.35469 411.06796
214.55872 179.93115 414.84512
215.9212 180.22151 416.65576
217.57062 180.79829 420.42197
218.95929 181.08894 422.22299
220.93198 181.95239 427.93655
222.7899 182.67288 432.66354
224.82242 183.53677 438.36206
226.43277 183.97131 441.11841
228.21259 184.54922 444.84686
229.85703 184.98413 447.59146
230.56403 184.55983 444.46927
231.57867 184.42206 443.29919
232.58841 184.28436 442.12668
233.75986 184.29001 441.92734
234.59317 184.00922 439.77457
235.76001 184.01508 439.56961
236.92714 184.02106 439.36145
238.09454 184.02715 439.14993
239.08269 183.89001 437.96191
240.24811 183.89633 437.74438
241.41383 183.90276 437.52353
242.39255 183.76593 436.32764
243.55634 183.77258 436.10071
244.91296 183.92276 436.84125
246.07999 183.92969 436.60718
247.04965 183.79327 435.40002
248.4151 183.94388 436.12897
249.78606 184.09464 436.85345
250.95709 184.10205 436.60544
252.12851 184.10962 436.35403
253.30029 184.11731 436.09921
254.25917 183.98158 434.8746
255.42914 183.98952 434.61359
256.38101 183.854 433.38388
257.77026 184.00577 434.08124
258.94144 184.0141 433.80991
260.33932 184.1662 434.49847
261.28503 184.03116 433.25681
262.92053 184.32724 434.89944
263.6304 184.04878 432.68988
265.04047 184.20151 433.36203
266.21686 184.21069 433.06921
267.87759 184.50749 434.69193
268.81561 184.37323 433.43173
270.49036 184.67043 435.04404
271.67648 184.68024 434.73489
272.61075 184.54634 433.4653
273.79526 184.55641 433.1496
274.46503 184.27887 430.91931
275.64532 184.28918 430.59781
276.82617 184.29965 430.27264
278.27295 184.45419 430.89713
279.72556 184.60895 431.51648
281.1839 184.76387 432.13062
282.92139 185.06302 433.69064
284.11801 185.07434 433.34323
285.31519 185.08578 432.99207
286.51294 185.0974 432.63712
287.71124 185.10913 432.27829
288.91013 185.12103 431.91574
290.68777 185.42142 433.44208
291.89307 185.43365 433.07019
293.68768 185.73447 434.58386
295.19641 185.8913 435.14648
296.11176 185.75977 433.81729
297.32471 185.77261 433.4281
298.84317 185.92996 433.97632
299.75238 185.79874 432.63776
301.27734 185.95639 433.1763
302.4953 185.96982 432.77023
303.71387 185.98338 432.36017
304.93304 185.99706 431.94601
306.47357 186.15536 432.4639
307.37317 186.02478 431.10556
308.92023 186.18341 431.61343
310.47311 186.34219 432.11533
312.03192 186.50116 432.61121
313.26254 186.51563 432.16959
314.83041 186.6749 432.65427
316.40414 186.8343 433.13278
318.32574 187.13864 434.53366
319.56921 187.15359 434.07132
320.81317 187.16864 433.60468
322.05768 187.18375 433.13382
323.30261 187.19891 432.6586
323.83752 186.92429 430.33224
325.79395 187.2294 431.69534
327.04025 187.24471 431.20728
328.65021 187.40506 431.63519
330.63181 187.71054 432.97592
333.36157 188.30634 436.14441
337.59805 189.48288 442.96844
341.87744 190.65991 449.77057
346.19974 191.83746 456.55072
350.56494 193.01547 463.30856
354.591 194.04868 469.13113
355.96243 194.06529 468.55228
358.4957 194.51775 470.70001
359.48523 194.38889 469.19891
360.86194 194.40521 468.60355
362.63379 194.56677 468.91043
364.80872 194.87366 470.11606
366.19284 194.88954 469.50302
369.18964 195.48718 472.49899
371.80145 195.93927 474.57855
373.20288 195.95459 473.94308
375.01489 196.11517 474.20273
375.17581 195.69302 470.86099
376.15308 195.56161 469.31674
376.70483 195.28409 466.87439
-39.374649 190.3736 430.50549
-37.69072 190.21207 430.19034
-36.418732 190.19839 430.76971
-35.146225 190.18445 431.34497
-33.069199 189.87408 430.1087
-32.200409 190.00775 431.57773
-30.929306 189.99313 432.13889
-29.657959 189.97833 432.69574
-27.995102 189.8154 432.34
-27.114761 189.94823 433.79639
-25.457047 189.78508 433.42963
-24.571335 189.9176 434.87958
-23.299667 189.90216 435.41458
-22.028091 189.88663 435.94519
-20.381332 189.72327 435.55637
-18.367432 189.41223 434.24484
-16.364395 189.10126 432.92453
-15.474335 189.2334 434.35046
-14.214569 189.21783 434.8548
-12.955154 189.20229 435.35477
-11.336731 189.03918 434.92892
-9.7240295 188.87619 434.49664
-8.1170654 188.71329 434.05798
-6.5158386 188.55048 433.61292
-5.2691193 188.53525 434.08707
-3.6768341 188.37267 433.63046
-2.7771759 188.50494 435.02267
-0.85043335 188.19525 433.62695
0.050842285 188.32767 435.01169
1.9632416 188.01831 433.60266
2.8661041 188.15088 434.97986
4.1038361 188.13629 435.42245
5.3410339 188.1218 435.86078
6.577652 188.10742 436.29498
7.8136902 188.09315 436.72504
9.049118 188.07901 437.15097
10.600876 187.91794 436.63577
11.832504 187.90407 437.05258
13.063522 187.89032 437.4653
14.293961 187.87672 437.8739
15.523773 187.86325 438.27853
16.44931 187.99683 439.62045
17.981628 187.83673 439.07565
18.911255 187.97052 440.41122
20.73291 187.66394 438.91287
21.957138 187.65121 439.29657
23.471313 187.49184 438.7308
24.691711 187.47942 439.1059
26.196808 187.32043 438.52994
27.130783 187.45503 439.84436
28.629486 187.29639 439.259
30.122375 187.13794 438.66824
31.334686 187.12631 439.0224
32.818588 186.96823 438.42169
34.566216 186.66382 436.86398
35.768997 186.65271 437.20453
37.235542 186.49524 436.58807
38.69632 186.33795 435.9664
39.892288 186.32733 436.29434
40.831306 186.46332 437.57397
42.282677 186.30655 436.93915
43.477127 186.29639 437.25604
44.671082 186.28635 437.56931
45.864532 186.27647 437.87894
47.300888 186.12039 437.22614
48.490791 186.11084 437.52786
49.680222 186.10141 437.82605
50.869179 186.09213 438.12073
52.057701 186.08298 438.41177
53.245773 186.07399 438.69928
54.433403 186.06514 438.98331
55.395493 186.20261 440.22702
56.584869 186.19402 440.50461
57.773827 186.18555 440.77872
58.962379 186.17723 441.04932
60.150543 186.16904 441.31641
61.550407 186.01489 440.61383
62.944717 185.8609 439.90659
64.126503 185.85315 440.16223
65.30793 185.84552 440.4144
66.488983 185.83804 440.66321
67.66967 185.83069 440.9086
69.046562 185.67746 440.18106
70.223961 185.67036 440.41919
71.401031 185.66339 440.6539
72.577766 185.65656 440.88528
73.754158 185.64986 441.1134
74.93026 185.64326 441.3381
76.287041 185.49088 440.58688
77.459923 185.48456 440.8045
78.632507 185.47833 441.01886
79.978043 185.32635 440.2558
80.976807 185.46626 441.43762
82.316605 185.31454 440.66714
83.32 185.45465 441.84326
84.491196 185.44902 442.0412
85.822433 185.29767 441.25961
87.148239 185.14648 440.47403
88.313499 185.1412 440.66138
89.631065 184.99026 439.8681
90.943237 184.83945 439.07074
92.102615 184.83453 439.24774
93.26178 184.82971 439.42154
94.420715 184.82498 439.59216
95.719101 184.67464 438.78015
96.875031 184.67014 438.94412
97.896278 184.81145 440.08505
99.05439 184.80714 440.24307
100.21233 184.80292 440.39789
101.49681 184.65314 439.56842
102.65178 184.64914 439.71667
103.92818 184.49957 438.87994
105.08022 184.49576 439.02167
106.23209 184.49207 439.16031
107.26996 184.63406 440.2785
108.42409 184.63055 440.41122
109.46935 184.77274 441.52423
110.7319 184.62378 440.66736
111.88559 184.62051 440.7908
113.03912 184.61737 440.91119
114.19254 184.61429 441.02844
115.44165 184.46573 440.15796
116.4057 184.754 442.23874
117.56129 184.75119 442.34705
118.71677 184.74847 442.45233
119.95767 184.60028 441.56882
121.02737 184.74329 442.65359
122.34331 184.44971 440.7775
123.41538 184.59288 441.85632
124.64299 184.44507 440.95966
125.86536 184.29733 440.05948
127.0124 184.29521 440.14276
128.02426 184.58423 442.19714
129.17627 184.58226 442.27475
130.07861 185.16243 446.29883
131.06128 185.59715 449.33365
132.0593 186.03192 452.36636
133.23669 186.03024 452.43329
134.46614 185.88315 451.50919
135.73991 185.59067 449.59363
137.05032 185.15276 446.68622
138.34525 184.71495 443.77502
139.54103 184.56821 442.83704
140.69237 184.56705 442.88446
141.88036 184.42047 441.94012
143.02904 184.41946 441.98145
144.27234 183.9821 439.0531
145.50017 183.54483 436.12134
146.71255 183.10764 433.18613
147.90948 182.67053 430.24762
149.09097 182.23351 427.30585
150.23834 181.94203 425.34991
151.37538 181.65065 423.39105
152.50215 181.35931 421.42905
153.60764 181.21355 420.45334
154.69952 181.2133 420.46411
155.79143 181.21313 420.47198
156.88004 181.35851 421.4664
157.9752 181.21301 420.47928
159.06339 180.92213 418.49991
160.1413 180.63132 416.51773
161.21593 180.48605 415.52219
162.27588 180.19537 413.53445
163.34981 180.19571 413.52261
164.42377 180.19611 413.508
165.48047 180.0511 412.50137
166.5519 180.05164 412.4812
167.55612 179.61584 409.49091
168.59491 179.47104 408.47626
169.68369 179.61726 409.43698
170.77763 179.76355 410.39474
171.87675 179.90993 411.34955
173.05156 180.34734 414.2789
174.27965 180.93033 418.19351
175.36678 180.93146 418.15036
176.45395 180.93265 418.10434
177.49564 180.78844 417.06717
178.48413 180.49878 415.03918
179.51309 180.35471 413.99698
180.53696 180.21066 412.95215
181.55576 180.06671 411.90479
182.62787 180.06833 411.84256
183.63908 179.92453 410.7901
184.64523 179.78076 409.73508
185.64632 179.63708 408.67758
186.71101 179.63899 408.60458
187.7758 179.64098 408.52884
188.91449 179.78859 409.43683
190.05841 179.93628 410.34167
191.20757 180.08406 411.24326
192.36197 180.23192 412.14154
193.43752 180.23431 412.05084
194.51317 180.2368 411.95734
195.49966 180.09378 410.87558
196.57297 180.09641 410.77655
197.7408 180.24472 411.65955
199.10785 180.6843 414.50824
200.29135 180.83279 415.38394
201.58228 181.12701 417.24026
202.67422 181.13011 417.12506
203.65904 180.98767 416.02344
204.41913 180.55405 412.95294
205.38878 180.41174 411.8472
206.23842 180.12387 409.75653
207.07788 179.83603 407.66415
208.2677 179.98523 408.51614
209.58557 180.28023 410.34634
210.66328 180.28398 410.20959
212.12488 180.7249 413.01306
213.21068 180.72887 412.86948
214.69582 181.17004 415.66388
216.061 181.46567 417.47333
217.71313 182.05287 421.23758
219.2453 182.49452 424.01657
221.3667 183.51933 430.70584
223.37848 184.39862 436.40814
225.42148 185.27817 442.10269
226.89119 185.57481 443.87842
228.52521 186.01743 446.62671
229.86237 186.16858 447.41547
230.41055 185.59079 443.31775
231.26126 185.30469 441.1723
232.42996 185.31033 440.97647
233.59894 185.31607 440.7775
234.59898 185.17609 439.60052
235.93774 185.32793 440.36969
237.10756 185.33403 440.16086
238.27768 185.34024 439.94879
239.26851 185.20065 438.76053
240.43665 185.20709 438.54236
241.42032 185.06772 437.349
242.58649 185.07437 437.12466
243.56303 184.93518 435.92618
244.9198 185.08807 436.66614
246.08694 185.09511 436.43185
247.05673 184.95624 435.22495
248.4223 185.10956 435.95334
249.99631 185.4091 437.64551
251.17007 185.41669 437.39676
252.34421 185.42439 437.14456
253.72943 185.57834 437.85556
254.69362 185.44022 436.63004
255.65302 185.30219 435.40222
256.6076 185.16425 434.17212
257.7785 185.17258 433.90402
258.9498 185.18106 433.63248
260.12152 185.18968 433.35745
261.29367 185.19844 433.07904
262.92932 185.49985 434.72058
264.10754 185.50891 434.4339
265.52298 185.66443 435.10419
266.94409 185.82013 435.76959
268.12894 185.82968 435.47101
269.31424 185.83937 435.16882
270.74719 185.99557 435.82083
271.68631 185.85916 434.55365
272.62067 185.72285 433.28415
274.06036 185.87955 433.92401
274.47522 185.45055 430.73856
275.91589 185.60754 431.37112
277.09949 185.61819 431.04498
278.54907 185.77554 431.66803
280.00446 185.93311 432.28601
281.46561 186.09085 432.89874
282.93253 186.24878 433.50623
283.8533 186.11365 432.20865
285.04797 186.12526 431.85794
286.24326 186.13702 431.50348
287.7229 186.29565 432.09274
288.92194 186.30774 431.72986
290.98889 186.76031 434.20108
292.19699 186.77277 433.82809
293.99445 187.07904 435.33984
295.50598 187.23871 435.90091
296.42404 187.10478 434.57095
297.63977 187.11787 434.18063
299.16101 187.27805 434.72726
300.073 187.14447 433.38794
301.60071 187.30496 433.9248
302.82147 187.31862 433.51758
303.72729 187.18535 432.16879
304.94659 187.19925 431.75436
306.80804 187.50749 433.20712
308.03381 187.52168 432.78268
309.5863 187.6832 433.28796
310.81589 187.69763 432.85434
312.37744 187.85945 433.34848
313.27679 187.72687 431.97461
314.84479 187.88895 432.45853
316.41861 188.05119 432.93628
317.99832 188.21358 433.4079
319.58386 188.37611 433.87323
320.48059 188.24391 432.48019
322.07245 188.40665 432.93503
323.6701 188.56952 433.38354
324.56293 188.43744 431.97971
326.52478 188.74803 433.33954
327.41577 188.61597 431.92804
329.02847 188.77917 432.35416
330.64685 188.94244 432.7738
333.37671 189.54886 435.94022
337.6134 190.74651 442.76044
341.89301 191.94464 449.55875
346.96875 193.43889 458.16412
350.96014 194.49023 464.0025
354.60712 195.39407 468.90836
355.59375 195.26294 467.41794
357.737 195.57544 468.65521
358.72101 195.444 467.15646
360.8775 195.75638 468.37848
363.43979 196.21674 470.49771
365.22192 196.38097 470.79443
367.00909 196.54504 471.08414
369.60785 197.00519 473.17276
371.8161 197.31708 474.34769
372.80853 197.18427 472.81134
375.02887 197.4957 473.97092
375.60327 197.21393 471.52841
376.16617 196.93167 469.08627
377.13666 196.79715 467.54022
-39.799683 191.7791 431.18933
-37.703415 191.46411 429.97656
-36.431778 191.45042 430.55618
-35.159546 191.43643 431.13162
-33.484741 191.27148 430.79962
-31.81488 191.10635 430.46106
-30.943329 191.24231 431.92679
-29.278168 191.07681 431.57727
-27.618118 190.91119 431.22107
-26.740631 191.04657 432.67618
-25.471725 191.03123 433.21915
-24.586166 191.16626 434.66901
-23.314575 191.15067 435.20432
-22.421143 191.2854 436.64877
-21.147141 191.26962 437.17642
-19.127884 190.95313 435.86829
-17.119507 190.6367 434.55139
-15.856796 190.62094 435.06149
-14.594391 190.60519 435.56726
-12.970261 190.43921 435.14865
-11.711197 190.42349 435.64462
-9.7390594 190.10751 434.29214
-8.132019 189.9418 433.85425
-6.5307465 189.77621 433.41
-5.2839966 189.76077 433.88455
-3.6916046 189.5954 433.42868
-2.7918854 189.7301 434.82077
-0.86503601 189.41498 433.4263
0.036315918 189.5498 434.81088
1.6133728 189.38489 434.33313
2.8517609 189.37 434.78021
4.0896149 189.35519 435.22311
4.9993439 189.4903 436.59479
6.5635986 189.32593 436.09644
7.7997284 189.31143 436.52682
9.0352783 189.2971 436.95313
10.270248 189.28287 437.37524
11.818909 189.11914 436.85583
13.050064 189.10519 437.26886
14.280609 189.09138 437.67786
15.816956 188.92816 437.14267
16.739944 189.06415 438.48364
18.269806 188.90128 437.93872
19.196869 189.03751 439.27341
20.720291 188.87495 438.71872
21.944641 188.86203 439.10281
23.458969 188.69986 438.53784
24.679504 188.68726 438.91324
25.899475 188.67477 439.2847
27.118881 188.66245 439.65222
28.617752 188.50101 439.06763
29.833374 188.48901 439.4267
31.323242 188.32797 438.83206
32.535149 188.31628 439.18265
34.016029 188.15561 438.57813
35.491142 187.99512 437.96832
37.224792 187.68573 436.40042
38.424034 187.67476 436.73303
39.881844 187.51488 436.10767
41.077446 187.50421 436.4321
42.27253 187.49374 436.75296
43.467102 187.4834 437.07016
44.661194 187.47321 437.38367
45.854797 187.46313 437.69354
47.291321 187.30431 437.04138
48.722137 187.14566 436.38428
49.909111 187.13608 436.68201
50.860031 187.27554 437.93665
52.048691 187.26624 438.22791
53.2369 187.25708 438.51569
54.42466 187.24808 438.79993
55.386864 187.388 440.04349
56.576378 187.37924 440.32129
57.76548 187.37064 440.59558
58.95417 187.36218 440.86639
60.357201 187.20511 440.16843
61.54248 187.19695 440.4317
62.936935 187.04022 439.72507
64.118851 187.03233 439.9809
65.3004 187.02458 440.23331
66.279823 187.16559 441.45041
67.662407 187.00946 440.72787
68.842865 187.00211 440.97009
70.216965 186.8463 440.23917
71.394142 186.83922 440.47415
72.759789 186.6837 439.73499
73.747536 186.82542 440.93393
75.107338 186.6702 440.18713
76.461678 186.51511 439.43594
77.63208 186.50868 439.65329
78.802193 186.50238 439.86731
79.972015 186.49619 440.078
80.970901 186.63855 441.25949
82.310829 186.48413 440.48953
83.479805 186.4783 440.69046
84.485626 186.62099 441.86349
85.816978 186.46698 441.08252
87.142906 186.31308 440.29742
88.308273 186.30771 440.48495
89.473412 186.30246 440.66922
90.788269 186.14896 439.87286
92.09774 185.99557 439.07242
93.257004 185.99066 439.2464
94.416046 185.98586 439.41708
95.714539 185.83284 438.60562
96.870575 185.82828 438.76971
97.891922 185.97206 439.91034
99.050133 185.96768 440.06842
100.20816 185.96338 440.22339
101.49275 185.81094 439.39441
102.64782 185.80685 439.54279
103.92432 185.65463 438.70654
104.95744 185.79901 439.83011
106.11198 185.79523 439.96918
107.26637 185.79153 440.10504
108.30931 185.93614 441.22049
109.46596 185.93263 441.35046
110.83474 185.63284 439.51089
111.98594 185.62955 439.63416
113.036 185.77451 440.73813
114.09108 185.91956 441.83954
115.34286 185.76834 440.96976
116.30956 186.06171 443.05011
117.55852 185.91069 442.17392
118.62596 186.05606 443.26428
119.95508 185.75708 441.39621
121.02487 185.90262 442.48062
122.26049 185.75198 441.59106
123.49088 185.60144 440.698
124.64075 185.59911 440.78763
125.79051 185.59686 440.87427
127.01031 185.44659 439.97128
128.0898 185.59262 441.03827
129.17435 185.73874 442.1026
130.13916 186.18109 445.13821
131.11931 186.62354 448.17178
132.05757 187.21411 452.19052
133.23506 187.2124 452.25754
134.36037 187.35886 453.30902
135.63936 187.06116 451.3945
137.00197 186.46741 447.5007
138.29955 186.02184 444.59079
139.49799 185.8725 443.65338
140.7305 185.57516 441.72449
141.916 185.42601 440.78055
143.09631 185.27692 439.83331
144.33455 184.83179 436.90604
145.52834 184.53482 434.96384
146.73824 184.08987 432.02975
147.90884 183.79306 430.08105
149.06914 183.49634 428.12909
150.20044 183.34775 427.16287
151.35884 182.90314 424.21594
152.47467 182.75468 423.24368
153.58536 182.60632 422.26843
154.6909 182.45804 421.29031
155.78545 182.45787 421.29828
156.87997 182.45776 421.30331
157.9745 182.45775 421.30554
159.06348 182.01366 418.33798
160.1503 182.01378 418.33453
161.23013 181.86592 417.33923
162.30486 181.71814 416.34122
163.38657 181.71848 416.32928
164.46829 181.71889 416.31454
165.53278 181.57132 415.30817
166.59215 181.42383 414.29907
167.62399 181.12834 412.29852
168.67056 180.98099 411.28406
169.79466 181.27786 413.23273
170.92908 181.57483 415.17834
172.04112 181.7238 416.13232
173.22885 182.16899 419.06006
174.39423 182.4662 420.99612
175.48914 182.46735 420.95258
176.54112 182.32053 419.91821
177.58803 182.17374 418.8811
178.58173 181.87897 416.85367
179.61589 181.73232 415.81149
180.64499 181.58575 414.76682
181.66899 181.43925 413.71954
182.74631 181.44092 413.65695
183.70178 181.14645 411.61737
184.71057 181.00017 410.56253
185.71431 180.85394 409.50525
186.78166 180.8559 409.43207
187.77783 180.70981 408.36966
188.99043 181.00816 410.26343
190.13699 181.15848 411.16757
191.3678 181.457 413.05432
192.44588 181.45938 412.96619
193.52408 181.46184 412.87524
194.60239 181.46436 412.78137
195.6808 181.46698 412.68469
196.75932 181.46967 412.58508
197.93239 181.62061 413.4671
199.30469 182.06801 416.31412
200.39388 182.07098 416.20486
201.58534 182.22223 417.07645
202.67738 182.2254 416.96115
203.66226 182.08041 415.85974
204.42242 181.63911 412.79044
205.39215 181.49429 411.68497
206.24185 181.20129 409.59497
207.19901 181.05661 408.48523
208.39148 181.20847 409.33643
209.71204 181.5087 411.16544
210.91776 181.66081 412.00925
212.38461 182.10956 414.81073
213.60614 182.2619 415.64664
214.96609 182.56265 417.45889
216.2009 182.71524 418.28708
217.85574 183.31287 422.04926
219.24983 183.61406 423.84781
221.3714 184.65704 430.53418
223.67529 185.84865 438.19028
225.57507 186.59546 442.90381
227.19864 187.04575 445.65561
228.83795 187.49622 448.40173
229.8678 187.35333 447.23621
230.41605 186.76529 443.13989
231.42831 186.62253 441.9707
232.59973 186.62828 441.77438
233.60474 186.4857 440.59995
234.77412 186.4917 440.39758
236.1156 186.64624 441.16574
237.11371 186.50398 439.98291
238.10695 186.36182 438.79773
238.91571 186.07123 436.63773
240.07877 186.07776 436.42032
241.24216 186.08441 436.19968
242.40585 186.09119 435.97568
243.3799 185.94951 434.77789
244.73421 186.1051 435.51779
246.28918 186.40945 437.22281
247.26166 186.26814 436.01556
248.62996 186.42419 436.74283
250.00381 186.58043 437.46567
251.38324 186.73682 438.18402
252.35196 186.59599 436.96432
253.94806 186.90137 438.6409
254.91496 186.7608 437.41498
255.87706 186.62033 436.18677
256.83435 186.47998 434.9563
258.008 186.48849 434.68741
259.18204 186.49713 434.41501
260.58282 186.65474 435.10184
261.76035 186.66368 434.8219
263.40137 186.97049 436.46118
264.3508 186.83087 435.21225
265.76898 186.98917 435.88126
267.19287 187.14766 436.54544
268.62244 187.30632 437.20468
269.81311 187.31621 436.90088
271.25146 187.47525 437.55099
271.94611 187.18744 435.32578
273.13562 187.19775 435.01181
274.07062 187.05917 433.73886
274.74319 186.77161 431.509
275.92639 186.7823 431.18628
277.11014 186.79315 430.85986
278.55988 186.95328 431.48227
280.01541 187.11362 432.09952
281.47675 187.27415 432.71161
283.21722 187.58411 434.26859
284.41675 187.59581 433.91989
285.61682 187.60767 433.56735
286.53622 187.4704 432.26312
288.30261 187.78117 433.79807
289.22049 187.64417 432.48694
291.29031 188.10475 434.95578
292.50116 188.11743 434.58167
294.00702 188.27969 435.14755
295.51871 188.44217 435.70786
296.13721 188.15637 433.43579
297.65274 188.31915 433.9873
298.86917 188.33258 433.59265
300.08621 188.34615 433.19397
301.61407 188.50946 433.7301
303.14783 188.67297 434.26047
304.37195 188.687 433.84796
305.91486 188.85086 434.36755
307.46362 189.01489 434.88116
308.69479 189.02936 434.45456
309.92657 189.04395 434.02377
311.15891 189.05864 433.5889
312.39182 189.07346 433.14984
313.29123 188.93846 431.77603
314.85931 189.10336 432.25916
316.43329 189.2684 432.73611
317.67105 189.28363 432.2793
319.25403 189.44894 432.74484
320.84283 189.6144 433.20419
322.43744 189.77997 433.65723
324.03784 189.94568 434.10394
325.64398 190.11151 434.54428
327.25592 190.27744 434.97827
328.51288 190.29324 434.48529
329.77026 190.30908 433.98798
331.02802 190.32491 433.4863
333.392 190.79169 435.73224
337.25757 191.86008 441.63232
341.53473 193.07928 448.42792
346.23141 194.4494 456.11551
350.59695 195.66962 462.86563
354.24133 196.58929 467.76965
355.6098 196.60617 467.19119
357.75299 196.92401 468.42715
358.73682 196.79012 466.92856
361.6785 197.40906 469.9639
364.246 197.87744 472.07913
366.03329 198.04446 472.3728
367.42493 198.06058 471.75562
369.62274 198.37793 472.93881
371.42477 198.54437 473.21127
372.00558 198.25813 470.77621
374.22025 198.57477 471.93704
375.20285 198.43857 470.39536
376.17923 198.30191 468.85162
377.56854 198.31567 468.20111
-39.812073 193.03659 430.97067
-38.126144 192.86978 430.65802
-36.852188 192.85605 431.23911
-35.577591 192.842 431.81598
-33.900421 192.67435 431.48593
-32.627472 192.65979 432.05307
-31.354156 192.64499 432.61594
-29.686523 192.47678 432.26837
-28.415329 192.46159 432.82141
-27.144028 192.44626 433.37021
-26.258652 192.58391 434.82428
-24.984528 192.56828 435.36548
-23.329651 192.39948 434.9903
-22.058258 192.38365 435.52155
-20.787003 192.36777 436.04846
-18.770401 192.0459 434.74045
-16.764694 191.72415 433.42377
-15.504684 191.70825 433.93314
-14.244949 191.69237 434.43817
-12.985519 191.67645 434.93881
-11.726456 191.66055 435.43512
-9.7542267 191.33917 434.08386
-8.5012665 191.32339 434.56943
-6.8972473 191.15497 434.12701
-5.6477966 191.13931 434.60294
-4.3988037 191.1237 435.07458
-3.1502991 191.10818 435.54193
-1.5614471 190.94014 435.0773
-0.6547699 191.07733 436.46384
0.92770386 190.90955 435.98877
2.5043488 190.74191 435.5076
3.7449341 190.72688 435.95181
4.9849548 190.71194 436.39182
6.5493317 190.54477 435.89429
7.7855682 190.53009 436.32501
9.0212402 190.51553 436.75162
10.256317 190.5011 437.1741
11.805145 190.33453 436.65543
13.348083 190.16818 436.13092
14.26709 190.30637 437.47815
15.803574 190.14035 436.94376
17.030426 190.12662 437.34409
18.557816 189.96097 436.79907
19.482346 190.09964 438.13284
21.003296 189.9343 437.57813
22.225143 189.92119 437.9617
23.73703 189.75624 437.39658
24.66713 189.8954 438.71698
26.172562 189.7308 438.14243
27.106766 189.87022 439.45667
28.605804 189.70599 438.87277
29.821594 189.69379 439.23209
31.31163 189.52994 438.63815
32.523666 189.51808 438.98907
34.004723 189.35461 438.38525
35.213058 189.34308 438.72781
36.949501 189.02829 437.1618
38.151527 189.01709 437.49536
39.612099 188.85443 436.87146
40.810478 188.84357 437.19687
42.262192 188.68124 436.56339
43.456917 188.67073 436.88083
44.651154 188.66037 437.19461
46.090927 188.4986 436.54736
47.525009 188.33701 435.8952
48.712563 188.32712 436.19681
49.899673 188.3174 436.49481
51.086311 188.30782 436.78928
52.039513 188.44983 438.04077
52.99749 188.59195 439.29001
54.187996 188.58275 439.57507
55.378098 188.5737 439.85657
56.345184 188.71616 441.09769
57.756996 188.55603 440.40909
59.163177 188.39609 439.71582
60.348991 188.38763 439.98279
61.746574 188.22803 439.28082
63.13858 188.06857 438.57422
64.111061 188.21182 439.7963
64.88401 188.50642 441.98315
66.070511 188.49863 442.23343
67.455826 188.33977 441.51205
68.835594 188.18108 440.78622
70.209831 188.02255 440.05594
71.387146 188.01534 440.29105
72.564125 188.00824 440.5228
73.740784 188.00128 440.75119
74.917114 187.99446 440.97626
76.274162 187.83665 440.22617
77.625717 187.67902 439.47186
78.795952 187.67259 439.68604
79.792633 187.81734 440.87012
80.964882 187.81113 441.07813
82.136841 187.80505 441.2829
83.47403 187.64809 440.5098
84.47995 187.79327 441.68262
85.811424 187.63655 440.90216
87.137489 187.47998 440.11758
88.302963 187.47452 440.30527
89.468208 187.46915 440.48965
90.783195 187.31296 439.69379
91.945366 187.30783 439.87143
93.252144 187.15192 439.06799
94.411301 187.147 439.23883
95.570221 187.14223 439.40656
96.728951 187.13754 439.57108
97.887482 187.13297 439.73242
98.913864 187.27936 440.87039
100.20392 187.12413 440.04575
101.48862 186.96902 439.21729
102.64378 186.96487 439.36572
103.92039 186.80998 438.53
105.07263 186.80603 438.67191
106.2247 186.80219 438.8107
107.3766 186.79845 438.94638
108.41705 186.94559 440.06125
109.57121 186.94202 440.19107
110.83138 186.78778 439.33493
111.98267 186.78442 439.45825
112.93182 187.08267 441.54529
114.088 187.07947 441.66296
115.33987 186.92563 440.7937
116.39992 187.07336 441.88916
117.465 187.22119 442.98203
118.71135 187.06763 442.103
119.95244 186.91415 441.22043
121.02229 187.06224 442.3046
122.33842 186.75824 440.43015
123.48849 186.7558 440.52286
124.63845 186.75342 440.61252
125.78831 186.75113 440.69916
126.93808 186.74893 440.78278
128.02022 186.89751 441.84964
129.17238 186.89546 441.92731
130.19966 187.19487 443.97522
131.17732 187.64502 447.00751
132.11307 188.24588 451.02457
133.1787 188.54549 453.06564
134.25453 188.84514 455.1041
135.53877 188.54225 453.1907
136.85963 188.08879 450.28616
138.20943 187.48479 446.39026
139.49677 187.03152 443.47806
140.76862 186.57837 440.56223
141.98831 186.27597 438.63068
143.19769 185.97363 436.69571
144.45985 185.37012 432.78128
145.61447 185.21863 431.8277
146.81673 184.76593 428.89459
147.93202 184.76523 428.9231
149.06856 184.61395 427.96027
150.21863 184.31213 426.00601
151.35841 184.01039 424.04868
152.47432 183.85938 423.07681
153.58508 183.7084 422.10199
154.68227 183.70816 422.11279
155.77945 183.70799 422.12076
156.87662 183.70789 422.12585
157.9738 183.70787 422.12805
159.06726 183.40668 420.15024
160.15488 183.25616 419.1582
161.24435 183.25636 419.15189
162.33383 183.25664 419.14273
163.42334 183.25699 419.13074
164.51285 183.25742 419.11588
165.60239 183.2579 419.09821
166.6721 183.10783 418.08926
167.73669 182.95784 417.07758
168.82117 182.95856 417.05145
169.93321 183.10999 418.01074
171.08055 183.41214 419.95514
172.17284 183.41309 419.92029
173.33568 183.71539 421.85849
174.47101 183.86716 422.8056
175.53073 183.71768 421.77405
176.58537 183.5683 420.73993
177.63492 183.41896 419.70309
178.63126 183.11905 417.67621
179.66806 182.96985 416.63431
180.6998 182.82074 415.58981
181.72644 182.67169 414.54276
182.80643 182.6734 414.47998
183.8255 182.52449 413.4277
184.77597 182.22498 411.38638
185.84845 182.2269 411.31561
186.98972 182.37959 412.22821
187.99368 182.23097 411.16559
189.06642 182.23312 411.0863
190.21565 182.38608 411.98984
191.4491 182.68982 413.87549
192.61139 182.84296 414.77234
193.69482 182.84547 414.68082
194.86505 182.99879 415.57126
196.04053 183.15221 416.45828
197.0376 183.00424 415.37341
198.21848 183.15784 416.25421
199.50162 183.46231 418.11545
200.59604 183.46536 418.00565
201.79276 183.61926 418.87616
202.78531 183.47171 417.77722
203.66556 183.17343 415.69318
204.53564 182.87523 413.60733
205.39558 182.57709 411.51974
206.36038 182.42981 410.41232
207.43779 182.43343 410.28412
208.63553 182.58797 411.13422
209.96136 182.89346 412.96167
211.17233 183.04822 413.80432
212.64445 183.50482 416.60388
213.87126 183.65985 417.4386
215.36957 184.11674 420.22879
216.47656 184.12114 420.07623
217.99847 184.57832 422.85715
219.53607 185.03568 425.63284
221.80638 186.2478 433.2937
223.82625 187.15836 438.9899
225.87735 188.06914 444.67825
227.50623 188.52733 447.42798
228.68964 188.53278 447.2424
229.40436 188.08542 444.12527
229.94493 187.48711 440.03174
230.94952 187.34181 438.86407
231.94923 187.19662 437.69409
233.27734 187.35358 438.47049
234.6109 187.51068 439.24274
235.94991 187.66791 440.01077
236.94556 187.52316 438.82867
238.11331 187.5296 438.61673
239.10178 187.38504 437.42944
240.08536 187.2406 436.23981
241.06407 187.09624 435.04791
242.22528 187.10312 434.82425
243.19687 186.95895 433.62723
244.54871 187.11725 434.36707
246.10124 187.4269 436.07156
247.07123 187.28311 434.86508
248.63742 187.59309 436.56024
250.21439 187.90329 438.24994
251.18546 187.75989 437.03333
252.35986 187.76788 436.78079
253.74536 187.92731 437.49054
254.92313 187.93559 437.23062
255.6694 187.64133 435.03799
256.62421 187.4985 433.80832
258.01654 187.65852 434.50323
259.1907 187.66731 434.23062
260.59167 187.82767 434.91681
261.76929 187.83676 434.63663
263.64209 188.30037 437.23584
