ply
format ascii 1.0
comment PCL generated
element vertex 1592
property float x
property float y
property float z
element camera 0
property float view_px
property float view_py
property float view_pz
property float x_axisx
property float x_axisy
property float x_axisz
property float y_axisx
property float y_axisy
property float y_axisz
property float z_axisx
property float z_axisy
property float z_axisz
property float focal
property float scalex
property float scaley
property float centerx
property float centery
property int viewportx
property int viewporty
property float k1
property float k2
end_header
160.2845 235.34796 435.8334
161.44803 235.34837 435.82635
162.61157 235.34895 435.81622
163.77513 235.34967 435.80286
164.95349 235.60768 436.75269
166.10233 235.35161 435.76682
167.26598 235.35281 435.74405
168.42964 235.35417 435.71814
169.56827 235.09857 434.72305
170.70178 234.84309 433.72488
171.86043 234.84491 433.68967
173.01912 234.84689 433.65131
174.17787 234.84906 433.60983
175.29869 234.59419 432.59955
176.45499 234.59665 432.55182
177.61134 234.59926 432.50101
178.85924 235.11639 434.37762
179.9726 234.86215 433.3551
181.18266 235.12244 434.2597
182.39798 235.3829 435.16086
183.50642 235.12915 434.12909
184.7271 235.38995 435.02365
185.8918 235.39372 434.95026
187.05661 235.39766 434.87372
188.28792 235.659 435.75803
189.45554 235.66325 435.6749
190.5517 235.41045 434.62488
191.71698 235.41504 434.53558
192.80565 235.16254 433.47977
193.9686 235.16747 433.38428
195.13167 235.17255 433.28552
196.29489 235.17781 433.18359
197.54532 235.44055 434.04086
198.71143 235.44618 433.93231
199.87769 235.45197 433.8205
201.04411 235.45795 433.70554
202.11328 235.2067 432.62589
203.27745 235.213 432.50461
204.44179 235.21948 432.38019
205.60632 235.22614 432.2525
206.77103 235.23296 432.12158
208.15662 235.75485 433.90729
209.21396 235.50461 432.8096
210.2663 235.2545 431.7092
211.43181 235.26205 431.56525
212.5975 235.26978 431.41797
213.64014 235.02016 430.30908
214.9296 235.2858 431.11368
216.22444 235.55164 431.91428
217.39365 235.56012 431.75351
218.56308 235.56879 431.58945
219.86902 235.83527 432.37866
221.18039 236.10199 433.16379
222.21431 235.85359 432.03314
223.09927 235.34769 429.94452
224.26738 235.35728 429.76419
225.43576 235.36708 429.58054
226.30075 234.86157 427.48511
227.46449 234.8717 427.29553
228.78555 235.13983 428.05603
230.27173 235.66602 429.76517
231.44414 235.67679 429.56415
232.94653 236.20352 431.26389
234.29219 236.47263 432.00671
235.64337 236.742 432.74521
236.65482 236.49576 431.57809
237.83662 236.5076 431.35855
238.84094 236.26169 430.18597
240.20125 236.53195 430.90912
241.38408 236.5444 430.6792
242.56726 236.55707 430.44571
243.93906 236.82806 431.15637
244.93469 236.58304 429.96832
246.31244 236.85449 430.67087
247.3036 236.60982 429.47681
248.68732 236.88171 430.17114
249.67403 236.63739 428.9711
251.06372 236.90976 429.65714
252.45906 237.18243 430.33853
253.86002 237.45535 431.01514
255.2666 237.72855 431.68692
256.67883 238.00198 432.35388
258.31372 238.53415 433.95728
259.30066 238.29123 432.73242
260.94946 238.82396 434.32535
262.15945 238.83994 434.03311
262.91498 238.33896 431.85956
264.35074 238.61389 432.49936
265.55945 238.63042 432.1965
266.76862 238.64716 431.88998
267.74023 238.40535 430.64346
269.18826 238.68118 431.26553
270.15558 238.4397 430.01285
271.36389 238.45712 429.69183
272.32422 238.21588 428.43356
273.78192 238.49255 429.03833
275.49905 239.02844 430.56976
276.97083 239.30566 431.16321
278.18933 239.3241 430.82083
279.66986 239.60175 431.40424
281.15616 239.87965 431.98227
282.64819 240.15778 432.55487
283.8764 240.17694 432.19449
285.10507 240.19623 431.83014
286.88379 240.73422 433.31357
287.84119 240.49454 432.01462
288.23358 239.73616 428.86465
289.17596 239.49643 427.56247
290.68423 239.77563 428.10327
291.62219 239.53601 426.7948
293.42719 240.07501 428.24686
295.24316 240.61426 429.6915
297.36597 241.41336 432.04791
298.01221 240.91443 429.80313
298.94937 240.67505 428.47525
300.18549 240.69537 428.06171
301.11539 240.4559 426.72833
302.04031 240.21637 425.39273
303.5838 240.49648 425.8826
305.76181 241.29648 428.1926
307.00464 241.3168 427.75674
308.56738 241.59705 428.22794
309.49081 241.35716 426.87268
311.0592 241.63728 427.33371
312.30536 241.65723 426.88046
313.55157 241.677 426.42307
315.46387 242.21707 427.77417
317.05109 242.49683 428.21191
318.3053 242.51613 427.73926
320.58237 243.31622 429.97235
321.84436 243.3351 429.48846
323.45242 243.61407 429.90164
324.71667 243.63234 429.40851
326.33224 243.91071 429.81046
326.89008 243.40714 427.51187
328.50757 243.68471 427.90466
329.77039 243.70125 427.39532
333.56781 245.54176 433.14651
337.76648 247.64287 439.77246
342.74167 250.26527 448.16241
347.76892 252.8876 456.52637
352.84814 255.50981 464.86417
355.3515 256.30621 466.94949
356.73547 256.3194 466.35904
357.73767 256.07089 464.87741
358.73322 255.82137 463.39401
359.72205 255.57076 461.90894
360.70413 255.31906 460.42239
363.24384 256.10983 462.46457
364.61615 256.11673 461.8519
366.7793 256.64423 462.996
369.34979 257.43137 465.01086
371.5321 257.95618 466.13727
372.91397 257.95761 465.50217
374.7001 258.21844 465.73926
376.07922 258.21667 465.09641
375.80756 257.16943 460.95834
376.7558 256.90326 459.44254
377.69568 256.63525 457.92627
379.46643 256.88721 458.14853
-45.458115 249.29134 429.72717
-43.365494 248.76976 428.5802
-42.096573 248.77347 429.17377
-40.013962 248.2486 428.01398
-38.342117 247.9857 427.72293
-36.272781 247.45784 426.54877
-34.60936 247.19214 426.24564
-33.739258 247.45213 427.69696
-32.077042 247.18388 427.38501
-30.80809 247.17795 427.94968
-29.150208 246.90742 427.62741
-27.496002 246.63586 427.29935
-25.845642 246.36337 426.96552
-24.199142 246.0899 426.62567
-22.933441 246.07903 427.16809
-21.666611 246.06729 427.70679
-20.027283 245.79143 427.35141
-18.761108 245.77817 427.88138
-17.127884 245.50092 427.51501
-16.226303 245.74959 428.92984
-14.596909 245.47116 428.55353
-13.33046 245.45538 429.06683
-12.063477 245.43909 429.5762
-11.149002 245.68542 430.97943
-9.5281677 245.40508 430.58292
-7.912262 245.12436 430.18018
-6.3013763 244.84334 429.77136
-5.0379486 244.82501 430.25839
-3.774353 244.80637 430.74136
-1.836441 244.26166 429.41217
-0.91235352 244.50537 430.78992
0.6806488 244.22314 430.35349
1.9392242 244.20358 430.81796
3.5242157 243.9211 430.37039
4.7799988 243.90121 430.82565
6.0357056 243.88118 431.27673
6.9727173 244.12363 432.63449
8.5466309 243.84079 432.16653
10.115051 243.55798 431.69257
11.056763 243.80011 433.03976
12.927368 243.25482 431.64117
14.176498 243.23447 432.06567
15.425369 243.21408 432.48602
16.973923 242.93143 431.98508
18.814255 242.38661 430.56024
19.759476 242.62863 431.88458
21.293793 242.34625 431.36703
22.822464 242.06406 430.84375
23.771881 242.30615 432.15756
25.010315 242.28622 432.54681
26.529922 242.00436 432.00882
27.764923 241.98463 432.38913
29.275757 241.70313 431.84073
30.507301 241.68365 432.21222
31.738426 241.66432 432.57971
32.969101 241.64511 432.94324
34.465042 241.3643 432.37497
35.429146 241.60712 433.65845
36.91893 241.32669 433.08078
38.403015 241.04648 432.49765
39.626198 241.02811 432.84003
40.848984 241.00986 433.17841
42.071274 240.99182 433.513
43.293121 240.97394 433.84372
44.514534 240.95625 434.17059
45.977547 240.67731 433.55914
46.716606 241.18274 435.7478
47.939316 241.16556 436.06381
49.395714 240.88727 435.43961
50.614914 240.87048 435.74731
52.062576 240.5927 435.11353
53.50457 240.31519 434.47464
54.940887 240.03793 433.83075
56.15049 240.02205 434.12152
57.578125 239.74529 433.46823
58.784256 239.72986 433.75101
59.776779 239.97563 434.97156
60.984718 239.96054 435.2475
62.192245 239.94568 435.51978
63.399376 239.93103 435.78842
64.60611 239.91656 436.05338
65.812462 239.90231 436.3147
67.215942 239.62747 435.62747
68.418915 239.61366 435.88098
69.813812 239.33929 435.18488
70.823708 239.5867 436.37732
72.212669 239.31281 435.67294
73.227058 239.56053 436.85928
74.428185 239.54779 437.09497
75.449692 239.79582 438.2757
77.006104 239.26227 436.60648
78.377693 238.98956 435.88135
79.572258 238.97768 436.1019
80.766502 238.96599 436.31894
82.126694 238.69403 435.58148
83.15403 238.94324 436.74265
84.186256 239.1926 437.90121
85.381851 239.1817 438.1048
86.733025 238.91061 437.35211
87.92543 238.90015 437.5484
89.26825 238.62952 436.78751
90.457489 238.61946 436.9765
91.646461 238.60959 437.16205
92.835167 238.59995 437.34424
94.16391 238.33022 436.56769
95.349503 238.32095 436.74268
96.805054 237.79146 435.0022
97.852448 238.04283 436.12613
99.164627 237.77399 435.33389
100.21673 238.02573 436.45184
101.52327 237.75729 435.65222
102.5801 238.00937 436.76419
103.88101 237.74136 435.95724
104.82562 238.25385 438.0217
106.00916 238.24631 438.16656
107.19247 238.23895 438.30811
108.3756 238.23178 438.44632
109.66515 237.96477 437.62155
110.94933 237.69795 436.79291
112.22815 237.43137 435.96042
113.40277 237.42496 436.08463
114.57722 237.41873 436.20554
115.75151 237.41269 436.32327
116.92564 237.40681 436.43768
118.09962 237.40112 436.54889
119.35936 237.13568 435.69501
120.61378 236.87044 434.83746
121.86289 236.60539 433.9762
122.95037 236.86032 435.03629
124.11848 236.8555 435.1308
125.21345 237.11078 436.18512
126.38388 237.10629 436.27347
127.48637 237.36182 437.32184
128.72441 237.09785 436.44055
129.8945 237.09389 436.51926
131.0645 237.09009 436.59479
132.23439 237.08646 436.66711
133.45911 236.82318 435.77216
134.52158 237.33951 437.76645
135.74353 237.07657 436.86493
136.96025 236.81381 435.95999
138.12714 236.811 436.01624
139.25195 237.06816 437.03409
140.50012 236.54614 435.15436
141.66423 236.54385 435.20099
142.86253 236.28195 434.27939
144.02394 236.27997 434.31958
145.1853 236.27815 434.35663
146.37314 236.01675 433.4252
147.50789 236.27502 434.42126
148.66913 236.27368 434.44891
149.83034 236.27252 434.47336
150.99152 236.27148 434.4946
152.15266 236.27063 434.51276
153.3138 236.26996 434.52777
154.46646 236.52916 435.50534
155.63014 236.52878 435.51404
156.79381 236.52856 435.51962
157.95821 236.26877 434.5564
159.11929 236.26889 434.55566
160.2804 236.26913 434.55179
161.44853 236.5293 435.51044
162.60263 236.27014 434.53464
163.78813 236.79034 436.45251
164.95445 236.79124 436.436
166.10345 236.53258 435.45084
167.26726 236.53378 435.42804
168.43109 236.53519 435.4021
169.56987 236.27696 434.40762
170.7312 236.27866 434.37543
171.89259 236.28052 434.34009
173.02119 236.0228 433.33652
174.1801 236.02495 433.29492
175.33907 236.02728 433.25021
176.45752 235.76999 432.23749
177.6572 236.03244 433.15131
178.86211 236.29506 434.06174
180.02394 236.29803 434.00427
181.23676 236.561 434.90796
182.40134 236.56433 434.84402
183.56601 236.56781 434.77692
184.78943 236.8313 435.6705
186.01811 237.09497 436.56058
187.12444 236.83913 435.52002
188.35851 237.10315 436.40335
189.52887 237.10748 436.31992
190.62778 236.85214 435.27036
191.72165 236.59695 434.21793
192.96396 236.86166 435.08783
193.9736 236.34686 433.06699
195.13684 236.35204 432.9682
196.30023 236.35736 432.86612
197.46378 236.36288 432.76086
198.62747 236.36858 432.6524
199.9758 236.89436 434.4631
201.05016 236.64044 433.38672
202.11949 236.38669 432.30765
203.38383 236.65308 433.14667
204.55093 236.65964 433.0217
205.71823 236.66641 432.89359
206.77792 236.4133 431.80261
208.16373 236.94055 433.58679
209.33418 236.94785 433.44852
210.3893 236.69525 432.34839
211.55756 236.70293 432.20389
212.60532 236.45064 431.09808
213.89474 236.71881 431.90506
215.06366 236.72704 431.75067
216.36131 236.99564 432.54996
217.66438 237.26447 433.34525
218.83919 237.27328 433.18024
220.01424 237.2823 433.01187
221.32843 237.55179 433.79568
222.36511 237.30092 432.66513
223.39688 237.05022 431.53201
224.57034 237.05997 431.35059
225.74414 237.06995 431.16589
226.61446 236.55934 429.07074
227.7836 236.56967 428.88016
229.11008 236.84061 429.63876
230.60168 237.37222 431.34531
231.61725 237.12273 430.19144
233.12247 237.65488 431.88892
234.3035 237.66626 431.67944
235.65491 237.93842 432.41693
236.66653 237.6897 431.25024
237.67328 237.4411 430.08099
238.85301 237.45328 429.85818
240.03308 237.46565 429.63187
241.03044 237.21758 428.45425
242.39429 237.49106 429.16888
243.952 238.02554 430.8259
245.1387 238.03879 430.58453
246.32578 238.05228 430.33966
247.51324 238.06595 430.09125
248.70105 238.0798 429.8392
249.68793 237.83301 428.63953
251.07788 238.10818 429.32455
252.67999 238.64458 430.94778
253.8746 238.65933 430.68024
255.49323 239.19633 432.29276
256.90833 239.47261 432.95798
258.54608 240.01025 434.55893
259.31613 239.50375 432.3938
260.96521 240.04193 433.98486
261.95053 239.79689 432.75348
262.93106 239.55197 431.51971
264.1369 239.56847 431.22092
265.57593 239.84641 431.85507
266.78528 239.86331 431.54816
267.75708 239.61902 430.30194
268.96469 239.63626 429.98807
269.9295 239.39223 428.73636
271.38126 239.67126 429.34897
272.34171 239.42752 428.09103
273.79959 239.70699 428.69458
275.77075 240.5099 431.1553
277.24533 240.78996 431.74683
278.46661 240.80855 431.40317
279.95001 241.08904 431.98468
281.7034 241.6315 433.48895
283.20087 241.91249 434.05875
284.43451 241.93187 433.69638
285.66855 241.95139 433.32999
287.17789 242.23293 433.8847
288.138 241.99075 432.58517
288.2529 240.96259 428.51273
289.47812 240.98236 428.13354
290.98914 241.26436 428.6723
291.92978 241.02225 427.36325
293.4469 241.30447 427.89227
295.55627 242.11127 430.25421
297.09 242.39388 430.77002
297.73352 241.88968 428.52719
298.66803 241.64767 427.2005
299.90149 241.668 426.78735
301.44177 241.95074 427.28506
302.6785 241.97112 426.86292
304.22729 242.25395 427.34979
306.09616 242.79941 428.74292
307.34152 242.81973 428.30566
308.5871 242.84 427.86435
309.51038 242.59741 426.50946
311.07867 242.88013 426.96927
312.6524 243.16278 427.4231
313.901 243.1825 426.96426
315.48279 243.4649 427.40692
317.40558 244.0101 428.74805
318.66217 244.02928 428.27399
320.60068 244.57419 429.60089
321.86234 244.59288 429.11664
323.12381 244.61124 428.62827
324.38501 244.62921 428.13583
326.70074 245.43623 430.3345
327.26074 244.92714 428.03619
328.5235 244.94385 427.53058
329.78577 244.96005 427.021
333.94501 247.08197 433.66064
337.78113 248.94049 439.38599
343.49091 252.11552 449.55185
348.89313 255.02716 458.79648
353.60693 257.41187 466.23318
355.73932 257.95221 467.4252
357.50311 258.2283 467.72113
358.12885 257.71307 465.35165
359.12601 257.46027 463.86798
360.11639 257.20636 462.38266
361.4884 257.21478 461.77878
363.64105 257.74915 462.93475
365.01471 257.75519 462.32111
366.78278 258.0235 462.58334
369.35184 258.81757 464.59616
371.53265 259.34662 465.72147
372.91296 259.34698 465.08679
374.69745 259.60931 465.32361
376.07486 259.60641 464.6814
376.21338 258.81104 461.41934
377.16238 258.54102 459.90381
378.10291 258.2691 458.38788
379.03482 257.99524 456.87183
-45.863281 250.84245 430.21133
-43.769867 250.31683 429.06644
-42.500046 250.32173 429.66064
-40.010941 249.52658 427.62854
-38.743515 249.52823 428.21344
-36.272736 248.73 426.16476
-35.008392 248.72874 426.74008
-34.137039 248.99225 428.1915
-32.865936 248.98834 428.7616
-31.203094 248.7171 428.44684
-29.930969 248.71078 429.00903
-28.272598 248.4373 428.68393
-26.235931 247.89673 427.46799
-24.967148 247.88733 428.01624
-23.320343 247.61099 427.67358
-22.051743 247.59981 428.21341
-20.410538 247.32179 427.85995
-18.773636 247.04308 427.50055
-17.141098 246.76367 427.1351
-16.240204 247.01541 428.54926
-14.972351 247.00061 429.06781
-13.345551 246.71936 428.68741
-12.079102 246.7034 429.19699
-11.165176 246.95271 430.59973
-9.8951111 246.93573 431.10233
-7.929245 246.38693 429.80258
-6.6638031 246.36916 430.29504
-5.0556641 246.0854 429.8822
-3.4526062 245.80139 429.46329
-2.1918335 245.78268 429.9415
-0.93092346 245.76367 430.41559
0.33003235 245.74442 430.88559
1.5910187 245.72491 431.35141
3.1785431 245.43985 430.90598
4.7606812 245.15469 430.4545
5.6949768 245.40002 431.81512
7.2716522 245.11464 431.35339
8.526886 245.09445 431.79675
9.7819977 245.07416 432.23584
11.036896 245.0538 432.67084
12.907516 244.50325 431.27432
13.851288 244.74789 432.61386
15.405457 244.46249 432.12006
16.654007 244.44206 432.53674
18.199631 244.1568 432.03214
19.444916 244.13644 432.43973
20.981949 243.85136 431.92432
22.223892 243.83115 432.32291
23.465439 243.81102 432.7175
24.706604 243.79095 433.108
26.228928 243.50633 432.57217
27.46669 243.48648 432.95374
28.980301 243.20216 432.40738
30.48822 242.91803 431.85541
31.719444 242.89859 432.22339
33.21862 242.61484 431.6611
34.446373 242.59569 432.02036
35.410561 242.84103 433.30353
36.900543 242.5578 432.72705
38.126961 242.53909 433.07452
39.097733 242.78476 434.34818
40.325905 242.76633 434.68854
41.803589 242.4839 434.09348
43.028229 242.46585 434.42535
44.007744 242.71204 435.68631
45.718277 242.1662 434.14383
46.699524 242.41272 435.39777
47.6856 242.65932 436.6492
49.379044 242.11429 435.09116
50.598412 242.09737 435.39932
51.81736 242.08063 435.70367
53.488525 241.53647 434.129
54.925064 241.25642 433.4863
56.13488 241.24036 433.77737
57.344238 241.22455 434.06488
58.769058 240.94522 433.40848
59.761742 241.19347 434.62866
60.969879 241.17825 434.90503
62.177612 241.16321 435.17767
63.384941 241.14841 435.44669
64.389091 241.39731 436.65512
65.998596 240.8559 435.03009
67.399712 240.57828 434.34338
68.795219 240.30093 433.65198
69.992783 240.28726 433.90121
71.189995 240.27374 434.14679
72.386841 240.26048 434.38882
73.398788 240.51074 435.57431
74.415604 240.76111 436.75717
75.6166 240.7484 436.98956
76.817253 240.7359 437.21844
78.191658 240.46042 436.49493
79.389038 240.44835 436.71625
80.754982 240.17334 435.98422
81.949112 240.16171 436.19809
83.142906 240.1503 436.40851
84.336411 240.1391 436.61542
85.371117 240.39111 437.77051
86.722511 240.11726 437.01883
87.915115 240.10666 437.21536
89.258133 239.83328 436.45551
90.447586 239.82309 436.64474
91.782265 239.55016 435.87677
92.825645 239.80331 437.01303
94.014282 239.79373 437.19205
95.202652 239.78433 437.36765
96.525917 239.51227 436.58453
97.578651 239.76614 437.70877
98.89624 239.49451 436.91815
100.08104 239.48592 437.07993
101.39037 239.21474 436.28159
102.44997 239.4693 437.39337
103.87325 238.93581 435.63025
104.81802 239.45343 437.69348
106.00172 239.4458 437.83856
107.18523 239.43835 437.98032
108.47775 239.1684 437.16003
109.55166 239.42398 438.25378
110.83862 239.15445 437.42633
112.12022 238.88512 436.595
113.39648 238.61598 435.75983
114.37856 239.13489 437.80115
115.65189 238.86612 436.95914
116.82878 238.86017 437.07397
118.00552 238.85437 437.18555
119.26802 238.58624 436.33282
120.52522 238.31827 435.47635
121.7771 238.05052 434.61615
122.86732 238.30798 435.67587
124.03818 238.30313 435.77081
125.13589 238.56088 436.82465
126.30909 238.55635 436.91333
127.48216 238.55197 436.99875
128.78561 238.02286 435.15555
129.89064 238.28128 436.19708
131.06079 238.27744 436.27277
132.23087 238.27374 436.34518
133.45575 238.00781 435.45102
134.51837 238.52931 437.44394
135.74049 238.26372 436.54327
136.9102 238.2607 436.60287
138.12442 237.99545 435.69543
139.2494 238.25516 436.71259
140.49774 237.72791 434.83441
141.66202 237.72556 434.88107
142.86049 237.46103 433.96027
144.02206 237.45898 434.00046
145.18358 237.45715 434.0376
146.34506 237.45547 434.07153
147.50648 237.45398 434.10233
148.66789 237.45262 434.12997
149.81047 237.71379 435.11923
150.99059 237.45041 434.17578
152.13828 237.71188 435.15884
153.29111 237.97354 436.13882
154.45755 237.97301 436.15076
155.62985 237.71027 435.19452
156.79039 237.9724 436.1651
157.95752 237.70999 435.20261
159.11948 237.44772 434.23688
160.28075 237.448 434.233
161.44904 237.71077 435.19092
162.60329 237.44904 434.21585
163.77678 237.71213 435.16742
164.95544 237.97539 436.11572
166.12195 237.97647 436.09601
167.26855 237.71533 435.10837
168.43256 237.71674 435.0824
169.57149 237.45593 434.08859
170.73299 237.45767 434.05643
171.89453 237.45955 434.021
173.02328 237.19922 433.01807
174.18236 237.20142 432.97644
175.34148 237.20378 432.93164
176.4601 236.94394 431.91962
177.65994 237.20901 432.83264
178.86502 237.47427 433.74225
180.02701 237.47733 433.68475
181.24001 237.74295 434.58762
182.45824 238.00877 435.48712
183.5696 237.74988 434.45645
184.73453 237.75359 434.38605
185.89955 237.75746 434.31244
187.0647 237.76151 434.23566
188.29636 238.02821 435.11841
189.46431 238.03259 435.035
190.56079 237.77469 433.98621
191.72641 237.77942 433.89664
192.89215 237.78432 433.80389
193.89934 237.26433 431.78452
195.06018 237.26956 431.68579
196.22116 237.27496 431.5838
197.38229 237.28055 431.47867
198.63324 237.54889 432.33099
199.88951 237.8174 433.17963
201.05627 237.82355 433.0643
202.12578 237.56723 431.98572
203.39032 237.83633 432.82388
204.5576 237.84302 432.69882
205.61987 237.58719 431.61133
206.78494 237.59424 431.48004
208.06058 237.86412 432.30405
209.22861 237.87152 432.16592
210.2813 237.61639 431.06656
211.68346 238.14963 432.8374
212.73398 237.89485 431.73184
213.90286 237.90298 431.58054
215.07196 237.91132 431.42596
216.36981 238.18266 432.22433
217.54199 238.19141 432.06281
218.9818 238.72604 433.80896
220.02333 238.47232 432.68484
221.47662 239.00745 434.42242
222.51607 238.75409 433.29196
223.40651 238.23798 431.20493
224.5802 238.24786 431.02332
225.75417 238.25797 430.83832
226.62465 237.74225 428.74442
227.79398 237.75269 428.5535
229.12067 238.02638 429.31107
230.45285 238.30032 430.06445
231.62825 238.31142 429.86246
232.96884 238.58583 430.6076
234.31494 238.8605 431.34842
235.49651 238.87225 431.13525
236.50571 238.621 429.96945
237.6853 238.63313 429.74979
238.68735 238.3822 428.57846
240.04552 238.65799 429.30005
241.22614 238.67075 429.06998
242.59283 238.94702 429.78305
243.96507 239.22357 430.49152
245.34293 239.5004 431.19547
246.53281 239.51404 430.94971
247.52692 239.26443 429.75586
248.71494 239.27847 429.50348
249.90338 239.29274 429.24765
251.09218 239.30719 428.98813
252.28137 239.32182 428.72498
253.68016 239.6003 429.3999
255.08459 239.87903 430.07007
256.49469 240.15805 430.73535
258.12747 240.70105 432.33566
259.33179 240.71689 432.05127
260.98111 241.2605 433.64047
261.96661 241.01297 432.40942
263.17484 241.02945 432.11331
264.38348 241.04611 431.81342
265.82535 241.3269 432.4458
266.80209 241.08002 431.20236
268.01208 241.09726 430.89117
268.98181 240.85063 429.64221
270.19006 240.86819 429.32407
271.39874 240.88594 429.00217
272.60785 240.90388 428.67648
273.81744 240.92197 428.34692
275.78885 241.73294 430.8049
277.26364 242.01578 431.3952
278.74414 242.29886 431.98013
280.23035 242.58215 432.55963
281.98657 243.13007 434.06113
283.21991 243.14944 433.70227
284.18405 242.90445 432.41342
285.14337 242.6595 431.12219
286.64758 242.9437 431.67722
287.87997 242.96353 431.30319
288.27234 242.18948 428.15686
289.49762 242.20938 427.77722
291.57965 243.02356 430.15689
292.23752 242.51419 427.92621
293.75735 242.79918 428.45313
295.86957 243.61404 430.81143
297.40601 243.89938 431.32516
297.75342 243.12502 428.16562
298.68793 242.8804 426.83923
299.92139 242.90076 426.42563
301.15509 242.92108 426.00793
303.0076 243.47165 427.41275
304.55905 243.7572 427.89749
306.74512 244.57318 430.19916
307.99567 244.59357 429.75958
309.2464 244.61386 429.31592
310.1748 244.36865 427.95947
311.74829 244.65402 428.41617
313.65497 245.20474 429.77353
314.91138 245.22447 429.3114
316.50089 245.50951 429.74991
318.0957 245.79442 430.1824
319.01889 245.54791 428.80316
320.95984 246.09796 430.12717
321.88013 245.8508 428.74081
322.79483 245.60321 427.35242
324.75098 246.15239 428.65805
326.71741 246.70131 429.95547
327.6311 246.45242 428.55493
329.25293 246.7347 428.94354
331.23907 247.28238 430.22049
335.04639 249.15924 435.95599
338.88995 251.03589 441.6723
343.87225 253.71022 450.04291
349.27661 256.65039 459.27759
353.24686 258.52618 464.92801
355.37579 259.07117 466.11957
357.13599 259.34924 466.41583
358.51941 259.36026 465.82025
359.90143 259.37024 465.22076
361.66779 259.64523 465.5007
362.66058 259.38678 464.01025
364.42862 259.65942 464.28033
365.41241 259.39841 462.78485
366.78528 259.40219 462.16678
369.35291 260.20313 464.17767
371.93375 261.00256 466.17801
373.31506 261.00183 465.54272
375.50714 261.5318 466.65195
376.888 261.52765 466.00797
377.44183 260.98938 463.6181
378.39667 260.71539 462.1004
380.17712 260.97171 462.32053
380.70013 260.42761 459.93225
-46.267151 252.39789 430.69058
-44.173019 251.86833 429.54779
-42.494232 251.60567 429.26996
-40.412323 251.07259 428.11337
-38.740997 250.80658 427.82407
-36.672012 250.27028 426.65332
-35.804245 250.53876 428.10669
-34.929016 250.80582 429.55927
-33.261505 250.53406 429.25177
-31.597275 250.26102 428.93869
-29.936447 249.98679 428.6199
-28.279175 249.71144 428.29544
-26.243546 249.16637 427.08099
-24.596359 248.88896 426.74377
-22.953079 248.61063 426.4007
-21.688019 248.6001 426.93945
-19.678757 248.05145 425.69699
-18.416763 248.03925 426.22601
-16.787598 247.75775 425.86041
-15.526443 247.74411 426.38077
-14.264526 247.72978 426.89731
-13.360229 247.98331 428.30411
-12.094345 247.96771 428.81384
-11.534027 248.48842 431.11227
-10.261841 248.47173 431.61624
-8.6414642 248.18623 431.21777
-7.0260315 247.90038 430.81317
-5.0731201 247.34595 429.50204
-3.4704132 247.05951 429.08426
-2.2099457 247.04099 429.56281
-0.61482239 246.75403 429.13382
0.31134033 247.00308 430.50766
1.2428894 247.25177 431.87927
2.8328705 246.96414 431.436
4.4175415 246.67639 430.98663
5.6755524 246.65649 431.43958
6.9334717 246.63644 431.88837
8.5072327 246.34845 431.42288
9.7622223 246.32819 431.86243
11.017044 246.30783 432.29785
12.579651 246.01974 431.81631
13.831375 245.99933 432.24258
15.385544 245.71126 431.75006
16.634079 245.69086 432.16727
18.179764 245.40289 431.66385
19.130219 245.65002 432.98935
20.669983 245.36218 432.47601
22.204117 245.07446 431.95691
23.445709 245.05426 432.35196
24.686935 245.03412 432.74295
26.209396 244.74677 432.20834
27.447235 244.72684 432.59042
29.237305 244.17258 431.12213
30.195358 244.42007 432.41858
31.429337 244.40048 432.78781
32.931297 244.11392 432.22754
34.161797 244.09464 432.58807
35.128716 244.34244 433.8717
36.621498 244.05643 433.29727
37.850716 244.03754 433.6459
39.079468 244.0188 433.99066
40.3078 244.00023 434.33148
41.535683 243.98183 434.66843
42.763138 243.96358 435.00146
43.745407 244.21222 436.26279
45.458794 243.66095 434.72305
46.442818 243.9099 435.97733
47.905365 243.62576 435.36066
49.362206 243.3419 434.7388
50.81337 243.05829 434.11185
51.800896 243.30792 435.3522
53.245949 243.0248 434.71637
54.685341 242.74191 434.07544
56.119087 242.4593 433.42947
57.328651 242.4433 433.71735
58.753693 242.16119 433.0621
59.746552 242.41193 434.28189
60.954887 242.39655 434.55865
61.954765 242.64758 435.77292
63.164917 242.63257 436.04288
64.374664 242.61777 436.3092
65.784241 242.33705 435.62891
66.990601 242.32269 435.88736
68.391548 242.04251 435.19818
69.402176 242.29462 436.3934
70.79718 242.01489 435.69583
71.999451 242.0014 435.9393
73.201332 241.98814 436.17923
74.402885 241.97507 436.41553
75.783417 241.69632 435.70114
76.981667 241.68369 435.92981
78.353714 241.40544 435.20682
79.548676 241.39328 435.42804
80.743324 241.3813 435.64572
81.937645 241.36954 435.85989
83.131668 241.35797 436.07056
84.164246 241.6123 437.22824
85.201714 241.86682 438.38339
86.711861 241.32452 436.68176
87.904663 241.31378 436.8786
89.247902 241.03763 436.11975
90.437546 241.02731 436.30923
91.772446 240.75162 435.54227
92.816002 241.00729 436.67804
94.004837 240.99756 436.85727
95.331154 240.72253 436.07892
96.516876 240.71326 436.25107
97.702347 240.70416 436.4198
98.887581 240.69525 436.58514
100.07258 240.68655 436.7471
101.13257 240.94342 437.86179
102.44189 240.66971 437.06104
103.7458 240.39621 436.25626
104.8103 240.65364 437.36157
105.9942 240.64589 437.50681
107.17789 240.63832 437.64874
108.36139 240.63095 437.78735
109.54469 240.62376 437.92267
110.83185 240.3515 437.09607
112.11365 240.07945 436.26566
113.39011 239.80762 435.43134
114.46863 240.06644 436.51202
115.64585 240.06021 436.63034
116.91404 239.78897 435.7854
118.08836 239.78311 435.89691
119.26254 239.77744 436.00516
120.51991 239.50679 435.14954
121.69121 239.50148 435.25107
122.78418 239.76151 436.31039
124.03339 239.49142 435.44443
125.2043 239.48663 435.53625
126.30464 239.74713 436.58649
127.47788 239.74271 436.67203
128.78154 239.20825 434.83032
129.8867 239.46927 435.87131
131.05704 239.46536 435.94702
132.16975 239.72667 436.98206
133.45233 239.19301 435.12622
134.56744 239.45468 436.15503
135.73741 239.45145 436.21793
136.95447 239.18335 435.31454
138.16629 238.91545 434.40775
139.28883 239.17776 435.42419
140.4559 239.17523 435.47421
141.65976 238.90784 434.55756
142.85841 238.64066 433.63748
144.02014 238.63861 433.67776
145.15273 238.90173 434.67874
146.34348 238.63504 433.74893
147.50507 238.63351 433.77979
148.66663 238.63214 433.80746
149.82816 238.63092 433.83194
151.00584 238.3649 432.88919
152.15112 238.62901 433.87152
153.31258 238.6283 433.88657
154.474 238.62775 433.89847
155.63544 238.62735 433.90717
156.79355 238.89212 434.87704
157.95755 238.89204 434.87949
159.11967 238.62717 433.91446
160.28554 238.89243 434.87488
161.44955 238.89285 434.8678
162.61357 238.89346 434.85764
163.78979 239.15921 435.80847
164.97122 239.42508 436.75595
166.14047 239.42619 436.73624
167.30975 239.42746 436.71326
168.45656 239.16391 435.72318
169.62332 239.16547 435.69388
170.76247 238.90225 434.69763
171.92676 238.90416 434.66208
173.05826 238.64124 433.6597
174.22006 238.64348 433.61795
175.38194 238.6459 433.57303
176.5033 238.38345 432.56155
177.66272 238.3862 432.51038
178.86797 238.65411 433.41919
180.03014 238.6572 433.36157
181.24329 238.92551 434.26367
182.4082 238.92892 434.19958
183.57321 238.93251 434.13226
184.73831 238.93628 434.0618
185.84227 238.67513 433.02582
187.06883 238.94432 433.91125
188.23425 238.94861 433.83121
189.39978 238.95305 433.74786
190.49385 238.69257 432.69986
191.73122 238.96246 433.57172
192.89713 238.96744 433.47882
193.90448 238.44229 431.46082
194.98357 238.18243 430.40118
196.22665 238.45309 431.25986
197.38794 238.45872 431.15448
198.63908 238.72978 432.00601
199.89555 239.00101 432.8537
201.0625 239.00723 432.73825
202.22961 239.01363 432.61948
203.49693 239.28546 433.45645
204.66699 239.29224 433.33093
205.73201 239.03392 432.24374
206.89984 239.04105 432.11194
208.06787 239.04836 431.97687
209.12311 238.79053 430.88104
210.28894 238.79822 430.73975
211.69133 239.33682 432.50897
212.86276 239.34488 432.36041
214.15778 239.61859 433.16483
215.33226 239.62708 433.00934
216.37843 239.3703 431.89499
217.68192 239.64462 432.68839
218.85712 239.65369 432.52292
220.03255 239.66293 432.35406
221.34715 239.93793 433.13596
222.5257 239.9476 432.96002
223.56039 239.69189 431.82742
224.73686 239.70193 431.64508
225.91362 239.71219 431.45947
226.93875 239.457 430.31836
228.11348 239.46762 430.12634
229.44559 239.74414 430.88208
230.62349 239.75519 430.68277
231.8017 239.76645 430.48007
233.14511 240.04366 431.22375
234.32655 240.05533 431.0137
235.5083 240.06723 430.8002
236.51767 239.81349 429.6348
237.69748 239.82578 429.41483
238.69969 239.57236 428.24396
239.87756 239.58501 428.01752
241.23891 239.86382 428.73401
242.60583 240.14291 429.44604
243.78998 240.15622 429.20807
245.16544 240.43581 429.91147
246.54648 240.71564 430.61017
247.54077 240.46356 429.41669
248.92778 240.74387 430.10718
249.91762 240.49216 428.90771
251.31064 240.77295 429.58994
252.50266 240.78778 429.32587
253.69504 240.80283 429.05814
255.09973 241.08437 429.72717
256.51001 241.36618 430.3913
257.92596 241.64824 431.05054
259.12787 241.66422 430.76645
260.55252 241.94679 431.41644
261.75787 241.9632 431.12427
263.19125 242.24628 431.76498
264.40009 242.26309 431.46466
265.84219 242.54666 432.09583
267.0545 242.5639 431.78732
268.26727 242.58133 431.47498
268.75842 241.79889 428.35916
269.9642 241.81656 428.04129
271.17044 241.83443 427.71967
272.37708 241.85245 427.39417
273.83539 242.13748 427.99533
275.8071 242.95654 430.45059
277.28207 243.24216 431.03964
278.76276 243.52798 431.62329
280.24915 243.81406 432.20154
281.74124 244.10034 432.77435
282.97205 244.11978 432.41574
283.93362 243.87221 431.12796
285.16266 243.89186 430.76218
286.39212 243.91162 430.39246
287.62198 243.9315 430.01868
288.57202 243.68416 428.71893
289.80005 243.70416 428.33798
291.88495 244.52643 430.71405
292.83353 244.2793 429.40308
294.35873 244.56708 429.92703
296.47644 245.39005 432.28088
297.72217 245.41058 431.87463
298.07208 244.62836 428.71613
299.00919 244.38118 427.38919
300.24524 244.40158 426.97418
301.17496 244.15422 425.64175
302.7182 244.44229 426.13202
304.57889 244.99823 427.52798
306.76501 245.82213 429.82684
308.64993 246.3783 431.2063
310.22571 246.66652 431.66904
311.80695 246.95474 432.12582
313.71875 247.51089 433.48337
315.31335 247.79895 433.927
316.25232 247.55064 432.55472
317.5191 247.57021 432.0842
318.7858 247.58948 431.6095
319.37555 247.07199 429.32684
320.63669 247.09059 428.84598
321.55389 246.84052 427.46115
322.46552 246.59 426.07425
324.7677 247.41254 428.27689
326.7337 247.96642 429.57239
328.70984 248.51996 430.85974
330.33911 248.80461 431.24417
332.3327 249.35728 432.51611
336.5097 251.52081 439.13507
340.36334 253.41557 444.84131
344.62067 255.57864 451.41864
349.65961 258.27869 459.75296
353.63177 260.17233 465.39661
355.38702 260.45331 465.69839
357.52426 261.00201 466.87976
359.28998 261.28107 467.168
361.05945 261.55908 467.44998
363.21844 262.10468 468.60831
364.22046 261.84283 467.11426
365.60651 261.84845 466.49899
366.99054 261.85272 465.88016
368.37238 261.85553 465.25775
370.5499 262.39447 466.38528
372.73535 262.93182 467.50473
374.12012 262.92996 466.86755
375.90887 263.19513 467.10037
376.8811 262.92096 465.58398
377.84497 262.6449 464.06708
379.2149 262.63562 463.41928
381.41553 263.16183 464.50534
381.52448 262.34229 461.2489
-45.843246 253.41495 429.42633
-43.753586 252.88148 428.28314
-42.079193 252.61746 428.00424
-40.812531 252.62302 428.59317
-38.73735 252.0842 427.43118
-36.669937 251.54373 426.26151
-35.803635 251.81587 427.71362
-34.534714 251.81517 428.28732
-32.87117 251.54173 427.97913
-31.990616 251.80969 429.42532
-30.32843 251.53369 429.10831
-29.054337 251.52783 429.66782
-27.014526 250.97823 428.45709
-25.742554 250.9702 429.00742
-23.715561 250.41859 427.78278
-22.446136 250.40863 428.32364
-20.432465 249.85529 427.08508
-18.797119 249.57239 426.72736
-17.166046 249.28876 426.36368
-15.539352 249.00443 425.99405
-14.278122 248.99057 426.51071
-13.016159 248.97607 427.02353
-11.75351 248.96094 427.53241
-11.196457 249.48734 429.8284
-10.277847 249.74202 431.22803
-8.3101501 249.18324 429.93307
-7.0429077 249.16602 430.42712
-5.4328613 248.87747 430.01755
-3.8278046 248.58859 429.60187
-2.5650482 248.57027 430.08176
-0.96755981 248.28084 429.65494
0.29284668 248.26192 430.12567
1.2240906 248.51343 431.49689
2.4872589 248.49397 431.96042
4.0744019 248.20366 431.51321
5.0135651 248.45441 432.87503
6.2766266 248.43437 433.32614
8.1716156 247.8732 431.95435
9.7425079 247.58252 431.48499
10.997208 247.56224 431.9209
12.559814 247.27151 431.44052
13.811447 247.25111 431.86731
15.365646 246.96042 431.37601
16.614136 246.94 431.7937
18.457336 246.37918 430.37589
19.405136 246.62898 431.70013
20.942307 246.3385 431.18723
22.473862 246.04814 430.66855
23.999786 245.7579 430.14413
24.951508 246.00777 431.45389
26.189789 245.98767 431.84052
27.427689 245.96765 432.22305
29.217941 245.40802 430.75681
30.176056 245.65808 432.05295
31.41011 245.63841 432.42273
32.912247 245.34909 431.86368
33.877037 245.59937 433.15021
34.583504 246.11932 435.3606
35.821159 246.10007 435.716
37.574265 245.54179 434.21173
38.805801 245.52289 434.55768
40.036896 245.50417 434.89978
41.517601 245.21616 434.30786
42.745216 245.19775 434.64136
43.972382 245.17955 434.97098
45.199104 245.16153 435.29675
46.664909 244.87439 434.68582
47.888153 244.85675 435.00314
49.110947 244.83929 435.31668
50.564972 244.55286 434.69153
51.784279 244.53583 434.9968
53.229576 244.24988 434.36206
54.669189 243.9642 433.72235
55.881989 243.94781 434.01498
57.31292 243.66266 433.36584
58.522255 243.64673 433.65045
59.304596 244.16879 435.80969
60.518356 244.1532 436.08807
61.731712 244.13782 436.36273
62.944679 244.12259 436.63367
64.3601 243.83881 435.95932
65.769897 243.55533 435.28021
67.174088 243.27209 434.59631
68.377663 243.25781 434.85092
69.580856 243.24377 435.10196
70.973488 242.96129 434.405
72.17334 242.94766 434.64828
73.372833 242.9343 434.88803
74.571983 242.92108 435.12415
75.95015 242.63959 434.41031
76.969231 242.89532 435.58578
78.341499 242.61432 434.86389
79.36512 242.87042 436.03326
80.562576 242.85828 436.25174
81.926056 242.57797 435.51785
83.284012 242.2979 434.77954
84.314171 242.55476 435.93634
85.507774 242.54347 436.14035
86.701073 242.53241 436.34094
87.894073 242.52151 436.53806
89.237541 242.24261 435.78021
90.427383 242.23216 435.96997
91.762505 241.95372 435.20401
92.806229 242.21188 436.33932
93.995262 242.20204 436.51883
95.321793 241.92429 435.74149
96.372543 242.18295 436.86765
97.560806 242.17374 437.03702
98.748825 242.16467 437.20294
99.936615 242.15582 437.36554
101.12416 242.14719 437.52472
102.43369 241.87073 436.72495
103.61819 241.86249 436.87708
104.68547 242.12241 437.98218
105.98659 241.84659 437.17133
107.17046 241.83891 437.31345
108.35414 241.83145 437.45227
109.53762 241.82416 437.58777
110.82499 241.54916 436.76208
112.00551 241.5423 436.89069
113.18585 241.53558 437.01596
114.36602 241.52907 437.13797
115.54602 241.52275 437.25668
116.81699 241.24878 436.41296
118.08261 240.97502 435.56546
119.25697 240.96927 435.67383
120.51454 240.69589 434.81909
121.686 240.69052 434.92078
122.77915 240.95309 435.97946
123.95293 240.94806 436.07489
125.19962 240.67548 435.2063
126.37057 240.67079 435.29501
127.5414 240.66629 435.38049
128.84267 240.12657 433.54019
129.94542 240.39017 434.58038
131.05324 240.65388 435.61768
132.22363 240.6501 435.69031
133.44887 240.37881 434.79782
134.56415 240.64304 435.82593
135.78406 240.3721 434.92673
136.9987 240.10136 434.02405
138.1635 240.09845 434.08041
139.28621 240.36336 435.09616
140.45346 240.36075 435.14624
141.65749 240.09073 434.23038
142.82202 240.0885 434.27399
144.0182 239.81882 433.35147
145.18005 239.81693 433.3887
146.34186 239.8152 433.42273
147.52757 239.54602 432.49036
148.68671 239.54465 432.51804
149.82703 239.81104 433.50586
151.0049 239.54236 432.56387
152.15033 239.80907 433.54547
153.28987 240.34354 435.48746
154.45663 240.34297 435.49942
155.62926 240.075 434.54471
156.79012 240.34235 435.51382
157.95758 240.07471 434.55273
159.11987 239.80722 433.5885
160.28589 240.07507 434.54813
161.45007 240.07553 434.54111
162.61426 240.07613 434.53088
163.79065 240.34451 435.48096
164.97223 240.61304 436.42776
166.14165 240.61415 436.40796
167.33104 240.88306 437.3483
168.48058 240.61688 436.3588
169.6501 240.6185 436.32947
170.79199 240.35266 435.33377
171.95903 240.35461 435.29813
173.09326 240.08911 434.29633
174.2224 239.82376 433.29153
175.42245 240.09384 434.20932
176.54654 239.8288 433.19833
177.66554 239.56396 432.18451
178.87097 239.83453 433.0925
180.03329 239.83768 433.03482
181.19571 239.84097 432.97394
182.41171 240.11212 433.87192
183.5769 240.11575 433.80453
184.6835 239.85188 432.77225
185.84628 239.85585 432.69858
187.00919 239.86002 432.62177
188.17218 239.86433 432.54175
189.2663 239.6011 431.49753
190.42696 239.6058 431.41135
191.58774 239.61063 431.3219
192.82541 239.88341 432.1897
193.9097 239.62085 431.13348
194.98894 239.35843 430.0744
196.23221 239.63177 430.93216
197.30658 239.36972 429.86719
198.55531 239.64343 430.71799
199.80939 239.91737 431.56516
201.16367 240.45937 433.36728
202.23608 240.198 432.28958
203.60367 240.74043 434.08389
204.77649 240.74734 433.95795
205.94949 240.75439 433.82864
207.01488 240.49374 432.73874
208.18567 240.50116 432.60315
209.35667 240.50879 432.46439
210.41229 240.24863 431.36578
211.81749 240.7926 433.13297
212.87093 240.53281 432.02808
214.28952 241.07726 433.78699
215.34082 240.81781 432.67581
216.51572 240.8266 432.51675
217.69086 240.83557 432.35434
219 241.11288 433.14276
220.04187 240.85416 432.01956
221.35669 241.13188 432.80045
222.53543 241.14169 432.6243
223.57031 240.88348 431.49219
224.60025 240.62546 430.35754
225.62527 240.36755 429.22028
226.79732 240.37808 429.03177
227.96964 240.38882 428.83987
229.29938 240.66809 429.59503
230.79433 241.21591 431.29587
231.97533 241.22733 431.09238
233.15665 241.23895 430.8855
234.50581 241.5192 431.62378
235.35011 240.99437 429.51321
236.35706 240.73813 428.34872
237.70978 241.019 429.07608
238.71219 240.76311 427.90564
239.89026 240.77591 427.67886
241.435 241.32608 429.34003
242.80475 241.60796 430.05035
243.9917 241.62148 429.81152
245.37001 241.90387 430.51328
246.75391 242.18655 431.21039
247.75096 241.93201 430.01672
248.94202 241.94638 429.76309
249.93201 241.69217 428.564
251.32526 241.97577 429.24506
252.51747 241.99075 428.98059
253.50079 241.73706 427.77234
254.90308 242.02135 428.4408
256.311 242.30591 429.1044
257.72458 242.59076 429.76315
258.70428 242.3378 428.54144
260.34631 242.89218 430.12869
261.54922 242.90869 429.8367
262.75262 242.92542 429.54105
264.18661 243.21147 430.17673
265.85916 243.76703 431.74191
267.30716 244.05367 432.36679
268.28464 243.80199 431.12021
269.01657 243.2811 428.93872
269.98178 243.02957 427.68793
271.43414 243.31699 428.29691
272.64362 243.33517 427.97028
274.35599 243.89252 429.49908
276.33322 244.71971 431.9501
277.81366 245.00818 432.53647
278.78149 244.75766 431.26254
280.26807 245.04649 431.83954
281.76035 245.33556 432.41107
282.72424 245.08537 431.1268
283.68326 244.83524 429.84012
284.90973 244.85492 429.47464
286.13666 244.87476 429.10519
287.36398 244.89465 428.73178
288.59167 244.91466 428.35431
289.81976 244.93475 427.97287
291.90482 245.76501 430.3461
293.1416 245.78537 429.95413
294.66956 246.0759 430.47601
296.20309 246.36653 430.99207
297.4462 246.38708 430.58624
297.79337 245.59689 427.43048
299.02911 245.61732 427.01913
300.2652 245.63773 426.6037
301.5015 245.65811 426.1842
303.04736 245.94885 426.67233
304.91071 246.51007 428.06534
307.09949 247.3419 430.36041
308.66974 247.63275 430.82794
310.56537 248.19418 432.19748
312.47168 248.75562 433.55908
314.06342 249.04636 434.00665
315.66049 249.33696 434.44809
316.93237 249.35669 433.9794
318.20416 249.37613 433.5065
319.14005 249.12445 432.12732
320.0705 248.87238 430.74603
320.65436 248.34898 428.46255
321.22736 247.82503 426.17905
322.13586 247.57155 424.79376
324.43506 248.40167 426.99469
326.04626 248.68939 427.3934
328.01663 249.24779 428.681
329.99707 249.80577 429.96045
332.34705 250.63441 432.12445
336.16138 252.54741 437.84509
340.01187 254.46013 443.54666
344.26593 256.64368 450.11847
348.93143 259.09818 457.55725
352.52475 260.73831 462.31012
354.64661 261.29248 463.50067
356.77762 261.8457 464.68277
358.91769 262.39795 465.85645
361.06671 262.94913 467.02179
363.61047 263.77054 469.06039
364.61377 263.50516 467.56628
366.00107 263.50983 466.95013
366.99246 263.24164 465.45224
367.58002 262.70062 463.07623
369.35178 262.97226 463.32913
370.72455 262.97086 462.70166
372.49884 263.2392 462.94458
375.08899 264.04858 464.92661
376.87286 264.31326 465.15631
379.07062 264.84735 466.25067
380.44617 264.83661 465.60013
383.06931 265.63782 467.54929
383.60596 265.08008 465.15762
-45.418076 254.42584 428.16049
-43.332901 253.88849 427.01685
-42.070953 253.89708 427.60767
-40.806076 253.9039 428.19595
-39.135452 253.63499 427.90817
-37.067078 253.09045 426.74078
-36.199692 253.36629 428.19272
-34.929657 253.36662 428.76718
-32.479874 252.54359 426.70456
-31.213379 252.54114 427.26929
-29.557632 252.26343 426.95044
-28.289978 252.25844 427.50742
-26.638626 251.97836 427.1785
-25.370331 251.97112 427.72748
-24.100616 251.96281 428.27301
-22.829529 251.95352 428.81494
-21.185654 251.6694 428.46616
-19.91481 251.65829 428.99966
-17.544052 250.82487 426.86157
-15.915451 250.53841 426.49393
-14.652283 250.52502 427.01175
-13.029953 250.23721 426.63324
-11.41217 249.94881 426.24866
-11.211517 250.75459 429.43683
-9.9430389 250.73866 429.94016
-8.3262482 250.44861 429.54279
-7.0594788 250.4317 430.03711
-5.7923584 250.41435 430.52744
-4.1850433 250.12309 430.11392
-2.9199982 250.10498 430.59515
-1.3201599 249.81308 430.17044
-0.38934326 250.0677 431.54532
0.87615967 250.04863 432.01428
2.1417389 250.0293 432.47916
3.7313385 249.73645 432.03415
4.6729279 249.98991 433.39645
6.2571564 249.69676 432.94131
7.8360291 249.40353 432.4801
9.4094543 249.11026 432.01297
10.977448 248.81694 431.53983
12.231873 248.79663 431.97208
13.486084 248.77623 432.40018
15.345734 248.20993 430.99796
16.594208 248.18951 431.41605
18.139938 247.89627 430.91522
19.385208 247.87585 431.32428
20.922424 247.58272 430.81265
22.164444 247.56236 431.21268
23.6931 247.26941 430.69037
24.647446 247.52182 432.0007
26.17012 247.22903 431.4686
27.408096 247.20895 431.85165
29.198486 246.64398 430.38751
30.156662 246.89658 431.68329
31.390839 246.8768 432.0535
32.893097 246.58476 431.49579
33.857971 246.83759 432.78201
34.301231 247.63501 435.91687
35.802269 247.34334 435.34717
37.297592 247.0519 434.77203
38.787239 246.76068 434.19144
39.765816 247.01392 435.4624
41.49939 246.451 433.9433
42.72715 246.43251 434.27728
43.954491 246.41415 434.6073
45.181396 246.39598 434.93353
46.647408 246.10608 434.32385
47.633896 246.36017 435.57434
49.093796 246.07069 434.9556
50.548027 245.78146 434.3317
51.76754 245.76428 434.63733
53.213036 245.47556 434.00391
54.652878 245.1871 433.36536
55.865883 245.17055 433.65836
57.078461 245.15424 433.94769
58.290627 245.13809 434.23325
59.075691 245.66528 436.39206
60.081535 245.92102 437.61053
61.508446 245.63391 436.94708
62.72422 245.61853 437.21902
64.142487 245.33192 436.54642
65.555145 245.04558 435.86896
66.962181 244.75952 435.18674
68.363609 244.47375 434.49982
69.567017 244.45956 434.75122
70.959877 244.17429 434.05536
72.159927 244.16052 434.29907
73.359634 244.14697 434.53909
74.55899 244.13364 434.77557
75.937386 243.84937 434.06287
76.779854 244.37872 436.18408
78.154961 244.09488 435.46375
79.181374 244.35345 436.63318
80.550606 244.0701 435.90485
81.914322 243.78702 435.172
83.272507 243.50418 434.43478
84.302849 243.76353 435.59109
85.338081 244.02304 436.74487
86.690155 243.74089 435.99628
87.883362 243.72989 436.1937
89.227058 243.44821 435.43683
90.417091 243.43762 435.62692
91.89801 242.88562 433.91043
92.939323 243.14629 435.0448
94.125954 243.13634 435.22418
95.312325 243.1266 435.40021
96.363235 243.38782 436.52594
97.419113 243.64917 437.64899
98.609932 243.63998 437.81549
99.67308 243.90169 438.93292
100.86603 243.89288 439.09299
102.18095 243.61363 438.29483
103.49046 243.33463 437.49268
104.79459 243.05585 436.68643
105.97885 243.04791 436.83215
107.16293 243.04013 436.97443
108.34679 243.03256 437.11346
109.53046 243.02519 437.24918
110.81802 242.74747 436.42444
111.99873 242.74048 436.55319
113.17926 242.7337 436.67868
114.45593 242.45663 435.84296
115.63353 242.45021 435.96155
116.81096 242.444 436.07687
118.0768 242.16753 435.23026
119.16536 242.4321 436.29767
120.4257 242.15605 435.44409
121.59995 242.15059 435.54614
122.69583 242.41568 436.60446
123.87239 242.41058 436.70023
125.19489 241.8649 434.87271
126.29556 242.13052 435.92175
127.53702 241.85564 435.04721
128.83847 241.31058 433.20847
129.94139 241.57672 434.24799
131.10948 241.57271 434.32376
132.21994 241.8392 435.35742
133.44536 241.56522 434.4657
134.56081 241.83203 435.49323
135.78088 241.55843 434.59482
136.94852 241.5553 434.65457
138.16068 241.28206 433.74942
139.24153 241.81979 435.72635
140.41153 241.81717 435.77664
141.61832 241.54449 434.86169
142.78561 241.54221 434.90549
143.98454 241.26987 433.98383
145.14914 241.26794 434.02112
146.34023 240.99596 433.0929
147.52611 240.72415 432.16132
148.68541 240.72273 432.189
149.8259 240.99173 433.17615
