ply
format ascii 1.0
comment PCL generated
element vertex 1591
property float x
property float y
property float z
element camera 0
property float view_px
property float view_py
property float view_pz
property float x_axisx
property float x_axisy
property float x_axisz
property float y_axisx
property float y_axisy
property float y_axisz
property float z_axisx
property float z_axisy
property float z_axisz
property float focal
property float scalex
property float scaley
property float centerx
property float centery
property int viewportx
property int viewporty
property float k1
property float k2
end_header
-21.270294 34.556099 435.89664
-19.998856 34.565315 436.42001
-17.988388 34.928879 435.11469
-17.456131 34.584366 437.45377
-16.549179 34.417122 438.87857
-14.190765 34.958099 436.63953
-12.925262 34.968117 437.13928
-12.01622 34.801315 438.55209
-10.041336 35.165474 437.20721
-8.4283142 35.352715 436.77347
-7.5175476 35.186188 438.1745
-5.5648651 35.550392 436.80869
-3.6231232 35.914581 435.43454
-2.0327301 36.101883 434.97574
-0.78579712 36.112358 435.43527
0.79579163 36.299637 434.96518
2.0392151 36.310104 435.41537
3.2821655 36.320587 435.86136
4.5246429 36.331055 436.30322
5.4421387 36.16481 437.67017
7.0081329 36.351944 437.17444
7.6106873 36.009041 439.466
9.4895935 36.372704 438.02917
10.415619 36.206429 439.38318
12.591568 36.746483 436.99991
13.825165 36.756645 437.41119
15.670303 37.11985 435.94739
17.200974 37.306396 435.41241
18.725815 37.492798 434.87183
19.648621 37.326141 436.20166
21.167145 37.512383 435.65137
22.094116 37.345612 436.97495
23.31601 37.355209 437.35574
24.249802 37.188347 438.67386
25.473267 37.197792 439.04761
26.696182 37.207153 439.41742
27.35907 36.863739 441.67084
28.586182 36.872948 442.03442
30.087234 37.058365 441.44885
31.854401 37.419907 439.9119
33.072052 37.428764 440.26163
35.089111 37.966232 437.76498
36.825928 38.327271 436.20834
37.767517 38.159508 437.49213
38.972641 38.167862 437.82385
40.433464 38.352287 437.20142
41.127831 38.00811 439.42734
42.585045 38.192299 438.79681
43.539856 38.024117 440.06625
44.990906 38.208054 439.427
45.949989 38.039688 440.69046
47.635414 38.399429 439.08804
48.596169 38.230858 440.34494
50.032333 38.414276 439.68784
51.230125 38.421532 439.98233
52.427475 38.428688 440.27322
53.624405 38.43573 440.56055
55.270706 38.794594 438.92767
56.461594 38.801399 439.20663
57.652054 38.808083 439.48215
59.276337 39.166519 437.8338
60.675301 39.348862 437.14044
61.644859 39.179283 438.36505
63.037872 39.361404 437.66351
64.21859 39.367516 437.91992
65.194801 39.197662 439.13589
65.772758 38.676041 442.27667
66.763817 38.506065 443.48904
67.956032 38.51181 443.73453
69.147926 38.517471 443.97647
70.53064 38.698822 443.24936
72.096436 39.055832 441.55161
73.465553 39.236923 440.81516
74.64576 39.242134 441.04153
75.825653 39.247246 441.26456
77.005234 39.252251 441.48428
78.008873 39.081444 442.66928
79.017387 38.910553 443.8519
80.37175 39.091011 443.09296
81.552742 39.09565 443.29987
82.733475 39.100197 443.50342
83.913933 39.104652 443.70367
85.414406 39.46035 441.95798
86.746735 39.640259 441.17908
87.918678 39.644424 441.36823
89.24276 39.824127 440.58157
90.411636 39.828094 440.76385
91.433029 39.656357 441.91629
92.748657 39.835762 441.1188
94.058922 40.015091 440.31726
95.3638 40.194305 439.51181
96.389465 40.022247 440.65219
97.688782 40.201286 439.83957
98.719193 40.029076 440.97433
99.883759 40.032372 441.13062
101.04813 40.035583 441.28375
102.2123 40.038712 441.43378
103.49777 40.217316 440.60367
104.65901 40.220276 440.74704
105.70377 40.047646 441.86481
106.63976 39.699409 443.95795
107.80822 39.702164 444.09283
108.86792 39.529335 445.203
110.14467 39.707458 444.35309
111.51958 40.061012 442.52045
112.88403 40.414467 440.68365
114.23808 40.76783 438.84262
115.29448 40.594627 439.93698
116.44907 40.596855 440.04865
117.60352 40.599014 440.15726
118.66982 40.425621 441.24332
119.6557 40.076706 443.30753
120.90039 40.254135 442.42657
122.05952 40.25602 442.52335
123.14079 40.082397 443.59842
124.37746 40.259621 442.70758
125.60887 40.436768 441.81329
126.76501 40.438393 441.89755
127.92108 40.439964 441.97873
129.01215 40.266006 443.03928
130.23293 40.442886 442.13202
131.32898 40.268822 443.18674
132.48727 40.270134 443.25589
133.70012 40.4468 442.33905
134.90776 40.623428 441.41879
136.1102 40.799965 440.49527
137.30743 40.97644 439.56851
138.45512 40.97744 439.62192
139.60277 40.978371 439.67236
140.75035 40.97924 439.71979
141.86124 40.804634 440.74802
142.97722 40.62999 441.77335
144.12981 40.630684 441.81192
145.28235 40.63134 441.84741
146.43486 40.63192 441.87991
147.58734 40.632431 441.90942
148.78229 40.983719 439.96732
149.9296 40.984123 439.99066
151.09297 41.159874 439.02664
152.22411 40.984756 440.02835
153.38234 41.1604 439.05823
154.51857 40.985161 440.05402
155.6658 40.985291 440.06232
156.813 40.985352 440.06766
157.9595 40.809937 441.05453
159.10928 40.809898 441.0538
160.25906 40.809784 441.05011
161.40884 40.809608 441.04346
162.55865 40.80938 441.03378
163.69635 40.984497 440.03662
164.85829 40.808746 441.00537
166.00815 40.80835 440.98663
167.17783 40.632484 441.94919
168.33031 40.631966 441.92441
169.50775 40.455986 442.88074
170.69037 40.279945 443.83392
171.84807 40.279243 443.79993
172.97316 40.453896 442.77899
174.09317 40.628502 441.75513
175.20808 40.803055 440.72839
176.31792 40.977547 439.69888
177.46558 40.976555 439.65015
178.6588 40.800087 440.58182
179.85721 40.623543 441.51025
181.01019 40.622375 441.45218
182.26964 40.270294 443.35712
183.37215 40.44442 442.30981
184.52791 40.443062 442.24249
185.68376 40.441628 442.17215
186.77623 40.615593 441.11627
187.73157 41.140396 438.09311
188.94601 40.963341 438.99643
190.0945 40.961678 438.91437
191.16936 41.135406 437.8476
192.39178 40.958145 438.74121
193.69835 40.605347 440.6127
194.85239 40.603432 440.51801
196.00655 40.601418 440.42035
197.24742 40.423866 441.30026
198.40439 40.421722 441.1962
199.46974 40.595016 440.1088
200.62439 40.592735 439.99878
201.77917 40.590393 439.88571
202.83464 40.763481 438.7901
203.98714 40.760994 438.67114
205.03517 40.933968 437.57013
206.29256 40.755821 438.42383
207.55524 40.577591 439.2739
208.71091 40.574821 439.14221
209.98164 40.396423 439.9852
211.14023 40.393486 439.84698
212.17894 40.566032 438.72852
213.21268 40.73851 437.60754
214.61703 40.384224 439.41351
215.77634 40.380989 439.26273
217.06618 40.202072 440.08459
218.22845 40.198669 439.92715
219.52643 40.019569 440.74167
220.82977 39.840385 441.55228
221.99783 39.836708 441.38455
223.45258 39.481705 443.16162
224.62625 39.477852 442.98672
225.80014 39.4739 442.80862
226.8233 39.645515 441.65442
228.14865 39.465752 442.44263
229.16711 39.637215 441.28278
230.33942 39.632919 441.0921
231.35068 39.80423 439.92703
232.35703 39.975456 438.75955
233.52493 39.970924 438.55991
235.03125 39.614853 440.29669
236.37654 39.43438 441.05896
237.90152 39.078049 442.78595
239.08351 39.07309 442.57083
240.44522 38.89225 443.32043
241.44843 39.062843 442.13071
242.63135 39.057571 441.90561
243.44025 39.403809 439.74417
244.8084 39.222557 440.47931
245.60501 39.568642 438.31369
246.78149 39.563011 438.07666
247.76077 39.733124 436.87183
248.93535 39.72731 436.62851
250.51572 39.369644 438.3085
251.9015 39.187714 439.02005
253.50076 38.82975 440.6893
254.9003 38.64753 441.3912
256.30539 38.465195 442.08844
257.71609 38.282715 442.78104
258.6958 38.451988 441.54922
259.8916 38.445236 441.27429
261.31134 38.262375 441.95459
262.51059 38.255386 441.672
263.48157 38.424301 440.42838
264.9104 38.241066 441.09616
265.64313 38.585838 438.89047
266.83893 38.578438 438.59485
267.79605 38.746994 437.34076
269.2319 38.563293 437.99286
270.42908 38.555557 437.68643
271.87366 38.371605 438.32919
273.32394 38.187492 438.96701
274.52777 38.17939 438.64828
275.98688 37.99501 439.27661
277.19434 37.986687 438.94977
278.14224 38.154465 437.66977
279.08548 38.322166 436.38754
280.55441 38.137306 436.99884
281.76129 38.128571 436.65775
282.69818 38.296036 435.36636
284.17657 38.110802 435.96411
285.38501 38.101761 435.61166
286.59399 38.092613 435.2554
287.80347 38.083382 434.89526
289.29712 37.897659 435.47388
290.22412 38.064621 434.16348
292.01294 37.702248 435.67374
293.81281 37.339691 437.17685
294.74146 37.506386 435.85477
295.66534 37.67305 434.53033
297.78204 37.133621 436.95432
299.00903 37.123589 436.55878
299.93201 37.290039 435.2233
301.46472 37.103317 435.75571
303.3132 36.739883 437.21655
304.23517 36.906174 435.86984
305.46753 36.895813 435.45325
306.70044 36.885399 435.03262
307.93387 36.874954 434.60785
308.84473 37.041176 433.2493
310.40228 36.853951 433.746
311.96564 36.666656 434.23676
313.86581 36.302513 435.64841
315.10968 36.291901 435.20016
316.69031 36.104462 435.67267
317.59879 36.270676 434.29105
319.52725 35.906357 435.67627
320.4339 36.072655 434.28717
322.3764 35.708305 435.65897
323.98035 35.520844 436.10251
326.29437 34.979492 438.37775
327.20514 35.146027 436.97055
329.18347 34.781693 438.31201
330.0921 34.948456 436.89725
331.35852 34.938332 436.39514
334.45264 34.043015 440.45776
339.78247 32.085114 449.98187
344.4292 30.481155 457.65457
349.12378 28.877045 465.30319
353.86621 27.272812 472.92755
356.38373 26.731514 475.07715
357.39136 26.899109 473.58643
359.54578 26.535439 474.81165
361.32385 26.349243 475.12277
362.71753 26.340622 474.52301
364.1109 26.332382 473.9187
364.71436 26.679092 471.50668
366.10138 26.671753 470.89551
367.88785 26.487587 471.17902
370.08154 26.126602 472.35373
372.28506 25.766121 473.51917
374.90619 25.228851 475.57098
376.3103 25.224167 474.92798
376.88681 25.574844 472.49417
377.86737 25.748886 470.953
378.84125 25.923698 469.41003
-41.095688 34.834724 432.84607
-40.226059 34.663971 434.32919
-39.756805 34.319138 436.70743
-37.660095 34.673569 435.49469
-36.777252 34.504471 436.9704
-35.888412 34.335892 438.44427
-34.201614 34.517036 438.11346
-32.519577 34.698563 437.77606
-31.23317 34.705849 438.33588
-29.946396 34.713493 438.89142
-27.503036 35.245178 436.72455
-26.223709 35.25341 437.26813
-24.18396 35.611008 435.99078
-22.532257 35.79425 435.61417
-21.260605 35.8032 436.14154
-20.733292 35.463417 438.48779
-18.717361 35.821739 437.18332
-17.812744 35.656837 438.61154
-16.538773 35.66655 439.12277
-14.54184 36.02523 437.79779
-12.914658 36.209564 437.38129
-12.005539 36.045235 438.79437
-9.6770172 36.578423 436.52911
-8.0666046 36.762924 436.09354
-6.8101349 36.773155 436.57269
-5.2083588 36.957718 436.12552
-3.6122894 37.142288 435.67212
-2.0219116 37.326843 435.21249
-0.77494812 37.337173 435.67169
0.80661011 37.521698 435.20078
2.0500183 37.532036 435.6506
3.6227264 37.716499 435.16843
4.8625336 37.726791 435.60901
5.7773895 37.562965 436.97516
7.0188446 37.573235 437.40836
7.9405823 37.409416 438.76901
9.5001984 37.593674 438.26239
10.740082 37.603821 438.68329
12.290741 37.787918 438.16577
13.526901 37.797935 438.57761
15.680557 38.32975 436.17734
16.907776 38.3396 436.5784
18.13443 38.349365 436.97552
19.658615 38.532936 436.43015
20.881561 38.542534 436.81845
22.103943 38.552055 437.20282
23.616013 38.735321 436.64218
24.547058 38.570839 437.95978
25.767807 38.580093 438.33237
26.988007 38.589264 438.70108
27.648209 38.250839 440.95441
28.595474 38.086136 442.26196
30.370903 38.44249 440.7298
32.135292 38.79866 439.19083
33.619469 38.980995 438.59222
35.631119 39.51049 436.09235
37.098557 39.692513 435.48175
38.037445 39.527161 436.76498
38.72229 39.188148 438.99612
40.185585 39.369835 438.37366
40.882492 39.030693 440.60092
42.342201 39.212151 439.97034
43.299507 39.046394 441.24075
44.753029 39.227608 440.60144
45.714622 39.061684 441.86581
47.402512 39.41613 440.26279
48.365776 39.249992 441.5206
49.804413 39.430687 440.86343
51.237404 39.611244 440.20132
52.664742 39.791664 439.53439
53.858948 39.798538 439.82092
55.277611 39.978683 439.14505
56.690666 40.158707 438.46442
57.878426 40.165245 438.73904
59.282867 40.345009 438.04962
60.681725 40.524643 437.3555
61.651176 40.357506 438.58041
62.83477 40.363602 438.84058
63.811264 40.196312 440.06021
64.792564 40.028931 441.27759
65.778702 39.861473 442.49261
66.769646 39.693939 443.70532
67.961769 39.699577 443.95053
69.347313 39.878334 443.22665
70.727341 40.056984 442.49832
72.101837 40.235489 441.76563
73.656822 40.587074 440.06134
74.65094 40.418968 441.25476
75.649918 40.250786 442.44577
77.010216 40.428856 441.69717
78.189407 40.433662 441.91333
79.195251 40.265228 443.09579
80.546906 40.442986 442.33578
81.89312 40.620636 441.57153
83.068588 40.625053 441.77405
84.243782 40.629379 441.97333
85.578857 40.806725 441.19745
86.908508 40.983948 440.41751
87.922791 40.814919 441.5788
89.094391 40.818893 441.76456
90.415558 40.995827 440.97366
91.436874 40.826569 442.12643
92.752419 41.003326 441.32831
93.920517 41.00695 441.50079
95.367386 41.356537 439.72012
96.392975 41.186974 440.86081
97.557846 41.190346 441.02335
98.722527 41.193626 441.18277
100.01619 41.369835 440.36255
101.05129 41.199974 441.492
102.33943 41.376007 440.66483
103.50078 41.378983 440.81122
104.66194 41.381889 440.95444
105.59031 41.038773 443.05069
106.64255 40.868584 444.16663
107.81094 40.871277 444.30136
108.87057 40.700951 445.4119
110.14724 40.876442 444.56143
111.41861 41.051849 443.70728
112.88644 41.573036 440.88992
114.14209 41.74826 440.02798
115.29674 41.750511 440.14264
116.45125 41.75267 440.25424
117.60563 41.754768 440.36279
118.58386 41.411011 442.43021
119.6577 41.240089 443.51425
120.81944 41.242004 443.61426
121.98106 41.243858 443.71109
123.14258 41.245636 443.80496
124.37917 41.420235 442.9136
125.68312 41.767647 441.03653
126.83663 41.769226 441.12057
128.05753 41.943619 440.21887
129.07851 41.599335 442.26224
130.29665 41.773598 441.35431
131.33031 41.429207 443.39243
132.48854 41.430481 443.46155
133.70132 41.604561 442.54413
134.90891 41.778564 441.62344
136.11127 41.952507 440.69946
137.30846 42.126389 439.77213
138.45609 42.12735 439.82556
139.60367 42.128258 439.87595
140.71198 41.956276 440.90747
141.82538 41.784233 441.93619
142.97795 41.784973 441.97772
144.09895 41.612808 443.0007
145.25401 41.613441 443.03625
146.43541 41.786842 442.08423
147.58784 41.787354 442.11368
148.74023 41.787796 442.14017
149.91129 41.961037 441.1788
151.07718 42.134209 440.21432
152.22437 42.134491 440.23166
153.37155 42.134712 440.246
154.51872 42.13488 440.25732
155.67172 42.307823 439.2807
156.81303 42.135056 440.27097
157.95947 41.962227 441.25824
159.10919 41.962173 441.25757
160.25891 41.962059 441.25391
161.41563 41.789063 442.23215
162.5584 41.961678 441.23752
163.69603 42.134224 440.23996
164.84323 42.133888 440.2243
165.99046 42.133507 440.2056
167.15753 41.960228 441.16867
168.30737 41.959724 441.14398
169.50714 41.613487 443.08551
170.71722 41.267197 445.02374
171.90752 41.093674 445.97418
173.03769 41.26577 444.95261
174.19798 41.264977 444.91248
175.28276 41.60981 442.90085
176.35732 41.954597 440.88657
177.46457 42.126488 439.85373
178.61224 42.125458 439.802
179.80801 41.951538 440.73099
181.009 41.777542 441.65674
182.26837 41.430618 443.56271
183.42657 41.429352 443.49835
184.58485 41.428024 443.43091
185.68231 41.599495 442.37741
186.77472 41.77092 441.32111
187.79605 42.115158 439.27945
188.94438 42.113602 439.20047
190.0928 42.111984 439.11847
191.24133 42.110283 439.03351
192.38995 42.108543 438.9454
193.77533 41.588043 441.79965
194.85043 41.759048 440.72333
196.08853 41.584206 441.60703
197.24532 41.582184 441.50607
198.31305 41.752991 440.42123
199.4675 41.750847 440.31439
200.62209 41.748627 440.20447
201.77679 41.746338 440.09146
202.8322 41.916916 438.99548
204.08664 41.741562 439.8562
205.13718 41.91201 438.75455
206.50423 41.563538 440.58768
207.66223 41.560905 440.45886
208.8204 41.558189 440.327
210.09363 41.382431 441.17023
211.25471 41.379562 441.0318
212.29593 41.549606 439.91263
213.45477 41.546585 439.76825
214.73901 41.370506 440.59769
215.9008 41.367332 440.44669
217.06281 41.364075 440.29257
218.09209 41.53376 439.15933
219.52289 41.184311 440.95035
220.68806 41.180817 440.78632
221.85345 41.177238 440.61911
223.16231 41.000534 441.42313
224.33072 40.99678 441.24915
225.35098 41.166016 440.09827
226.66824 40.989021 440.89154
227.83737 40.985016 440.70789
229.00674 40.980927 440.521
230.33508 40.80365 441.30289
231.50754 40.799377 441.1091
232.51639 40.968117 439.94089
233.6868 40.963669 439.741
235.19559 40.612862 441.47836
236.54337 40.435059 442.24088
238.0708 40.083992 443.96848
239.25528 40.079132 443.75305
240.79883 39.727806 445.47119
241.62515 40.069099 443.31232
242.62601 40.237152 442.11942
243.62198 40.405113 440.92419
244.80286 40.399796 440.69299
245.79173 40.567596 439.49255
246.9707 40.56208 439.25519
248.14999 40.556465 439.0144
249.32965 40.550751 438.77023
250.71237 40.371643 439.48645
251.89536 40.365707 439.23492
253.49448 40.013046 440.90533
254.6834 40.006874 440.64581
256.29886 39.653931 442.30585
257.70944 39.474167 442.99918
258.90732 39.467644 442.72742
260.10562 39.461006 442.45218
261.52783 39.280884 443.13251
262.50348 39.447433 441.89096
263.47437 39.613899 440.64719
264.67175 39.60685 440.35834
265.40182 39.946617 438.15256
266.59491 39.939369 437.85788
267.54935 40.10553 436.60419
269.22412 39.751083 438.21234
270.42117 39.743515 437.90613
272.11258 39.388763 439.50305
273.56534 39.207382 440.14093
274.77167 39.199432 439.82175
276.23325 39.017784 440.45013
276.92844 39.356819 438.22168
277.87366 39.522194 436.9422
279.07678 39.513847 436.60962
280.54559 39.331749 437.22168
281.75235 39.323181 436.88086
282.95963 39.314522 436.53622
284.44052 39.132027 437.13406
285.65146 39.123138 436.7811
286.58463 39.287903 435.47971
287.51306 39.452621 434.17599
289.28754 39.095879 435.69931
290.21448 39.260422 434.38873
292.29196 38.729576 436.84174
294.38574 38.198509 439.28598
295.31958 38.362747 437.96204
296.24872 38.526955 436.63577
298.07117 38.16935 438.12173
298.99872 38.33342 436.78833
299.92163 38.497452 435.45267
301.76154 38.139503 436.92151
303.30264 37.955421 437.44809
304.53705 37.945251 437.03506
305.45688 38.109093 435.68497
307.00751 37.924774 436.19666
307.9231 38.088562 434.84021
309.4801 37.904121 435.34192
311.04291 37.719612 435.83765
312.61151 37.535034 436.32736
314.18585 37.350388 436.81104
315.76602 37.165695 437.2886
317.01563 37.15519 436.83456
317.58783 37.493179 434.52725
319.85785 36.95993 436.8374
320.42294 37.29805 434.52454
322.01855 37.113342 434.97614
323.96942 36.754303 436.34204
325.57901 36.569603 436.78006
326.83942 36.559311 436.29327
329.17267 36.025909 438.5546
330.44159 36.015747 438.05606
331.71075 36.005707 437.55322
334.44214 35.297928 440.70337
339.40369 33.543243 449.3201
343.30615 32.311829 455.17441
348.36621 30.556763 463.74225
353.85559 28.626984 473.19366
355.99451 28.268097 474.43622
356.99976 28.433136 472.94641
359.91995 27.725525 475.98734
361.31427 27.716545 475.39255
362.31891 27.882538 473.88873
364.10202 27.699654 474.18896
365.10059 27.866463 472.67816
366.49075 27.859047 472.06607
368.6803 27.502716 473.24881
371.28247 26.972115 475.32086
373.08911 26.79142 475.58655
374.90015 26.611267 475.84537
376.3049 26.60643 475.20242
376.88208 26.951736 472.76764
377.86334 27.122978 471.22604
378.41943 27.469719 468.79132
-41.09111 36.094307 433.09235
-40.630173 35.754219 435.47189
-40.15773 35.414703 437.85226
-38.057922 35.764038 436.63959
-37.171951 35.597633 438.11685
-35.881317 35.603775 438.69147
-33.798096 35.954384 437.45801
-32.118347 36.133339 437.11871
-30.834259 36.140617 437.67722
-29.937912 35.97625 439.13687
-27.8797 36.328156 437.87476
-26.214676 36.508339 437.51151
-24.554855 36.688751 437.14172
-22.900253 36.86937 436.76544
-22.000549 36.706383 438.20468
-20.723434 36.715523 438.72968
-19.076889 36.896706 438.33713
-18.169418 36.734352 439.76657
-16.892624 36.744011 440.2785
-14.531464 37.269188 438.03693
-13.263077 37.27903 438.53708
-11.994965 37.288986 439.03287
-10.373566 37.470772 438.60483
-8.4069061 37.824303 437.24994
-7.1477203 37.834427 437.72977
-5.1976776 38.18795 436.36026
-3.6016083 38.369774 435.90604
-2.3515472 38.379967 436.37009
-0.76426697 38.561768 435.90448
0.48225403 38.571968 436.35913
1.3959198 38.410599 437.73703
2.9738617 38.592354 437.25592
4.8731079 38.945564 435.83948
5.7879639 38.784187 437.20575
7.0293732 38.794296 437.63864
8.2702789 38.804375 438.06735
9.5106354 38.814392 438.49203
10.750488 38.824387 438.91251
12.301041 39.005714 438.3942
13.845749 39.186935 437.87012
15.690674 39.539413 436.40369
16.917786 39.549072 436.80447
17.843628 39.38736 438.1395
19.370377 39.568192 437.59409
20.595856 39.577644 437.98291
21.82077 39.587006 438.36783
23.335358 39.767517 437.80722
24.268951 39.605469 439.12582
25.777176 39.785774 438.55576
26.714966 39.623596 439.8681
27.657425 39.461365 441.17813
28.604614 39.299065 442.48587
30.37989 39.65007 440.95248
32.14415 40.000893 439.41223
33.628189 40.180466 438.8129
35.37307 40.530952 437.2598
36.842987 40.710236 436.64923
37.784401 40.547325 437.93338
38.471786 40.213341 440.16592
39.681412 40.221306 440.49481
40.890549 40.229164 440.81998
42.09919 40.236908 441.14148
43.059036 40.073608 442.41272
44.515038 40.252083 441.77338
45.479134 40.088608 443.03864
47.169479 40.437729 441.43515
48.373146 40.444931 441.73767
49.811661 40.622879 441.07977
51.244522 40.800705 440.41699
52.441643 40.807556 440.70743
53.865822 40.985115 440.03561
55.059494 40.991737 440.31833
56.475029 41.169044 439.6376
57.665268 41.175446 439.91266
59.072189 41.352501 439.22311
60.473526 41.529427 438.5289
61.445488 41.364754 439.75461
62.631546 41.37072 440.01523
63.817253 41.376595 440.27228
64.79847 41.211678 441.4899
65.7845 41.046677 442.7052
66.77536 40.881592 443.91818
67.967384 40.887093 444.16321
69.352806 41.063148 443.43869
70.732704 41.239082 442.70975
72.107101 41.414894 441.97638
73.47599 41.590591 441.23862
74.655998 41.595566 441.46466
75.654884 41.42984 442.65601
76.836868 41.434639 442.87582
77.842926 41.268776 444.06189
79.199936 41.443954 443.30551
80.551491 41.619026 442.54486
81.897606 41.793991 441.78
83.072983 41.798309 441.98236
84.410789 41.973061 441.20963
85.583046 41.977188 441.40503
86.755058 41.981239 441.59717
87.926811 41.985199 441.78604
88.94593 41.818581 442.94525
90.119789 41.82238 443.12805
91.293404 41.826096 443.30762
92.611443 42.000191 442.50928
93.782028 42.003738 442.68204
95.091888 42.17765 441.87613
96.25946 42.181023 442.04211
97.426842 42.184319 442.20493
98.594017 42.187538 442.3645
99.890175 42.361099 441.54407
101.05438 42.364159 441.69699
102.2184 42.367134 441.8468
103.50371 42.540436 441.01553
104.54591 42.372871 442.13687
105.4768 42.034859 444.23419
106.53155 41.867188 445.35074
107.70243 41.869812 445.48572
108.87315 41.872375 445.61752
110.04373 41.874863 445.74619
111.42104 42.217987 443.91183
112.78791 42.561028 442.0733
114.14436 42.903984 440.23056
115.29893 42.906174 440.34512
116.45338 42.908295 440.45667
117.6077 42.910339 440.56509
118.58586 42.571655 442.63342
119.65964 42.403275 443.7178
120.73843 42.234818 444.79962
121.98288 42.406937 443.91455
123.14433 42.408676 444.00827
124.45601 42.750969 442.13394
125.68472 42.922882 441.2384
126.9082 43.094727 440.33945
128.05901 43.096199 440.4202
129.14481 42.927315 441.48117
130.298 42.928673 441.556
131.39137 42.759682 442.61136
132.54697 42.760933 442.68024
133.70251 42.762115 442.74609
134.91002 42.93351 441.82492
136.11234 43.104851 440.90042
137.26253 43.105858 440.95694
138.50137 43.447357 439.0416
139.60454 43.277969 440.07632
140.75201 43.278801 440.12369
141.86279 43.109299 441.15274
142.97865 42.939751 442.17899
144.09961 42.770149 443.20233
145.25461 42.77076 443.23788
146.40958 42.771309 443.27042
147.58832 42.94207 442.31482
148.74066 42.942513 442.34125
149.91165 43.113152 441.37949
151.06137 43.113487 441.39978
152.21107 43.11377 441.41714
153.36076 43.113976 441.43152
154.51886 43.284401 440.45749
155.66597 43.284515 440.46579
156.81306 43.284576 440.47113
157.95944 43.114311 441.45886
159.10912 43.114273 441.45816
160.2632 42.943901 442.43988
161.42242 42.773483 443.41855
162.56769 42.943512 442.42352
163.70784 43.11351 441.42545
164.85756 43.113182 441.40976
165.99005 43.283058 440.40585
167.15706 43.112366 441.36935
168.28445 43.282143 440.3595
169.48161 42.941063 442.30203
170.66154 42.770187 443.25626
171.84665 42.599266 444.20731
173.06956 42.258003 446.14008
174.19716 42.427498 445.11508
175.28188 42.76722 443.10257
176.35638 43.106873 441.08746
177.46358 43.276215 440.05417
178.5657 43.445503 439.01816
179.75887 43.274178 439.94775
181.00783 42.932495 441.85825
182.26714 42.590752 443.76511
183.36952 42.759804 442.71698
184.5835 42.588226 443.63339
185.68091 42.757164 442.57947
186.77325 42.926048 441.5228
187.86053 43.094887 440.46341
189.01138 43.093353 440.3844
190.09116 43.262085 439.31943
191.23962 43.260429 439.23453
192.38818 43.258728 439.14648
193.6946 42.916321 441.01993
194.76707 43.084801 439.94345
196.00253 42.912575 440.82788
197.32985 42.569939 442.6904
198.31094 42.908577 440.62357
199.55705 42.736137 441.49789
200.71413 42.733971 441.38782
201.87134 42.731735 441.27463
203.0287 42.729431 441.15839
204.18619 42.727058 441.039
205.23924 42.894989 439.93674
206.50162 42.722115 440.79099
207.65956 42.719536 440.66235
208.70535 42.887268 439.55164
209.86104 42.884552 439.41702
211.13435 42.711365 440.25769
212.17293 42.878906 439.13849
213.32913 42.875977 438.99454
214.61069 42.702553 439.82483
215.8976 42.529037 440.65134
216.92918 42.696297 439.52057
217.95581 42.863495 438.38739
219.24846 42.689728 439.20374
220.68452 42.345428 440.99185
221.7092 42.512398 439.84949
223.15858 42.167892 441.62939
224.18112 42.334709 440.48102
225.34711 42.330978 440.30432
226.51332 42.327148 440.12448
227.83331 42.152748 440.91467
229.00259 42.14875 440.72794
230.33084 41.974152 441.51044
231.5032 41.969971 441.3168
232.51196 42.136253 440.14822
233.6823 42.131905 439.94852
235.19095 41.786362 441.68695
236.367 41.781807 441.4798
237.89175 41.43602 443.20895
239.07355 41.431274 442.9942
240.43503 41.255844 443.74496
241.62003 41.250893 443.5231
242.62079 41.416481 442.32993
243.42953 41.752617 440.16699
244.60773 41.747421 439.93652
245.78625 41.742119 439.70273
246.96509 41.73674 439.46548
248.1443 41.731247 439.22491
249.32385 41.725662 438.9809
250.70645 41.549263 439.69781
251.88934 41.543449 439.44653
253.48831 41.196106 441.11798
254.67712 41.190071 440.85867
256.07941 41.013176 441.55789
257.70291 40.66539 443.21387
258.9007 40.659012 442.94232
260.31973 40.48172 443.6275
261.52094 40.475121 443.34833
262.72256 40.468407 443.06558
263.69595 40.632423 441.82089
265.12714 40.454659 442.48941
265.39456 41.131104 438.36743
266.58752 41.124023 438.07294
267.54187 41.287743 436.81903
268.97482 41.109543 437.47321
270.41348 40.931198 438.1225
272.10474 40.581779 439.72061
273.55737 40.403152 440.35919
274.76358 40.395363 440.04028
276.22501 40.216476 440.66937
276.92014 40.550499 438.44025
277.86526 40.713448 437.16058
279.06824 40.705276 436.82822
280.53696 40.525932 437.44104
281.74362 40.517525 437.10056
282.95078 40.509033 436.75623
284.43152 40.3293 437.3548
285.3667 40.49173 436.05624
286.01886 40.825272 433.81027
287.50385 40.645226 434.3967
288.9946 40.465057 434.97763
289.63263 40.798431 432.72488
291.99353 40.104324 436.12323
293.79309 39.752518 437.62888
294.72162 39.914368 436.30643
296.23877 39.733574 436.86066
297.76178 39.552666 437.40924
298.68671 39.714333 436.07657
299.9115 39.704597 435.67856
301.44403 39.523415 436.21255
302.98239 39.342125 436.74081
304.21411 39.332153 436.32898
305.44638 39.322128 435.91306
306.99695 39.140579 436.4256
307.91254 39.301933 435.069
309.46942 39.12027 435.57147
310.70648 39.110054 435.13824
312.2724 38.928246 435.62976
313.84406 38.746399 436.11514
315.42151 38.564484 436.59454
317.00476 38.382523 437.06781
318.25485 38.372169 436.60986
319.84698 38.19017 437.07175
320.41211 38.523224 434.75827
322.00775 38.341263 435.21066
323.95859 37.987556 436.57788
325.56824 37.805588 437.01675
326.47385 37.967201 435.61124
328.80444 37.441742 437.87543
330.07083 37.431717 437.37827
330.9747 37.593628 435.96094
334.06616 36.724556 440.03027
339.02502 34.99601 448.65341
342.92487 33.782928 454.5126
347.98224 32.053993 463.08691
353.09286 30.324883 471.63477
355.60544 29.799332 473.79025
356.60828 29.961838 472.30127
359.526 29.264687 475.34561
361.69141 28.91172 476.56427
362.69904 29.075119 475.05899
364.87717 28.722763 476.26257
366.27618 28.714851 475.65176
367.67468 28.707352 475.03635
369.47266 28.528221 475.3165
372.48315 27.833252 478.2869
373.4877 27.999245 476.754
375.30194 27.821564 477.0123
376.29938 27.988724 475.47281
376.87717 28.328667 473.03708
377.85913 28.497139 471.49496
379.25299 28.494179 470.84277
-41.08638 37.353928 433.33484
-40.624924 37.019142 435.71539
-40.151932 36.684944 438.09662
-38.455627 36.85968 437.78174
-37.165237 36.865425 438.36041
-35.475555 37.041039 438.03363
-33.790604 37.217049 437.70023
-31.323792 37.732231 435.55301
-29.653931 37.908897 435.20416
-28.765228 37.747078 436.66064
-27.485535 37.754982 437.20801
-25.822952 37.932495 436.84296
-24.165573 38.110237 436.47134
-22.890884 38.118874 437.0036
-21.61615 38.127724 437.53149
-20.341476 38.13678 438.05508
-18.697464 38.315254 437.66068
-18.159317 37.986153 440.00406
-16.51825 38.164925 439.59988
-14.882706 38.343781 439.18924
-13.611572 38.353531 439.69009
-12.340714 38.363388 440.18661
-10.363083 38.711601 438.83881
-9.098175 38.721581 439.32462
-7.1371613 39.069794 437.96213
-5.1871338 39.417976 436.59131
-3.9339905 39.428001 437.06027
-2.6812744 39.438072 437.52499
-0.75372314 39.786156 436.13358
0.15777588 39.627205 437.51486
1.7388153 39.806229 437.03809
2.6546326 39.647316 438.4129
4.8835449 40.164131 436.06628
5.7983551 40.005165 437.43277
6.7179565 39.84623 438.79694
7.961441 39.856163 439.22626
9.5209198 40.034889 438.71799
10.760666 40.044685 439.13824
11.999924 40.054451 439.55432
13.547195 40.232933 439.03027
15.394623 40.58007 437.56342
16.320969 40.420837 438.90262
17.853409 40.599022 438.36212
19.380066 40.777092 437.81592
20.605438 40.786354 438.2045
21.830261 40.79554 438.58908
23.344727 40.973282 438.02774
24.278259 40.81366 439.34647
25.50145 40.822594 439.71924
26.441757 40.662849 441.03256
27.666458 40.671616 441.39838
28.613571 40.511749 442.70627
30.388687 40.857384 441.17169
32.152817 41.202858 439.63019
33.905945 41.548164 438.08188
35.114891 41.556351 438.42477
36.587296 41.732887 437.81418
37.792595 41.740852 438.14883
38.479889 41.41188 440.38205
39.945549 41.588081 439.75882
41.151955 41.595757 440.08307
42.106972 41.434959 441.35681
43.066734 41.274094 442.62827
44.522598 41.449814 441.98822
45.486603 41.288765 443.25372
47.176811 41.632568 441.64902
48.380371 41.639618 441.95126
50.054024 41.983101 440.33548
51.251495 41.989914 440.62921
52.448494 41.996605 440.91946
53.645088 42.003204 441.20609
55.066124 42.177917 440.52942
56.481522 42.352501 439.84805
57.671654 42.358749 440.12292
58.861397 42.364914 440.39423
60.265205 42.539131 439.69995
61.23967 42.376923 440.92648
62.428238 42.382774 441.18738
63.616417 42.388535 441.44485
64.804222 42.394173 441.69891
65.790169 42.231628 442.91446
66.780952 42.069008 444.12766
67.972878 42.074387 444.3725
69.551918 42.415802 442.68079
70.929115 42.589027 441.95068
72.112251 42.59407 442.18381
73.481033 42.767075 441.4454
74.66095 42.771927 441.67126
75.659752 42.608673 442.86288
77.019844 42.781364 442.11298
78.198837 42.785942 442.32889
79.377548 42.790443 442.54138
80.72641 42.962799 441.77975
82.069832 43.135071 441.01385
83.242538 43.139282 441.21561
84.414978 43.14341 441.41406
85.427025 42.9795 442.58206
86.759064 43.151382 441.80136
87.930733 43.155251 441.99011
88.949783 42.991119 443.14957
90.273346 43.162735 442.35788
91.444305 43.166359 442.53693
92.759666 43.337776 441.73764
93.78553 43.17334 442.88544
95.095306 43.344589 442.07895
96.262802 43.347885 442.24481
97.295776 43.183243 443.38409
98.597191 43.354233 442.56699
99.893265 43.525154 441.74594
101.0574 43.528122 441.8988
102.22135 43.531029 442.04846
103.50656 43.701691 441.21667
104.54871 43.536629 442.33835
105.59583 43.371506 443.45752
106.42048 42.870712 446.53262
107.59386 42.873283 446.66779
108.76709 42.875786 446.79977
109.94017 42.87822 446.92862
111.31998 43.216148 445.09357
112.7902 43.721764 442.27365
114.14657 44.059509 440.42999
115.30108 44.061646 440.54449
116.45545 44.063705 440.65594
117.70029 44.233459 439.78265
118.67583 43.899872 441.85153
119.66153 43.566246 443.91818
120.82314 43.568069 444.01804
122.06494 43.737564 443.13223
123.22377 43.739258 443.22568
124.38249 43.740891 443.31607
125.6137 43.910194 442.42026
126.90971 44.247147 440.53766
127.99298 44.080856 441.6019
129.08131 43.914513 442.66339
130.23701 43.91584 442.73834
131.39264 43.917107 442.81024
132.491 43.750603 443.86325
133.70366 43.919472 442.94492
134.9111 44.088272 442.02325
136.16284 44.424721 440.11368
137.2635 44.257988 441.15472
138.54662 44.762024 438.25363
139.64717 44.595184 439.28867
140.75281 44.428276 440.32098
141.86353 44.261337 441.3504
143.01341 44.262032 441.39182
144.13176 44.094986 442.41553
145.28413 44.095581 442.45096
146.46284 44.263809 441.49789
147.61259 44.264282 441.52728
148.74106 44.097031 442.53922
149.912 44.265099 441.57697
151.06168 44.265419 441.59729
152.21132 44.265678 441.61465
153.36096 44.265884 441.62903
154.51059 44.26606 441.64032
155.66605 44.433838 440.66287
156.80981 44.26622 441.65399
157.95871 44.098534 442.64215
159.11273 43.930794 443.62732
160.26747 43.930687 443.62366
161.42921 43.76284 444.60275
162.577 43.930313 443.60724
163.71965 44.097733 442.60873
164.87189 44.09742 442.59302
166.00688 44.26474 441.58859
167.15659 44.264313 441.56689
168.28395 44.431534 440.55661
169.48103 44.095596 442.50009
170.63339 44.095016 442.46927
171.81587 43.926689 443.42084
173.00352 43.758286 444.36929
174.19635 43.589836 445.31448
175.28102 43.924431 443.30112
176.39581 44.091263 442.2702
177.50554 44.258049 441.23645
178.5647 44.592491 439.21509
179.75778 44.423759 440.1452
180.95609 44.254974 441.07202
182.21275 43.918411 442.97995
183.36827 43.917206 442.9158
184.58218 43.74823 443.83276
185.67952 43.914627 442.77844
186.83527 43.913261 442.70514
187.85905 44.247276 440.66165
189.07843 44.078064 441.56601
190.16071 44.244255 440.50052
191.31168 44.242645 440.41544
192.46275 44.240959 440.32739
193.69279 44.071503 441.21881
194.68376 44.405212 439.15948
196.00061 44.067856 441.02692
197.24126 43.898178 441.90836
198.21973 44.23172 439.84094
199.4632 44.061913 440.71603
200.80623 43.724251 442.56891
201.96594 43.722069 442.45554
203.02637 43.887604 441.35831
204.2858 43.717506 442.21954
205.23679 44.050713 440.13641
206.39192 44.048271 440.0112
207.54723 44.045753 439.88297
208.70267 44.04319 439.75153
209.74341 44.208351 438.63794
211.13153 43.869995 440.45822
212.05 44.202858 438.36023
213.20357 44.200012 438.21667
214.48247 44.029243 439.04785
215.76671 43.858383 439.87527
216.92598 43.855293 439.72168
218.08545 43.852127 439.56497
219.38057 43.681023 440.38153
220.68108 43.509827 441.19418
221.70566 43.674301 440.05148
223.01175 43.50293 440.85709
224.03163 43.667267 439.70877
225.19496 43.66362 439.53265
226.35849 43.65992 439.35321
227.67581 43.488182 440.14444
228.99854 43.31636 440.93161
230.32669 43.144432 441.71472
231.49896 43.140358 441.52118
232.67154 43.136185 441.32449
233.84433 43.131943 441.12439
235.18645 42.959625 441.89227
236.3624 42.955185 441.68527
237.71283 42.782661 442.44519
238.71518 42.946053 441.26126
240.07138 42.773323 442.01367
241.2511 42.768517 441.79288
242.2466 42.931656 440.60043
243.23724 43.094719 439.40564
244.60245 42.921608 440.14313
245.58856 43.084488 438.94272
246.95963 42.911156 439.67249
248.13873 42.905792 439.4321
249.51825 42.732216 440.15356
250.90335 42.558525 440.87057
252.29398 42.384705 441.58304
253.4823 42.378914 441.32733
254.67101 42.373009 441.06824
255.86009 42.36702 440.80563
257.04956 42.360924 440.53955
258.4577 42.186508 441.23132
259.65057 42.180206 440.95761
260.84387 42.173782 440.68051
262.48969 41.83078 442.31876
263.46039 41.992363 441.07449
264.42633 42.153893 439.82788
265.38748 42.315338 438.57898
266.58032 42.308411 438.2847
267.53455 42.469704 437.03052
269.20908 42.125916 438.64105
270.65021 41.950302 439.29041
272.09702 41.774559 439.93469
273.54953 41.598686 440.57397
274.75565 41.591057 440.25534
275.96222 41.583328 439.93295
277.16931 41.5755 439.60687
278.11697 41.736008 438.32629
279.32251 41.727974 437.99356
280.5285 41.719849 437.65701
282.00284 41.543121 438.26538
283.21252 41.534782 437.92059
284.42273 41.526337 437.57202
285.35782 41.68634 436.27332
286.28818 41.846291 434.97229
288.05658 41.500412 436.50345
289.55246 41.322968 437.08362
290.48184 41.482666 435.77182
292.27289 41.136345 437.28513
294.07495 40.789871 438.79123
295.00601 40.949287 437.46777
296.22903 40.939964 437.08197
297.75192 40.761826 437.63135
298.9787 40.752319 437.23679
299.90149 40.911507 435.90082
301.43393 40.733101 436.43561
302.66241 40.723381 436.02902
303.89139 40.713615 435.61835
305.12097 40.703781 435.20364
306.98657 40.356148 436.65091
307.9021 40.515083 435.29413
309.45892 40.336174 435.79742
310.69595 40.326126 435.36456
312.59009 39.978134 436.78613
314.16437 39.799019 437.27145
315.74445 39.619843 437.7507
316.99408 39.609642 437.29733
318.58301 39.430405 437.7652
320.1778 39.251129 438.22696
320.74567 39.579102 435.91183
321.99707 39.568977 435.4415
323.94794 39.220612 436.81006
325.20538 39.210541 436.32916
326.46329 39.200516 435.84406
328.07895 39.021385 436.27307
329.70026 38.842293 436.69577
330.60156 39.001747 435.27924
332.95953 38.484329 437.52179
338.27844 36.612686 447.06766
342.5437 35.248657 453.84595
347.59839 33.54586 462.42657
351.95422 32.181557 469.15881
355.59515 31.155876 474.04901
356.97968 31.146454 473.46863
359.13214 30.798531 474.69882
360.52173 30.789642 474.10678
362.30048 30.611649 474.41547
364.08423 30.43396 474.71719
365.4783 30.426071 474.10892
366.87192 30.418579 473.49603
369.06494 30.072548 474.67999
372.07324 29.387939 477.65375
373.4809 29.381767 477.02002
374.88776 29.376122 476.38174
377.11484 29.031975 477.53091
378.11179 29.197021 475.98654
379.51816 29.193176 475.33377
380.50473 29.359566 473.78439
-40.669693 38.780441 432.67789
-39.80101 38.617859 434.16095
-39.739426 38.122047 437.4389
-38.045349 38.294235 437.12225
-37.158463 38.133163 438.60019
-35.069717 38.473061 437.37094
-32.991089 38.813293 436.13275
-30.922638 39.153839 434.88565
-29.255142 39.327873 434.53497
-27.980728 39.335411 435.08414
-27.091492 39.176476 436.53662
-25.814041 39.184593 437.07834
-24.156433 39.359688 436.70593
-22.881531 39.368256 437.23795
-21.981384 39.210342 438.67758
-19.959702 39.552673 437.37582
-18.687653 39.56179 437.89374
-18.149323 39.237793 440.23776
-16.144012 39.580467 438.9165
-14.511047 39.756592 438.50403
-13.242477 39.766212 439.00351
-11.618027 39.942474 438.57925
-9.9991913 40.118774 438.14859
-8.7368927 40.128593 438.63309
-6.7785339 40.471451 437.26828
-5.1767426 40.647789 436.8187
-3.5806732 40.824127 436.36285
-2.3305969 40.834015 436.82626
-0.40571594 41.176743 435.43256
0.83811951 41.186592 435.88565
2.0814972 41.196457 436.3345
2.9946747 41.039955 437.70853
5.2208557 41.54879 435.35919
5.8085938 41.225929 437.65613
6.7281799 41.069427 439.02039
8.2907562 41.245445 438.51639
9.5309906 41.255119 438.94043
10.456863 41.098541 440.2951
12.009888 41.274353 439.77609
13.557068 41.450058 439.25128
15.404373 41.79184 437.78314
16.330673 41.635025 439.12247
17.863037 41.81044 438.58118
19.091522 41.819618 438.97424
20.614838 41.994812 438.42252
21.8396 42.003838 438.80676
23.644104 42.344849 437.30222
24.287399 42.021606 439.56357
25.510483 42.030357 439.93607
26.168427 41.707047 442.1944
27.39566 41.715652 442.56073
28.345291 41.558212 443.8696
30.397339 42.064461 441.38733
32.161324 42.404579 439.84467
33.914291 42.744537 438.29517
35.123138 42.752556 438.63776
36.595413 42.926331 438.02646
37.800621 42.934143 438.36084
38.487854 42.610176 440.5947
39.953369 42.783615 439.97083
41.159676 42.79113 440.29477
42.114601 42.632767 441.56873
43.322548 42.640091 441.88599
44.530006 42.647308 442.19962
45.493912 42.488686 443.4653
46.703033 42.495705 443.77234
48.149567 42.668343 443.11859
49.590431 42.840836 442.45996
50.792992 42.847527 442.75476
52.225166 43.019775 442.08701
53.651688 43.191879 441.41452
54.847748 43.198227 441.69739
56.487892 43.535721 440.05511
57.677925 43.54184 440.32971
58.867538 43.547852 440.60089
60.271225 43.719345 439.90598
61.457481 43.725151 440.16956
62.643349 43.730865 440.42969
63.622147 43.57093 441.65073
65.013947 43.741974 440.93973
65.997215 43.581879 442.15494
66.786407 43.256187 444.33383
67.978233 43.261436 444.57849
69.363434 43.432091 443.85269
70.743111 43.602615 443.1225
71.928741 43.607559 443.35593
73.671906 44.10878 440.68039
74.665771 43.948059 441.87463
76.026054 44.118149 441.12747
77.202675 44.122704 441.34601
78.378998 44.127167 441.56125
79.555023 44.131538 441.77319
81.071648 44.466606 440.03906
82.241943 44.470787 440.24353
83.41198 44.474884 440.44467
84.581749 44.478905 440.64258
85.591141 44.317467 441.81042
86.920509 44.486679 441.02869
88.089516 44.49044 441.21686
89.105904 44.328781 442.37628
90.277008 44.33239 442.55841
91.595085 44.501228 441.76218
92.763161 44.504677 441.93747
93.931 44.508041 442.10959
95.098633 44.511322 442.27853
96.266052 44.514534 442.44431
97.433273 44.51767 442.60684
98.600288 44.520729 442.76624
99.896278 44.68898 441.9447
101.18694 44.857155 441.11929
102.47224 45.02523 440.29013
103.50935 44.86274 441.41461
104.6703 44.865425 441.55756
105.71478 44.702797 442.67676
106.65052 44.374886 444.77313
107.70754 44.212158 445.88757
108.98671 44.379807 445.03891
110.15457 44.382156 445.16714
111.42572 44.549675 444.31134
112.8933 45.047508 441.48978
114.24701 45.380043 439.6449
115.39888 45.382118 439.75903
116.55062 45.384117 439.87018
117.61166 45.220863 440.96036
118.67773 45.057571 442.04788
119.74881 44.894211 443.13284
120.90778 44.895973 443.23242
122.14695 45.062851 442.34589
123.30315 45.064507 442.43903
124.45924 45.066086 442.52917
125.61523 45.067604 442.6163
126.91116 45.399376 440.73279
127.99438 45.235626 441.79736
129.14755 45.236977 441.87509
130.30061 45.238258 441.94986
131.45361 45.239487 442.02155
132.49217 44.910378 444.05945
133.70477 45.076637 443.14059
134.91217 45.242836 442.21844
136.11435 45.408989 441.29297
137.21753 45.244797 442.33456
138.45882 45.575966 440.41754
139.56445 45.411682 441.45319
140.71437 45.412453 441.50061
141.82761 45.24807 442.53055
142.98001 45.248749 442.57199
144.13237 45.249374 442.61047
145.31363 45.415077 441.66003
146.43698 45.250473 442.67831
147.61304 45.416061 441.72174
148.74146 45.251358 442.7341
149.91235 45.416847 441.77136
151.06197 45.417152 441.79172
152.22511 45.582527 440.82288
153.3831 45.747856 439.85092
154.53595 45.913124 438.87601
155.67198 45.748116 439.87051
156.81641 45.748161 439.87585
157.95868 45.252815 442.83694
159.11266 45.087646 443.8226
160.27176 44.922432 444.80515
161.42903 44.922279 444.79843
162.57675 45.087181 443.80246
163.71936 45.252045 442.80353
164.87154 45.251732 442.78787
166.00648 45.416496 441.78299
167.13632 45.5812 440.77524
168.26106 45.74585 439.76465
169.45554 45.415092 441.70898
170.60527 45.41452 441.67831
171.81522 45.083641 443.61627
172.97015 45.082977 443.57935
174.16035 44.917107 444.52512
175.24242 45.246574 442.51105
176.35458 45.410881 441.47974
177.50459 45.409981 441.43106
178.56371 45.739311 439.40887
179.75674 45.573181 440.33942
180.95497 45.406982 441.26675
182.1584 45.24073 442.19083
183.36703 45.074417 443.11154
184.52257 45.073189 443.0444
185.61729 45.237061 441.98984
186.70697 45.400879 440.93256
187.79158 45.564644 439.87259
189.00833 45.398041 440.77768
190.08798 45.561699 439.71201
191.31006 45.394974 440.61066
192.46106 45.393356 440.52258
193.69104 45.226494 441.41458
194.68195 45.555099 439.35443
195.91472 45.38813 440.24008
197.06616 45.386253 440.13986
198.12857 45.549522 439.05432
199.27768 45.547539 438.94815
200.52121 45.380295 439.82068
201.77002 45.212967 440.68973
202.82523 45.376007 439.59259
204.07944 45.208549 440.4549
205.02522 45.536682 438.37146
206.2823 45.36908 439.22742
207.54468 45.201408 440.07959
208.58777 45.364143 438.96841
209.85561 45.196327 439.81384
211.24622 44.863174 441.63486
212.16721 45.190948 439.53574
213.32326 45.188164 439.392
214.60468 45.020035 440.22342
215.76366 45.017105 440.07306
216.92285 45.014084 439.91962
217.94934 45.176292 438.78571
219.24182 45.007851 439.60318
220.4016 45.004623 439.44022
221.5616 45.001312 439.27411
223.00821 44.66729 441.05643
224.1738 44.663811 440.88321
225.19127 44.825584 439.73178
226.50568 44.656616 440.52716
227.67197 44.652908 440.34433
228.83849 44.649109 440.15823
230.16396 44.479866 440.94235
231.33357 44.475899 440.74939
232.6673 44.306458 441.52576
233.6736 44.467705 440.35379
235.01303 44.298073 441.12271
236.18631 44.293755 440.91626
237.53406 44.123924 441.67731
238.53372 44.284859 440.4935
239.88724 44.114822 441.24701
241.06427 44.110146 441.02686
242.24164 44.105377 440.80341
243.23218 44.265976 439.60837
244.787 43.930069 441.3143
245.96793 43.924995 441.08035
247.14917 43.919838 440.84299
248.33078 43.914581 440.60226
249.5127 43.909248 440.35806
250.89767 43.738258 441.07571
252.08293 43.732704 440.82422
253.47641 43.561485 441.53336
254.66501 43.555725 441.27441
255.854 43.549866 441.01202
257.04337 43.543907 440.74615
258.23315 43.537849 440.47681
259.42331 43.531685 440.20398
260.61389 43.525414 439.92767
262.03094 43.353394 440.60773
262.99634 43.512581 439.36444
264.18823 43.506012 439.07755
264.91284 43.830734 436.871
266.10037 43.823997 436.57822
267.5274 43.651413 437.23868
268.96011 43.478706 437.89423
270.39853 43.305855 438.54492
272.08948 42.967094 440.14536
273.29236 42.959747 439.8313
274.49576 42.952301 439.51358
275.95435 42.778938 440.14484
277.16135 42.771263 439.81906
278.36884 42.763496 439.48953
279.57684 42.75563 439.15625
280.78537 42.747643 438.81934
281.99438 42.739571 438.47858
282.93359 42.897316 437.18573
284.41409 42.723114 437.7858
285.34906 42.880707 436.48685
286.27939 43.038239 435.18567
288.32849 42.531708 437.66333
289.8269 42.35701 438.24347
291.33112 42.18219 438.81815
292.84113 42.00724 439.38733
294.64832 41.666084 440.89304
295.29056 41.989143 438.62653
296.81274 41.813866 439.1806
297.74225 41.970734 437.84988
298.36511 42.293724 435.57813
299.89166 42.118187 436.11948
301.42401 41.942543 436.65506
302.34259 42.09922 435.31262
304.19379 41.757164 436.77377
305.74103 41.58123 437.29288
306.97632 41.571487 436.87259
307.89185 41.727982 435.51572
309.77164 41.385536 436.95145
311.01123 41.375641 436.51791
312.57965 41.199348 437.0101
314.15387 41.022995 437.49622
316.0675 40.680176 438.90414
317.31976 40.67012 438.45016
318.23358 40.826508 437.06592
319.48413 40.81649 436.6044
320.39096 40.972954 435.21472
321.29291 41.129509 433.82266
322.88892 40.953079 434.2724
324.49066 40.776634 434.71597
326.09805 40.600235 435.15314
328.06857 40.25724 436.50299
329.68994 40.080879 436.92645
330.9541 40.071213 436.42661
332.94937 39.728348 437.75406
338.26816 37.885445 447.30554
342.16266 36.709023 453.17441
346.84131 35.199089 460.84869
350.8158 34.022461 466.67587
355.20624 32.679024 473.3934
356.96967 32.50293 473.72357
359.12238 32.160263 474.95505
360.51227 32.151413 474.36331
362.29132 31.976051 474.67273
363.68338 31.967819 474.07047
363.8912 32.460503 470.7529
365.67191 32.286179 471.0473
368.25729 31.778496 473.13715
370.85803 31.271179 475.21536
372.25824 31.264977 474.58536
374.88141 30.75853 476.64377
377.10901 30.419502 477.79401
378.51978 30.414894 477.14447
380.76114 30.077011 478.2785
382.17484 30.073662 477.61774
-39.840988 40.366058 431.11984
-38.977112 40.206146 432.60092
-38.513702 39.882469 434.97906
-37.231079 39.887817 435.55807
-35.947769 39.893616 436.13287
