ply
format ascii 1.0
comment PCL generated
element vertex 1593
property float x
property float y
property float z
element camera 0
property float view_px
property float view_py
property float view_pz
property float x_axisx
property float x_axisy
property float x_axisz
property float y_axisx
property float y_axisy
property float y_axisz
property float z_axisx
property float z_axisy
property float z_axisz
property float focal
property float scalex
property float scaley
property float centerx
property float centery
property int viewportx
property int viewporty
property float k1
property float k2
end_header
-36.91803 148.94768 434.22699
-35.643692 148.93861 434.79819
-33.561554 148.80566 433.53955
-32.292557 148.7966 434.09946
-30.625092 148.72565 433.73987
-28.567245 148.59285 432.45724
-27.699875 148.64569 433.91772
-26.436844 148.63667 434.45749
-25.174103 148.62767 434.9928
-23.526505 148.5569 434.60294
-22.26709 148.54797 435.1282
-20.628204 148.47733 434.72604
-19.372299 148.46849 435.24142
-18.116821 148.45969 435.75238
-16.861801 148.45094 436.25888
-15.976486 148.50392 437.68832
-14.719818 148.49525 438.1871
-13.099838 148.425 437.75211
-11.485764 148.35484 437.3107
-10.236084 148.34639 437.79428
-8.6311188 148.27641 437.34109
-6.6788483 148.14496 435.94806
-5.7895203 148.1983 437.35025
-4.5475922 148.19016 437.81467
-3.3063049 148.1821 438.27493
-1.7230072 148.11258 437.7934
-0.8256073 148.16617 439.18259
0.076461792 148.21979 440.56952
1.6524963 148.15054 440.07349
3.5546417 148.01997 438.63013
4.7867737 148.01241 439.06332
6.01828 148.0049 439.49237
7.2490845 147.9975 439.91739
8.8007355 147.92877 439.39331
9.708786 147.98291 440.7551
10.937668 147.97574 441.16785
11.538803 148.09131 443.47183
11.838898 148.26822 446.72369
12.770721 148.32253 448.07806
14.012802 148.3156 448.47998
15.254257 148.30878 448.8779
17.69664 148.05701 445.46439
20.117355 147.80544 442.04034
22.516464 147.55406 438.60583
24.016403 147.48653 438.02383
26.380188 147.2355 434.57114
28.147842 147.10704 433.02011
30.189102 146.91754 430.50549
31.367973 146.91168 430.85486
33.105118 146.7836 429.28412
34.554443 146.7168 428.66565
35.997993 146.65009 428.04205
37.164215 146.64459 428.37387
38.598854 146.57808 427.74088
40.027771 146.51166 427.10281
41.18721 146.50642 427.42249
42.607254 146.4402 426.77527
43.763092 146.43513 427.08716
45.430244 146.30806 425.46603
46.579895 146.30316 425.76965
47.72908 146.29832 426.06976
48.38166 146.41559 428.30008
48.798721 146.59387 431.49716
49.230957 146.77217 434.69473
49.43808 147.01144 438.8616
49.903244 147.18976 442.06067
50.618645 147.30711 444.29007
52.041412 147.24168 443.60641
53.458565 147.17635 442.91803
55.097382 147.05016 441.25305
56.72541 146.92409 439.58224
58.342651 146.79813 437.90561
59.510155 146.79407 438.17068
60.677292 146.79005 438.43234
61.629738 146.84702 439.66559
62.798706 146.84314 439.92123
63.967339 146.83934 440.17346
65.34214 146.77473 439.44583
66.711418 146.71022 438.71384
68.276543 146.58495 436.99979
69.830971 146.45978 435.2804
70.982399 146.45633 435.51294
72.133492 146.45296 435.74234
73.284309 146.44963 435.96844
74.246384 146.50719 437.1716
75.585014 146.44318 436.4111
76.734932 146.44005 436.62766
77.703918 146.49774 437.82263
79.033951 146.43394 437.05115
80.183067 146.43097 437.25809
81.158997 146.48883 438.44495
82.310158 146.48598 438.64612
83.46109 146.48317 438.84402
84.611771 146.48042 439.03885
85.924805 146.41699 438.24567
87.23246 146.35364 437.44852
88.219841 146.41177 438.61874
89.521889 146.34854 437.81451
90.818573 146.28535 437.00638
91.960167 146.28294 437.1813
92.954445 146.34128 438.34027
94.098221 146.33896 438.50937
95.099838 146.39738 439.66336
95.827606 146.57722 442.79175
96.570633 146.75708 445.91928
97.328934 146.93697 449.04581
98.365845 146.99551 450.19244
99.407745 147.05411 451.33664
100.70769 146.99142 450.49814
102.00232 146.92879 449.65588
103.53441 146.7449 446.82843
104.81329 146.68239 445.97809
106.08688 146.61993 445.12408
107.35518 146.55753 444.26633
108.5071 146.55582 444.39697
109.65887 146.55414 444.52457
110.70457 146.61316 445.64169
111.85866 146.61157 445.76346
113.01263 146.61003 445.8822
114.16647 146.60854 445.99792
115.41589 146.54646 445.11703
116.56694 146.54506 445.2265
117.71789 146.54369 445.33286
118.86872 146.54237 445.43628
120.10486 146.48048 444.54221
121.25293 146.47925 444.63934
122.40091 146.47806 444.73355
123.6265 146.41631 443.82959
124.84686 146.3546 442.92224
125.98944 146.35353 443.00708
127.13194 146.35249 443.08896
128.3418 146.29092 442.172
129.48158 146.28998 442.24768
130.62131 146.28906 442.3205
131.70123 146.34879 443.38672
132.90054 146.28737 442.45721
134.04007 146.28658 442.52118
135.17953 146.28583 442.58218
136.31894 146.28511 442.64026
137.45831 146.28444 442.69534
138.64195 146.22322 441.75031
139.77866 146.22263 441.79944
140.91531 146.22206 441.84558
142.05194 146.22153 441.88882
143.15445 146.28162 442.9267
144.29356 146.28116 442.96417
145.43265 146.28073 442.99869
146.59807 146.2198 442.03247
147.75835 146.15889 441.06317
148.89221 146.15858 441.08875
150.02606 146.15833 441.11148
151.17601 146.09753 440.13324
152.29373 146.1579 441.1481
153.42754 146.15773 441.16202
154.56134 146.15761 441.17303
155.68929 146.21808 442.17929
156.82892 146.15747 441.18634
157.96271 146.15746 441.18866
159.0965 146.15749 441.18802
160.23029 146.15753 441.18442
161.36407 146.15764 441.17798
162.50743 146.21832 442.16663
163.64381 146.21849 442.15433
164.76553 146.15813 441.14102
165.89938 146.15837 441.12292
167.01346 146.09808 440.10385
168.14478 146.09839 440.07993
169.27614 146.09874 440.0531
170.40752 146.09912 440.02332
171.53893 146.09955 439.99069
172.63774 146.03944 438.95746
173.76665 146.03993 438.91907
174.8956 146.04047 438.87772
176.06493 146.10159 439.83087
177.15364 146.04163 438.78638
178.32819 146.10284 439.73343
179.41185 146.04295 438.68332
180.59163 146.10425 439.62433
181.67029 146.04442 438.56863
182.91104 146.16638 440.50012
183.98724 146.10663 439.43866
185.11925 146.1075 439.37097
186.31473 146.16899 440.29642
187.51543 146.23053 441.21863
188.58421 146.17093 440.14594
189.71907 146.17195 440.06622
190.9277 146.23361 440.9791
191.98903 146.17413 439.89804
193.0453 146.11469 438.81451
194.25934 146.17647 439.71805
195.47861 146.2383 440.61829
196.53003 146.17896 439.52618
197.75462 146.24088 440.41998
198.89279 146.24223 440.31641
200.03107 146.24364 440.20984
201.07263 146.18445 439.10687
202.30795 146.24655 439.98782
203.54854 146.3087 440.86523
204.58533 146.24965 439.75378
205.8313 146.31189 440.62463
207.08255 146.37419 441.49194
208.22684 146.3759 441.36389
209.25645 146.317 440.24121
210.39845 146.31879 440.10736
211.54059 146.32063 439.97049
212.68289 146.32251 439.8306
213.82536 146.32445 439.68768
214.96799 146.32643 439.54172
215.98051 146.26778 438.40305
217.1209 146.26985 438.25131
218.26146 146.27197 438.09653
219.54016 146.33481 438.92728
220.68367 146.33704 438.76605
221.97049 146.39999 439.58954
222.97125 146.34163 438.43433
224.26361 146.40469 439.25095
225.25961 146.34641 438.09027
226.25069 146.28816 436.92731
227.54883 146.35141 437.73383
228.85236 146.41472 438.53647
230.00009 146.41734 438.35001
231.31183 146.48077 439.14511
232.46262 146.48352 438.952
233.61365 146.48633 438.75577
234.42197 146.36768 436.58975
235.56836 146.37057 436.38809
236.715 146.37354 436.18326
238.04114 146.43733 436.95724
239.00909 146.37962 435.76416
240.52536 146.50435 437.51175
241.86526 146.56834 438.27371
243.21065 146.63243 439.03149
244.17717 146.57495 437.82605
245.33357 146.57834 437.59735
246.4903 146.5818 437.36548
247.64734 146.58531 437.13031
248.60219 146.52805 435.91446
249.9624 146.59253 436.65015
251.32816 146.6571 437.3815
252.69943 146.72176 438.10837
253.86337 146.72562 437.85571
255.24313 146.79042 438.57428
256.4104 146.79442 438.3143
257.57803 146.79848 438.05096
258.74606 146.80261 437.7843
260.36621 146.92867 439.45877
261.76868 146.9939 440.15579
262.94574 146.99826 439.87711
264.35681 147.06364 440.5654
265.53732 147.06818 440.27921
266.71823 147.07277 439.98953
267.41669 146.95546 437.75946
268.34924 146.89919 436.49631
269.27707 146.84296 435.23099
270.20013 146.78679 433.9635
271.62219 146.85274 434.62552
273.04996 146.91876 435.28271
274.74051 147.04596 436.89944
276.18231 147.1122 437.54602
277.36749 147.11748 437.22458
279.08307 147.24501 438.82428
280.27454 147.25046 438.49411
281.46655 147.25598 438.1604
282.93185 147.32272 438.78317
284.12756 147.32843 438.44135
285.04587 147.27307 437.13724
286.52069 147.34009 437.74664
287.71808 147.34604 437.39368
288.91608 147.35208 437.03702
290.11465 147.3582 436.67654
291.60492 147.42561 437.26703
293.10101 147.49313 437.85214
294.30667 147.49953 437.4787
296.11084 147.62851 439.00595
297.02136 147.57384 437.67172
298.23148 147.58051 437.28583
299.13535 147.52594 435.94626
300.65356 147.59407 436.50232
301.55347 147.53966 435.15665
303.07825 147.60797 435.70313
304.29156 147.61505 435.29758
305.82556 147.68359 435.83344
306.3974 147.56807 433.52994
307.93536 147.63678 434.05688
309.15128 147.6442 433.63525
310.69849 147.71312 434.1514
312.25162 147.78215 434.66153
314.48254 147.97424 437.04544
315.71429 147.98206 436.60275
316.94672 147.98994 436.15585
317.83588 147.93637 434.76776
319.41351 148.00594 435.24954
319.94946 147.89093 432.91992
321.53098 147.96065 433.39227
323.4729 148.09207 434.79132
325.42606 148.22363 436.18213
326.67084 148.23206 435.70251
328.64111 148.36386 437.07846
330.25751 148.43411 437.51703
331.14423 148.3811 436.09341
333.13751 148.51323 437.44791
337.38074 149.01579 444.34811
342.04291 149.58044 452.15121
346.7536 150.14548 459.93021
352.27502 150.83444 469.52972
356.32043 151.27669 475.41479
358.47131 151.41016 476.67825
359.85498 151.42007 476.09418
361.63077 151.49185 476.4231
363.41217 151.56369 476.74484
365.59637 151.69748 477.97507
366.99176 151.7075 477.36673
367.9848 151.65561 475.84009
369.37775 151.66562 475.22314
369.95502 151.55167 472.77936
370.93201 151.4996 471.24527
372.72992 151.57147 471.52576
374.11713 151.5813 470.89175
375.08551 151.52904 469.34686
-38.612595 150.26436 434.46988
-37.335724 150.25511 435.04694
-36.058762 150.24582 435.61951
-33.570053 150.04291 433.45004
-32.301102 150.03365 434.01019
-30.633636 149.95987 433.65091
-28.575775 149.82166 432.36887
-27.708405 149.87688 433.82932
-26.445389 149.86765 434.36926
-24.794754 149.79401 433.98526
-23.535004 149.78484 434.5152
-22.275574 149.77568 435.04065
-21.016556 149.76656 435.56174
-19.757919 149.75748 436.07834
-18.125214 149.68411 435.66556
-16.870163 149.67514 436.17224
-15.984818 149.7305 437.60165
-14.361572 149.65735 437.17249
-13.108078 149.64853 437.66602
-11.855133 149.63977 438.15521
-10.602768 149.63107 438.64005
-8.6391602 149.49406 437.25589
-7.3933105 149.48553 437.7301
-5.7974243 149.41293 437.26559
-4.9033813 149.46869 438.6655
-3.6593628 149.46037 439.12686
-2.0733337 149.38805 438.64667
-0.83325195 149.3799 439.0986
0.068862915 149.4359 440.4855
1.6450043 149.36385 439.98981
3.21521 149.29192 439.48807
4.450058 149.2841 439.92233
6.0110016 149.2124 439.40961
7.2419128 149.20477 439.83472
8.7936249 149.13327 439.31104
9.701767 149.18977 440.67276
10.930695 149.1824 441.08572
11.845459 149.23904 442.44202
11.832031 149.48744 446.64093
12.455612 149.60802 448.94446
14.006088 149.53702 448.39734
14.94458 149.59384 449.74625
17.089294 149.39537 447.28616
19.217667 149.19707 444.81702
21.919907 148.87132 440.4325
23.132675 148.86478 440.80658
25.50444 148.6032 437.35712
27.28009 148.46936 435.80893
29.613968 148.20813 432.34079
31.080215 148.13834 431.73459
32.820076 148.00491 430.16507
34.272095 147.93533 429.5477
35.718346 147.86588 428.92514
36.887283 147.86021 429.25775
38.324615 147.79095 428.62582
39.75621 147.72179 427.98883
40.918343 147.7164 428.3093
42.341087 147.64743 427.66306
43.499603 147.6422 427.9758
44.913536 147.57343 427.32047
46.068474 147.56837 427.62552
46.972267 147.62698 428.89307
47.632698 147.74924 431.12521
48.057617 147.93509 434.32382
48.740578 148.05739 436.55502
48.952942 148.30682 440.7226
49.661026 148.42918 442.95331
50.379074 148.55156 445.18307
51.80452 148.48341 444.50034
53.22435 148.41536 443.81287
54.865852 148.28389 442.1489
56.271866 148.21603 441.45151
57.894394 148.08478 439.77649
59.067154 148.08057 440.04282
60.239532 148.07645 440.30576
61.41153 148.07239 440.56537
62.583176 148.06839 440.82159
63.754456 148.06447 441.07446
65.338455 147.93376 439.37128
66.911758 147.80313 437.66257
68.474358 147.67262 435.94846
69.827522 147.60561 435.20688
70.978996 147.60207 435.43954
72.323746 147.53522 434.69
73.281021 147.59518 435.8952
74.243149 147.65521 437.0983
75.581841 147.58856 436.33801
76.731827 147.58533 436.55463
77.700867 147.64551 437.74948
79.03096 147.57906 436.97821
80.355629 147.51266 436.20282
81.329025 147.57301 437.38916
82.477669 147.57008 437.5899
83.626068 147.56721 437.78741
84.609047 147.6277 438.96606
85.759544 147.62494 439.15778
87.069824 147.55893 438.3613
88.05983 147.61957 439.53186
89.209656 147.61697 439.71414
90.511551 147.55113 438.90701
91.658356 147.54865 439.08273
92.804962 147.5462 439.25534
93.806816 147.60709 440.41229
94.813614 147.66801 441.56693
95.546562 147.8555 444.69568
96.294777 148.043 447.82346
97.19252 148.16727 449.96133
98.100372 148.29156 452.09747
99.276566 148.28943 452.25262
100.57914 148.22411 451.41467
102.00035 148.09563 449.5827
103.53252 147.90398 446.75571
104.81145 147.83884 445.90561
105.96883 147.83698 446.04297
107.23976 147.77194 445.18573
108.3943 147.77019 445.31668
109.44016 147.83167 446.43668
110.59698 147.82999 446.56186
111.75369 147.82837 446.68399
112.91028 147.82678 446.80304
114.16499 147.76205 445.9259
115.41445 147.69737 445.0452
116.56554 147.69592 445.15466
117.71653 147.69452 445.26111
118.86742 147.69318 445.36453
120.1036 147.62868 444.47058
121.25171 147.62741 444.56781
122.48 147.56302 443.66727
123.62535 147.56183 443.7583
124.84576 147.49753 442.8511
125.98839 147.49643 442.93597
127.13093 147.49538 443.01785
128.34082 147.4312 442.10101
129.48065 147.43024 442.17682
130.62041 147.42931 442.24963
131.64063 147.55472 444.31195
132.84256 147.49071 443.38278
133.98468 147.4899 443.44687
135.12675 147.48911 443.508
136.26878 147.48837 443.56625
137.45764 147.42455 442.6246
138.597 147.42389 442.6767
139.7363 147.42326 442.72598
140.87556 147.42268 442.77225
142.01479 147.42215 442.81561
143.15398 147.42165 442.85599
144.29312 147.42117 442.89346
145.43225 147.42075 442.92804
146.5977 147.35722 441.96191
147.75801 147.29375 440.9928
148.91316 147.23032 440.02066
150.04449 147.23003 440.04327
151.19191 147.16667 439.06519
152.29355 147.29272 441.07779
153.4274 147.29256 441.09171
154.56123 147.29243 441.10272
155.68921 147.35547 442.10883
156.82889 147.2923 441.11603
157.96271 147.29228 441.11832
159.09653 147.2923 441.11768
160.22595 147.22923 440.11612
161.35722 147.22934 440.10968
162.49805 147.2926 441.09827
163.6319 147.29277 441.08594
164.76576 147.29297 441.07071
165.91689 147.35635 442.05042
167.03355 147.2935 441.03146
168.14511 147.2307 440.00974
169.2765 147.23105 439.98288
170.40793 147.23145 439.95319
171.50931 147.16875 438.92291
172.67085 147.23235 439.88486
173.80237 147.23285 439.84634
174.93391 147.2334 439.80496
176.06552 147.23398 439.76062
177.15427 147.17146 438.71625
178.28339 147.17212 438.66617
179.36453 147.10968 437.61633
180.54178 147.17355 438.55728
181.6179 147.11119 437.50186
182.80042 147.17514 438.43671
183.92981 147.17599 438.37201
185.05928 147.17688 438.30444
186.25224 147.24097 439.22986
187.45041 147.3051 440.15204
188.58524 147.30612 440.07532
189.79126 147.37033 440.99109
190.9288 147.37143 440.90826
192.06644 147.37257 440.82248
193.20415 147.37375 440.7337
194.34196 147.37497 440.642
195.47986 147.37624 440.54733
196.61786 147.37755 440.44968
197.75597 147.37891 440.34906
198.89418 147.38028 440.24542
200.12674 147.44492 441.13235
201.17093 147.38321 440.0293
202.40886 147.44792 440.90976
203.55009 147.44949 440.79391
204.69147 147.4511 440.67511
205.83295 147.45276 440.55328
206.97458 147.45447 440.42847
208.11633 147.45621 440.3006
209.25822 147.45801 440.16971
210.2829 147.39664 439.0448
211.42252 147.39851 438.90823
212.56229 147.40045 438.76855
213.57712 147.3392 437.6358
214.84232 147.40445 438.48022
215.85233 147.34329 437.34204
216.99017 147.34541 437.19058
218.26361 147.41083 438.0249
219.54237 147.47632 438.85544
220.82648 147.54185 439.68216
221.97279 147.54419 439.51743
223.11931 147.54659 439.34964
224.41431 147.6123 440.16559
225.26207 147.48824 438.01816
226.40662 147.49077 437.84143
227.55139 147.49338 437.66162
228.85498 147.55931 438.46396
229.84158 147.49872 437.2926
231.4783 147.69142 440.05685
232.46539 147.63094 438.87924
233.6165 147.63382 438.68292
234.59634 147.57343 437.50031
235.74536 147.57642 437.2981
236.71799 147.51611 436.11053
238.04419 147.58257 436.88428
239.194 147.58572 436.67252
240.52853 147.65233 437.43848
241.49451 147.59225 436.23959
242.83478 147.65898 436.99811
243.79617 147.599 435.79376
245.14224 147.66588 436.54489
246.49377 147.73283 437.29166
247.65088 147.73645 437.05643
248.60577 147.6767 435.84067
249.96606 147.74387 436.57611
251.33189 147.81113 437.30719
252.49294 147.815 437.05829
253.65436 147.81897 436.80606
255.03159 147.88644 437.52493
256.4144 147.95403 438.23935
257.8028 148.0217 438.94922
259.19678 148.08945 439.6546
260.59631 148.15729 440.35535
261.77298 148.16171 440.07996
262.71906 148.10268 438.83035
263.89395 148.10722 438.54874
265.06931 148.11186 438.2637
266.24512 148.11656 437.97525
267.17987 148.05779 436.71497
268.10989 147.99905 435.45251
269.28183 148.00397 435.15497
270.45422 148.00894 434.85388
271.62711 148.01401 434.54929
273.30942 148.14639 436.17117
274.74561 148.21526 436.82248
275.92776 148.2206 436.50522
277.37274 148.28966 437.14722
278.82349 148.35884 437.7843
280.01242 148.36444 437.45477
281.47205 148.43381 438.08237
282.93744 148.5033 438.70483
284.13324 148.50916 438.36288
285.05161 148.45139 437.05884
286.24588 148.45741 436.71024
287.724 148.52727 437.31485
288.92206 148.53348 436.95801
289.83221 148.47598 435.64206
291.61108 148.60995 437.18762
293.10727 148.68024 437.7724
294.31299 148.68681 437.39883
295.8183 148.75732 437.97348
297.02783 148.76408 437.59134
298.23804 148.77094 437.20529
299.44885 148.77786 436.81543
300.66031 148.78488 436.42157
301.56024 148.72807 435.07587
303.08514 148.79918 435.62204
303.98108 148.74251 434.27023
305.19244 148.74986 433.86139
306.08179 148.6933 432.50424
307.61722 148.7648 433.0318
308.83057 148.7724 432.61093
311.03644 148.97217 435.01074
312.59232 149.04402 435.51959
314.82602 149.24413 437.90192
316.06049 149.25217 437.4581
316.95441 149.1962 436.0723
317.49976 149.07614 433.74741
319.07477 149.1485 434.22974
319.95734 149.09265 432.83624
321.53888 149.16519 433.30817
323.4809 149.30203 434.70673
325.43414 149.439 436.09692
327.03882 149.51189 436.54797
329.01187 149.64912 437.92239
330.63098 149.72223 438.35956
331.52039 149.66687 436.93488
333.88687 149.86873 439.21439
337.76245 150.32803 445.18518
342.05173 150.85201 452.06097
347.14105 151.50504 460.76147
352.28424 152.15851 469.43536
356.3298 152.6192 475.31891
358.48071 152.75813 476.58182
360.25354 152.83272 476.91644
362.42386 152.97183 478.16162
364.60516 153.11102 479.39737
366.00305 153.12132 478.7926
367.00122 153.06711 477.26859
367.99423 153.01283 475.742
369.38715 153.02307 475.12482
369.96429 152.90413 472.68127
370.94125 152.84967 471.14719
372.73914 152.92436 471.42734
374.95801 153.06366 472.60733
375.51306 152.94438 470.15414
-38.621201 151.51019 434.37567
-37.344391 151.50075 434.95285
-35.660889 151.4241 434.61447
-33.982681 151.34747 434.26926
-32.30983 151.27084 433.91721
-30.642365 151.19426 433.55832
-28.980392 151.11771 433.19269
-27.717163 151.10825 433.73727
-26.844696 151.16583 435.1955
-25.191391 151.08936 434.81308
-23.543732 151.01294 434.42392
-22.666855 151.07054 435.87109
-21.025253 150.99422 435.47083
-19.766586 150.98491 435.98758
-18.13382 150.90872 435.57516
-16.878754 150.89952 436.08206
-15.624161 150.89038 436.58456
-14.370071 150.88127 437.08264
-13.116531 150.87222 437.57639
-11.502304 150.79642 437.13568
-10.252548 150.78752 437.61969
-8.6474457 150.7119 437.16724
-7.4015198 150.70316 437.64157
-6.156189 150.69447 438.1116
-4.9114685 150.68587 438.57739
-3.3220978 150.61063 438.10281
-2.0812683 150.60217 438.55905
-0.84111023 150.59381 439.01114
0.73576355 150.51888 438.52002
1.9719849 150.5107 438.96274
3.2075653 150.50259 439.40134
4.7718964 150.42798 438.89395
5.6767578 150.48665 440.26611
7.2345123 150.41223 439.74869
8.464859 150.4045 440.16986
9.694519 150.39684 440.58704
10.60733 150.45578 441.9465
11.838348 150.44829 442.35645
11.824951 150.70683 446.55475
12.448578 150.8324 448.85809
13.387802 150.89154 450.21097
14.937714 150.81784 449.66019
16.782166 150.67784 448.15225
18.913239 150.47157 445.68472
21.32312 150.19908 442.25516
23.126297 150.05957 440.72311
24.918381 149.92021 439.18399
26.412064 149.84735 438.59344
28.753967 149.57556 435.12854
30.510208 149.43665 433.56784
32.255394 149.29785 432.00037
33.989571 149.15921 430.42618
35.712746 149.02071 428.84528
36.610138 149.08116 430.13821
38.050171 149.00916 429.50729
39.484489 148.93724 428.87128
40.649307 148.93169 429.1926
42.074738 148.85999 428.54739
43.235962 148.85458 428.8609
44.652573 148.78308 428.20657
45.810204 148.77786 428.51242
46.71666 148.83891 429.78061
47.627846 148.90001 431.04672
48.052795 149.09346 434.24496
48.250023 149.35309 438.4115
48.467621 149.61269 442.57974
49.418655 149.67392 443.84241
49.904266 149.86743 447.0423
51.334999 149.79655 446.36105
52.989998 149.65967 444.7041
54.406891 149.589 444.01285
55.818184 149.51842 443.31686
57.445984 149.38187 441.64352
58.404495 149.44359 442.88449
59.150894 149.57141 445.0972
60.550255 149.50116 444.38522
61.732338 149.49701 444.6438
63.332321 149.36092 442.94769
65.12812 149.15892 440.26984
66.704086 149.02304 438.56213
68.269371 148.88727 436.84894
69.823959 148.75159 435.13034
71.171684 148.68198 434.38477
72.513931 148.61246 433.63489
73.468658 148.67493 434.83954
74.616699 148.67149 435.0621
75.764435 148.66812 435.28152
76.911896 148.66481 435.49765
77.878395 148.72749 436.69199
79.205978 148.65839 435.92047
80.177109 148.72118 437.10941
81.326073 148.71809 437.31332
82.47477 148.71509 437.51413
83.455452 148.77803 438.69537
84.606247 148.77513 438.89029
85.75679 148.77228 439.08209
86.907112 148.7695 439.27072
88.057213 148.76677 439.45618
89.207069 148.7641 439.63861
90.50901 148.69562 438.83176
91.655884 148.69307 439.00748
92.802544 148.69057 439.18015
93.659874 148.81979 441.32428
94.811287 148.81738 441.49152
95.544273 149.01251 444.61978
96.292526 149.20766 447.74707
97.190308 149.33702 449.88467
98.229889 149.40059 451.03143
99.274452 149.46422 452.17575
100.57707 149.39627 451.33801
101.99835 149.26257 449.50638
103.53056 149.06317 446.67996
104.69073 149.0612 446.82077
105.967 148.9935 445.96744
107.23796 148.92586 445.1105
108.39254 148.92404 445.24149
109.54698 148.92227 445.36945
110.70129 148.92056 445.49435
111.85547 148.91888 445.61621
113.00952 148.91727 445.73508
114.16347 148.9157 445.85083
115.41298 148.8484 444.97034
116.5641 148.84692 445.07986
117.80569 148.77972 444.1926
118.86606 148.84409 445.28983
120.10229 148.77699 444.39609
121.25044 148.7757 444.49332
122.47878 148.70869 443.59293
123.62418 148.70749 443.68396
124.91977 148.57484 441.78198
126.05987 148.57373 441.86667
127.19988 148.57265 441.94843
128.40726 148.50589 441.03165
129.47969 148.57062 442.10297
130.61948 148.56966 442.17581
131.69948 148.63446 443.24176
132.89888 148.56786 442.31259
134.03848 148.56703 442.37659
135.17802 148.56624 442.43759
136.31752 148.56548 442.49567
137.45695 148.56477 442.55084
138.59634 148.56409 442.60303
139.7357 148.56346 442.65225
140.875 148.56287 442.69855
142.01427 148.56232 442.74191
143.18756 148.49609 441.7851
144.29268 148.56131 442.81982
145.43184 148.56088 442.85434
146.59734 148.49478 441.88852
147.75768 148.42873 440.91953
148.89163 148.42841 440.94519
150.04424 148.36243 439.97018
151.17558 148.36218 439.98996
152.30692 148.36197 440.00674
153.43823 148.36182 440.02066
154.56113 148.42737 441.02948
155.69499 148.42729 441.0376
156.82886 148.42723 441.04279
157.96271 148.42722 441.04504
159.09657 148.42725 441.04443
160.22603 148.3616 440.04303
161.35733 148.36171 440.03659
162.4982 148.42755 441.02502
163.6442 148.49341 442.01044
164.79535 148.55933 442.99289
165.9344 148.55957 442.97467
167.07347 148.55986 442.95346
168.1902 148.49451 441.93182
169.30182 148.42917 440.90729
170.40834 148.36388 439.87997
171.50975 148.29861 438.84991
172.67134 148.36481 439.81174
173.8029 148.36533 439.77319
174.93449 148.36588 439.73175
176.06613 148.36649 439.68738
177.15491 148.30142 438.64322
178.28407 148.30209 438.59314
179.36525 148.23709 437.5434
180.54254 148.30356 438.48419
181.67188 148.30435 438.42532
182.85698 148.37091 439.35986
183.93069 148.30606 438.29889
185.12106 148.3727 439.22723
186.2532 148.37366 439.15649
187.51743 148.5061 441.07413
188.58627 148.44142 440.00177
189.79236 148.50824 440.91736
191.00363 148.5751 441.82962
192.0676 148.51053 440.74866
193.20537 148.51175 440.65991
194.42462 148.57874 441.56262
195.64911 148.64578 442.46204
196.70575 148.58139 441.36981
197.84647 148.58278 441.26895
198.98729 148.58421 441.16507
200.22247 148.65144 442.05154
201.26926 148.5872 440.94833
202.41042 148.58878 440.83548
203.5517 148.59039 440.71967
204.69312 148.59204 440.60083
205.72754 148.52797 439.48688
206.86664 148.52972 439.36227
208.00587 148.53151 439.23468
209.14525 148.53336 439.1041
210.16737 148.46945 437.97952
211.30447 148.47137 437.84323
212.56425 148.53915 438.69412
213.57913 148.47539 437.56149
214.84438 148.54327 438.4057
215.85443 148.4796 437.26761
216.99232 148.48178 437.11615
218.26582 148.54984 437.95026
219.54463 148.61794 438.78052
220.68823 148.62029 438.6192
221.97516 148.68851 439.44226
223.12173 148.69098 439.27441
224.26849 148.69348 439.10339
225.41545 148.69604 438.92935
226.56264 148.69865 438.7522
227.55402 148.63545 437.58633
228.85767 148.70406 438.38849
229.84433 148.64096 437.21725
231.31735 148.77556 438.99661
232.30193 148.71257 437.81955
233.61942 148.78143 438.60703
234.5993 148.71854 437.4245
235.74838 148.72162 437.22223
236.72105 148.65883 436.03479
238.04733 148.72794 436.80826
239.01538 148.66525 435.61536
240.34738 148.73451 436.38156
241.49783 148.73788 436.16339
242.64857 148.74133 435.94202
243.79962 148.74484 435.71747
245.34052 148.88036 437.4469
246.49734 148.884 437.21484
247.85446 148.9537 437.95709
249.01454 148.9575 437.71793
250.3801 149.02736 438.45206
251.54346 149.0313 438.20581
252.70715 149.03531 437.95624
253.65831 148.97334 436.72852
255.25113 149.10956 438.42142
256.41855 149.11378 438.16132
257.80701 149.18414 438.87091
259.20105 149.25459 439.57602
260.60065 149.32513 440.27646
261.77744 149.32968 440.00104
262.95459 149.33429 439.72211
263.66486 149.20676 437.49973
264.83771 149.21152 437.21524
266.01093 149.21634 436.92725
266.70169 149.08894 434.69955
268.11472 149.16006 435.37347
269.28671 149.1651 435.07574
270.7085 149.2364 435.74075
272.13593 149.30782 436.40088
273.56909 149.37932 437.05609
275.00793 149.45094 437.70642
276.19278 149.45644 437.38837
277.6405 149.52824 438.02942
278.82898 149.53392 437.70343
280.01801 149.53967 437.37381
281.47772 149.61179 438.00113
283.216 149.75031 439.58304
284.13907 149.69005 438.28119
285.0575 149.62985 436.97714
286.25186 149.63605 436.62845
287.73004 149.70866 437.2327
288.64233 149.6487 435.9198
289.83844 149.65515 435.55988
291.32629 149.72807 436.15054
292.81995 149.80112 436.73584
294.0231 149.80786 436.36285
295.52588 149.88112 436.93805
297.03455 149.9545 437.50769
298.54907 150.02798 438.07178
299.7626 150.03514 437.68088
300.97675 150.04236 437.28598
301.56723 149.91667 434.99182
303.09222 149.99057 435.53763
303.67078 149.86496 433.23987
305.19971 149.93904 433.77682
306.4118 149.94669 433.36389
307.62457 149.95441 432.94687
308.83801 149.9622 432.52588
311.37469 150.23659 435.86636
312.93329 150.31126 436.37393
314.49786 150.38606 436.87555
316.06836 150.46098 437.37103
316.96231 150.40263 435.98529
317.50769 150.27759 433.66055
318.73621 150.28604 433.20694
319.96539 150.29456 432.74908
321.54706 150.3699 433.22064
323.13461 150.44537 433.68597
325.0853 150.58775 435.07666
326.68738 150.66344 435.52832
328.65787 150.80608 436.90323
330.27438 150.88199 437.34103
331.52896 150.89113 436.84491
334.63654 151.23482 440.9765
338.51764 151.7126 446.9437
342.43658 152.1907 452.89127
347.90729 152.93697 462.51172
352.67487 153.54974 470.25925
356.72324 154.02893 476.14011
358.87689 154.17331 477.40131
360.6524 154.25078 477.73441
362.43359 154.32829 478.06027
364.61493 154.47293 479.29541
365.61557 154.41638 477.77515
366.61108 154.35977 476.25235
368.40643 154.43738 476.5528
369.39673 154.38071 475.02246
369.97382 154.25677 472.5791
370.95068 154.19994 471.04507
372.74854 154.27744 471.32486
374.13556 154.28769 470.69043
374.68512 154.16335 468.23993
-39.453888 152.8958 436.09479
-38.58107 152.9559 437.58432
-36.483002 152.80664 436.33899
-34.395538 152.65741 435.08435
-32.720047 152.57797 434.73392
-31.448502 152.56824 435.29105
-28.989334 152.34946 433.0968
-28.119385 152.40945 434.55841
-26.853683 152.39975 435.09982
-25.200363 152.32047 434.71777
-23.552658 152.24121 434.32898
-22.675781 152.30121 435.77612
-21.034119 152.22206 435.37622
-19.775482 152.21252 435.89328
-18.517242 152.20305 436.40585
-17.259476 152.1936 436.914
-16.002167 152.1842 437.41772
-14.745392 152.17485 437.91708
-13.125214 152.09613 437.48322
-11.510925 152.01749 437.04291
-9.9024963 151.93896 436.59616
-8.2999878 151.86053 436.14307
-7.0566559 151.85159 436.61658
-6.1645355 151.91205 438.01974
-4.9197845 151.90321 438.48572
-3.6756134 151.89447 438.94739
-2.0894318 151.8165 438.46796
-0.84919739 151.80792 438.92026
0.72776794 151.73018 438.42947
1.9640808 151.72177 438.87238
3.5317993 151.64426 438.37045
4.4347076 151.70525 439.74582
5.6690674 151.6971 440.17627
6.902771 151.68904 440.60269
8.1358185 151.68108 441.02496
9.3682098 151.6732 441.44321
10.283722 151.73453 442.80353
11.517471 151.72681 443.21448
11.817688 151.92642 446.46518
12.74971 151.9879 447.81949
13.68634 152.04944 449.17148
14.930679 152.04201 449.57068
16.474777 151.96565 449.01462
18.310837 151.82043 447.50073
20.430923 151.60635 445.02667
22.534637 151.39249 442.54382
24.332062 151.24773 441.00684
26.405731 151.03419 438.50748
28.463058 150.82083 435.99963
30.222031 150.67654 434.44022
31.690514 150.60132 433.8317
33.430023 150.45731 432.25952
35.158524 150.31345 430.68066
36.604431 150.23859 430.05511
38.044563 150.16383 429.42453
39.478958 150.08919 428.78885
40.643845 150.08348 429.11029
41.808235 150.07785 429.42819
43.230659 150.00351 428.77905
44.391457 149.99806 429.0892
45.551765 149.99269 429.39587
46.460884 150.05615 430.66467
47.374733 150.11969 431.9314
47.311325 150.45821 437.06375
47.7593 150.65926 440.26404
48.222443 150.86031 443.46469
48.938431 150.99268 445.69687
49.429283 151.19377 448.89761
51.097801 151.05148 447.24774
52.525581 150.97798 446.56268
53.947762 150.90459 445.87289
55.364326 150.83128 445.17844
56.553207 150.82672 445.45187
57.302628 150.95949 447.66833
58.278976 151.02367 448.90991
59.903122 150.88208 447.22614
61.09304 150.87781 447.48654
63.119171 150.59923 443.84164
65.124222 150.3208 440.1889
66.904236 150.1111 437.50507
68.668381 149.9015 434.81467
70.217873 149.76059 433.09549
71.560509 149.68832 432.34906
72.704033 149.68469 432.57712
73.656227 149.74965 433.78116
74.613297 149.81465 434.983
75.761101 149.8112 435.20248
76.908623 149.8078 435.4187
77.875175 149.87297 436.61295
79.202835 149.80119 435.84164
80.349518 149.79799 436.0484
81.323021 149.86331 437.2345
82.642143 149.79175 436.45233
83.620293 149.85719 437.63303
84.768555 149.85423 437.82764
85.916588 149.85132 438.01901
86.90435 149.9169 439.19202
88.054489 149.91411 439.37759
89.049538 149.9798 440.54559
90.354126 149.90866 439.73935
91.503624 149.90604 439.91553
92.652916 149.90346 440.08865
93.512863 150.03777 442.23288
94.524918 150.10368 443.388
95.263092 150.30646 446.51657
96.016525 150.50926 449.64417
96.919495 150.64368 451.7821
98.095963 150.64137 451.94055
99.14315 150.7075 453.08502
100.44841 150.63692 452.24786
101.99628 150.42966 449.42706
103.40717 150.29085 447.59143
104.68877 150.22047 446.7421
105.96509 150.15015 445.88895
107.23611 150.07988 445.0322
108.39073 150.07803 445.16327
109.54523 150.07622 445.2912
110.80556 150.00612 444.42413
111.95721 150.00441 444.54581
113.00792 150.07108 445.65695
114.26016 150.00113 444.77997
115.41145 149.99956 444.89252
116.56264 149.99803 445.00201
117.80426 149.92824 444.11499
118.95267 149.92682 444.21823
120.18637 149.85712 443.32449
121.41484 149.78748 442.42734
122.55782 149.78619 442.52118
123.70068 149.78494 442.61203
124.91862 149.71545 441.70508
126.05875 149.71429 441.78979
127.19881 149.7132 441.87155
128.40623 149.64383 440.95493
129.54358 149.64281 441.03058
130.68085 149.64183 441.1033
131.81804 149.6409 441.17303
132.95518 149.64 441.23984
134.09225 149.63914 441.30368
135.17725 149.70662 442.36087
136.31679 149.70584 442.41898
137.45625 149.70511 442.47415
138.59569 149.70442 442.52634
139.73508 149.70377 442.57559
140.87442 149.70316 442.62189
142.01372 149.70259 442.66528
143.18706 149.63379 441.70862
144.32372 149.6333 441.74606
145.46036 149.63286 441.78049
146.62332 149.56418 440.81476
147.73354 149.63208 441.8407
148.89133 149.56348 440.86896
150.04398 149.49493 439.89417
151.15924 149.56294 440.91141
152.29318 149.56274 440.92831
153.42709 149.56256 440.94223
154.561 149.56242 440.95325
155.68907 149.6306 441.95905
156.82553 149.63055 441.96423
157.96272 149.56227 440.96884
159.09662 149.56229 440.9682
160.2261 149.49409 439.96698
161.35745 149.4942 439.96054
162.50789 149.63086 441.94638
163.64439 149.63104 441.93402
164.79558 149.69952 442.91632
165.95192 149.76805 443.8956
167.07379 149.70009 442.87689
168.16818 149.5639 440.85797
169.30222 149.56427 440.83105
170.40877 149.49643 439.80396
171.51022 149.4286 438.77402
172.63922 149.42911 438.73846
173.80344 149.49791 439.69711
174.89731 149.43021 438.65869
176.02641 149.43082 438.61441
177.15558 149.43147 438.56723
178.28477 149.43216 438.51709
179.366 149.36462 437.46756
180.54333 149.43369 438.40814
181.6727 149.43449 438.3493
182.85785 149.50363 439.28363
183.93159 149.43625 438.22278
185.12201 149.50548 439.15097
186.2542 149.50645 439.08023
187.38646 149.50749 439.00656
188.58736 149.57684 439.92523
189.79347 149.64626 440.84064
190.93109 149.64742 440.75775
192.06882 149.64862 440.67194
193.2066 149.64986 440.5831
194.34451 149.65115 440.49136
195.56647 149.72079 441.39075
196.70712 149.72218 441.29279
197.84789 149.7236 441.19183
198.98875 149.72507 441.08795
200.22398 149.79491 441.97427
201.27081 149.72815 440.87119
202.41202 149.72975 440.7583
203.65532 149.79974 441.63486
204.79935 149.80145 441.51566
205.72928 149.66652 439.4097
206.86842 149.6683 439.2851
208.00769 149.67015 439.15744
209.0323 149.60368 438.03577
210.0519 149.53725 436.91165
211.30643 149.60759 437.76599
212.44373 149.60963 437.62662
213.45607 149.54333 436.49442
214.8465 149.68222 438.32819
215.8566 149.61603 437.19025
216.99455 149.61827 437.03876
218.2681 149.68895 437.87259
219.54697 149.7597 438.7027
220.83118 149.83051 439.52896
221.9776 149.83298 439.36417
223.12422 149.83549 439.19623
224.27103 149.83807 439.02518
225.26718 149.77226 437.86484
226.56529 149.84338 438.6738
227.71274 149.84612 438.49344
229.01903 149.91737 439.29495
230.00833 149.85178 438.12338
231.48401 149.99162 439.90195
232.63756 149.9946 439.70825
233.62241 149.92918 438.52811
234.77386 149.93228 438.32852
235.92558 149.93544 438.1257
236.90088 149.87016 436.93784
237.87131 149.80495 435.74783
239.01865 149.80829 435.53644
240.16629 149.81168 435.3219
241.31422 149.81514 435.10416
242.65204 149.88721 435.86267
243.99535 149.95935 436.617
245.53889 150.10011 438.34549
246.89575 150.17242 439.09076
248.25812 150.24483 439.8317
249.2209 150.18018 438.61456
250.58911 150.25272 439.34784
251.54739 150.18819 438.12518
252.50085 150.12369 436.9003
253.6624 150.12787 436.64789
255.03981 150.20074 437.36627
256.42276 150.2737 438.08011
257.59064 150.27811 437.81656
259.20544 150.41989 439.49429
260.37927 150.42447 439.22275
261.5535 150.42912 438.94781
262.49707 150.36517 437.69888
263.43585 150.30128 436.44785
264.36987 150.23746 435.19461
265.29913 150.17368 433.93927
266.46509 150.17868 433.64972
267.87561 150.25249 434.32397
269.29178 150.32642 434.9935
270.71362 150.40044 435.65814
272.39307 150.54333 437.28329
273.82892 150.61758 437.93756
275.27045 150.69194 438.58679
276.97745 150.83521 440.19437
278.17075 150.84097 439.87048
279.09958 150.778 438.58115
280.29129 150.78392 438.25067
281.75372 150.8588 438.87692
283.22192 150.93378 439.49799
283.86966 150.80222 437.23737
285.06354 150.80849 436.89218
285.97736 150.74594 435.58603
287.16977 150.75238 435.23422
288.07684 150.68996 433.92288
289.84485 150.83447 435.4744
291.6239 150.97914 437.01895
293.1203 151.05496 437.60303
294.32617 151.0619 437.22916
295.83167 151.13794 437.80316
297.04138 151.14508 437.42068
298.55603 151.22136 437.9845
299.46271 151.15962 436.64413
301.29346 151.30521 438.14676
301.8866 151.17455 435.85193
303.09949 151.18213 435.44986
303.99561 151.12068 434.09811
305.20712 151.12842 433.68896
306.41931 151.13626 433.27579
307.63214 151.14418 432.85864
309.17368 151.22139 433.37958
311.38248 151.43716 435.77701
313.27451 151.58388 437.22449
314.8418 151.6615 437.72476
316.07642 151.66998 437.28055
316.9704 151.60924 435.89478
317.17194 151.40994 432.63388
319.09103 151.55724 434.05197
320.32291 151.56598 433.59293
321.55539 151.57481 433.12961
323.85214 151.79187 435.4595
325.80823 151.9397 436.84756
327.41571 152.01825 437.29681
329.02908 152.09691 437.73965
331.37872 152.31459 440.03275
332.64133 152.32401 439.53323
335.75705 152.681 443.66046
339.27313 153.10774 448.69766
343.19757 153.60434 454.64151
347.91681 154.24036 462.41141
352.6846 154.8768 470.15692
356.73312 155.37445 476.03619
359.27335 155.5939 478.21643
360.66235 155.60458 477.62946
362.83539 155.75461 478.87231
364.62488 155.83505 479.18945
365.22833 155.70642 476.75415
366.22107 155.64742 475.23248
367.61121 155.6581 474.62097
369.00134 155.66876 474.00461
369.57565 155.53983 471.56265
370.96036 155.55038 470.939
373.17139 155.70053 472.12628
374.561 155.711 471.49051
375.53168 155.65152 469.94446
-39.050949 154.07477 435.08444
-37.771606 154.06493 435.66318
-36.492142 154.05502 436.23749
-34.404678 153.90039 434.98349
-32.729187 153.81813 434.63339
-31.457703 153.8082 435.19077
-29.79039 153.72598 434.82822
-28.521835 153.71605 435.37546
-27.253494 153.70612 435.91824
-25.597473 153.62398 435.53772
-24.332336 153.61411 436.07043
-23.067551 153.60425 436.59872
-21.423203 153.52225 436.20035
-20.161835 153.51248 436.71863
-18.526321 153.43063 436.30814
-17.268494 153.42096 436.81644
-16.011169 153.41133 437.3204
-14.754349 153.40176 437.81995
-13.134125 153.32021 437.38651
-11.881027 153.31078 437.87625
-10.269882 153.2294 437.43097
-9.0205841 153.22012 437.91098
-7.7718658 153.21091 438.38669
-6.8744202 153.2737 439.7919
-5.2762756 153.19269 439.32529
-4.0294037 153.1837 439.78818
-2.4404755 153.10289 439.31006
-1.197525 153.09409 439.76352
0.71955872 152.94167 438.33548
1.6212006 153.00488 439.71817
2.8595886 152.99634 440.15802
4.4267426 152.91608 439.65234
5.3343811 152.97951 441.02536
6.8949432 152.89948 440.50958
8.1280975 152.8913 440.93201
9.3605652 152.88321 441.35043
10.592392 152.87523 441.7648
11.823578 152.86732 442.17505
12.432159 153.00285 444.47678
13.358978 153.06676 445.82935
13.679016 153.274 449.0784
15.226501 153.19475 448.52753
16.467651 153.18724 448.92206
18.005981 153.10823 448.36066
20.12883 152.8862 445.88818
22.527863 152.5928 442.45334
24.325424 152.44269 440.91687
26.111877 152.29276 439.37341
28.171967 152.07144 436.86703
29.933655 151.92181 435.30899
31.684341 151.77231 433.74405
33.147118 151.69444 433.13065
34.878326 151.54524 431.5531
36.055336 151.53906 431.88837
37.500793 151.46155 431.25955
38.940498 151.38414 430.62567
40.110703 151.37825 430.94867
41.280396 151.37244 431.26813
42.708138 151.29535 430.6207
43.874207 151.28972 430.9324
45.039818 151.28418 431.24057
45.954216 151.35007 432.51068
46.873352 151.41602 433.77863
46.569664 151.83859 439.87827
47.02549 152.04721 443.08005
47.736786 152.18454 445.31418
48.458031 152.32191 447.54733
48.719025 152.60187 451.71823
50.395447 152.45425 450.07071
51.831116 152.37802 449.38782
53.033852 152.37311 449.67139
54.460892 152.29707 448.97961
55.882324 152.22113 448.28323
57.078651 152.21649 448.55518
58.274597 152.21191 448.82361
59.898819 152.06506 447.14035
61.300552 151.9895 446.42612
63.324211 151.70052 442.78146
65.326775 151.41168 439.12903
67.104301 151.19414 436.44525
68.664551 151.04788 434.73196
70.214134 150.9017 433.01318
71.556839 150.82677 432.26706
72.700417 150.82304 432.49524
73.652695 150.89047 433.6991
74.798256 150.88687 433.92139
75.757683 150.95441 435.12039
76.905266 150.95093 435.3367
77.871864 151.01859 436.53085
79.377701 150.87308 434.77838
80.346344 150.94086 435.96664
81.492836 150.93764 436.17026
82.639076 150.93446 436.37073
83.785072 150.93137 436.56805
84.765617 150.99934 437.74594
85.913704 150.99635 437.93738
86.90152 151.06445 439.11026
88.05172 151.06157 439.29593
89.201698 151.05876 439.47839
90.351456 151.056 439.65784
91.650742 150.9823 438.8479
92.65036 151.05066 440.00723
93.365776 151.26102 443.13809
94.380447 151.32945 444.29352
95.121246 151.53986 447.42188
96.014137 151.67934 449.56128
97.051422 151.74789 450.7106
98.225388 151.74551 450.86865
99.399162 151.74323 451.02362
100.69933 151.67001 450.186
102.24212 151.455 447.36517
103.52652 151.38194 446.51938
104.8056 151.30894 445.66992
105.96315 151.30693 445.80737
107.23422 151.23404 444.95087
108.38889 151.23215 445.082
109.43489 151.30119 446.20157
110.69783 151.22849 445.33502
111.95551 151.15582 444.46484
113.1071 151.15411 444.58344
114.35682 151.08156 443.70645
115.5056 151.07994 443.81873
116.74738 151.00751 442.93497
117.98391 150.9351 442.04764
119.12721 150.93364 442.15045
120.27042 150.93224 442.25034
121.41353 150.93088 442.34717
122.55653 150.92955 442.44107
123.77717 150.85741 441.53751
124.91743 150.85619 441.62521
126.05762 150.855 441.70996
127.26772 150.783 440.79669
128.40518 150.78191 440.87531
129.54256 150.78087 440.95102
130.67987 150.77985 441.02368
131.81712 150.7789 441.09348
132.9543 150.77798 441.16031
134.09142 150.7771 441.22415
135.22849 150.77628 441.28506
136.36549 150.77548 441.34311
137.45554 150.84558 442.3945
138.59502 150.84486 442.44669
139.73444 150.84421 442.49594
140.91302 150.77274 441.54559
142.0498 150.77216 441.5889
143.22061 150.70078 440.63232
144.35475 150.70027 440.66968
145.48886 150.69981 440.7041
146.64931 150.62857 439.73843
147.75699 150.69902 440.76413
148.91226 150.62785 439.79248
150.0437 150.62755 439.81512
151.15901 150.69814 440.83224
152.29298 150.69791 440.84912
153.42694 150.69774 440.86307
154.5609 150.6976 440.87415
155.689 150.76834 441.8797
156.8255 150.7683 441.88495
157.96201 150.76828 441.88721
159.09666 150.69746 440.88907
160.23061 150.69754 440.88553
161.36456 150.69763 440.879
162.50806 150.76862 441.86707
163.64459 150.7688 441.85471
164.79582 150.83986 442.83682
165.93495 150.84012 442.81854
167.07411 150.84044 442.79736
168.19092 150.76994 441.77603
169.32755 150.77034 441.74905
170.43671 150.69992 440.72202
171.57085 150.70039 440.68927
172.705 150.7009 440.65353
173.8392 150.70145 440.6149
174.97345 150.70204 440.57333
176.0674 150.63184 439.5322
177.15625 150.56166 438.48834
178.28549 150.56238 438.43817
179.36676 150.49228 437.38885
180.49353 150.49307 437.33301
181.67354 150.56476 438.27029
182.85873 150.63649 439.20447
183.99083 150.63741 439.13956
185.18385 150.70923 440.06735
186.31865 150.71025 439.99643
187.45351 150.7113 439.92258
188.58846 150.7124 439.84573
189.72348 150.71353 439.76599
190.93228 150.7856 440.67804
192.07004 150.78683 440.59219
193.20789 150.7881 440.50336
194.34583 150.78943 440.41153
195.56784 150.86168 441.3107
196.62199 150.79221 440.21902
197.76022 150.79367 440.11832
198.89856 150.79517 440.01459
200.22554 150.93851 441.89395
201.36923 150.94012 441.78378
202.51306 150.94177 441.67059
203.75897 151.01437 442.54666
204.90562 151.01613 442.42725
205.94528 150.94702 441.31302
207.08961 150.94887 441.18781
208.12183 150.87984 440.06836
209.14905 150.81085 438.94653
210.17126 150.74191 437.8223
211.30846 150.74394 437.68585
212.4458 150.74603 437.54642
213.45819 150.67722 436.41434
214.72098 150.75035 437.25842
215.85883 150.75259 437.10992
216.99681 150.7549 436.95831
218.13501 150.75725 436.80371
219.41138 150.83061 437.63394
220.69307 150.90405 438.46039
221.83696 150.90659 438.29584
222.98105 150.90916 438.12823
224.12534 150.91179 437.95749
225.26984 150.91449 437.78369
226.56802 150.98824 438.59241
227.71552 150.99106 438.41202
229.02188 151.06494 439.21326
230.17242 151.06789 439.02618
231.65074 151.21295 440.8038
232.64056 151.14499 439.62616
233.7944 151.14812 439.42914
234.77701 151.08026 438.2464
235.92877 151.0835 438.04355
236.90414 151.01575 436.8559
238.05386 151.0191 436.64716
239.20387 151.02254 436.43524
240.35416 151.02603 436.22012
241.50473 151.0296 436.0018
242.84521 151.10434 436.75958
243.99898 151.10803 436.53433
245.5426 151.25406 438.26236
247.09692 151.40018 439.98514
248.26199 151.40413 439.74805
249.42737 151.40814 439.50766
250.59311 151.41223 439.26401
251.75922 151.41638 439.01706
252.7153 151.34944 437.79172
253.6666 151.28255 436.56418
255.25958 151.42931 438.25613
256.42712 151.43375 437.99582
257.59503 151.43829 437.73215
258.98666 151.51413 438.43726
260.15796 151.51881 438.1662
261.32968 151.52357 437.89175
262.27072 151.45717 436.64362
263.44064 151.46208 436.36292
264.37476 151.39581 435.1098
265.54294 151.40088 434.82294
266.95309 151.47733 435.50037
268.3689 151.55388 436.17307
269.79037 151.63054 436.84094
271.21753 151.70731 437.50394
272.65036 151.78419 438.16214
274.0889 151.86118 438.8154
275.27603 151.8669 438.49994
276.72339 151.94409 439.14395
278.17648 152.02141 439.78293
278.84042 151.88458 437.53201
280.29718 151.96208 438.16306
281.4895 151.96826 437.8288
282.68237 151.97452 437.49091
283.60037 151.90939 436.19064
285.06976 151.9873 436.80405
285.98367 151.92235 435.49792
286.89288 151.85744 434.18961
288.08331 151.86412 433.83469
289.56287 151.94243 434.43082
291.33942 152.09244 435.97562
293.12708 152.24258 437.51337
294.33301 152.24971 437.13934
295.83862 152.32854 437.71301
297.04846 152.33586 437.33044
298.56317 152.41492 437.8938
299.46997 152.3508 436.55356
300.99121 152.43005 437.10736
301.58179 152.2944 434.81366
303.10693 152.37387 435.3587
303.68564 152.23831 433.06146
305.21472 152.31798 433.59766
306.74976 152.39778 434.12808
307.96533 152.40593 433.70987
309.18158 152.41417 433.2876
311.72119 152.70973 436.62524
312.94928 152.7182 436.19107
314.85001 152.87047 437.63101
316.42334 152.95103 438.12482
316.97876 152.81606 435.80087
317.86816 152.75299 434.41287
319.09949 152.76189 433.95786
320.33142 152.77086 433.49863
321.564 152.77991 433.03516
323.86084 153.00497 435.36423
325.1026 153.01422 434.88922
327.0647 153.16759 436.27032
327.95038 153.10498 434.85544
331.02255 153.47475 439.00711
332.65045 153.55646 439.43558
336.50735 154.07086 445.41357
340.02893 154.51349 450.4472
344.71057 155.17285 458.23489
348.30511 155.61613 463.2301
352.69458 156.20407 470.05078
356.35938 156.64796 475.00778
358.51044 156.80324 476.26886
360.28333 156.88637 476.60223
362.45374 157.04181 477.84558
364.63513 157.19736 479.0795
365.63568 157.13606 477.55923
367.03101 157.14703 476.9501
368.82901 157.23035 477.2486
