ply
format ascii 1.0
comment PCL generated
element vertex 1590
property float x
property float y
property float z
element camera 0
property float view_px
property float view_py
property float view_pz
property float x_axisx
property float x_axisy
property float x_axisz
property float y_axisx
property float y_axisy
property float y_axisz
property float z_axisx
property float z_axisy
property float z_axisz
property float focal
property float scalex
property float scaley
property float centerx
property float centery
property int viewportx
property int viewporty
property float k1
property float k2
end_header
204.12785 25.535019 436.68091
205.38885 25.322556 437.52951
206.76242 24.900932 439.34641
208.14645 24.479172 441.15903
209.54097 24.057281 442.96729
210.71597 24.053413 442.82886
212.00874 23.840363 443.65808
213.18671 23.836281 443.51297
214.36487 23.832092 443.36462
215.41791 24.036919 442.24319
216.59389 24.032532 442.08878
217.6396 24.237175 440.96188
218.81342 24.232605 440.80127
219.71622 24.646217 438.70059
220.6089 25.059761 436.59811
221.91383 24.845741 437.39694
223.22417 24.631592 438.19183
224.24802 24.835686 437.04886
225.86105 24.202888 439.7695
227.18761 23.98835 440.55222
228.36591 23.982887 440.36514
229.70071 23.768082 441.14005
230.72327 23.971634 439.98105
231.90234 23.965843 439.784
233.24574 23.750656 440.54767
234.26135 23.953911 439.37997
235.6105 23.738464 440.13605
236.44971 24.150818 437.99997
237.80206 23.935112 438.74893
239.15988 23.719269 439.49353
240.52319 23.503281 440.2338
241.52769 23.705887 439.04828
243.26636 23.070831 441.70123
244.2715 23.273209 440.50882
245.65169 23.056633 441.23245
247.03741 22.839912 441.95157
248.03842 23.041939 440.74988
249.43004 22.824928 441.46103
251.02756 22.39827 443.12469
252.02705 22.59993 441.91306
253.02176 22.801498 440.69907
254.21976 22.793434 440.43805
254.99672 23.204353 438.26385
256.19031 23.19606 437.99695
256.95245 23.60685 435.81915
258.14163 23.598351 435.54633
259.9946 22.960831 438.12735
260.96869 23.161674 436.89374
262.39069 22.943092 437.56024
264.04721 22.514648 439.17249
265.94617 21.876305 441.72852
267.39291 21.657158 442.37842
269.5556 20.808594 445.86932
270.54279 21.008591 444.61127
272.00916 20.788918 445.24542
272.99207 20.988693 443.98123
273.72302 21.398239 441.76862
274.444 21.807732 439.55502
275.65985 21.797447 439.22958
276.11108 22.416725 436.06882
277.57773 22.196327 436.68121
278.52954 22.395676 435.40344
279.47659 22.594963 434.12335
280.94995 22.374191 434.7229
282.96533 21.733231 437.1976
284.18466 21.722137 436.84552
285.67786 21.500893 437.42825
287.72885 20.859306 439.88147
289.23883 20.637695 440.45181
291.03583 20.205826 441.95291
292.27606 20.194069 441.57584
293.80334 19.972046 442.12949
294.75812 20.170319 440.80966
295.41632 20.578781 438.55441
296.35895 20.777023 437.23068
297.59381 20.764954 436.83609
298.52954 20.963158 435.50684
300.36743 20.530319 436.96445
301.60638 20.518074 436.55682
302.5383 20.716179 435.21716
304.08582 20.493454 435.7294
305.952 20.060219 437.16196
307.82913 19.626862 438.58676
309.71732 19.193375 440.00388
311.61646 18.759811 441.41306
313.85004 18.115585 443.73697
315.12164 18.102982 443.28616
316.39368 18.090393 442.83118
318.3288 17.656609 444.2113
319.60681 17.644081 443.74588
319.87521 18.263672 440.52292
320.46735 18.672798 438.21835
321.04913 19.082123 435.91348
321.276 19.702446 432.69354
322.87616 19.479927 433.13052
324.13196 19.4683 432.64859
326.09296 19.035194 433.9859
329.13025 17.96965 438.04688
331.47845 17.325806 440.27402
332.76111 17.314781 439.76471
339.12781 14.351097 451.95679
343.37384 12.652779 458.67572
347.66214 10.95443 465.37308
353.47705 8.4121552 475.66586
357.4866 6.9248276 481.4118
358.89813 6.9148178 480.82297
360.30927 6.9052811 480.22949
360.57486 7.5294037 476.93188
360.82404 8.1541672 473.63647
362.99164 7.7241287 474.83145
363.61053 8.1390686 472.43155
365.78717 7.7102203 473.61313
368.76324 6.8597641 476.57394
372.15698 5.7988129 480.41406
374.77557 5.1608505 482.45453
377.40869 4.5236664 484.48358
379.65079 4.0985031 485.61182
381.4938 3.8854218 485.84283
383.34045 3.673317 486.06735
385.19049 3.4622726 486.28531
387.45975 3.0411758 487.38135
388.90033 3.0435638 486.702
-43.607712 17.216339 434.62845
-41.50354 17.633957 433.44693
-40.221878 17.635429 434.03571
-38.938858 17.637733 434.62076
-38.056061 17.432327 436.09378
-35.57135 18.061661 433.99335
-35.082581 17.649231 436.35275
-33.40152 17.862915 436.02692
-32.115814 17.868759 436.59116
-31.217682 17.666733 438.04904
-30.313599 17.465279 439.50519
-28.637573 17.681229 439.15958
-28.107468 17.272415 441.51071
-26.055374 17.69767 440.25348
-24.388596 17.914902 439.89087
-22.726791 18.132507 439.52182
-20.330475 18.767075 437.33548
-18.684158 18.985237 436.95148
-16.678497 19.411964 435.65344
-14.68335 19.83889 434.34689
-13.417206 19.849487 434.85144
-12.507614 19.6521 436.26248
-11.592789 19.454987 437.67136
-10.672791 19.258095 439.07809
-9.3990173 19.269585 439.56873
-8.1254272 19.281235 440.05508
-6.5087433 19.501122 439.62131
-4.897583 19.721077 439.18127
-2.9539642 20.149147 437.81717
-2.027359 19.953125 439.20142
-0.76303101 19.965225 439.66357
0.83103943 20.185379 439.20068
2.4194489 20.405525 438.73172
3.6773834 20.417725 439.17935
5.9013824 21.053635 436.85208
7.470108 21.273674 436.36404
8.7162781 21.285828 436.79541
9.9619598 21.297951 437.22275
11.20723 21.310081 437.6459
11.834106 20.906639 439.92117
13.083725 20.918755 440.33789
14.63652 21.138542 439.82071
15.280457 20.735184 442.08972
16.829651 20.954849 441.56351
18.668869 21.382057 440.09906
19.61763 21.186249 441.42694
20.861649 21.198006 441.81839
22.680954 21.624832 440.33606
23.918686 21.636368 440.71793
25.721222 22.062881 439.22272
27.232712 22.2817 438.65771
28.461075 22.292915 439.02527
29.963669 22.511482 438.45007
31.732674 22.937317 436.92981
32.951645 22.948158 437.28342
34.437019 23.166275 436.69202
35.3881 22.969528 437.97903
36.343903 22.772713 439.26376
37.04541 22.368515 441.48953
38.526192 22.586159 440.88211
39.493607 22.389114 442.15903
40.716972 22.399216 442.48816
42.188477 22.616455 441.86722
43.654259 22.833527 441.24115
45.114349 23.050415 440.61005
46.568748 23.267143 439.97388
48.017479 23.483711 439.33264
48.989456 23.285881 440.58548
50.199135 23.295052 440.8858
51.638702 23.511192 440.23163
52.161743 22.898911 443.37836
52.699966 22.286613 446.52524
53.69841 22.088356 447.76675
54.701637 21.890007 449.00586
55.057716 21.070595 453.10425
56.937164 21.700005 450.52222
58.58847 22.122208 448.88815
60.438499 22.75116 446.29248
62.272552 23.37989 443.68976
64.090622 24.008369 441.08017
65.287582 24.015976 441.33572
66.683304 24.230339 440.62988
67.876938 24.237686 440.8779
68.876282 24.038078 442.08142
70.0718 24.045189 442.32309
71.266983 24.052185 442.56122
72.461823 24.059059 442.79593
73.839897 24.272591 442.06622
74.850502 24.072433 443.25513
76.222755 24.285698 442.51755
77.413704 24.292076 442.73813
78.604355 24.29834 442.95526
79.624092 24.097778 444.13245
80.816719 24.103813 444.34332
82.174515 24.316414 443.58649
83.526863 24.528893 442.82535
84.71347 24.534554 443.02527
86.057503 24.74675 442.25623
87.706322 25.372086 439.55087
88.729271 25.170738 440.70563
90.05703 25.382538 439.9241
91.23201 25.387604 440.1058
92.406754 25.392563 440.28424
93.439064 25.190842 441.42743
94.755539 25.402153 440.63132
95.792557 25.200249 441.76874
96.968964 25.204796 441.93451
98.01329 25.002708 443.06653
99.062546 24.800514 444.19608
100.11678 24.598267 445.32297
101.42423 24.808929 444.50629
102.60477 24.812988 444.65656
104.02309 25.229927 442.86121
105.31451 25.440247 442.0329
106.48677 25.44397 442.17261
107.77011 25.654083 441.33694
108.83076 25.451157 442.44235
109.89641 25.248138 443.5452
111.27763 25.664375 441.7265
112.34554 25.461189 442.82321
113.41844 25.257927 443.9173
114.59215 25.261002 444.035
115.76571 25.263977 444.14957
116.84848 25.060463 445.2352
118.02435 25.063278 445.34363
119.20009 25.066002 445.44888
120.54158 25.481407 443.60114
121.7923 25.690315 442.72455
122.95996 25.692757 442.81976
124.20274 25.901489 441.93622
125.36761 25.90374 442.02499
126.4623 25.699547 443.08658
127.62953 25.70163 443.16934
128.79668 25.703644 443.24893
130.02611 25.911926 442.34891
131.19051 25.913757 442.42215
132.35481 25.915512 442.49225
133.62837 26.329865 440.60538
134.78738 26.331444 440.66904
135.89682 26.126602 441.70685
137.05826 26.128029 441.7645
138.21965 26.129379 441.819
139.33917 25.924309 442.84805
140.54224 26.131805 441.91888
141.66679 25.92659 442.94199
142.86462 26.133942 442.00641
144.08882 26.547516 440.0896
145.27373 26.754692 439.14752
146.42708 26.75547 439.1803
147.62804 27.1688 437.25366
148.75491 26.963104 438.25854
149.86819 26.551033 440.23877
151.02399 26.551506 440.25943
152.17975 26.551895 440.27707
153.31354 26.139603 442.24847
154.48283 26.346161 441.28156
155.64113 26.346313 441.29007
156.8027 26.552711 440.31699
157.95914 26.759026 439.34085
159.11044 26.965263 438.36169
160.25661 27.171425 437.37949
161.40463 27.171204 437.37277
162.56224 26.964607 438.3414
163.71286 26.964241 438.32855
164.86349 26.963768 438.31274
166.03143 26.756935 439.27216
167.24419 26.137398 442.18503
168.42758 25.930405 443.13803
169.59117 25.929619 443.10974
170.75481 25.92878 443.07831
171.91847 25.927864 443.04379
173.01685 26.339493 441.05038
174.21071 26.132095 441.98776
175.37195 26.130943 441.94412
176.49287 26.336029 440.91977
177.69461 26.128387 441.84763
178.85603 26.126984 441.7948
179.92133 26.538177 439.78424
181.07774 26.536621 439.72549
182.28746 26.328636 440.64072
183.39079 26.533272 439.59875
184.54744 26.531479 439.53076
185.88699 25.910515 442.3895
186.98801 26.114914 441.33841
188.21614 25.906487 442.23709
189.31221 26.110718 441.18018
190.40323 26.314873 440.12054
191.56302 26.312569 440.03387
192.7229 26.310173 439.94412
193.8829 26.307693 439.85126
195.04301 26.305138 439.75522
196.20325 26.30249 439.65613
197.36363 26.299736 439.55399
198.61336 26.090492 440.42303
199.77655 26.087578 440.3143
200.9399 26.084564 440.20251
202.10338 26.081459 440.08755
203.06795 26.491158 438.02264
204.22658 26.487885 437.90192
205.49004 26.278053 438.75095
206.75882 26.06813 439.59619
208.14273 25.651611 441.41003
209.42473 25.441444 442.24756
210.59708 25.437668 442.10959
211.88715 25.227287 442.93976
213.06242 25.223289 442.7951
214.2379 25.2192 442.64725
215.28828 25.421532 441.52576
216.46158 25.417252 441.37177
217.50462 25.619408 440.24487
218.67574 25.614944 440.08472
219.57587 26.023483 437.98346
220.74228 26.018822 437.81763
221.90891 26.014053 437.64859
223.21912 25.802589 438.44415
224.38879 25.797585 438.26831
225.85574 25.379265 440.02328
227.0311 25.374031 439.84009
228.36035 25.162056 440.61981
229.69507 24.949944 441.39548
231.19406 24.531029 443.13239
232.38077 24.525307 442.93427
233.73181 24.312782 443.69736
234.75508 24.513512 442.52802
235.94266 24.507446 442.31982
236.44339 25.328186 438.25549
237.79559 25.115196 439.00519
239.15327 24.902061 439.75058
240.15733 25.102333 438.56802
241.52084 24.888931 439.30573
243.25931 24.261795 441.96054
244.45171 24.25486 441.72818
246.02425 23.83419 443.41177
247.2225 23.826996 443.17145
248.03088 24.233421 441.01016
249.42238 24.019112 441.7222
250.61911 24.011574 441.47192
251.81621 24.003922 441.21814
253.0137 23.996117 440.96094
254.21156 23.988197 440.70016
255.40982 23.980148 440.43591
256.60846 23.971985 440.16806
257.37573 24.377693 437.98822
258.57001 24.369301 437.71451
259.98578 24.153748 438.39026
260.73605 24.559196 436.20395
261.92896 24.550453 435.92014
263.58011 24.127403 437.53503
265.24213 23.70414 439.1438
266.91504 23.28067 440.74643
268.59882 22.856995 442.34277
270.29352 22.433113 443.93283
271.75714 22.216217 444.56857
272.7373 22.413582 443.30478
273.71274 22.610878 442.03854
274.43365 23.015335 439.82413
275.39697 23.212486 438.55389
276.35553 23.409561 437.28125
277.82465 23.19191 437.89383
278.51874 23.596146 435.67209
279.99146 23.378242 436.27637
281.46991 23.160187 436.87534
283.22223 22.734558 438.40982
284.71478 22.516174 438.99738
286.21313 22.297623 439.57956
287.99316 21.871452 441.09476
289.50568 21.652573 441.66531
290.74268 21.641106 441.2933
291.98019 21.629532 440.91739
293.50473 21.410286 441.47284
294.16766 21.813751 439.21909
295.40411 21.801941 438.83206
296.34665 21.997742 437.50812
297.28442 22.193512 436.18182
298.21747 22.389267 434.85327
299.75031 22.169548 435.38297
300.98401 22.157486 434.97751
302.21814 22.145386 434.56793
304.07318 21.717628 436.00967
305.93924 21.289719 437.44382
307.81635 20.861694 438.87024
309.06818 20.849342 438.4389
310.96198 20.42115 439.85153
313.19019 19.784912 442.17944
314.45654 19.772453 441.73096
315.72333 19.760025 441.27823
317.32178 19.539604 441.74158
318.59192 19.527252 441.27942
319.52579 19.72303 439.89462
320.11536 20.127045 437.59015
320.6947 20.531258 435.28543
321.60822 20.727531 433.89581
322.86395 20.71579 433.41846
323.76999 20.912407 432.02344
326.08099 20.27636 434.27563
328.76318 19.432098 437.42871
330.75104 19.004372 438.74878
332.74954 18.576797 440.0603
338.38989 16.066238 450.44489
342.99652 14.18042 458.07834
347.65076 12.294548 465.68793
353.46576 9.783493 475.98834
358.22296 7.8975296 483.54651
359.26385 8.0957794 482.05301
359.92004 8.5029526 479.65549
360.9469 8.7022324 478.15833
361.19928 9.3189926 474.86011
361.82214 9.7279053 472.46246
364.38184 9.0949402 474.55038
365.77985 9.0880814 473.93915
368.36163 8.4562912 476.00781
371.75339 7.4080887 479.85223
374.37006 6.7776337 481.89572
376.59857 6.3564606 483.03668
378.8363 5.9361191 484.16855
380.26691 5.9338074 483.5137
382.92798 5.3067474 485.51755
385.18979 4.8892441 486.62366
387.87607 4.2642822 488.60587
388.90182 4.4746857 487.04111
-42.78241 18.901939 433.15131
-41.091995 19.108833 432.85504
-39.812149 19.110664 433.44266
-38.126846 19.319199 433.13531
-37.248581 19.116684 434.60657
-35.566177 19.326698 434.28906
-34.680527 19.125603 435.75488
-33.788651 18.925186 437.21899
-32.890686 18.72538 438.68143
-31.598404 18.732025 439.24384
-30.305496 18.739204 439.80212
-28.629013 18.95269 439.45575
-26.957321 19.166611 439.10297
-25.668213 19.175156 439.64645
-23.628662 19.595627 438.37805
-21.599411 20.016396 437.10098
-20.320099 20.025978 437.62747
-18.673492 20.2416 437.24255
-16.667618 20.663139 435.94305
-15.034103 20.879211 435.54431
-13.76506 20.889847 436.04953
-12.139557 21.106316 435.63919
-10.873306 21.117348 436.13492
-9.958374 20.923004 437.53983
-8.3411865 21.139946 437.11362
-7.4213409 20.945961 438.51208
-5.809845 21.163139 438.07532
-4.5445709 21.174896 438.54987
-2.9415588 21.392204 438.10168
-1.6795044 21.404137 438.56668
-0.41778564 21.416122 439.02753
1.5037079 21.838921 437.64139
3.0868378 22.056305 437.16956
4.3394928 22.068344 437.61493
6.2360229 22.491005 436.20776
7.8020782 22.70829 435.71786
8.4118805 22.309807 437.99997
9.974411 22.527054 437.50089
11.21965 22.539047 437.92368
11.846558 22.140678 440.19974
13.40242 22.357811 439.68649
14.648865 22.36972 440.09787
15.292755 21.971397 442.36777
16.841858 22.188316 441.84058
18.385193 22.405121 441.30762
19.922775 22.621826 440.76889
21.454575 22.838394 440.22452
22.980621 23.054848 439.67444
24.5009 23.271164 439.1188
26.015396 23.487335 438.55762
27.524155 23.703384 437.99084
28.749786 23.714424 438.35724
30.524368 24.135025 436.84097
31.743744 24.145821 437.19803
32.693108 23.951706 438.49225
34.180962 24.167084 437.90067
35.134544 23.972786 439.18875
36.354515 23.983162 439.53128
37.055954 23.584 441.75781
38.536606 23.798904 441.14944
39.503922 23.604279 442.42667
40.72718 23.614243 442.75537
42.198502 23.828705 442.13364
43.910095 24.24762 440.55927
45.124084 24.257149 440.87469
46.578339 24.47113 440.23761
48.026932 24.684952 439.59549
48.763283 24.285034 441.79871
49.742516 24.089554 443.05017
51.417458 24.507469 441.44501
51.943016 23.902832 444.59378
52.933975 23.707092 445.8374
53.707214 23.306831 448.03183
54.490417 22.906487 450.22513
55.066338 22.301712 453.37161
56.301506 22.310051 453.65283
57.536293 22.318275 453.93033
59.818108 23.348068 449.42319
61.65976 23.968918 446.82031
63.485443 24.589546 444.21042
65.295181 25.209961 441.59366
66.690765 25.421593 440.88699
68.27729 25.837326 439.21683
69.271332 25.640137 440.41962
70.078903 25.238632 442.58002
71.462692 25.449715 441.85739
72.84095 25.660629 441.13037
73.846588 25.463036 442.32202
75.038071 25.469536 442.54913
76.229225 25.475914 442.77286
77.420059 25.482162 442.99323
78.61058 25.488312 443.21017
79.630219 25.290215 444.38766
80.990753 25.500244 443.63394
82.180389 25.506027 443.84082
83.369743 25.511703 444.04431
84.558838 25.517288 444.24438
86.063004 25.930855 442.50888
87.401482 26.140236 441.73486
88.734528 26.349472 440.95679
90.062164 26.558586 440.17456
91.089691 26.359543 441.32388
92.266914 26.36441 441.50253
93.443886 26.369164 441.67795
94.620636 26.373833 441.85004
95.797165 26.37838 442.01892
96.973465 26.382843 442.18451
98.017685 26.183235 443.31699
99.196152 26.187492 443.4765
100.2477 25.987717 444.60349
101.42833 25.991783 444.75687
102.73033 26.199684 443.93555
104.02698 26.407455 443.11041
105.3183 26.615112 442.28143
106.49045 26.618744 442.42105
107.66245 26.62233 442.55731
108.83426 26.625786 442.69052
110.00591 26.629158 442.82053
111.28093 26.836296 441.97385
112.34874 26.635612 443.07101
113.42155 26.43486 444.16559
114.59517 26.437874 444.28317
115.76865 26.440788 444.39761
116.85133 26.239792 445.48367
118.02711 26.242538 445.59201
119.37377 26.652824 443.7467
120.62709 26.859207 442.8728
121.87514 27.065483 441.99533
123.11794 27.27166 441.11435
124.20503 27.070152 442.18204
125.36983 27.072365 442.27069
126.53451 27.074493 442.35626
127.63158 26.872749 443.41541
128.86359 27.078499 442.51807
130.15271 27.487907 440.64032
131.19229 27.082161 442.66751
132.35652 27.08387 442.73761
133.57533 27.289261 441.82709
134.68475 27.087059 442.86841
135.89827 27.292282 441.95145
137.05965 27.293686 442.00897
138.22095 27.294991 442.06351
139.424 27.499977 441.13678
140.58263 27.501129 441.18503
141.70453 27.298462 442.20853
142.93381 27.706947 440.29385
144.12126 27.911591 439.35434
145.30351 28.116165 438.41156
146.45421 28.116936 438.44424
147.60486 28.117615 438.47391
148.73422 27.91449 439.47937
149.8687 27.711288 440.48187
151.00829 27.508026 441.48141
152.16655 27.508415 441.49905
153.31381 27.304993 442.49258
154.47461 27.305229 442.50415
155.64125 27.509125 441.5336
156.80275 27.712936 440.56
157.95911 27.916672 439.58331
159.10847 28.324043 437.62463
160.25642 28.323906 437.62094
161.40437 28.323692 437.61417
162.55234 28.32341 437.60437
163.71245 28.119316 438.57056
164.86301 28.118874 438.55472
166.0136 28.118355 438.53583
167.22371 27.506554 441.45041
168.38205 27.505882 441.42529
169.5654 27.301407 442.37582
170.75392 27.09684 443.32312
171.91751 27.095932 443.28867
172.98312 27.706192 440.31564
174.20959 27.297646 442.23212
175.29514 27.703995 440.23196
176.49159 27.499046 441.16367
177.6503 27.497765 441.11404
178.76355 27.70015 440.0834
179.87173 27.902466 439.04993
181.02548 27.900955 438.9913
182.17932 27.899353 438.92969
183.44484 27.490143 440.81985
184.60397 27.48838 440.75177
185.88506 27.078987 442.63486
187.0495 27.077042 442.56033
188.14796 27.278809 441.50589
189.17273 27.684296 439.47208
190.40097 27.47834 440.36517
191.48688 27.679893 439.30234
192.6441 27.677544 439.21289
193.95932 27.267517 441.0719
195.04041 27.468819 440.00018
196.20056 27.466225 439.90115
197.36084 27.463531 439.7991
198.61047 27.256943 440.66873
199.68178 27.457916 439.58548
200.93683 27.251122 440.44846
202.00327 27.451942 439.35941
203.06471 27.652679 438.26773
204.12115 27.85334 437.17346
205.38194 27.646187 438.02338
206.64804 27.438919 438.8696
207.91946 27.231529 439.71213
209.30859 26.820145 441.52341
210.47826 26.816452 441.38586
211.76566 26.608734 442.21707
212.93826 26.604843 442.07285
214.11105 26.600845 441.92542
215.03348 27.004631 439.83292
216.32938 26.796501 440.65036
217.36974 26.996178 439.52338
218.53819 26.991798 439.3638
219.70685 26.987328 439.20096
220.87573 26.982742 439.03497
221.90408 27.18206 437.89691
223.35751 26.769279 439.66156
224.23781 27.172417 437.54938
225.70206 26.759377 439.30603
227.02579 26.550201 440.09067
228.20126 26.544968 439.90433
229.53325 26.335571 440.68109
231.02953 25.921944 442.41977
232.05212 26.120438 441.25668
233.56186 25.706528 442.98654
234.58244 25.904816 441.81723
235.59814 26.103004 440.64551
236.43716 26.505257 438.50757
237.78923 26.294975 439.25803
238.61594 26.697067 437.11572
240.33029 26.078178 439.78363
241.69624 25.867477 440.52158
243.25243 25.452423 442.21646
244.44469 25.445633 441.98428
246.01709 25.030243 443.66931
247.02271 25.227455 442.46936
248.0235 25.424568 441.26703
249.21715 25.417297 441.02106
250.61145 25.205605 441.7298
252.01129 24.993752 442.43396
253.00577 25.190422 441.21933
254.20352 25.182648 440.9588
255.40164 25.174751 440.69476
256.60016 25.166725 440.42722
257.58319 25.362984 439.20129
258.77997 25.354713 438.92728
259.97708 25.346336 438.64963
261.39835 25.133369 439.32141
262.37265 25.329201 438.08368
263.57104 25.320442 437.79529
265.23291 24.902519 439.40552
266.90564 24.484413 441.00949
268.35254 24.27063 441.6575
270.04443 23.852127 443.2496
271.26337 23.842598 442.93845
272.23819 24.037582 441.67572
273.20831 24.232475 440.41061
274.17365 24.427284 439.14319
275.38666 24.417343 438.81912
276.34515 24.611977 437.5463
277.55649 24.601814 437.21542
278.76834 24.591545 436.88077
279.71783 24.785927 435.59949
280.6626 24.980232 434.31589
282.94305 24.150406 437.73685
284.16217 24.139641 437.38544
285.92844 23.719032 438.90997
287.98169 23.093353 441.36658
289.49402 22.877258 441.93793
290.44971 23.070877 440.62888
291.68451 23.059494 440.25409
292.91983 23.048012 439.8754
293.86658 23.241463 438.55759
294.51685 23.639908 436.30319
295.74579 23.628273 435.91495
296.97528 23.616562 435.52274
297.90564 23.809891 434.19479
299.13348 23.79808 433.79544
300.97162 23.375908 435.25208
302.20572 23.36393 434.84296
304.06067 22.941505 436.28629
305.92664 22.518951 437.72192
307.48816 22.301529 438.22342
309.05542 22.084045 438.71893
311.26993 21.455872 441.0578
312.85394 21.238228 441.53946
314.11768 21.225891 441.09235
315.71048 21.008217 441.56274
316.97766 20.995918 441.1062
317.91125 21.189117 439.72543
318.50327 21.587898 437.4234
319.42432 21.781364 436.03903
320.68228 21.76944 435.56946
321.2514 22.168709 433.26361
322.15735 22.36264 431.87253
323.75797 22.145546 432.30728
326.06903 21.517357 434.56158
328.39618 20.889168 436.80554
330.73932 20.261047 439.039
332.73798 19.838676 440.35208
337.6521 17.770805 448.9267
342.61926 15.702751 457.47568
346.16571 14.457558 462.37231
351.97021 11.977806 472.68463
356.34326 10.321106 479.34845
357.74768 10.310951 478.76343
359.53076 10.09539 479.07605
360.55539 10.291954 477.57959
360.42139 11.106613 473.38098
362.20038 10.892532 473.68109
363.59448 10.88488 473.07675
365.38004 10.671906 473.3645
368.35468 9.8417969 476.3316
371.34955 9.0122757 479.285
373.96429 8.389328 481.3316
376.99652 7.5611572 484.25861
378.02142 7.7635269 482.7186
380.67181 7.1429443 484.73444
382.92581 6.7292404 485.85062
383.94864 6.9343872 484.29681
386.62817 6.3167191 486.28448
389.32135 5.7001724 488.26068
-41.132721 20.983978 429.89166
-39.861343 20.985313 430.4794
-38.995361 20.784149 431.95407
-37.314545 20.990395 431.64368
-37.24382 20.384155 434.8992
-35.56076 20.591835 434.58102
-34.674438 20.393578 436.04733
-33.781982 20.195969 437.51199
-32.492523 20.202225 438.07718
-31.202362 20.209023 438.63831
-30.682892 19.809883 440.9953
-28.6203 20.224129 439.74811
-26.948212 20.435562 439.39447
-25.658737 20.444206 439.93777
-22.868759 21.265846 436.85901
-21.589294 21.275169 437.3894
-19.570175 21.691032 436.10236
-17.928589 21.904045 435.71436
-15.927811 22.320343 434.41129
-14.661179 22.330727 434.91934
-12.67627 22.747398 433.60138
-12.484558 22.149155 436.83484
-11.215454 22.160187 437.33127
-9.9465332 22.171387 437.82346
-8.6777802 22.182747 438.31137
-7.755127 21.991325 439.71106
-5.7976532 22.408752 438.35733
-4.5322876 22.420441 438.83148
-2.929245 22.635063 438.38235
-1.667099 22.646912 438.84698
-0.072677612 22.861588 438.38647
1.8461609 23.279045 436.99786
3.0992279 23.290947 437.44705
4.3519135 23.302879 437.89203
6.5704956 23.922905 435.55856
7.4949646 23.732117 436.91809
8.4242554 23.541367 438.27536
9.9867401 23.75589 437.7753
11.231918 23.767738 438.19775
11.858841 23.374443 440.47458
13.720901 23.791359 439.03024
14.661011 23.600594 440.3714
15.605896 23.409813 441.71021
16.853912 23.421494 442.11392
18.397156 23.635551 441.57999
19.934631 23.849503 441.04031
21.466324 24.063316 440.495
22.992264 24.277008 439.944
24.797638 24.692909 438.45056
26.026794 24.703972 438.82532
27.255447 24.714958 439.19611
29.038284 25.130402 437.68448
29.985947 24.938896 438.9859
31.482536 25.151794 438.40344
32.703911 25.162338 438.75708
33.924774 25.172768 439.10693
34.880898 24.980942 440.39594
36.103371 24.991173 440.73886
36.807343 24.597061 442.96692
38.546844 25.011314 441.41321
39.514076 24.819138 442.69061
40.73719 24.828926 443.01907
42.456924 25.242676 441.4491
43.9198 25.454201 440.82062
45.620308 25.867554 439.2384
46.828484 25.876778 439.54846
47.798103 25.683922 440.80484
48.536964 25.28904 443.00958
50.2174 25.701782 441.40793
51.196083 25.508621 442.65598
52.179543 25.315384 443.90164
53.392868 25.323921 444.19168
53.938324 24.726799 447.33957
54.498978 24.129669 450.48746
55.074814 23.532516 453.63535
56.095177 23.338913 454.87192
57.33242 23.347 455.14975
58.98819 23.758453 453.51047
60.219421 23.766243 453.77994
62.267395 24.580795 450.21417
63.487473 24.588272 450.47421
65.105354 24.999016 448.81265
66.908981 25.611237 446.18591
67.921074 25.416611 447.39273
69.129303 25.423523 447.63657
70.903351 26.035225 444.9935
72.475395 26.445107 443.30551
73.85318 26.653206 442.57428
75.225471 26.861145 441.83865
76.592278 27.06897 441.09854
77.602051 26.873512 442.28131
78.789864 26.879517 442.49762
79.636208 26.482338 444.63953
80.99662 26.689667 443.88504
82.18615 26.695351 444.09167
83.375397 26.70092 444.29498
84.564362 26.706375 444.49493
86.06839 27.114662 442.75815
87.251663 27.119881 442.95059
88.739677 27.527901 441.20462
89.917274 27.532883 441.38962
91.09462 27.537758 441.57138
92.271729 27.542526 441.74988
93.448601 27.547195 441.92511
94.625259 27.551765 442.09705
95.801666 27.556229 442.26575
96.977875 27.560585 442.43124
98.153862 27.56485 442.59348
99.329643 27.569008 442.7525
100.37852 27.371719 443.87958
101.6806 27.577049 443.06079
102.85578 27.58091 443.21017
104.14976 27.786018 442.384
105.43839 27.991005 441.55405
106.60787 27.99456 441.69321
107.77719 27.998039 441.82913
109.16367 28.404022 440.01492
110.22141 28.206009 441.11771
111.49118 28.410484 440.26981
112.55376 28.212296 441.36694
113.62134 28.014046 442.46133
114.69392 27.81572 443.55316
115.77151 27.617302 444.64236
116.85413 27.418839 445.72882
118.11788 27.622772 444.86151
119.37637 27.826599 443.9906
120.62959 28.030334 443.11609
121.95792 28.435211 441.26175
123.12027 28.437538 441.35632
124.2825 28.439758 441.44791
125.44463 28.441925 441.53625
126.60666 28.443993 441.62158
127.70108 28.244789 442.681
128.86549 28.246696 442.76031
130.09216 28.44973 441.85895
131.19405 28.250282 442.90961
132.35818 28.251961 442.97961
133.52226 28.253563 443.04651
134.73834 28.456261 442.13217
135.94922 28.658875 441.21448
137.06099 28.459061 442.25027
138.26659 28.661507 441.3262
139.467 28.863876 440.3988
140.62297 28.865013 440.44687
141.7789 28.866051 440.49194
142.96887 29.068192 439.55493
144.15366 29.270248 438.61472
145.36224 29.673386 436.69217
146.48132 29.472969 437.70389
147.62933 29.473633 437.73349
148.77731 29.47422 437.76007
149.8692 28.871284 440.72171
151.02484 28.871735 440.74237
152.18045 28.872124 440.75989
153.31409 28.470123 442.73346
154.48322 28.671501 441.76547
155.64137 28.671661 441.77393
156.8028 28.872879 440.79984
157.95908 29.074051 439.82257
159.11208 29.073982 439.8219
160.26509 29.073845 439.81818
161.41112 29.274773 438.83191
162.56157 29.27449 438.82211
163.71204 29.274132 438.80933
164.83315 29.676003 436.83459
165.99579 29.47435 437.79523
167.18341 29.071457 439.73209
168.35895 28.869652 440.68637
169.56461 28.466606 442.61676
170.72552 28.465797 442.58545
171.88647 28.464905 442.55115
172.98212 28.866287 440.55566
174.17325 28.664085 441.49432
175.29396 28.864143 440.47205
176.44997 28.862968 440.4256
177.60602 28.861717 440.3761
178.76215 28.860374 440.32361
179.91833 28.858971 440.26797
181.07458 28.857483 440.20935
182.23091 28.855911 440.14764
183.44312 28.653076 441.06082
184.54379 28.852554 440.01498
185.76129 28.649559 440.92169
186.92053 28.647675 440.84753
188.01376 28.846916 439.79297
189.10196 29.046089 438.73566
190.25632 29.043976 438.65262
191.4108 29.041779 438.56647
192.56537 29.039497 438.47726
193.79898 28.835907 439.3613
195.03786 28.632225 440.24185
196.19794 28.629684 440.14294
197.27147 28.828308 439.06519
198.60765 28.423103 440.91119
199.86246 28.219048 441.77792
200.83946 28.618675 439.71613
202.00018 28.615723 439.60156
203.06155 28.813942 438.50949
204.01582 29.213379 436.44061
205.27394 29.008865 437.29147
206.53737 28.80426 438.13864
207.91591 28.398232 439.95544
209.30493 27.992096 441.76788
210.35953 28.189789 440.65775
211.7618 27.783417 442.46237
213.05441 27.578262 443.29034
213.9843 27.977036 441.19916
215.02933 28.174393 440.07751
216.45297 27.767578 441.86673
217.23499 28.367485 438.79749
218.53375 28.161835 439.6088
219.7023 28.15744 439.44617
220.73291 28.35437 438.31055
221.89934 28.349792 438.14182
223.20932 28.143692 438.93881
224.37878 28.138885 438.76328
225.84547 27.731102 440.52078
227.17166 27.524628 441.30566
228.19595 27.720955 440.15173
229.68408 27.312759 441.89618
231.02396 27.105904 442.66913
232.04646 27.30191 441.50574
233.39206 27.094818 442.27115
234.40994 27.290634 441.10196
235.42294 27.486366 439.93036
236.25931 27.883583 437.79196
237.43431 27.877586 437.5798
238.60962 27.87149 437.36426
240.14429 27.462074 439.07117
241.50751 27.254097 439.81036
243.06094 26.844368 441.50705
244.25049 26.837715 441.2756
245.63026 26.629318 442.00156
246.82309 26.622414 441.76273
248.21133 26.413727 442.48026
249.40744 26.406586 442.23395
250.60391 26.399315 441.98419
252.00363 26.190193 442.68915
253.20346 26.182671 442.43182
254.19562 26.376785 441.21393
255.18295 26.570808 439.99365
256.59201 26.361145 440.68286
257.7908 26.353149 440.41202
258.77155 26.546844 439.18289
260.18964 26.336769 439.85965
261.61334 26.126518 440.53168
262.36386 26.521782 438.34012
263.79102 26.311272 439.0043
265.22382 26.100594 439.66364
266.66229 25.889771 440.31802
268.57983 25.274834 442.86826
270.03485 25.063637 443.51144
271.25366 25.054276 443.20056
272.47293 25.0448 442.88596
273.19836 25.439285 440.67221
273.91388 25.833725 438.45755
275.12415 25.823967 438.13449
275.82495 26.218292 435.91656
277.54614 25.804085 437.47717
278.75784 25.793976 437.14285
279.70724 25.985924 435.86133
281.1828 25.773407 436.46286
283.20026 25.156303 438.94296
284.42184 25.145683 438.59119
286.46393 24.52816 441.05679
287.97037 24.314957 441.63467
289.20398 24.30394 441.2681
290.71936 24.090469 441.83575
291.38904 24.483948 439.58597
292.62164 24.472656 439.2084
293.27661 24.866096 436.95554
293.92157 25.259544 434.702
295.43951 25.045654 435.24982
296.07236 25.439079 432.99249
296.69516 25.83255 430.7345
298.81915 25.213379 433.13339
300.65451 24.796585 434.59241
301.57843 24.987358 433.25482
304.3584 23.962532 437.48792
306.22693 23.545296 438.92426
307.16022 23.735893 437.57169
309.3609 23.115807 439.92139
311.25726 22.69825 441.33624
312.51788 22.686066 440.89456
313.453 22.876648 439.52533
315.04047 22.66172 439.99863
316.3024 22.64959 439.54434
317.23074 22.84034 438.16528
317.48102 23.436913 434.94485
319.07266 23.222153 435.40036
319.98615 23.413254 434.01447
320.55014 23.807434 431.70984
322.49246 23.389977 433.06726
324.44565 22.972542 434.4165
326.05713 22.758179 434.84378
328.73944 21.934822 438.00232
330.7276 21.51757 439.32541
332.72644 21.100426 440.64001
337.64056 19.058624 449.22089
341.87625 17.422867 455.95956
346.52271 15.583908 463.58383
351.95883 13.338547 472.99637
355.58475 12.108994 477.85522
358.11322 11.489197 479.98447
359.14136 11.682564 478.49121
359.7822 12.079666 476.09381
360.7963 12.274033 474.59698
362.57843 12.062386 474.89676
363.19656 12.461113 472.4949
365.76447 11.843971 474.5788
367.95261 11.430679 475.75534
370.54797 10.814644 477.81766
373.95844 9.7925949 481.65573
376.18579 9.3812256 482.80032
377.20624 9.5806808 481.26212
379.85223 8.9675598 483.28217
382.10184 8.5586777 484.40189
383.53369 8.5574417 483.73743
386.62753 7.7437668 486.61432
388.48474 7.5412292 486.82196
-41.542709 22.041824 431.06754
-39.449173 22.444923 429.87653
-38.585037 22.246666 431.35062
-37.714371 22.049187 432.82324
-36.435837 22.053116 433.40082
-34.757431 22.258408 433.07965
-33.875778 22.06295 434.54413
-32.988022 21.868111 436.00693
-31.703278 21.874527 436.56964
-31.582748 21.279541 439.82666
-30.288864 21.287003 440.38461
-28.228546 21.696129 439.13495
-26.939041 21.70446 439.68225
-24.893814 22.114326 438.41739
-22.858902 22.52449 437.14386
-21.579132 22.533859 437.67401
-19.559769 22.944542 436.38553
-18.285034 22.954475 436.90503
-16.281357 23.365616 435.60144
-14.650101 23.576454 435.19989
-13.383301 23.587051 435.70346
-12.473053 23.397438 437.11533
-11.203812 23.40844 437.61142
-10.285919 23.219238 439.01791
-8.665863 23.430893 438.59088
-7.3971863 23.442329 439.07416
-5.7855682 23.654144 438.63559
-4.1795044 23.866028 438.1907
-2.9170074 23.877693 438.65927
-2.3254242 23.489014 440.96478
-0.060379028 24.101418 438.66211
1.5284119 24.313393 438.19449
2.7841644 24.325218 438.64423
4.3642273 24.53717 438.16534
6.2606506 24.949173 436.75513
7.1877594 24.76088 438.11581
8.4364777 24.772667 438.54703
9.6847687 24.784447 438.97406
11.24408 24.996178 438.46805
12.179871 24.807892 439.81586
13.732925 25.019493 439.2999
14.673019 24.831184 440.6412
15.918839 24.842743 441.04776
16.865814 24.654381 442.38354
18.408966 24.865692 441.84866
19.94632 25.076874 441.30807
21.477905 25.287926 440.76184
23.003723 25.498856 440.20993
24.80896 25.909401 438.71503
26.03804 25.920319 439.08936
27.826462 26.330528 437.58179
28.771942 26.141548 438.88651
30.27153 26.351807 438.3078
31.765373 26.561913 437.72366
32.714561 26.372658 439.01834
33.935295 26.382927 439.36786
34.891335 26.193542 440.65704
35.852104 26.004074 441.94394
36.558617 25.615005 444.17355
38.044189 25.824417 443.56491
39.270287 25.834183 443.89755
40.998192 26.24276 442.33197
42.466599 26.451691 441.70779
43.929359 26.660477 441.07837
45.629692 27.068481 439.49478
46.356339 26.678772 441.70438
47.56916 26.687759 442.01178
48.546028 26.497269 443.26672
49.760536 26.50602 443.56747
50.974594 26.514648 443.86453
52.415894 26.722435 443.2048
53.401413 26.531532 444.44769
54.16925 26.141281 446.64264
54.94709 25.750992 448.8363
55.300392 24.962212 452.93991
56.5327 24.970238 453.22
57.340485 24.579758 455.40997
58.786644 24.786728 454.72662
59.813477 24.595238 455.95428
61.253662 24.801933 455.26254
62.889915 25.207581 453.60712
64.316345 25.41394 452.90546
66.13018 26.018318 450.27899
67.540314 26.22435 449.56702
69.136215 26.629295 447.88928
70.343987 26.635971 448.12936
71.551414 26.642532 448.36597
72.942024 26.847969 447.63647
74.508064 27.252281 445.93936
75.885101 27.457451 445.20047
77.432373 27.861427 443.49319
78.969009 28.265259 441.78055
79.983253 28.072075 442.95782
81.002373 27.878799 444.13272
82.19178 27.884354 444.3392
83.543747 28.088722 443.57593
84.569778 27.895157 444.7421
86.073685 28.298195 443.00397
87.411919 28.502182 442.22858
88.592239 28.507172 442.41714
89.772301 28.512054 442.60245
91.099449 28.715691 441.81552
92.276451 28.72036 441.99387
93.453224 28.724937 442.16888
94.769356 28.928223 441.37067
95.806091 28.73378 442.50925
96.982193 28.738052 442.67459
98.02623 28.543434 443.80783
99.204498 28.547516 443.96701
100.38255 28.551498 444.12302
101.68452 28.75415 443.30362
102.85961 28.757942 443.45282
104.27245 29.159142 441.65317
105.55838 29.36145 440.8223
106.7252 29.364937 440.96097
107.89185 29.368324 441.09653
109.16699 29.570358 440.25482
110.22466 29.374847 441.35803
111.49432 29.576668 440.50955
112.45588 29.182312 442.58188
113.62431 29.185272 442.70187
114.69682 28.989449 443.79416
115.77433 28.793564 444.88373
117.03813 28.994942 444.01895
118.29665 29.19622 443.15057
119.46442 29.198761 443.25485
120.71498 29.399857 442.37949
122.04063 29.7995 440.52383
123.2781 30.000412 439.6412
124.3599 29.803955 440.70938
125.44674 29.607422 441.7749
126.67876 29.808075 440.88257
127.83804 29.810013 440.96454
128.86737 29.414642 442.99924
130.09396 29.615059 442.09726
131.31534 29.815392 441.19186
132.3026 29.221184 444.19678
133.46916 29.222748 444.26376
134.68773 29.422829 443.349
135.90109 29.622849 442.43082
137.01537 29.425575 443.46725
138.22345 29.62542 442.54276
139.42635 29.825203 441.61484
140.62405 30.024879 440.68375
141.74323 29.827324 441.7081
143.00389 30.424034 438.81168
144.18604 30.623482 437.87085
145.33405 30.624283 437.90643
146.48203 30.625008 437.939
147.65379 30.824242 436.98877
148.75661 30.427666 438.97495
149.88837 30.229599 439.97842
151.0575 30.428612 439.01901
152.19434 30.230408 440.01651
153.33632 30.032127 441.01105
154.50024 30.230927 440.04245
155.64734 30.032494 441.03098
156.80612 30.231148 440.0563
157.95905 30.231163 440.05859
159.11197 30.231094 440.05795
160.26048 30.429527 439.07416
161.41086 30.429321 439.06744
162.5708 30.230476 440.03769
163.71164 30.428711 439.0448
164.84737 30.626846 438.04907
165.97798 30.824928 437.05029
167.14314 30.625786 438.00842
168.29106 30.625145 437.98358
169.48895 30.227287 439.91516
170.66962 30.027908 440.86383
171.85544 29.828468 441.80927
172.94846 30.224709 439.8129
174.13695 30.025116 440.75217
175.25502 30.222626 439.72949
176.40837 30.221481 439.6832
177.5618 30.220238 439.63394
178.71527 30.218948 439.58154
179.8688 30.217575 439.52609
181.02242 30.216125 439.46762
182.17609 30.214592 439.4061
183.32985 30.21299 439.34152
184.54204 30.012695 440.25223
185.75946 29.812325 441.15948
186.91859 29.810478 441.08539
188.01176 30.007187 440.03036
189.03125 30.402443 437.995
190.18295 30.400383 437.91217
191.33478 30.398239 437.82629
192.48669 30.396027 437.73734
193.79657 29.996422 439.59906
195.03537 29.795364 440.48022
196.19534 29.79287 440.38144
197.44209 29.591644 441.25568
198.69411 29.39032 442.12634
199.76782 29.58625 441.04199
200.93091 29.583427 440.93045
201.99718 29.779205 439.84058
202.95895 30.173615 437.77304
204.01265 30.369263 436.67816
205.27068 30.167412 437.52966
206.534 29.965454 438.37744
207.91245 29.564659 440.19547
209.18896 29.362488 441.03549
210.47083 29.16021 441.8718
211.87555 28.759064 443.67731
213.05054 28.755318 443.53302
214.10303 28.950249 442.41318
215.15054 29.145103 441.2908
216.32095 29.141083 441.13757
217.36116 29.33577 440.00983
218.5294 29.331573 439.85052
219.56229 29.526085 438.71744
220.86653 29.322884 439.52228
222.03543 29.318398 439.35333
223.34787 29.11496 440.15063
224.66573 28.9114 440.94397
225.98897 28.707726 441.73318
227.31763 28.503922 442.51837
228.49805 28.498871 442.33157
229.83498 28.294823 443.10895
231.17734 28.090637 443.88223
232.36371 28.085258 443.68463
233.55038 28.079758 443.48373
234.57074 28.273102 442.31372
235.58624 28.466347 441.14133
236.42508 28.858498 439.00159
237.60257 28.852608 438.78915
238.78033 28.846611 438.57333
239.95844 28.840492 438.35425
241.50105 28.436226 440.05762
242.68495 28.429871 439.83069
243.86919 28.423378 439.60046
245.4335 28.018661 441.28961
246.62363 28.011902 441.05154
247.81406 28.005051 440.80997
249.20253 27.798958 441.52484
250.19604 27.990974 440.31656
251.59042 27.784615 441.02338
252.78493 27.77726 440.76743
253.97981 27.769783 440.508
254.96445 27.961372 439.28799
256.58398 27.555275 440.935
257.56683 27.746628 439.70859
259.2002 27.340195 441.34558
260.18124 27.531326 440.11264
261.1575 27.722374 438.87729
262.12897 27.913345 437.63959
263.32452 27.904907 437.35242
264.52054 27.896355 437.06165
266.41919 27.289619 439.62195
268.09723 26.882027 441.22382
269.54688 26.673615 441.86917
271.00223 26.46505 442.50952
272.21875 26.455757 442.19583
272.94153 26.845222 439.98209
273.65436 27.234665 437.76724
274.86185 27.22509 437.44519
276.06989 27.215393 437.11942
277.79352 26.806511 438.68079
279.00775 26.796532 438.34607
280.48526 26.586884 438.95151
281.96854 26.377068 439.55173
283.18951 26.366707 439.20416
284.68167 26.156609 439.79443
286.1796 25.946358 440.37936
287.68329 25.735947 440.95886
289.19272 25.525398 441.5329
290.14563 25.714172 440.22415
290.81 26.102661 437.97516
292.32367 25.891792 438.53662
292.97595 26.280228 436.28378
293.61823 26.668663 434.03027
295.13348 26.45755 434.5799
295.76367 26.845947 432.32263
296.68338 27.034477 430.99765
298.50497 26.623207 432.46652
300.03278 26.411736 432.99677
301.56635 26.200157 433.52127
304.03601 25.388474 436.82825
305.90179 24.976616 438.26697
307.46323 24.764679 438.77036
309.66647 24.152512 441.12122
310.92401 24.14048 440.68506
312.50534 23.928314 441.16962
313.1145 24.316574 438.87622
314.69934 24.104408 439.35138
315.62735 24.29261 437.97638
316.21655 24.681145 435.67792
317.13214 24.86956 434.29932
318.38196 24.857803 433.83759
319.29025 25.046432 432.45346
320.53806 25.034882 431.98425
322.48047 24.622696 433.34326
323.73407 24.611298 432.86368
326.04529 23.998833 435.12219
328.01746 23.5868 436.45724
330.00043 23.174835 437.78387
332.35449 22.5625 440.01309
336.53986 20.947784 446.78134
341.13333 19.132431 454.4371
346.14291 17.116417 462.97693
350.83444 15.300827 470.58392
355.19992 13.685783 477.26111
357.3497 13.274361 478.48895
357.99402 13.665703 476.09418
359.009 13.856903 474.60156
360.01825 14.048592 473.1066
360.63486 14.441444 470.70938
362.79852 14.032166 471.90771
364.5799 13.824059 472.19931
367.15552 13.215096 474.27725
369.34866 12.807419 475.44836
372.35172 11.998894 478.39883
374.56924 11.592491 479.54941
376.39075 11.387573 479.79907
378.62427 10.982689 480.93271
380.86682 10.578659 482.05722
383.11838 10.175507 483.17276
385.79465 9.5725632 485.16623
387.64764 9.3721771 485.37671
-41.540359 23.303146 431.35153
-40.264771 23.305145 431.94055
-39.394638 23.109787 433.41766
-38.113907 23.113274 434.00027
-36.029129 23.513657 432.79056
-35.150436 23.320374 434.25836
-33.869354 23.325806 434.82794
-32.587479 23.331818 435.39343
-31.695801 23.140312 436.85376
-30.798187 22.949356 438.31226
-29.50914 22.956909 438.86774
-27.8367 23.162903 438.51675
-25.788818 23.567261 437.25583
-24.128891 23.773964 436.89078
-21.723999 24.376869 434.70804
-20.451859 24.386223 435.23462
-18.809906 24.593758 434.84921
-17.907257 24.405785 436.27515
-15.906082 24.811676 434.96912
-15.000809 24.624191 436.3877
-13.731155 24.634781 436.892
-12.105164 24.843361 436.47891
-10.484619 25.052055 436.05951
-9.5718384 24.865379 437.46411
-7.9569855 25.074318 437.03412
-7.0393677 24.887924 438.43228
-5.4303284 25.097038 437.99176
-3.826889 25.306198 437.54498
-2.5669556 25.317757 438.01218
-1.3073883 25.329361 438.47519
0.28443909 25.538612 438.01178
1.5406036 25.550285 438.46539
3.123703 25.759521 437.99072
4.3764038 25.771217 438.43494
6.2727509 26.177879 437.02322
7.8386841 26.386971 436.53049
8.4485931 26.003723 438.81491
9.6968231 26.015343 439.24164
11.256073 26.224335 438.73468
12.191849 26.038513 440.08264
13.744843 26.247368 439.5657
14.988464 26.258804 439.97513
16.231567 26.270187 440.38049
17.175858 26.084251 441.71561
18.420593 26.095535 442.11365
19.95784 26.303947 441.57217
21.489334 26.512253 441.02499
22.727219 26.523254 441.40936
24.534943 26.928452 439.91379
26.049088 27.13636 439.34979
27.277527 27.147011 439.71991
28.505478 27.157578 440.08606
30.007553 27.365097 439.50723
30.959778 27.178406 440.80676
32.18618 27.188667 441.16125
32.878441 26.804848 443.39868
33.844826 26.61795 444.69119
34.55439 26.234055 446.92609
35.273903 25.850121 449.16013
36.772423 26.056892 448.55414
38.518936 26.460358 446.99594
40.254494 26.863632 445.43112
42.227646 27.46357 442.91125
44.184631 28.063263 440.38354
45.395615 28.072289 440.69742
45.884125 27.49086 443.85889
47.34008 27.69648 443.21625
48.084007 27.311699 445.42386
49.536446 27.517052 444.77322
51.213493 27.918968 443.16452
52.652039 28.124001 442.50336
53.634842 27.935501 443.74597
54.622421 27.746933 444.98618
55.175133 27.165001 448.13492
55.743004 26.583023 451.28378
56.755356 26.394257 452.5191
57.772491 26.205399 453.75201
59.003876 26.213028 454.02454
60.028008 26.023972 455.25192
61.261177 26.031364 455.51785
62.695633 26.235161 454.82065
63.925461 26.242302 455.0788
65.744308 26.838806 452.4516
67.1595 27.042145 451.7399
68.186577 26.852394 452.94699
69.784561 27.251923 451.26501
71.371834 27.651276 449.57758
72.581398 27.6576 449.811
74.152481 28.056648 448.11356
76.069542 28.848328 444.48245
77.262611 28.854225 444.70267
78.974854 29.449165 442.02411
80.159561 29.454811 442.23618
81.175995 29.263977 443.41098
82.362717 29.269424 443.61679
83.386337 29.07843 444.78622
84.575089 29.083672 444.98581
86.078865 29.481422 443.24649
87.261909 29.48642 443.4386
88.597198 29.687614 442.65875
89.777153 29.692398 442.84387
90.956871 29.697083 443.02573
92.281082 29.897919 442.23447
93.457756 29.902397 442.40936
94.773773 30.103012 441.61044
95.947403 30.107277 441.7785
96.986412 29.915222 442.91464
98.030365 29.723114 444.04822
99.208527 29.727097 444.20731
100.2598 29.534813 445.33551
101.56425 29.73481 444.51578
102.98489 30.130882 442.71912
104.27607 30.33065 441.89136
105.56192 30.530312 441.05978
106.84244 30.729866 440.22446
107.8952 30.537041 441.3338
109.17024 30.736404 440.49149
110.33389 30.739532 440.62033
111.39389 30.546471 441.72107
112.45888 30.353325 442.81924
113.62723 30.356216 442.93915
114.69965 30.16291 444.03186
115.77707 29.969543 445.12189
117.04079 30.168289 444.25647
118.29922 30.366928 443.38745
119.55238 30.565483 442.51483
120.80029 30.763939 441.63867
122.12328 31.158371 439.78165
123.35809 31.356659 438.89813
124.43724 31.162712 439.96664
125.59407 31.164772 440.05447
126.82087 31.362808 439.16113
127.90743 31.16864 440.22095
128.93411 30.778374 442.25647
130.15805 30.976158 441.35379
131.317 30.977829 441.42642
132.3042 30.391327 444.43277
133.52533 30.588882 443.52063
134.68918 30.59034 443.58435
135.95197 30.983757 441.68631
137.0636 30.789032 442.72305
138.22467 30.790253 442.77747
139.46928 31.183434 440.86932
140.62511 31.184509 440.91733
141.78088 31.185501 440.96231
143.03889 31.77446 438.06418
144.18687 31.775307 438.10278
145.33481 31.776085 438.13837
146.50911 31.972816 437.19061
147.63057 31.777443 438.20041
148.7359 31.386002 440.18771
149.87016 31.190506 441.19168
151.02565 31.190926 441.21231
152.18112 31.191292 441.22986
153.33658 31.191589 441.24432
154.49202 31.191803 441.25583
155.64745 31.19194 441.26431
156.80615 31.388016 440.28909
157.95901 31.388023 440.29144
159.11188 31.387962 440.29077
160.26474 31.387817 440.28708
161.41061 31.583618 439.29974
162.56093 31.583351 439.28992
163.71126 31.583008 439.27716
164.8616 31.582596 439.26132
165.97745 31.974113 437.28159
167.14253 31.77755 438.24026
168.26799 31.972931 437.23505
169.43828 31.776237 438.18753
170.61372 31.579468 439.13687
171.79434 31.382629 440.08298
172.88216 31.773735 438.08578
174.13591 31.184723 440.98575
175.25391 31.379669 439.96262
176.40718 31.378555 439.91632
177.51759 31.573364 438.88742
178.66843 31.572105 438.83521
179.81931 31.570763 438.77991
180.97028 31.569351 438.72162
182.12131 31.567856 438.66031
183.38399 31.174225 440.55392
184.54031 31.172577 440.48618
185.69673 31.17086 440.41537
186.85323 31.16906 440.34146
187.94374 31.363235 439.28619
188.96057 31.753403 437.24994
190.25206 31.359268 439.12341
191.40637 31.35717 439.03741
