ply
format ascii 1.0
comment PCL generated
element vertex 1591
property float x
property float y
property float z
element camera 0
property float view_px
property float view_py
property float view_pz
property float x_axisx
property float x_axisy
property float x_axisz
property float y_axisx
property float y_axisy
property float y_axisz
property float z_axisx
property float z_axisy
property float z_axisz
property float focal
property float scalex
property float scaley
property float centerx
property float centery
property int viewportx
property int viewporty
property float k1
property float k2
end_header
217.21371 101.87991 439.72287
218.356 101.87992 439.56827
219.3606 101.91937 438.42096
220.64111 101.87994 439.24991
221.78394 101.87995 439.08612
222.78136 101.91939 437.93076
224.07016 101.87995 438.74939
225.51508 101.80108 440.552
226.66385 101.80107 440.37518
227.81284 101.80106 440.19519
228.80354 101.84048 439.02554
229.78934 101.87991 437.85364
230.77019 101.91933 436.67944
231.74612 101.95873 435.50302
232.71713 101.99814 434.32434
234.02599 101.95866 435.11234
235.34023 101.91919 435.89621
236.48335 101.91915 435.69257
237.80585 101.87966 436.46881
238.9521 101.87961 436.25842
240.2829 101.84011 437.02692
241.43227 101.84004 436.80969
242.77138 101.80054 437.5704
243.73189 101.8399 436.36566
245.07675 101.80038 437.11887
246.22989 101.80029 436.88834
247.18356 101.83963 435.67551
248.53714 101.80009 436.41751
250.10117 101.7211 438.13315
251.67587 101.64211 439.84338
252.84102 101.64198 439.59439
254.21924 101.6024 440.31836
255.38766 101.60226 440.06213
256.33856 101.64156 438.82739
257.50516 101.64141 438.56509
258.44904 101.68069 437.32544
259.83948 101.64108 438.03036
261.00723 101.6409 437.75803
262.40625 101.60127 438.45441
263.34393 101.64053 437.20303
264.51294 101.64032 436.92047
265.92102 101.60067 437.60477
267.09348 101.60045 437.31473
268.02246 101.63967 436.05215
269.93262 101.5211 438.66089
271.1116 101.52086 438.35907
272.29108 101.5206 438.05383
273.72531 101.4809 438.71133
274.90836 101.48062 438.39832
276.09186 101.48035 438.08173
277.27591 101.48006 437.76157
278.19574 101.51921 436.47433
280.44745 101.36111 439.99896
281.37094 101.40025 438.70377
282.83484 101.36047 439.32907
284.30447 101.32069 439.94925
285.77991 101.2809 440.56424
286.13956 101.39892 437.33771
287.89911 101.31966 438.90359
289.09845 101.3193 438.54758
290.01013 101.35838 437.23111
291.4989 101.31856 437.82431
292.99353 101.27872 438.41217
294.19788 101.27834 438.04031
295.40277 101.27794 437.66455
296.90973 101.23808 438.23776
297.81451 101.27715 436.90161
298.40808 101.35567 434.6123
299.91953 101.3158 435.173
301.74872 101.23645 436.6774
303.2746 101.19657 437.22598
304.80637 101.15669 437.76883
306.66385 101.07734 439.25262
307.56525 101.11639 437.89154
308.78711 101.11597 437.47305
310.00961 101.11555 437.05054
311.23279 101.11514 436.62396
312.78958 101.07526 437.13538
314.35236 101.03539 437.64087
315.92108 100.99551 438.14029
317.15479 100.99512 437.69443
318.38919 100.99474 437.24438
319.97046 100.9549 437.72748
321.55768 100.91506 438.20438
323.50238 100.83576 439.61044
324.39575 100.87491 438.20514
325.99814 100.83512 438.66428
327.24695 100.83483 438.18475
328.85852 100.79508 438.63217
329.38153 100.87379 436.2825
331.7319 100.75513 438.57858
332.98834 100.75494 438.07959
337.60062 100.39946 445.9198
342.63684 100.00452 454.66223
347.34875 99.649094 462.45358
351.7283 99.333199 469.29678
356.53448 98.977859 477.04037
357.91388 98.977921 476.46475
358.51611 99.056999 474.0433
359.10803 99.136131 471.62158
360.87201 99.096893 471.9541
361.84799 99.136681 470.4454
364.41684 99.018623 472.59772
367.00189 98.900658 474.73816
369.60312 98.782776 476.86676
371.81293 98.704475 478.07089
373.21307 98.705231 477.44312
375.026 98.666611 477.72034
376.01312 98.707054 476.17279
377.83105 98.668671 476.43784
-37.203964 101.87816 432.55563
-36.344513 101.84033 434.03839
-35.47966 101.80258 435.51907
-34.206009 101.80178 436.0835
-33.333267 101.76419 437.55878
-32.057159 101.76354 438.11539
-30.781204 101.76297 438.66742
-28.719803 101.83621 437.37735
-27.059555 101.87265 436.9982
-25.017395 101.94602 435.6911
-23.755997 101.94569 436.21964
-22.112808 101.98228 435.82037
-20.475388 102.01894 435.41452
-19.220551 102.01874 435.92752
-17.966202 102.01859 436.43613
-16.340851 102.05536 436.01273
-14.721313 102.09216 435.58276
-13.840057 102.05523 437.00592
-12.226944 102.09209 436.56516
-10.980621 102.0921 437.0499
-10.093124 102.05525 438.4632
-9.2009277 102.01842 439.87427
-7.5981598 102.05537 439.41318
-6.7018738 102.01859 440.81766
-5.1056671 102.05558 440.34604
-3.5154266 102.09258 439.86823
-1.9310913 102.12961 439.38422
-1.032074 102.09287 440.77371
0.20861816 102.09303 441.22018
1.7830353 102.13008 440.72079
3.0197601 102.13026 441.15802
4.9140778 102.20421 439.70395
6.4707031 102.24128 439.18658
7.373703 102.20459 440.55417
8.9237366 102.24167 440.02689
9.830719 102.20499 441.38815
11.058273 102.2052 441.79907
12.285156 102.2054 442.20605
13.822067 102.24249 441.65921
15.353058 102.27956 441.10672
16.878174 102.31664 440.54855
17.791885 102.27997 441.88947
19.610611 102.35391 440.36871
20.823227 102.35411 440.74872
22.330109 102.39118 440.17004
23.538895 102.39137 440.54156
25.036713 102.42843 439.95288
26.241669 102.42861 440.31604
27.44606 102.42879 440.67538
28.649872 102.42896 441.03101
29.853104 102.42913 441.38293
30.779228 102.39243 442.69138
31.983986 102.39259 443.03656
33.188202 102.39274 443.37805
34.391846 102.39288 443.71594
35.594994 102.39302 444.05008
37.588158 102.50377 441.4888
38.78244 102.5039 441.81351
40.492821 102.57776 440.20395
41.680893 102.57787 440.52014
42.868469 102.57798 440.83279
43.805092 102.54121 442.10928
44.994324 102.54131 442.41553
46.183105 102.5414 442.7182
47.371429 102.54149 443.0174
48.799385 102.57843 442.34305
50.459213 102.65224 440.69321
51.403526 102.61544 441.95139
52.584915 102.6155 442.23541
53.99559 102.65242 441.54346
55.173569 102.65247 441.82001
56.12664 102.61565 443.06689
57.528336 102.65254 442.36292
58.705139 102.65257 442.62927
59.881561 102.6526 442.89233
61.05764 102.65262 443.15195
62.021767 102.61576 444.38498
62.990746 102.5789 445.61569
64.170929 102.5789 445.86642
65.350769 102.5789 446.11383
66.731476 102.61576 445.37906
67.908073 102.61575 445.61929
69.280388 102.6526 444.87631
70.453766 102.65257 445.10944
71.435974 102.61568 446.32022
72.611343 102.61565 446.5473
73.786407 102.61562 446.77115
74.228722 102.46811 450.9213
75.052483 102.39433 453.10626
75.708328 102.28368 456.27328
76.730133 102.24677 457.47211
77.411255 102.13611 460.63708
79.128883 102.24665 457.89325
81.501343 102.50466 451.20276
84.167587 102.83641 442.53174
86.462234 103.09442 435.82184
89.200302 103.46303 426.14355
91.414619 103.72104 419.41446
93.12841 103.86845 415.63846
94.821396 104.01585 411.85635
96.194382 104.08952 410.04422
97.703903 104.20004 407.23926
99.05336 104.27371 405.41791
100.39233 104.34737 403.59225
101.44223 104.3473 403.74149
102.62871 104.38409 402.89792
103.54153 104.34714 404.03146
104.45937 104.31019 405.16287
105.25316 104.23637 407.28311
106.18356 104.19942 408.41055
107.11893 104.16246 409.53595
107.938 104.08864 411.65103
108.88597 104.05168 412.77228
109.72276 103.97785 414.88388
110.79691 103.97777 415.00818
111.98194 104.01456 414.13657
113.16173 104.05135 413.26147
114.44213 104.125 411.38937
115.71214 104.19866 409.51337
117.07254 104.30919 406.63931
118.31923 104.38286 404.75537
119.45993 104.41965 403.86246
120.50234 104.41957 403.9613
121.54466 104.41949 404.0574
122.49898 104.38254 405.14627
123.45834 104.34558 406.23282
124.42274 104.30863 407.31714
125.55264 104.34543 406.40692
126.59966 104.34536 406.48987
127.7217 104.38216 405.57358
128.6935 104.34521 406.64761
129.81024 104.38202 405.72556
130.85442 104.38194 405.79752
131.89853 104.38188 405.86667
132.94257 104.38181 405.93323
134.04625 104.41862 404.99951
135.03049 104.38169 406.05817
136.07436 104.38163 406.11655
137.06619 104.3447 407.17026
138.01367 104.27089 409.21964
139.06509 104.27084 409.27029
140.16078 104.30766 408.31998
141.16782 104.27074 409.36365
142.2583 104.30756 408.40768
143.3436 104.34439 407.44882
144.42375 104.38123 406.48709
145.49875 104.41807 405.52246
146.53967 104.41803 405.55396
147.63327 104.49174 403.58481
148.66901 104.49171 403.61081
149.6835 104.45481 404.63321
150.72177 104.45478 404.65393
151.74393 104.41788 405.6712
152.77119 104.38097 406.68585
153.81456 104.38096 406.69864
154.8495 104.34406 407.70807
155.88371 104.27029 409.71411
156.93474 104.27028 409.7189
157.98433 104.19652 411.71967
159.04233 104.15963 412.71838
160.10547 104.12275 413.71436
161.17374 104.08587 414.70761
162.2662 103.97523 417.69666
163.36197 103.90149 419.68356
164.48267 103.79086 422.66675
165.63599 103.64336 426.64612
166.80983 103.49586 430.62238
168.00421 103.34837 434.59534
169.26895 103.12712 440.56299
170.59198 102.869 447.52594
171.89082 102.68463 452.48721
173.18275 102.53716 456.44592
174.38969 102.50031 457.40488
175.45085 102.61096 454.36618
176.49666 102.72163 451.32504
177.48427 102.86917 447.2832
178.45142 103.01672 443.23923
179.59006 103.01676 443.18594
180.72878 103.0168 443.12976
181.97379 102.94309 445.06638
183.11772 102.94314 445.00406
184.20348 102.98006 443.94107
185.34499 102.98012 443.87299
186.54996 102.94329 444.79922
187.6282 102.98022 443.72784
188.7014 103.01716 442.6539
189.91171 102.98034 443.57092
190.90628 103.05415 441.49481
192.04311 103.05421 441.4093
193.10124 103.09115 440.32471
194.31702 103.05434 441.22952
195.37018 103.09128 440.13937
196.59128 103.05447 441.03787
197.63951 103.09142 439.94226
198.86594 103.05461 440.83435
200.00343 103.05468 440.72818
201.23778 103.01788 441.61356
202.37805 103.01794 441.50116
203.51845 103.01802 441.3858
204.65897 103.01809 441.26743
205.69258 103.05504 440.1525
207.04997 102.98136 442.01498
208.19345 102.98144 441.88733
209.22232 103.01838 440.76398
210.36349 103.01846 440.63055
211.50482 103.01852 440.49414
212.6463 103.0186 440.35474
213.6629 103.05554 439.22079
214.9297 103.01875 440.0668
215.94148 103.05569 438.92749
217.21375 103.01888 439.76675
218.22073 103.05582 438.62204
219.36061 103.05589 438.46478
220.64113 103.01909 439.29385
221.92697 102.98228 440.11911
222.92697 103.01921 438.96329
224.36652 102.94553 440.76993
225.66583 102.90872 441.58408
226.66385 102.94565 440.4194
227.65692 102.98257 439.25238
228.80354 102.98263 439.06976
229.78932 103.01955 437.89774
230.77017 103.05647 436.72345
231.91232 103.05651 436.53238
232.88589 103.09342 435.35315
234.19731 103.05659 436.14078
235.51413 103.01976 436.92435
236.65984 103.01979 436.72028
237.8058 103.01982 436.51303
239.13373 102.98297 437.28534
240.4671 102.94612 438.05353
241.43219 102.98302 436.85413
242.77129 102.94615 437.61493
243.7318 102.98303 436.41013
244.88205 102.98304 436.18332
246.2298 102.94617 436.93301
247.18347 102.98303 435.72006
248.33466 102.98302 435.48358
250.10104 102.87241 438.17813
251.67575 102.79865 439.88858
252.63074 102.83549 438.66263
254.00635 102.79859 439.38727
255.1722 102.79855 439.13165
255.90259 102.87225 436.92215
257.28448 102.83533 437.63577
258.00269 102.90903 435.42255
259.61359 102.83523 437.10233
260.77875 102.83516 436.83057
261.94427 102.83509 436.55542
262.87677 102.87189 435.30524
264.5127 102.79807 436.96603
265.6821 102.79797 436.68008
267.0932 102.76101 437.36044
268.26608 102.7609 437.06699
270.42529 102.61331 440.6438
271.6095 102.6132 440.34073
272.79416 102.61308 440.03415
274.23358 102.57607 440.69043
275.16492 102.61281 439.41034
276.09155 102.64955 438.12805
277.53766 102.61253 438.77231
278.72479 102.61237 438.44791
280.44708 102.53847 440.04572
281.6405 102.5383 439.71265
282.83441 102.53813 439.37592
284.30408 102.50108 439.99625
285.50168 102.5009 439.65143
286.1391 102.57446 437.38461
287.89865 102.50052 438.95071
288.81238 102.53719 437.63718
290.00964 102.53699 437.27823
291.49841 102.49991 437.87161
292.99304 102.46281 438.45966
294.19736 102.4626 438.08783
295.40228 102.46239 437.71219
297.21057 102.3884 439.23822
298.11798 102.42506 437.90125
298.71417 102.4986 435.61096
300.22824 102.46149 436.17099
302.06006 102.3875 437.6748
303.27405 102.38727 437.27414
305.12296 102.31328 438.76477
306.66327 102.27617 439.30115
307.88712 102.27594 438.88593
308.7865 102.31261 437.52158
310.009 102.31239 437.09912
311.5625 102.27529 437.61572
312.789 102.27509 437.18423
314.68738 102.20111 438.63116
316.25873 102.16403 439.12979
317.49512 102.16385 438.68304
318.38861 102.20056 437.29373
319.96982 102.16352 437.77689
321.20819 102.16338 437.3176
323.15021 102.08947 438.72485
324.04095 102.12625 437.32056
325.64069 102.08926 437.78082
327.24634 102.05231 438.23483
328.85797 102.01537 438.68246
329.74579 102.05223 437.26297
332.46631 101.90468 440.48767
333.72809 101.90472 439.98657
337.97293 101.60967 446.89856
342.63635 101.27779 454.71494
347.34827 100.94594 462.50729
351.34705 100.68791 468.42755
356.53406 100.31929 477.09604
358.29965 100.2827 477.4422
358.12695 100.4306 473.17834
358.71625 100.50479 470.75754
360.4776 100.46838 471.0914
361.05417 100.54269 468.66663
364.01721 100.39578 471.73764
366.59967 100.28584 473.87967
370.00797 100.10223 477.83707
372.22052 100.02936 479.04028
374.03363 99.993469 479.32263
375.85199 99.95768 479.59756
377.26001 99.95887 478.95636
378.24969 99.997055 477.40265
-37.204376 103.11266 432.60364
-36.344849 103.07721 434.08646
-35.073776 103.07613 434.65411
-34.206223 103.04085 436.13156
-32.932556 103.03992 436.69141
-32.057251 103.00478 438.16348
-30.781281 103.00398 438.71558
-29.112671 103.03754 438.34415
-27.059494 103.10543 437.04584
-25.404861 103.13911 436.65982
-23.75589 103.17284 436.26703
-21.730484 103.24091 434.94418
-20.475189 103.24045 435.46158
-19.220352 103.24004 435.97458
-17.965988 103.23966 436.48312
-16.712128 103.23933 436.9873
-15.089905 103.27332 436.55826
-13.839767 103.27305 437.05264
-12.226639 103.3071 436.61172
-10.980301 103.30688 437.09641
-9.7345428 103.3067 437.57675
-8.8450012 103.27225 438.98685
-7.244873 103.3064 438.5246
-6.0009613 103.30627 438.99213
-4.7576752 103.30617 439.45535
-3.5150299 103.30608 439.91437
-1.9307098 103.3403 439.43024
-1.0317078 103.30595 440.81979
0.20899963 103.30591 441.2662
1.7834473 103.34016 440.7666
3.3519135 103.37444 440.26108
5.243576 103.44301 438.80579
6.7975464 103.47729 438.28741
7.6979218 103.44299 439.65408
9.2453003 103.47729 439.12579
10.149658 103.44301 440.48621
11.058624 103.40873 441.84439
12.285507 103.40874 442.25128
13.822403 103.44305 441.70432
15.353409 103.47737 441.15164
16.573105 103.47739 441.54495
17.792191 103.47742 441.93433
19.310806 103.51173 441.36655
20.823532 103.54605 440.79327
22.035522 103.54607 441.16934
23.246902 103.5461 441.54166
24.747345 103.58041 440.95361
25.95491 103.58043 441.3175
27.161911 103.58044 441.67761
28.368332 103.58046 442.03397
29.574173 103.58047 442.38657
30.77948 103.58047 442.73544
32.258179 103.61478 442.11948
33.188408 103.58048 443.42209
34.660812 103.61478 442.79727
35.861328 103.61477 443.13068
37.588348 103.68335 441.53238
39.043541 103.71763 440.8923
40.492996 103.75191 440.24728
41.681053 103.75188 440.56345
42.868637 103.75186 440.87601
43.805237 103.71754 442.15259
44.746567 103.6832 443.42697
45.937935 103.68317 443.73032
47.371544 103.71742 443.06061
48.559402 103.71738 443.35626
50.221825 103.78592 441.70682
51.403618 103.78587 441.99429
52.584991 103.7858 442.27832
53.995659 103.82004 441.58621
55.173637 103.81998 441.8627
56.351204 103.8199 442.13583
57.528381 103.81983 442.40558
58.705185 103.81976 442.67191
59.664864 103.78538 443.91055
60.843513 103.78529 444.17072
62.021797 103.7852 444.42755
62.990768 103.75082 445.65836
64.170952 103.75072 445.90903
65.350777 103.75062 446.15643
66.530273 103.75052 446.40048
67.908066 103.78471 445.66177
69.280373 103.81889 444.91867
70.2603 103.78448 446.13223
71.435951 103.78437 446.36261
72.423027 103.74996 447.5712
73.60067 103.74984 447.7955
74.228676 103.64682 450.96399
75.052437 103.5781 453.14911
75.708275 103.47507 456.31635
76.730072 103.44064 457.51532
77.411186 103.33761 460.68054
78.958603 103.40607 458.92114
81.333641 103.64604 452.23047
84.002457 103.95462 443.55902
86.299675 104.19459 436.84888
89.040321 104.53747 427.17007
91.414543 104.81175 419.4538
92.973579 104.91453 416.66476
94.669136 105.05161 412.88266
96.343903 105.18869 409.09445
97.703827 105.25717 407.27728
99.053268 105.32565 405.45578
100.39224 105.39413 403.62994
101.58145 105.4283 402.78946
102.49187 105.39387 403.92551
103.54144 105.39375 404.06906
104.45927 105.35931 405.20053
105.25307 105.29057 407.32092
106.05701 105.22183 409.43991
107.11884 105.22171 409.57388
108.05923 105.18727 410.69711
108.88587 105.11853 412.81055
109.83884 105.0841 413.92969
110.9104 105.08398 414.05371
111.98185 105.08385 414.17484
113.27008 105.15234 412.30621
114.54793 105.22084 410.43359
115.71205 105.25503 409.55118
116.97169 105.32352 407.67111
118.22095 105.39203 405.78729
119.36422 105.42622 404.89453
120.4092 105.42611 404.99359
121.54458 105.46031 404.0946
122.49889 105.42589 405.18356
123.5436 105.42578 405.27448
124.42267 105.35706 407.35458
125.63277 105.42558 405.44806
126.67723 105.42548 405.53085
127.72161 105.42538 405.61087
128.76593 105.42529 405.6882
129.81017 105.42519 405.76279
130.78696 105.39079 406.83188
131.89845 105.42502 405.90393
133.00475 105.45924 404.97296
134.04617 105.45916 405.03659
135.03041 105.42477 406.09537
136.12886 105.45901 405.15585
137.06613 105.3903 407.20752
138.06305 105.35592 408.25888
139.06503 105.32154 409.30777
140.16072 105.35579 408.35736
141.16777 105.32141 409.40106
142.25824 105.35567 408.44504
143.34355 105.38992 407.48608
144.42371 105.42418 406.52426
145.46722 105.42413 406.55847
146.56854 105.49271 404.59201
147.63322 105.52699 403.62167
148.66898 105.52695 403.64767
149.68347 105.4926 404.67017
150.72174 105.49256 404.69092
151.74391 105.45821 405.70828
152.75764 105.38956 407.72232
153.80356 105.38954 407.73514
154.84106 105.3552 408.74469
155.8837 105.32087 409.75153
156.93144 105.28654 410.75571
157.98361 105.2179 412.75665
159.04417 105.18358 413.75546
160.10988 105.14926 414.75156
161.18071 105.11494 415.7449
162.27574 105.01201 418.73419
163.36197 104.9777 419.72186
164.468 104.90908 421.70605
165.63599 104.73752 426.68509
166.80984 104.60028 430.66171
167.98187 104.49735 433.63586
169.26898 104.25717 440.6033
170.592 104.01701 447.56683
171.9209 103.81115 453.52753
173.21539 103.67393 457.48654
174.4249 103.63965 458.44553
175.48863 103.74264 455.40646
176.537 103.84563 452.36496
177.52718 103.98294 448.32263
178.49689 104.12025 444.27817
179.63811 104.12031 444.22479
180.82994 104.08605 445.16656
181.97383 104.08612 445.10715
183.17348 104.05187 446.04269
184.2618 104.08625 444.97949
185.40587 104.08633 444.91119
186.55002 104.0864 444.84
187.62827 104.1208 443.76855
188.76999 104.12088 443.69153
189.91179 104.12096 443.61166
190.90636 104.18967 441.53537
192.04318 104.18976 441.44989
193.18008 104.18985 441.36148
194.31708 104.18994 441.27008
195.37027 104.22435 440.17987
196.59135 104.19014 441.07843
197.63959 104.22455 439.98276
198.77441 104.22465 439.87979
200.00351 104.19044 440.7688
201.14111 104.19055 440.65961
202.27882 104.19066 440.54749
203.51854 104.15646 441.42657
204.5546 104.19088 440.31427
205.58563 104.2253 439.19949
206.94046 104.1568 441.06247
208.19353 104.1226 441.92822
209.33714 104.12272 441.79758
210.48088 104.12284 441.66385
211.62479 104.12296 441.52716
212.76883 104.12308 441.38745
213.78799 104.15751 440.25314
214.92978 104.15762 440.1077
215.94156 104.19205 438.96829
217.21384 104.15787 439.80765
218.08549 104.2266 437.6727
219.22281 104.22672 437.51581
220.50075 104.19254 438.34531
221.78403 104.15836 439.17108
222.92703 104.15848 439.0043
224.21841 104.12429 439.82281
225.51515 104.09011 440.63745
226.51059 104.12453 439.47305
227.65698 104.12466 439.29352
228.80359 104.12477 439.1109
229.78937 104.15919 437.93884
230.77022 104.19362 436.76447
231.91235 104.19373 436.57339
233.05473 104.19384 436.37918
234.02599 104.22826 435.1973
235.51416 104.15976 436.96555
236.65988 104.15987 436.76157
237.98495 104.12567 437.53757
239.31546 104.09148 438.30951
240.46713 104.09158 438.09503
241.61906 104.09167 437.87735
242.7713 104.09177 437.65646
243.73181 104.12617 436.4516
245.07666 104.09196 437.20508
246.42697 104.05775 437.95435
247.18346 104.12644 435.76163
248.33464 104.12653 435.52521
250.30597 103.9894 439.19818
251.6757 103.95518 439.93069
252.84082 103.95526 439.6817
253.79358 103.98962 438.45297
254.95682 103.98969 438.19791
255.90253 104.02406 436.96423
257.0639 104.02412 436.70313
258.00256 104.05847 435.46451
259.61353 103.98993 437.14453
261.00693 103.95567 437.84583
262.17505 103.95572 437.5701
263.11014 103.99006 436.31927
264.74866 103.9215 437.97961
266.1593 103.88723 438.66357
267.09308 103.92155 437.40305
268.26593 103.92159 437.10965
270.17865 103.81871 439.71835
271.36026 103.81873 439.41599
272.79398 103.78444 440.07727
274.2334 103.75014 440.7337
275.42163 103.75014 440.4194
276.35083 103.78444 439.13638
277.53745 103.78444 438.81558
278.72458 103.78442 438.49124
280.17953 103.75011 439.12631
281.37033 103.7501 438.79401
282.83417 103.71578 439.41962
284.02863 103.71576 439.07925
285.22366 103.71573 438.73526
285.85843 103.78429 436.46899
287.61536 103.71567 438.03613
288.52643 103.74992 436.7233
289.72113 103.74989 436.36523
291.20724 103.71555 436.95953
292.69922 103.68121 437.54849
293.6048 103.71546 436.22299
295.10321 103.68112 436.80273
296.90887 103.61247 438.32993
298.11765 103.61243 437.94577
299.32709 103.61239 437.55777
300.53711 103.61234 437.16583
302.68347 103.5094 439.61853
303.58813 103.54366 438.26752
305.4397 103.47502 439.7576
306.98267 103.44069 440.29324
308.20914 103.44066 439.87714
309.11121 103.47493 438.5119
310.3363 103.47491 438.08856
311.89246 103.44061 438.6044
313.12158 103.4406 438.172
314.68698 103.4063 438.67688
316.25833 103.37202 439.17569
317.49469 103.37205 438.72897
318.38818 103.40638 437.3396
319.96945 103.37213 437.823
321.55667 103.33791 438.3002
323.14984 103.3037 438.77118
323.33221 103.40669 435.4978
325.64032 103.30392 437.82733
326.88647 103.30407 437.34894
328.49542 103.26994 437.79773
329.38065 103.30444 436.37921
332.466 103.13318 440.53485
333.72781 103.13345 440.03381
337.97266 102.85937 446.94662
343.38702 102.48245 456.61639
347.72614 102.20848 463.48239
351.34686 102.00315 468.4783
356.53391 101.66071 477.14786
358.2995 101.62697 477.49414
358.12686 101.76473 473.22992
358.71619 101.83397 470.80899
360.4776 101.8004 471.14297
361.45105 101.83546 469.63535
364.41681 101.69918 472.70566
367.00201 101.59727 474.84686
370.81787 101.39261 479.71735
373.44336 101.29089 481.83105
375.26453 101.25784 482.10986
376.67816 101.25916 481.47119
378.50717 101.22631 481.73654
379.50491 101.26212 480.17905
-37.616577 104.31549 433.55887
-36.754303 104.28244 435.04297
-35.074265 104.31281 434.69852
-34.206665 104.27991 436.17609
-32.932953 104.27877 436.7359
-32.057587 104.24601 438.20801
-30.781555 104.245 438.76004
-29.112915 104.27573 438.38849
-27.449875 104.30653 438.01013
-25.792542 104.33739 437.62512
-24.140869 104.3683 437.23331
-22.494919 104.39926 436.83484
-20.854736 104.43027 436.42975
-19.974091 104.39794 437.86954
-18.714386 104.39734 438.38025
-17.083633 104.42848 437.95865
-15.45874 104.45966 437.53052
-14.205933 104.45916 438.02591
-12.590118 104.4904 437.58588
-11.34111 104.48997 438.07156
-10.092682 104.48956 438.55286
-8.8448639 104.48918 439.02991
-7.2447205 104.52053 438.5675
-6.0007935 104.52019 439.03494
-4.7575226 104.51987 439.49817
-3.5148926 104.51958 439.95718
-1.930542 104.551 439.47284
-1.0315094 104.51903 440.86243
0.20916748 104.51877 441.30884
1.7835999 104.55024 440.80911
3.3520966 104.58172 440.30338
5.2437592 104.64492 438.84793
7.124176 104.70814 437.3847
8.0219269 104.67622 438.75052
9.2454834 104.67604 439.16763
10.149826 104.64414 440.52811
11.374725 104.64397 440.93808
12.28569 104.61208 442.29315
13.822571 104.64362 441.74609
15.353592 104.67518 441.19324
16.878677 104.70673 440.63483
18.095108 104.70657 441.02338
19.310944 104.70642 441.40799
20.823685 104.73798 440.83453
22.03566 104.73784 441.2106
23.247025 104.73769 441.58286
24.747467 104.76926 440.99466
25.667999 104.7374 442.31589
27.162033 104.76897 441.71854
28.650238 104.80053 441.11594
29.85347 104.80038 441.46774
30.779564 104.76852 442.77631
32.532211 104.8318 441.19901
33.459839 104.79994 442.50089
34.660873 104.79979 442.83795
35.861366 104.79964 443.17133
37.588402 104.86292 441.57275
38.782677 104.86277 441.8974
40.493027 104.92605 440.28745
41.425377 104.89417 441.56982
42.615547 104.89401 441.88306
43.554749 104.86214 443.16034
44.49868 104.83025 444.43542
45.69265 104.83009 444.73938
47.128845 104.86163 444.07022
48.559402 104.89319 443.39624
50.221809 104.95647 441.74661
51.403603 104.95629 442.03403
52.584969 104.95612 442.31802
53.765938 104.95593 442.59854
54.719376 104.92403 443.849
56.126656 104.95558 443.14929
57.306412 104.95539 443.41965
58.485794 104.95521 443.68655
59.66481 104.95502 443.95004
61.057587 104.98656 443.23398
62.021729 104.95464 444.46704
63.199654 104.95445 444.72052
64.377228 104.95426 444.97064
65.554474 104.95406 445.21744
66.731384 104.95387 445.46094
67.907967 104.95367 445.70111
69.084236 104.95347 445.93802
70.066734 104.92154 447.15222
71.24498 104.92134 447.383
72.42292 104.92114 447.6105
73.414856 104.88921 448.81689
74.228554 104.82554 451.0036
75.052299 104.76187 453.1889
75.530182 104.63474 457.3399
76.554573 104.60279 458.53928
77.411049 104.53912 460.72083
78.958458 104.60237 458.96124
81.165855 104.79256 453.25528
83.672195 105.04623 445.56924
86.137054 105.2999 437.87314
88.720367 105.58531 429.18048
91.099747 105.839 421.46436
93.128204 106.02922 415.7135
94.821182 106.15598 411.93063
96.194168 106.21927 410.11813
97.70369 106.31429 407.31256
99.053131 106.37759 405.49091
100.25023 106.40915 404.65424
101.58131 106.47244 402.82428
102.62848 106.47227 402.97025
103.54131 106.44035 404.10391
104.45914 106.40844 405.23547
105.38195 106.37653 406.36493
106.30977 106.34461 407.49222
107.24258 106.3127 408.61737
108.05908 106.24905 410.73248
109.00447 106.21713 411.85364
109.95486 106.18523 412.97253
111.02386 106.18506 413.09622
112.09274 106.1849 413.2171
113.3784 106.24822 411.34796
114.54779 106.27981 410.46875
115.81525 106.34314 408.5921
116.97157 106.37473 407.70602
118.12263 106.40633 406.81671
119.26848 106.43793 405.92407
120.31604 106.43779 406.02338
121.36349 106.43764 406.11993
122.41086 106.43751 406.21378
123.54349 106.46912 405.30908
124.42255 106.40549 407.38934
125.63266 106.46886 405.4827
126.67712 106.46873 405.5654
127.72151 106.46861 405.64542
128.6933 106.43674 406.71964
129.81007 106.46838 405.79736
130.85425 106.46827 405.86929
131.89835 106.46816 405.93848
133.00467 106.49981 405.00742
134.04608 106.4997 405.07108
134.97321 106.43611 407.12772
136.07422 106.46777 406.18826
137.06606 106.43592 407.24213
138.01353 106.37234 409.29184
139.06497 106.37225 409.34256
140.16066 106.40392 408.39203
141.20944 106.40385 408.43719
142.25818 106.40378 408.47971
143.34349 106.43546 407.52066
144.42366 106.46715 406.55872
145.46716 106.46709 406.59296
146.53958 106.49878 405.62543
147.63318 106.56223 403.65588
148.66893 106.56219 403.68188
149.68344 106.5304 404.7045
150.72171 106.53036 404.72519
151.74388 106.49857 405.74265
152.75761 106.43503 407.75687
153.79257 106.40325 408.7691
154.83264 106.37148 409.77878
155.87199 106.30795 411.78525
156.92816 106.30794 411.79004
157.98288 106.24442 413.79114
159.04417 106.24442 413.79056
160.10988 106.21266 414.78668
161.18071 106.18091 415.78015
162.2662 106.11742 417.7702
163.36198 106.05392 419.75748
164.46802 105.99043 421.74182
165.61879 105.86344 425.72192
166.80986 105.7047 430.69821
168.00426 105.57773 434.67191
169.29393 105.35549 441.63983
170.61952 105.13326 448.60394
171.95099 104.94279 454.56503
173.28065 104.78409 459.52332
174.46013 104.78414 459.48325
175.52641 104.87946 456.44385
176.57736 104.97477 453.40204
177.52724 105.1336 448.36069
178.49695 105.26067 444.31595
179.63817 105.26074 444.26251
180.72888 105.29257 443.20795
181.92078 105.2609 444.14694
183.11786 105.22924 445.08261
184.20361 105.26108 444.0195
185.34512 105.26118 443.95139
186.48671 105.26128 443.88031
187.62836 105.26138 443.80634
188.70157 105.29323 442.73221
189.84079 105.29333 442.65247
190.90646 105.3252 441.573
192.04329 105.32532 441.48752
193.18019 105.32543 441.39914
194.3172 105.32555 441.30777
195.37036 105.35743 440.21744
196.59146 105.32581 441.11615
197.72876 105.32594 441.0159
198.77452 105.35783 439.91736
200.00363 105.32622 440.80646
201.14124 105.32636 440.69733
202.27895 105.32651 440.58521
203.41676 105.32665 440.47003
204.55472 105.3268 440.35199
205.58577 105.3587 439.23718
206.94058 105.29536 441.10028
208.19366 105.26378 441.96616
209.22253 105.29568 440.84259
210.48102 105.2641 441.70184
211.62491 105.26427 441.56516
212.76895 105.26443 441.42545
213.78813 105.29634 440.29108
214.9299 105.29652 440.14557
215.9417 105.32843 439.00616
217.08124 105.3286 438.85498
217.95032 105.39226 436.72018
218.94717 105.42417 435.5737
220.21997 105.39261 436.40408
221.64113 105.32931 438.21991
222.78156 105.32949 438.05344
224.07037 105.29793 438.8725
225.51529 105.23463 440.67566
226.66403 105.23482 440.49887
227.6571 105.26674 439.33173
228.80373 105.26692 439.14914
229.95056 105.26711 438.96344
230.93398 105.29903 437.78857
231.91248 105.33095 436.61151
233.05486 105.33113 436.41733
234.19746 105.33131 436.22
235.51428 105.29977 437.00381
236.83652 105.26822 437.78357
238.16417 105.23666 438.55927
239.31555 105.23685 438.34796
240.46722 105.23704 438.13348
241.43231 105.26895 436.93399
242.58195 105.26913 436.71362
243.53986 105.30104 435.50916
245.07672 105.23776 437.24365
246.62427 105.17448 438.97293
247.5831 105.20638 437.75882
248.73944 105.20657 437.5213
250.71594 105.07982 441.1936
251.8833 105.07999 440.94739
252.63075 105.14362 438.74362
253.79364 105.1438 438.49194
254.74155 105.1757 437.26093
255.68466 105.2076 436.02774
256.84344 105.20776 435.76724
258.00262 105.20792 435.50345
259.38785 105.17635 436.21002
260.77869 105.14479 436.91199
262.17511 105.11322 437.60944
263.34363 105.11337 437.33032
264.74866 105.0818 438.01907
265.92062 105.08195 437.73251
267.33432 105.05038 438.41251
268.5098 105.05053 438.11844
269.93216 105.01895 438.78952
271.11115 105.0191 438.48788
272.79395 104.9558 440.11728
273.97906 104.95593 439.80719
274.90778 104.98779 438.52768
276.09128 104.98793 438.21121
277.53738 104.95634 438.85574
278.45978 104.9882 437.56763
279.91214 104.95661 438.20349
281.10028 104.95674 437.87198
282.83408 104.89342 439.46005
284.02853 104.89355 439.11978
285.22354 104.89368 438.77582
286.13873 104.92553 437.46878
287.89825 104.86221 439.03537
288.52631 104.92578 436.76389
289.72098 104.9259 436.40582
290.91623 104.92603 436.04407
292.40558 104.89443 436.63397
293.60464 104.89456 436.26385
295.10303 104.86297 436.84372
296.90869 104.79967 438.37109
298.11749 104.7998 437.987
299.3269 104.79993 437.59903
300.84619 104.76836 438.15759
302.99518 104.67334 440.60977
303.58798 104.73692 438.30914
305.43951 104.67365 439.79935
306.98248 104.64209 440.33521
307.88647 104.67397 438.97302
309.11096 104.67414 438.5538
310.66382 104.6426 439.0748
312.2226 104.61108 439.58987
313.12137 104.64299 438.2142
314.68677 104.61149 438.71918
316.25812 104.57999 439.21814
317.83545 104.54852 439.71103
318.38797 104.6122 437.38202
319.96924 104.58075 437.86557
320.8587 104.61275 436.46967
322.44659 104.58133 436.94281
322.62366 104.67678 433.67114
324.56964 104.61371 435.06946
325.80786 104.61407 434.59415
327.771 104.55105 435.97778
328.65088 104.58318 434.56128
331.73096 104.42509 438.71951
334.0979 104.33047 441.00598
338.3454 104.07736 447.91849
343.38699 103.7609 456.66193
347.34805 103.53962 462.60358
351.34689 103.31839 468.52524
355.38354 103.09724 474.42673
357.1412 103.06632 474.77652
357.34943 103.16225 471.43616
358.7164 103.16315 470.85663
360.47784 103.13242 471.19073
362.245 103.10175 471.51773
365.21616 102.9761 474.58615
367.80676 102.88222 476.72531
371.62802 102.69339 481.59406
373.85144 102.63139 482.79306
375.26517 102.63284 482.15933
375.85318 102.69775 479.70023
377.67688 102.66772 479.96805
378.25122 102.73281 477.50519
-36.794296 105.61076 431.77786
-35.937317 105.5801 433.25961
-35.074982 105.54952 434.73935
-33.803772 105.54809 435.30243
-32.5327 105.54673 435.86108
-31.659958 105.51635 437.33209
-30.386536 105.51511 437.8829
-29.113373 105.51395 438.42923
-27.060104 105.57101 437.13049
-25.405396 105.59906 436.74423
-24.141205 105.59805 437.27371
-22.495224 105.62621 436.87509
-20.855026 105.6544 436.46991
-19.974319 105.62444 437.90967
-18.7146 105.62361 438.42035
-17.083817 105.65193 437.99863
-15.458908 105.68028 437.57037
-14.20607 105.67957 438.0657
-12.59024 105.708 437.62558
-10.980316 105.73646 437.17902
-9.3763275 105.76495 436.72617
-8.1337891 105.76435 437.20108
-6.8918915 105.76378 437.67178
-5.6506042 105.76323 438.13821
-4.7575684 105.73358 439.53754
-3.5149384 105.73307 439.99649
-1.5882416 105.79082 438.57288
-0.69186401 105.76122 439.96155
0.54620361 105.76076 440.40692
2.1179962 105.78944 439.90613
3.6838226 105.81813 439.39941
5.2437592 105.84684 438.8866
6.7977142 105.87556 438.36792
8.0219116 105.87517 438.78909
9.5666656 105.90391 438.25955
10.786926 105.90353 438.67175
11.690628 105.87404 440.02826
12.912247 105.87368 440.43332
14.133224 105.87333 440.83441
15.661591 105.90211 440.28064
16.878662 105.90177 440.673
18.095093 105.90144 441.06149
19.611069 105.93024 440.49261
20.823654 105.92992 440.8725
22.330505 105.95873 440.29349
23.246994 105.92928 441.62073
25.037079 105.98724 440.07578
26.24202 105.98693 440.43881
27.446396 105.98662 440.79803
28.650192 105.98631 441.1535
29.853409 105.98601 441.50534
30.779503 105.95657 442.8139
32.258194 105.98541 442.19769
33.73111 106.01425 441.57629
34.929535 106.01395 441.91257
36.127419 106.01366 442.24521
37.588318 106.0425 441.60995
38.782578 106.04221 441.9346
40.234634 106.07105 441.29004
41.425285 106.07076 441.60678
42.615448 106.07047 441.92001
43.554649 106.04103 443.19736
44.498566 106.01159 444.4725
45.692535 106.01129 444.7764
47.371414 106.0693 443.13751
48.559273 106.069 443.43307
49.984177 106.09786 442.75424
51.403458 106.12672 442.07068
52.584824 106.12643 442.35461
53.765778 106.12613 442.63513
54.946335 106.12584 442.9122
56.12648 106.12555 443.18588
57.306244 106.12526 443.45615
58.485626 106.12497 443.72302
59.664635 106.12467 443.98651
61.057404 106.15353 443.27036
62.021545 106.12409 444.50348
63.199463 106.12379 444.75693
64.377052 106.1235 445.00699
65.350502 106.09406 446.23236
66.529991 106.09377 446.47635
67.709152 106.09348 446.71707
69.084045 106.12234 445.97424
70.066544 106.0929 447.18851
71.244766 106.09261 447.41934
72.422714 106.09232 447.64682
73.600349 106.09203 447.87109
74.411469 106.03342 450.0574
75.232628 105.97481 452.2424
75.707932 105.85786 456.39319
76.378983 105.77009 459.56036
77.238045 105.71146 461.74246
78.617813 105.74034 460.96814
80.83036 105.91505 455.26257
83.506927 106.17728 446.59088
85.974373 106.41035 438.89453
88.560257 106.6726 430.20163
91.099548 106.93486 421.49811
92.973251 107.08045 416.73431
94.668808 107.19688 412.95151
96.19397 107.28416 410.15091
97.850525 107.4006 406.35638
99.197403 107.45871 404.53415
100.39192 107.48765 403.69705
101.58113 107.51659 402.85638
102.62829 107.51637 403.00238
103.67529 107.51614 403.14554
104.59055 107.48675 404.27679
105.51079 107.45736 405.40598
106.43603 107.42796 406.53305
107.49016 107.42775 406.66605
108.18021 107.34001 409.77286
109.24176 107.3398 409.90131
110.07085 107.28123 412.01245
111.13728 107.28103 412.13586
112.31462 107.31001 411.263
113.48669 107.33899 410.38684
114.7594 107.39716 408.51331
115.91841 107.42615 407.63016
116.97141 107.42596 407.73825
118.02429 107.42577 407.84354
119.17271 107.45478 406.95108
120.22284 107.45461 407.0506
121.27287 107.45444 407.1474
122.41071 107.48345 406.24576
123.54334 107.51247 405.34097
124.50519 107.48313 406.42523
125.63252 107.51215 405.51456
126.75464 107.54119 404.60074
127.79646 107.54105 404.6806
128.7657 107.51172 405.75464
129.8799 107.54076 404.83212
130.85413 107.51144 405.90112
131.89824 107.51132 405.97031
132.94229 107.51119 406.0368
134.04597 107.54026 405.10281
134.97311 107.48177 407.15961
136.01956 107.48166 407.2182
137.01396 107.45236 408.27228
137.96402 107.39388 410.32227
139.01801 107.39378 410.37308
140.16057 107.45207 408.42401
141.20935 107.45198 408.46918
142.29727 107.48109 407.51285
143.38004 107.51019 406.55362
144.45764 107.53931 405.59152
145.53008 107.56843 404.62662
146.56844 107.56837 404.65799
147.65948 107.62669 402.68826
148.69267 107.62663 402.71414
149.70462 107.5974 403.73679
150.74034 107.59735 403.75748
151.75993 107.56812 404.7749
152.75758 107.48051 407.78876
153.79254 107.45129 408.80109
154.83263 107.42208 409.81079
155.87198 107.36368 411.81738
156.92487 107.33447 412.82181
157.98288 107.30527 413.82349
159.04417 107.30527 413.82291
160.10547 107.30527 413.81955
161.17374 107.27608 414.81308
162.25668 107.21771 416.80334
163.3499 107.15935 418.79077
164.46805 107.07179 421.77481
165.6188 106.95506 425.75522
166.80989 106.80914 430.7319
167.98193 106.72161 433.70654
169.26904 106.51733 440.67508
170.56461 106.34224 446.64059
171.89095 106.16715 452.60236
173.18288 106.05046 456.56207
174.35466 106.05052 456.52234
175.451 106.10897 454.48184
176.49683 106.19662 451.44
177.48445 106.31345 447.39709
178.4516 106.43029 443.35214
179.59026 106.43038 443.29889
180.72897 106.43048 443.24271
181.92087 106.40139 444.1817
183.11795 106.37231 445.11752
184.26198 106.37242 445.05225
185.34525 106.40172 443.98624
186.48682 106.40184 443.91516
187.62848 106.40196 443.84116
188.70169 106.43128 442.76697
189.84091 106.43141 442.68723
190.90659 106.46074 441.60767
192.04341 106.46088 441.52219
193.18033 106.46103 441.43381
194.31732 106.46118 441.34247
195.37051 106.49052 440.25208
196.50513 106.49068 440.15503
197.63985 106.49084 440.05499
198.68304 106.5202 438.95667
199.90961 106.49119 439.84613
201.14139 106.46218 440.73209
202.2791 106.46236 440.61993
203.51883 106.43336 441.49924
204.65935 106.43356 441.38089
205.69296 106.46293 440.26569
206.94077 106.43394 441.13519
208.08167 106.43414 441.00784
209.2227 106.43435 440.8775
210.36389 106.43456 440.74417
211.62509 106.40559 441.60016
212.64668 106.43497 440.46841
213.78831 106.4352 440.32605
214.80251 106.46459 439.18921
215.94188 106.46481 439.04108
217.08142 106.46504 438.88986
218.08582 106.49444 437.74536
219.08525 106.52385 436.59842
220.22017 106.52408 436.43887
221.35526 106.52431 436.27625
222.63615 106.49538 437.09955
223.92239 106.46644 437.91904
225.21396 106.43752 438.73462
226.51091 106.40858 439.54642
227.5014 106.438 438.37955
228.64543 106.43826 438.19739
229.62863 106.46767 437.0256
230.93417 106.43876 437.82373
231.91266 106.46818 436.64661
233.05505 106.46843 436.45245
234.36902 106.43952 437.2399
235.68842 106.41061 438.02335
236.8367 106.41087 437.81891
237.98523 106.41113 437.61127
239.31573 106.38223 438.38339
240.28313 106.41166 437.18652
241.24562 106.44109 435.9874
242.77158 106.38303 437.7305
243.73207 106.41246 436.52554
245.0769 106.38356 437.27924
246.62442 106.32551 439.00861
247.58325 106.35493 437.79446
248.73961 106.35521 437.55701
250.30621 106.29716 439.27301
251.46838 106.29742 439.02792
252.42078 106.32686 437.80231
253.36835 106.35629 436.57455
254.5264 106.35656 436.32071
255.4669 106.38599 435.08807
256.40259 106.41541 433.85324
257.55658 106.41568 433.59064
258.93661 106.3868 434.29846
260.55051 106.32876 435.97491
261.94434 106.29987 436.67307
263.34375 106.271 437.36655
264.74878 106.24211 438.05542
265.92075 106.24239 437.76889
266.8519 106.27181 436.50897
268.26602 106.24294 437.18555
269.68579 106.21405 437.85745
270.86218 106.21432 437.55649
272.54236 106.1563 439.18677
273.97913 106.12743 439.84402
275.16476 106.1277 439.53052
276.09137 106.15713 438.24808
277.53748 106.12826 438.8927
278.72458 106.12853 438.56842
279.9122 106.12881 438.24051
280.83041 106.15823 436.94656
282.28903 106.12936 437.57388
283.47827 106.12964 437.23514
284.9458 106.10078 437.85291
285.85837 106.1302 436.54663
287.89828 106.04306 439.07285
288.52634 106.10163 436.80121
290.00928 106.07278 437.40033
291.20712 106.07307 437.03781
292.40558 106.07336 436.67145
293.60464 106.07366 436.30139
295.10303 106.04482 436.88138
296.90869 105.98685 438.409
298.42145 105.95802 438.97717
299.63351 105.95834 438.58838
301.15543 105.92953 439.14621
302.99518 105.87159 440.64813
303.90247 105.90106 439.29617
305.43951 105.87227 439.83783
306.98245 105.84348 440.37378
308.20892 105.84384 439.95773
309.11096 105.87334 438.59244
310.33612 105.87373 438.16922
311.89227 105.84499 438.68533
313.12137 105.84538 438.25299
314.68677 105.81667 438.75812
316.25812 105.78798 439.2572
318.17639 105.73017 440.68988
318.73157 105.78888 438.3598
320.31549 105.76024 438.84247
321.20764 105.78986 437.44559
322.79819 105.76125 437.91785
322.62372 105.87827 433.71021
324.5697 105.82059 435.10873
325.44843 105.8503 433.70084
327.40894 105.79268 435.0856
328.28619 105.82243 433.67017
331.36359 105.67753 437.8299
333.35779 105.62001 439.18924
337.97278 105.35876 447.03201
342.63629 105.09758 454.85107
346.59198 104.89468 460.79547
350.96637 104.66274 467.6442
355.00043 104.45999 473.54745
356.36929 104.46102 472.9765
357.73859 104.4621 472.4007
359.49979 104.43415 472.73981
360.47833 104.46445 471.23459
362.24551 104.43661 471.56174
364.81726 104.35069 473.71426
365.79657 104.38119 472.19443
369.19974 104.23725 476.15573
371.40717 104.18067 477.36203
372.80493 104.18234 476.7355
374.2027 104.1841 476.10416
376.43134 104.12782 477.2861
376.99774 104.18792 474.82675
-37.206924 106.81623 432.72598
-36.347183 106.78796 434.20898
-35.075897 106.78625 434.77655
-33.804672 106.7846 435.33966
-32.132645 106.80951 434.98248
-30.864319 106.808 435.53543
-29.596191 106.80655 436.08392
-28.328339 106.80516 436.62793
-26.28038 106.85683 435.32678
-25.018463 106.85555 435.85959
-24.141785 106.82782 437.31055
-22.495789 106.85315 436.91187
-20.476013 106.90504 435.5817
-19.974823 106.85093 437.94638
-19.089233 106.82337 439.38394
-17.084244 106.87538 438.03513
-15.45932 106.90092 437.60678
-14.572662 106.87347 439.03223
-12.590607 106.92561 437.6618
-10.980667 106.95126 437.21518
-9.7348633 106.95041 437.6954
-8.4896851 106.9496 438.17133
-7.2450867 106.94881 438.64294
-5.6508789 106.97456 438.17407
-4.4102173 106.97382 438.6362
-2.8252258 106.99963 438.15588
-1.24617 107.02547 437.6694
-0.012756348 107.02478 438.117
1.2200165 107.02412 438.56042
2.7865295 107.05 438.05765
4.0153503 107.04938 438.49188
5.5726318 107.0753 437.97806
7.1239624 107.10124 437.45837
8.3455353 107.10065 437.87854
9.566452 107.10007 438.29468
10.786728 107.0995 438.70682
11.374481 107.04585 441.01181
12.59874 107.04531 441.41769
14.132996 107.07132 440.86951
15.353333 107.07079 441.2666
16.878448 107.09682 440.70792
18.094879 107.09631 441.09637
19.610855 107.12235 440.52737
20.823425 107.12186 440.90726
22.625214 107.17448 439.37292
23.831345 107.17399 439.74347
25.326523 107.20007 439.15347
26.241821 107.17303 440.47318
27.446182 107.17257 440.83243
28.368149 107.14554 442.14703
29.57399 107.14508 442.49954
30.502708 107.11806 443.8089
32.257965 107.17073 442.23196
33.730881 107.19685 441.6105
34.929283 107.1964 441.94678
36.393311 107.22253 441.31577
37.588089 107.22208 441.64398
38.782349 107.22165 441.96857
40.23439 107.24779 441.32394
41.425026 107.24735 441.64069
42.615196 107.24693 441.95386
43.804886 107.24651 442.26349
44.994102 107.24608 442.56958
46.182869 107.24566 442.87213
47.856537 107.29839 441.23172
49.039185 107.29797 441.52603
50.221405 107.29756 441.81683
51.403206 107.29715 442.10416
52.584557 107.29675 442.38812
53.765518 107.29634 442.66858
54.718964 107.26936 443.9191
56.350731 107.32211 442.24518
57.527901 107.32171 442.51483
58.704689 107.32131 442.7811
59.881096 107.32092 443.04401
61.485435 107.37369 441.35071
62.444382 107.34672 442.58276
63.408165 107.31974 443.81262
64.583145 107.31935 444.06216
65.554008 107.29238 445.28705
66.730919 107.29199 445.53046
67.708878 107.26502 446.75031
68.887726 107.26464 446.98767
70.066269 107.26427 447.22174
71.244492 107.26389 447.45255
72.422424 107.26352 447.68005
73.414368 107.23655 448.88654
74.594307 107.23618 449.10797
75.232353 107.15603 452.27579
75.885605 107.07587 455.44321
76.554077 106.99572 458.61011
77.410553 106.94215 460.79187
78.787743 106.96839 460.01706
80.997719 107.12763 454.31058
83.341591 107.31348 447.60962
85.974091 107.55255 438.92679
88.400078 107.76503 431.21997
90.78463 107.97752 423.50339
92.663483 108.11023 418.74005
94.516373 108.24294 413.96976
96.193726 108.34906 410.18091
97.850281 108.45518 406.38614
99.197159 108.5081 404.56372
100.53357 108.56104 402.737
101.7202 108.58736 401.89587
102.76479 108.58709 402.04153
103.80922 108.58682 402.18433
104.72191 108.55994 403.31534
105.63958 108.53307 404.44421
106.68871 108.53281 404.57935
107.61381 108.50594 405.70367
108.42261 108.45246 407.81808
109.36028 108.4256 408.93845
110.18681 108.37212 411.04944
111.25067 108.37188 411.17255
112.31441 108.37164 411.29282
113.48648 108.39802 410.41653
114.7592 108.45102 408.54288
115.9182 108.47741 407.65967
116.87046 108.45058 408.76224
117.92592 108.45036 408.8678
119.0769 108.47677 407.97549
120.1296 108.47656 408.07529
121.27269 108.50298 407.17676
122.41054 108.5294 406.27505
123.54317 108.55583 405.37018
124.67059 108.58226 404.46213
125.79279 108.6087 403.55093
126.90977 108.63515 402.63663
127.94647 108.63498 402.71603
128.91058 108.6082 403.78976
129.94971 108.60804 403.86401
130.92137 108.58126 404.93295
131.96292 108.58111 405.00195
133.00443 108.58096 405.0683
134.04585 108.58083 405.13193
134.97298 108.52745 407.18887
136.07401 108.55394 406.24927
137.01384 108.50057 408.30157
138.01334 108.47382 409.35327
139.06477 108.47372 409.40396
140.16048 108.50023 408.45328
141.20926 108.50013 408.49847
142.2972 108.52666 407.54205
143.37996 108.55319 406.58279
144.45755 108.57973 405.62064
145.53 108.60629 404.65561
146.59729 108.63284 403.68777
147.68578 108.68603 401.71777
148.71642 108.68597 401.74365
149.7258 108.65928 402.76627
150.75896 108.65923 402.78693
151.776 108.63256 403.80438
152.75755 108.52601 407.81793
153.79251 108.49935 408.83035
154.8326 108.47269 409.84015
155.87196 108.41942 411.84686
156.92485 108.39278 412.85138
157.98286 108.36613 413.85312
159.04416 108.36613 413.85248
160.10988 108.33951 414.84882
161.18073 108.31288 415.84241
162.26624 108.25964 417.83279
163.36201 108.20641 419.82034
164.46806 108.15318 421.80496
165.61884 108.0467 425.78571
166.80994 107.9136 430.7627
167.98198 107.83376 433.73764
169.24417 107.67405 439.70731
170.53717 107.51434 445.67337
171.80087 107.4079 449.63724
173.11774 107.27484 454.59659
174.28439 107.27492 454.55701
175.37561 107.32825 452.51654
176.45662 107.3816 450.47351
177.48454 107.46157 447.42917
178.49712 107.54155 444.38257
179.63835 107.54166 444.32919
180.72908 107.5684 443.27454
181.92099 107.54189 444.21362
183.11807 107.51539 445.14944
184.2621 107.51552 445.08417
185.34537 107.54228 444.01813
186.48695 107.54243 443.94711
187.62862 107.54257 443.87311
188.70183 107.56935 442.7988
189.84106 107.56951 442.71906
190.98038 107.56967 442.63635
192.04356 107.59647 441.55399
193.25928 107.57002 442.46216
194.31749 107.59682 441.37424
195.37068 107.62363 440.28381
196.59178 107.5972 441.18265
197.72908 107.5974 441.08243
198.77486 107.62421 439.98383
199.90979 107.62443 439.87787
201.14157 107.59802 440.76392
202.2793 107.59824 440.65182
203.41713 107.59846 440.53674
204.65955 107.57207 441.41281
205.69318 107.59892 440.29758
