ply
format ascii 1.0
comment PCL generated
element vertex 1591
property float x
property float y
property float z
element camera 0
property float view_px
property float view_py
property float view_pz
property float x_axisx
property float x_axisy
property float x_axisz
property float y_axisx
property float y_axisy
property float y_axisz
property float z_axisx
property float z_axisy
property float z_axisz
property float focal
property float scalex
property float scaley
property float centerx
property float centery
property int viewportx
property int viewporty
property float k1
property float k2
end_header
196.16577 224.35278 434.91208
197.41208 224.59131 435.77673
198.6637 224.83002 436.63782
199.92062 225.06888 437.49518
201.08817 225.07411 437.38123
202.25587 225.0795 437.26404
203.42374 225.08502 437.14365
204.48932 224.85689 436.05325
205.65494 224.86273 435.92673
206.7131 224.63486 434.83072
207.76628 224.4071 433.73206
208.81447 224.17949 432.6308
209.97308 224.18594 432.49237
211.24985 224.42648 433.31577
212.53198 224.66721 434.13528
213.81952 224.90811 434.9509
215.11243 225.14923 435.76263
216.41074 225.39053 436.57034
217.58356 225.39804 436.41083
218.75658 225.40572 436.24792
219.65765 224.94547 434.15643
220.82599 224.95343 433.98776
222.13583 225.19565 434.77762
223.30725 225.20401 434.60196
224.33246 224.97839 433.46182
225.65086 225.22119 434.2406
226.97472 225.46423 435.01529
228.14978 225.47327 434.82587
229.16832 225.24832 433.67371
230.66022 225.72617 435.39606
232.00076 225.97002 436.15472
233.18219 225.97983 435.95096
234.36392 225.98984 435.74384
235.71579 226.23434 436.49054
236.72833 226.01041 435.31937
237.73602 225.78662 434.14569
238.91643 225.79735 433.92538
240.09718 225.80826 433.70163
241.27829 225.81937 433.47446
242.45972 225.83066 433.24377
243.82953 226.07661 433.96341
245.20493 226.32281 434.67856
246.58588 226.56926 435.38913
247.97241 226.81595 436.09509
248.96765 226.59373 434.89325
250.36017 226.84087 435.59106
251.55463 226.85361 435.33368
252.54324 226.63188 434.1228
253.94476 226.87968 434.80823
255.14044 226.89304 434.54016
256.55063 227.1413 435.21661
257.53305 226.92029 433.99319
258.94931 227.16902 434.66119
260.14929 227.18318 434.37802
261.57425 227.4324 435.0369
262.55057 227.21207 433.80069
264.21146 227.6967 435.39545
265.18604 227.47675 434.15247
266.15585 227.2569 432.90707
267.8338 227.74228 434.48672
269.04224 227.75787 434.17639
270.49396 228.00876 434.80338
271.70593 228.02477 434.48483
273.16647 228.27612 435.10217
274.13129 228.05734 433.83627
275.09128 227.83865 432.56793
276.55853 228.09064 433.17242
277.77292 228.10757 432.83472
278.7265 227.88933 431.5571
280.46704 228.37735 433.08322
282.21863 228.86572 434.60248
282.90451 228.41251 432.37927
284.12396 228.43033 432.02139
285.61838 228.68385 432.59192
286.84149 228.70204 432.22543
288.06506 228.7204 431.85498
289.00677 228.5032 430.5506
290.79865 228.99316 432.03116
292.31396 229.24774 432.57623
293.25452 229.03091 431.26068
294.48312 229.04996 430.86938
296.59885 229.7767 433.25125
297.53815 229.5602 431.92444
298.4726 229.34369 430.59521
299.70566 229.36317 430.18683
301.55139 229.85481 431.61884
303.09943 230.11063 432.12186
304.34167 230.13046 431.69849
305.89838 230.38649 432.19046
307.46082 230.64265 432.67651
308.39011 230.42642 431.32111
309.63644 230.44638 430.88013
310.55844 230.23004 429.5192
311.4754 230.01358 428.15601
312.38733 229.797 426.79059
313.9595 230.05319 427.24878
314.86658 229.8364 425.87701
317.12036 230.56561 428.14685
319.73083 231.53156 431.31647
321.33282 231.7878 431.74704
323.28613 232.28064 433.07928
324.90155 232.53677 433.49631
325.81979 232.31927 432.09537
327.44043 232.57506 432.50192
328.70972 232.59384 431.99841
329.97885 232.6123 431.49069
331.60962 232.86739 431.88046
336.16156 235.01773 439.46832
340.39371 236.93138 446.133
345.4075 239.31921 454.57263
348.61151 240.52203 458.49969
353.71704 242.91006 466.89197
355.85278 243.40134 468.09747
357.23746 243.41779 467.50623
359.38739 243.90793 468.69617
361.93262 244.63474 470.76889
363.32764 244.64923 470.15912
364.33044 244.42566 468.65585
366.90118 245.15031 470.70325
367.10873 244.45035 467.41785
368.49564 244.46129 466.79282
370.28238 244.70856 467.04846
371.6684 244.71741 466.41446
371.42542 243.77559 462.24808
374.43445 244.73158 465.13516
374.99017 244.26202 462.73071
376.77686 244.50328 462.96307
377.31458 244.03093 460.55783
380.35797 244.9816 463.41034
-43.002365 236.25534 427.78137
-41.733185 236.25212 428.37717
-40.053665 236.00769 428.0889
-38.782791 236.00203 428.67691
-37.107101 235.75534 428.3783
-35.434875 235.50761 428.07385
-34.163879 235.49884 428.6492
-32.496323 235.24921 428.33405
-31.224976 235.23859 428.90091
-30.342026 235.46695 430.35321
-28.678452 235.21489 430.02344
-27.019043 234.9621 429.68747
-25.745758 234.94844 430.23804
-23.713257 234.45468 428.99716
-22.067032 234.20013 428.64273
-21.17308 234.42438 430.07401
-19.902039 234.40843 430.60648
-18.630402 234.392 431.13486
-17.358292 234.37509 431.65918
-16.08577 234.35776 432.17938
-14.452271 234.10059 431.79401
-12.823761 233.84311 431.40231
-10.845078 233.34602 430.10083
-9.2294617 233.08817 429.69559
-7.269043 232.59079 428.37845
-6.013855 232.5719 428.86639
-4.4139557 232.31357 428.44244
-3.8454895 232.77275 430.73853
-2.9270935 232.99246 432.12473
-2.003479 233.21191 433.50867
-0.072479248 232.71396 432.15527
0.85348511 232.9332 433.53183
2.4420776 232.67426 433.0788
3.6990509 232.6543 433.53424
5.6027069 232.15648 432.1543
6.5329895 232.37543 433.51602
8.1046295 232.11661 433.0405
9.3551178 232.09668 433.47733
11.231003 231.59927 432.07138
12.785721 231.34077 431.57785
14.642334 230.84375 430.15729
15.878128 230.82417 430.57303
17.718079 230.32751 429.13892
18.648117 230.54669 430.46851
20.177017 230.28891 429.9465
21.111481 230.50818 431.26968
22.634201 230.25069 430.73792
23.283997 230.70847 432.98184
24.516754 230.68954 433.36911
25.749008 230.67078 433.75241
26.98085 230.6521 434.13159
27.933655 230.87181 435.43729
29.718903 230.37708 433.9469
30.94664 230.35889 434.31342
32.173912 230.34088 434.6759
33.400665 230.32303 435.03452
34.892311 230.06731 434.45483
36.378197 229.81184 433.86975
37.598244 229.79457 434.21512
39.075272 229.53955 433.62003
40.801414 229.04694 432.08231
42.012154 229.03029 432.41388
42.972824 229.25163 433.68036
44.185226 229.23532 434.00504
45.397156 229.21921 434.3259
46.36692 229.44096 435.58377
47.580528 229.42519 435.89777
48.793671 229.40962 436.20804
50.240242 229.15663 435.57166
51.218628 229.37903 436.8172
52.659042 229.12653 436.17209
54.093765 228.87427 435.522
55.299438 228.85971 435.81232
56.504684 228.84537 436.09894
57.927635 228.59384 435.43536
59.344963 228.34254 434.76682
60.543694 228.32886 435.04132
61.952339 228.07806 434.3638
62.939941 228.30206 435.57944
64.137466 228.28897 435.84308
65.132095 228.51331 437.05328
66.131546 228.73776 438.26105
67.333115 228.7252 438.51508
68.728958 228.47571 437.81381
69.927162 228.46356 438.06021
71.125 228.45161 438.30307
72.696205 227.96573 436.63568
73.888123 227.95422 436.87045
75.442986 227.46887 435.19308
76.987137 226.98383 433.51013
78.16761 226.97299 433.73254
79.173912 227.19928 434.90732
80.527596 226.95187 434.16702
81.538452 227.1785 435.33594
82.720253 227.1684 435.54514
83.901756 227.15846 435.75092
85.24382 226.9119 434.99515
86.105576 227.37598 437.11087
87.288803 227.36658 437.30685
88.471733 227.35736 437.49954
89.654388 227.34833 437.68884
90.984673 227.10275 436.91452
92.454826 226.62067 435.17538
93.771622 226.37553 434.39243
94.942871 226.36728 434.56674
96.113861 226.35919 434.73779
97.419563 226.11465 433.94339
98.455139 226.34357 435.07001
99.625427 226.33603 435.23123
100.7955 226.32863 435.3891
101.96535 226.32141 435.54373
103.01299 226.5509 436.659
104.18501 226.54401 436.80743
105.35681 226.53728 436.95264
106.64268 226.29419 436.12964
107.81151 226.28781 436.26804
108.76202 226.75455 438.33414
109.93565 226.74844 438.46667
111.10912 226.74251 438.59589
112.28241 226.73672 438.72189
113.653 226.25824 436.91144
115.01309 225.77997 435.09668
116.26912 225.53831 434.24487
117.33788 225.76962 435.32413
118.58844 225.52831 434.46548
119.74788 225.52353 434.57098
120.9072 225.51889 434.67334
122.06636 225.51443 434.77255
123.14733 225.74646 435.83716
124.15785 226.21494 437.86768
125.39731 225.97456 436.98907
126.56116 225.97067 437.07605
127.7249 225.96693 437.15985
128.88853 225.96333 437.24051
130.05206 225.9599 437.31802
131.2155 225.95659 437.39236
132.32141 226.18971 438.43353
133.59694 225.71414 436.56146
134.75752 225.7113 436.62625
135.91805 225.70857 436.68787
137.07848 225.70599 436.74637
138.23883 225.70358 436.80176
139.39912 225.70129 436.85403
140.55936 225.69916 436.90314
141.75633 225.46091 435.97815
142.91386 225.45905 436.0209
144.07135 225.45734 436.06058
145.19972 225.69199 437.06839
146.3597 225.69055 437.10196
147.51964 225.68924 437.13232
148.67953 225.68808 437.15964
149.85815 225.45085 436.21231
151.0316 225.21375 435.26175
152.19987 224.97681 434.30801
153.35194 224.9762 434.32275
154.504 224.97574 434.33441
155.65018 225.21164 435.31467
156.80478 225.21146 435.32016
157.95868 225.4476 436.29425
159.11588 225.44769 436.29358
160.2775 225.68414 437.26144
161.44431 225.92072 438.22617
162.60667 225.92122 438.21613
163.76906 225.92188 438.20297
164.93146 225.92264 438.18661
166.09389 225.92357 438.16724
167.25635 225.92465 438.14471
168.39636 225.68964 437.14764
169.55632 225.69095 437.1189
170.71631 225.69246 437.08713
171.87636 225.69406 437.05215
173.06923 225.93207 437.98526
174.19658 225.69772 436.9729
175.35678 225.69977 436.92859
176.4765 225.46571 435.91034
177.63425 225.46805 435.85995
178.79207 225.4705 435.8064
179.94995 225.4731 435.74966
181.15875 225.71213 436.66025
182.31938 225.71504 436.59723
183.48009 225.71806 436.53098
184.69948 225.95755 437.43158
185.86295 225.96089 437.35892
186.96278 225.72807 436.31354
188.12387 225.7317 436.2348
189.2851 225.73547 436.15289
190.37492 225.50307 435.09875
191.53378 225.50714 435.01077
192.6161 225.27499 433.9509
193.77261 225.27936 433.85681
195.01108 225.5202 434.72772
196.17044 225.52489 434.62711
197.4169 225.76608 435.49103
198.66869 226.00748 436.35132
200.01791 226.48544 438.1752
201.1882 226.49077 438.06085
202.35864 226.49625 437.94327
203.52925 226.50189 437.82251
204.70001 226.50769 437.69852
205.76591 226.27718 436.60538
206.82681 226.04678 435.50949
207.88272 225.81653 434.41104
209.04646 225.82294 434.27505
210.21039 225.8295 434.13577
211.37453 225.83623 433.99329
212.65942 226.07968 434.81165
213.82657 226.08676 434.66238
215.11966 226.3306 435.47327
216.16148 226.10141 434.35403
217.46021 226.34563 435.15771
218.6308 226.35338 434.99493
219.66554 226.12465 433.86694
220.69534 225.89606 432.73636
222.14407 226.37772 434.48706
223.31567 226.38617 434.31119
224.48752 226.39481 434.13196
225.65962 226.40363 433.9494
226.832 226.4126 433.76349
228.00467 226.42177 433.57428
229.17761 226.43112 433.38174
230.51027 226.67749 434.1442
232.01047 227.16095 435.86032
233.19209 227.17091 435.65637
234.37399 227.18105 435.44894
235.38638 226.95447 434.28159
236.73877 227.2019 435.0239
237.74661 226.97565 433.85065
238.92722 226.98651 433.63007
240.10815 226.99759 433.40604
241.28943 227.00885 433.17853
242.47105 227.02029 432.94757
243.65305 227.03192 432.71313
245.02603 227.28087 433.42783
246.4046 227.53006 434.13797
247.78876 227.77951 434.84357
248.78156 227.55481 433.64255
250.17169 227.8047 434.33997
251.56741 228.05484 435.03268
252.55617 227.83066 433.82208
253.95792 228.08124 434.50653
255.36531 228.33209 435.18622
256.77832 228.58321 435.86111
257.76355 228.35977 434.63736
259.18262 228.61133 435.30374
260.38544 228.6257 435.01962
261.81323 228.87775 435.67685
262.79233 228.655 434.44028
264.22626 228.9075 435.08881
265.20099 228.68509 433.84616
266.17096 228.4628 432.60104
267.61151 228.71599 433.23721
268.81747 228.73169 432.92709
270.50974 229.22308 434.49417
271.96741 229.47705 435.11493
273.43082 229.73126 435.73053
274.39838 229.51004 434.46411
275.61456 229.52679 434.133
276.83127 229.54378 433.79807
278.04846 229.56091 433.45923
279.26611 229.57823 433.11652
281.01215 230.07178 434.63934
282.50262 230.32758 435.22131
283.46045 230.10742 433.93146
284.41351 229.88736 432.63922
285.63626 229.90553 432.27618
286.5824 229.68567 430.97836
287.80347 229.70413 430.60828
289.02502 229.72272 430.23416
290.81714 230.21812 431.71292
292.33258 230.47543 432.25677
293.85382 230.73297 432.79495
294.79486 230.51379 431.47562
296.91351 231.24866 433.85416
298.15369 231.26819 433.45084
299.09344 231.04926 432.12009
300.33188 231.06895 431.70944
302.18311 231.56607 433.13788
303.73651 231.82474 433.63794
304.98407 231.84474 433.21225
306.23206 231.86478 432.78241
307.16364 231.64601 431.43045
308.09021 231.4272 430.07623
309.33392 231.4472 429.63577
310.25317 231.22824 428.27606
311.16742 231.00912 426.91406
312.73669 231.26804 427.37628
314.31146 231.52692 427.83234
315.55637 231.54669 427.37106
317.81546 232.28389 429.63635
320.09061 233.02124 431.89151
322.03845 233.51939 433.22815
323.651 233.77826 433.64935
324.92029 233.79767 433.15808
325.8382 233.57747 431.75742
327.10471 233.59636 431.25876
328.37103 233.61497 430.75592
329.99646 233.8728 431.15094
331.26501 233.89084 430.63879
335.81418 236.0647 438.22095
340.41077 238.23882 445.77948
345.42444 240.65277 454.21173
348.25558 241.62885 457.23837
353.73337 244.28265 466.5199
355.8685 244.77884 467.72363
357.25253 244.79497 467.13223
359.40179 245.29002 468.32062
362.33215 246.26413 471.28198
362.95221 245.79849 468.89148
364.73352 246.05157 469.16714
366.51871 246.3038 469.43637
365.93005 245.11552 464.3819
368.10583 245.60571 465.53058
370.29041 246.09494 466.67059
371.67529 246.10312 466.03671
372.24457 245.63011 463.63626
375.66699 246.83591 467.39856
376.22919 246.36031 464.9921
378.02228 246.60339 465.22046
378.14911 245.88492 461.93683
381.19614 246.84511 464.78442
-43.830078 238.0155 429.18588
-42.146271 237.77045 428.90485
-40.465408 237.52412 428.61823
-38.787613 237.27661 428.32593
-37.113068 237.02795 428.02789
-35.441895 236.77823 427.724
-34.171875 236.77002 428.29919
-32.50528 236.51833 427.98474
-31.234818 236.50822 428.55157
-29.963028 236.49725 429.11478
-28.689957 236.48544 429.67416
-26.646835 235.98804 428.4483
-25.376892 235.97479 428.99783
-23.726791 235.71851 428.65039
-22.081161 235.46164 428.29684
-20.440063 235.20425 427.9371
-19.174835 235.18866 428.46756
-18.646179 235.65697 430.78894
-17.374512 235.64029 431.31348
-16.102432 235.62317 431.83401
-14.829956 235.60568 432.35043
-13.199142 235.3457 431.96088
-11.218033 234.84341 430.6622
-9.6000366 234.58298 430.25906
-7.2871094 233.83844 428.03983
-6.0321655 233.81964 428.52814
-4.4324341 233.55872 428.10529
-3.5221558 233.7814 429.49231
-2.6066284 234.0038 430.87717
-1.3490753 233.98422 431.34985
0.2424469 233.72281 430.90738
1.1656036 233.9447 432.28265
2.422699 233.9248 432.74277
3.6795959 233.90482 433.19867
5.5832672 233.40167 431.82062
6.1926422 233.8647 434.09787
8.085144 233.36168 432.7077
9.0200806 233.5831 434.06268
10.898712 233.08031 432.65955
11.835602 233.30171 434.00711
13.700287 232.79919 432.59113
14.944061 232.77939 433.01001
17.094406 232.03601 430.65823
18.029755 232.25763 431.98935
19.564072 231.99699 431.47021
20.798264 231.97763 431.87012
22.615524 231.47626 430.41473
23.554443 231.69817 431.73126
24.784668 231.67915 432.11819
25.730591 231.90118 433.42923
27.243713 231.64151 432.88
28.194 231.86374 434.18463
29.700912 231.60442 433.62582
30.928795 231.58607 433.99277
32.156204 231.5679 434.35574
33.115112 231.79056 435.64764
34.344193 231.77264 436.00348
35.572769 231.75493 436.35544
37.061005 231.4968 435.76831
38.54351 231.23892 435.17581
40.275146 230.74078 433.64136
41.743538 230.48343 433.03751
42.70697 230.7072 434.30444
44.169167 230.45032 433.69153
45.136917 230.67436 434.95224
46.351196 230.6582 435.27039
47.804123 230.40199 434.64401
49.014847 230.38628 434.95398
49.991234 230.61096 436.20227
51.203667 230.59558 436.5054
52.415642 230.58043 436.80481
53.85321 230.32533 436.1564
55.28511 230.0705 435.50302
56.711349 229.81592 434.8447
58.13192 229.56161 434.18152
59.546852 229.30757 433.51343
60.743164 229.29376 433.78769
62.149429 229.04019 433.11057
63.13459 229.26669 434.32529
64.124557 229.49332 435.5376
65.321877 229.48026 435.79803
66.118965 229.94704 437.9549
67.320717 229.93433 438.20929
68.522095 229.92178 438.46008
69.915192 229.66972 437.75571
71.11322 229.65762 437.99884
72.497772 229.40602 437.2858
73.876755 229.15468 436.56824
75.431877 228.66394 434.8924
76.976257 228.17349 433.21109
78.333412 227.92291 432.47903
79.337257 228.1517 433.65302
80.517281 228.14111 433.86884
81.528297 228.37021 435.03735
82.710274 228.35995 435.2468
83.728477 228.58936 436.40985
84.912453 228.57947 436.61295
85.937836 228.80917 437.77054
87.12384 228.79962 437.96722
88.309532 228.79027 438.16061
89.64547 228.54172 437.39136
90.97596 228.29338 436.61792
92.300995 228.04526 435.8403
93.763313 227.55807 434.09821
95.074875 227.31042 433.31201
96.243454 227.30225 433.48288
97.411789 227.29425 433.65048
98.447517 227.52567 434.77667
99.617981 227.51797 434.93805
100.66103 227.74969 436.05872
101.83363 227.74234 436.2139
102.88401 227.97433 437.32904
104.17821 227.72818 436.5144
105.35018 227.72134 436.65976
106.63622 227.47554 435.83762
107.80522 227.46906 435.97617
108.75586 227.94093 438.04117
109.82316 228.17383 439.13898
111.10328 227.92873 438.30322
112.37807 227.68379 437.46365
113.64751 227.43906 436.62033
115.00777 226.95547 434.80707
116.26396 226.71112 433.95602
117.33286 226.94498 435.03476
118.672 226.46196 433.20987
119.74319 226.69611 434.28253
120.90265 226.69141 434.38501
122.06197 226.68689 434.48438
123.14308 226.92145 435.5484
124.15373 227.39511 437.57779
125.32043 227.39099 437.66821
126.48701 227.38702 437.75546
127.65347 227.38321 437.83957
128.88501 227.14064 436.95163
130.04869 227.13713 437.02921
131.27229 226.8949 436.13452
132.4332 226.89169 436.20563
133.64888 226.64975 435.30405
134.80702 226.64687 435.36884
135.91541 226.88297 436.40009
137.07597 226.88036 436.45868
138.23648 226.8779 436.51416
139.35495 227.11443 437.53659
140.55728 226.87338 436.61563
141.71759 226.87137 436.66168
142.91208 226.63065 435.73419
144.03806 226.86774 436.74445
145.19821 226.86612 436.78113
146.33183 227.10349 437.7854
147.5184 226.86334 436.84512
148.67845 226.86218 436.8725
149.85722 226.6223 435.92578
151.04698 226.14377 434.00494
152.21281 225.90419 433.05185
153.36244 225.90359 433.06662
154.51205 225.90312 433.07825
155.65579 226.1416 434.0578
156.80467 226.38025 435.03439
157.95871 226.619 436.00784
159.11603 226.61909 436.00711
160.28224 227.09697 437.94543
161.44475 227.09732 437.93845
162.60725 227.09785 437.92841
163.76978 227.09851 437.91522
164.93233 227.0993 437.8989
166.09489 227.10025 437.87946
167.23759 226.8625 436.88605
168.39764 226.86371 436.86038
169.55774 226.86508 436.8317
170.71786 226.86659 436.7998
171.90826 227.10707 437.73541
173.07108 227.10886 437.6972
174.19856 226.87195 436.68549
175.35889 226.87402 436.64114
176.47876 226.63739 435.62347
177.63666 226.63976 435.573
178.7946 226.64226 435.51935
180.0009 226.88377 436.43243
181.16159 226.88658 436.37247
182.37578 227.1284 437.27887
183.48322 226.89261 436.24304
184.70274 227.13475 437.14288
185.86636 227.13815 437.07016
187.03009 227.14169 436.99429
188.19391 227.14539 436.91525
189.35785 227.14922 436.83304
190.52188 227.15321 436.74768
191.61198 226.9184 435.69098
192.69704 226.68372 434.63147
193.77704 226.44919 433.56924
195.01566 226.69275 434.43942
196.17517 226.69748 434.33865
197.50879 227.18037 436.16895
198.76332 227.42445 437.02823
200.02318 227.66872 437.88382
201.1936 227.67413 437.76932
202.3642 227.67969 437.65164
203.53497 227.68542 437.5307
204.7059 227.69131 437.40656
205.877 227.69736 437.27914
206.94064 227.46446 436.18353
207.99927 227.2317 435.08524
209.16577 227.2382 434.94873
210.21703 227.00574 433.84488
211.38132 227.01257 433.70224
212.66641 227.25876 434.51981
213.83371 227.26593 434.37033
215.00122 227.27325 434.21756
216.16896 227.28079 434.06161
217.46786 227.52771 434.86438
218.5051 227.29633 433.73972
219.5374 227.06509 432.61252
220.70349 227.07329 432.44379
222.15244 227.56027 434.1929
223.46809 227.8082 434.97702
224.6427 227.81699 434.79718
225.96667 228.06531 435.57339
227.14442 228.07446 435.38644
228.16817 227.84439 434.23755
229.34389 227.8539 434.04437
230.67935 228.10303 434.80548
231.85826 228.11293 434.60507
233.03745 228.12302 434.40128
234.04968 227.89375 433.2377
235.39676 228.14374 433.98349
236.5769 228.15436 433.76941
237.75735 228.16521 433.55197
238.93814 228.17621 433.33109
240.29953 228.42706 434.06073
241.48361 228.43851 433.83246
242.48254 228.21042 432.64767
243.66472 228.22223 432.41299
245.03793 228.47397 433.12674
246.22342 228.48618 432.88449
247.4093 228.49857 432.63876
248.59555 228.51117 432.3895
249.98328 228.76381 433.08643
251.17293 228.77684 432.82956
252.36298 228.79007 432.56912
253.76233 229.04343 433.25311
255.16733 229.29703 433.93237
256.57797 229.5509 434.60684
257.5607 229.32497 433.38394
258.97742 229.57932 434.04996
260.39978 229.83391 434.71106
261.82782 230.08876 435.36725
262.80707 229.86356 434.13095
264.01135 229.87868 433.83533
265.21613 229.89401 433.5361
266.18625 229.66928 432.29126
267.62701 229.92523 432.92633
268.83316 229.94115 432.61584
270.5257 230.43796 434.18115
272.22916 230.93512 435.73996
273.19897 230.71129 434.4769
274.41489 230.72806 434.14917
275.63129 230.74503 433.81763
276.59204 230.52159 432.54596
278.06549 230.77946 433.14297
279.54468 231.03757 433.73459
280.76563 231.05527 433.38681
282.52026 231.5545 434.90164
283.20898 231.09116 432.67953
284.15955 230.86859 431.38834
285.37979 230.8869 431.02563
286.32336 230.66449 429.72882
287.54196 230.68307 429.35904
289.04346 230.94272 429.91385
291.12079 231.68451 432.31845
292.63907 231.94467 432.86035
294.16309 232.20502 433.39651
294.81384 231.74228 431.15134
296.63705 232.24402 432.60294
297.57642 232.02249 431.27652
298.21002 231.55972 429.02512
300.0477 232.06194 430.46011
301.89642 232.56439 431.88757
303.44724 232.82574 432.38736
305.00372 233.08719 432.88116
306.56586 233.34877 433.36899
307.18323 232.88602 431.09915
308.1098 232.66461 429.74515
309.03137 232.44312 428.38889
309.94788 232.2215 427.0303
311.18677 232.24142 426.58301
312.42596 232.26129 426.13159
313.99802 232.5228 426.58752
315.57556 232.7843 427.03729
318.17267 233.77122 430.20956
319.76904 234.03278 430.6441
322.0575 234.77805 432.88745
323.66986 235.03949 433.30746
324.59027 234.81683 431.91034
325.85657 234.83589 431.41553
327.12274 234.85468 430.91647
328.03217 234.63106 429.51099
329.6546 234.89134 429.90601
331.28207 235.15134 430.29474
335.10199 236.86432 436.07196
340.06033 239.30414 444.5239
345.07123 241.74417 452.94977
348.27179 242.97278 456.87018
353.37421 245.41293 465.24887
355.50607 245.914 466.45206
356.88678 245.92975 465.86163
359.79895 246.91451 468.83215
363.11697 248.1412 472.67953
363.74139 247.66988 470.28806
364.354 247.19757 467.89713
366.52933 247.69441 469.0535
365.54327 246.24986 463.11719
366.51862 246.01694 461.61276
369.09314 246.75328 463.63934
371.27728 247.24593 464.77304
372.24945 247.00955 463.2562
376.08002 248.47031 467.89471
376.6434 247.98865 465.4888
378.85223 248.47612 466.59262
378.56552 247.50623 462.43326
381.19373 248.23326 464.40271
-43.830322 239.29523 428.82996
-42.558594 239.29359 429.42749
-40.876419 239.04544 429.14252
-39.19725 238.79605 428.8519
-37.521225 238.54544 428.55554
-35.848541 238.29376 428.25345
-34.57695 238.28613 428.82968
-32.513672 237.78726 427.63168
-30.851776 237.53261 427.31195
-29.583481 237.52216 427.87393
-27.926773 237.26579 427.54337
-26.658661 237.25372 428.0968
-25.389404 237.24088 428.64633
-24.119202 237.22733 429.19211
-22.471542 236.96815 428.84058
-20.454453 236.46352 427.58835
-19.561066 236.69308 429.01462
-18.661728 236.92206 430.43915
-17.024582 236.6608 430.06613
-16.482239 237.13351 432.38367
-15.207504 237.11618 432.90143
-13.574402 236.85373 432.51401
-11.590927 236.34628 431.21817
-9.9705353 236.08331 430.81714
-7.3050842 235.08633 427.69727
-5.7029572 234.82306 427.28067
-4.4508514 234.80417 427.76422
-3.1987305 234.78506 428.24365
-2.2860565 235.01019 429.6272
-1.3681335 235.23509 431.00858
-0.1108551 235.21539 431.47748
1.1463013 235.19559 431.94223
2.0744476 235.41995 433.315
3.6600952 235.15567 432.85913
5.2402496 234.89142 432.39709
6.4939575 234.87134 432.84412
8.0656128 234.60715 432.37094
9.0004883 234.83115 433.72568
10.566238 234.56702 433.24234
11.816086 234.54697 433.67175
13.680878 234.03906 432.25763
14.61969 234.26306 433.59756
16.772858 233.51163 431.2493
17.710876 233.73575 432.58105
19.24791 233.47232 432.06403
20.484833 233.45279 432.46527
22.013123 233.18967 431.93747
23.246536 233.17035 432.32971
24.479523 233.15117 432.71793
25.428146 233.37567 434.02957
26.944077 233.11316 433.48233
28.17569 233.09436 433.85846
29.682755 232.83226 433.30087
30.910797 232.81375 433.66821
32.138359 232.79541 434.03165
32.8293 233.26389 436.25552
34.06118 233.24577 436.61255
35.555359 232.98459 436.03201
37.043793 232.72366 435.44601
38.526482 232.46298 434.85468
40.513268 231.71629 432.38617
41.474693 231.94238 433.65594
42.690544 231.92551 433.98599
44.152969 231.6658 433.37415
45.120857 231.89232 434.63458
46.335312 231.87601 434.95319
47.788467 231.61697 434.32788
48.999367 231.60107 434.63824
49.975922 231.82822 435.88626
51.188522 231.8127 436.18985
52.400703 231.79735 436.48959
53.838493 231.53946 435.84229
55.270622 231.28183 435.18994
56.697083 231.02444 434.53268
58.33609 230.52469 432.92529
59.533028 230.5105 433.20349
60.729538 230.49652 433.47812
61.715263 230.72528 434.69614
62.913567 230.71165 434.96408
63.906326 230.9407 436.17661
65.106445 230.92746 436.43796
65.906288 231.39929 438.59436
67.308174 231.14398 437.89975
68.50975 231.13127 438.15085
69.903061 230.87643 437.44748
71.101288 230.86417 437.69095
72.486046 230.6098 436.97891
73.865257 230.35568 436.26227
75.238907 230.10181 435.54114
76.60701 229.84818 434.81552
78.146088 229.35257 433.13138
79.152718 229.5838 434.30539
80.33551 229.57303 434.52197
81.517998 229.56247 434.73511
82.700172 229.55206 434.94482
83.718529 229.78395 436.10748
85.063599 229.53186 435.35403
86.086548 229.76407 436.5108
87.11441 229.99643 437.66504
88.300293 229.98694 437.85861
89.636444 229.73564 437.09024
90.967125 229.48456 436.31772
92.292351 229.2337 435.54099
93.75489 228.74115 433.80042
95.066635 228.49077 433.01514
96.235397 228.48247 433.18622
97.268921 228.71623 434.31491
98.307404 228.9501 435.44098
99.480621 228.94232 435.60294
100.65361 228.93471 435.7616
101.70177 229.16904 436.87918
102.87691 229.16176 437.03165
104.1713 228.91287 436.2178
105.34344 228.90594 436.36337
106.5154 228.89915 436.50565
107.79883 228.65083 435.68076
108.7496 229.12785 437.74463
109.81705 229.36327 438.84192
111.20128 228.87375 437.04221
112.3723 228.86783 437.1683
113.64191 228.62039 436.32578
115.00237 228.1315 434.51392
116.16515 228.12608 434.62949
117.23677 228.36246 435.70801
118.49025 228.11575 434.8511
119.65259 228.11081 434.95709
120.73152 228.34763 436.02679
121.97684 228.10141 435.15964
123.13877 228.09694 435.2561
124.14956 228.57574 437.2843
125.38933 228.33002 436.40723
126.55348 228.32602 436.49442
127.64975 228.56369 437.54648
128.81625 228.55997 437.62747
129.98267 228.55641 437.70532
131.209 228.31148 436.81146
132.37263 228.30824 436.88287
133.59105 228.06363 435.98221
134.75192 228.0607 436.04715
135.91272 228.05786 436.10889
137.02632 228.29671 437.13681
138.23409 228.05273 436.22311
139.31073 228.53329 438.21445
140.55518 228.04816 436.32471
141.67883 228.28755 437.34052
142.87604 228.04417 436.41379
144.00473 228.28384 437.42352
145.19669 228.04076 436.49033
146.33044 228.28072 437.49399
147.51717 228.03793 436.55444
148.65601 228.2782 437.552
149.83749 228.03571 436.60605
151.02998 227.55191 434.68658
152.19853 227.30972 433.73419
153.36191 227.06769 432.77863
154.51166 227.0672 432.79028
155.65553 227.30829 433.76926
156.80457 227.54953 434.74512
157.95802 228.03235 436.68839
159.11806 228.03242 436.68765
160.28255 228.27409 437.65424
161.45221 228.5159 438.61768
162.62703 228.75786 439.57797
163.78268 228.51709 438.59436
164.94795 228.51791 438.57797
166.09592 228.27744 437.58823
167.23874 228.03708 436.5954
168.42143 228.27977 437.53992
169.58424 228.28116 437.51105
170.71945 228.04123 436.50906
171.90999 228.28436 437.44397
173.07294 228.28618 437.40573
174.20056 228.04669 436.39459
175.399 228.29027 437.31989
176.52159 228.05106 436.30264
177.68221 228.05344 436.25198
178.88858 228.29749 437.16754
180.05191 228.30017 437.11044
181.21532 228.30304 437.05026
182.43225 228.54752 437.95581
183.54239 228.30917 436.92038
184.70607 228.31247 436.85071
185.93102 228.55743 437.74637
187.09747 228.56105 437.67029
188.33035 228.80634 438.55908
189.36177 228.32715 436.54053
190.52597 228.33121 436.45505
191.6162 228.09386 435.39886
192.62473 227.61505 433.37256
193.7023 227.37796 432.31107
195.02032 227.86578 434.14761
196.17999 227.87057 434.04669
197.51379 228.3588 435.87558
198.76848 228.60556 436.73407
200.0285 228.85252 437.5889
201.1991 228.858 437.47424
202.46716 229.1053 438.32181
203.64069 229.11115 438.20053
204.91687 229.35883 439.04086
206.09329 229.36497 438.91272
207.16225 229.12958 437.81702
208.22621 228.89435 436.71866
209.2852 228.65924 435.61765
210.3392 228.42429 434.51398
211.50624 228.43121 434.37076
212.67349 228.43832 434.22433
213.96417 228.68741 435.03717
215.13443 228.69489 434.88391
216.30493 228.70253 434.72736
217.47565 228.71036 434.56754
218.51303 228.47646 433.4433
219.5455 228.24274 432.31659
220.71175 228.25104 432.14758
221.87825 228.25952 431.97534
223.18893 228.51013 432.75934
224.35854 228.51901 432.58008
225.67752 228.77005 433.3562
226.85025 228.77928 433.16983
228.33188 229.27278 434.896
229.51036 229.28244 434.70209
230.84863 229.53436 435.46185
232.0303 229.5444 435.26074
233.04759 229.31253 434.10007
234.22729 229.32294 433.89261
235.40727 229.33353 433.68167
236.58759 229.34431 433.46738
237.94333 229.5975 434.20392
239.3046 229.85094 434.9361
240.49112 229.86237 434.71048
241.67796 229.87396 434.48135
242.86517 229.88577 434.24881
243.67654 229.41309 432.10919
245.04999 229.6676 432.82196
246.23569 229.67996 432.57941
247.42174 229.69252 432.33331
248.60818 229.70529 432.08374
250.19728 230.2032 433.72879
251.38971 230.2164 433.47098
252.78891 230.47235 434.15753
253.98474 230.48599 433.892
255.181 230.49985 433.62286
256.37769 230.51389 433.3501
257.57477 230.52812 433.07373
258.77228 230.54257 432.7937
259.97025 230.55722 432.51007
261.61792 231.05756 434.11017
263.04926 231.31544 434.76096
263.7966 230.84514 432.57947
264.99893 230.8606 432.28043
266.20172 230.87625 431.97769
267.6427 231.13503 432.61166
268.84903 231.15111 432.30075
270.78479 231.89636 434.80338
272.24554 232.15594 435.4213
273.71201 232.41582 436.03397
274.93332 232.43283 435.70438
275.64813 231.96375 433.49841
276.60907 231.73787 432.22699
277.82397 231.75531 431.88803
279.30069 232.01617 432.47925
280.5192 232.034 432.13181
282.27145 232.53867 433.6456
282.95761 232.07016 431.4252
283.90561 231.84508 430.13495
285.12338 231.86349 429.77258
286.34161 231.88208 429.40631
287.56036 231.90079 429.03604
289.06201 232.16324 429.58969
291.13962 232.91309 431.99173
292.65802 233.17601 432.53244
294.18219 233.43912 433.06741
295.12598 233.21495 431.74765
296.65631 233.47836 432.27286
297.59573 233.25432 430.94669
298.53027 233.03027 429.61816
300.06714 233.29401 430.12939
301.60974 233.55789 430.6347
303.15796 233.8219 431.13422
305.02344 234.33008 432.54611
305.95724 234.10622 431.19788
307.20294 234.1264 430.76389
308.12943 233.90242 429.41013
309.37305 233.92255 428.96875
309.96735 233.45413 426.69583
311.20618 233.47406 426.24805
312.77533 233.73827 426.70792
314.34998 234.00246 427.16168
315.93011 234.26663 427.60938
318.19183 235.0197 429.86859
319.78809 235.28384 430.30194
321.38965 235.54788 430.72913
323.34259 236.0564 432.05585
324.26007 235.83096 430.6601
325.87479 236.09453 431.06964
326.78668 235.86847 429.66757
327.69308 235.64206 428.26355
328.95325 235.66 427.75803
330.57501 235.92236 428.14789
334.75409 237.89838 434.82025
339.70966 240.36429 443.26575
344.71765 242.83038 451.68515
348.28778 244.3168 456.49789
353.3898 246.78294 464.86902
355.52106 247.28894 466.07059
356.52051 247.0592 464.58823
359.0463 247.80899 466.66635
362.35831 249.04831 470.51224
363.36493 248.8163 469.01276
364.36499 248.58333 467.5116
366.93304 249.33 469.55246
366.34473 248.11427 464.50415
367.32422 247.87811 462.99817
369.09976 248.13123 463.25558
371.28271 248.62842 464.38809
373.06717 248.87912 464.63217
376.49216 250.10951 468.38535
377.05673 249.62177 465.9801
379.68127 250.35881 467.95801
379.81537 249.62273 464.67465
381.19025 249.6208 464.01715
-43.416397 240.32668 427.5943
-42.559372 240.57373 429.06763
-40.878555 240.32379 428.78308
-38.795135 239.82474 427.61301
-37.525818 239.82008 428.19702
-35.854263 239.56644 427.89545
-34.186111 239.31174 427.5881
-32.5215 239.056 427.27493
-30.860535 238.79926 426.95581
-29.203384 238.54166 426.63083
-27.55014 238.2832 426.29984
-25.900955 238.02394 425.96286
-24.637787 238.0116 426.51025
-23.752808 238.24612 427.9454
-22.108444 237.98474 427.5936
-20.842453 237.97031 428.12946
-19.575729 237.95529 428.66141
-18.676987 238.18719 430.08542
-17.040298 237.92358 429.71338
-16.498489 238.40182 432.02969
-15.224213 238.3847 432.54776
-13.591492 238.11981 432.16138
-11.608292 237.60727 430.86731
-9.9882202 237.34183 430.46738
-7.6730194 236.58167 428.25424
-6.0684967 236.31586 427.83981
-4.4691772 236.04987 427.41922
-3.5594177 236.27795 428.80557
-2.6443329 236.50574 430.18976
-1.7239838 236.73331 431.57187
-0.13000488 236.46658 431.1326
0.79547119 236.69377 432.50836
2.3838959 236.4269 432.05878
3.9668732 236.16002 431.60306
5.5443268 235.89316 431.1413
6.4743805 236.11987 432.5022
8.0460205 235.85303 432.03027
8.9808502 236.07959 433.3847
10.546646 235.81277 432.90253
11.796478 235.79263 433.33243
13.661377 235.27939 431.92023
14.600159 235.50595 433.25995
16.451111 234.99298 431.83502
17.691544 234.97318 432.24579
18.93158 234.9534 432.65247
20.465714 234.68733 432.13162
21.702286 234.66777 432.52927
22.938431 234.64832 432.92285
24.174133 234.62897 433.31238
25.125504 234.8559 434.62457
26.644241 234.59058 434.07925
27.878586 234.57159 434.45676
29.388474 234.30667 433.90109
30.892647 234.04196 433.33981
32.120331 234.02347 433.70374
33.079468 234.25108 434.99512
34.308861 234.23286 435.35187
35.800598 233.96893 434.77173
37.026405 233.95108 435.11987
38.766861 233.4418 433.59525
40.241425 233.17859 432.99887
41.457924 233.16138 433.33319
42.673965 233.14433 433.66364
44.136589 232.88184 433.05295
45.104622 233.11084 434.31314
46.077438 233.33994 435.57089
47.772621 232.83252 434.008
48.747154 233.06195 435.25882
49.960426 233.04605 435.56647
51.173233 233.03033 435.87042
52.385597 233.01482 436.17056
53.823624 232.75412 435.52429
55.032494 232.73904 435.81638
56.461784 232.47885 435.16083
58.321907 231.72836 432.61127
59.519043 231.71399 432.88983
60.502731 231.94504 434.11057
61.701645 231.93106 434.38248
63.107941 231.67212 433.70386
63.893059 232.14879 435.86301
65.093376 232.13538 436.12466
66.093338 232.36722 437.33139
67.492844 232.10913 436.63724
68.497238 232.34134 437.83792
69.698631 232.32867 438.08582
70.899643 232.31624 438.33017
72.100296 232.304 438.57098
73.669273 231.80212 436.90448
75.045738 231.54546 436.18484
76.416664 231.28903 435.46069
78.135117 230.54317 432.82529
79.315826 230.53209 433.04514
80.32489 230.76596 434.21582
81.676292 230.5105 433.47446
82.689911 230.74472 434.63925
83.871979 230.73438 434.84576
85.053726 230.72421 435.04895
86.076836 230.95894 436.20532
87.104851 231.19379 437.35916
88.444077 230.93953 436.59549
89.627274 230.93011 436.78555
90.95816 230.67628 436.01389
92.428947 230.17813 434.27945
93.889114 229.68024 432.54004
95.058289 229.67163 432.71463
96.227219 229.66322 432.88596
97.395905 229.655 433.05396
98.431946 229.89142 434.17929
99.602737 229.88353 434.34109
100.6461 230.12024 435.46085
101.69441 230.3571 436.578
102.86973 230.3497 436.73065
104.16429 230.0981 435.91766
105.21974 230.33542 437.026
106.50873 230.08418 436.20584
107.68064 230.07748 436.34503
108.74326 230.31528 437.44449
109.81086 230.55324 438.54132
111.09134 230.3027 437.70718
112.36646 230.0524 436.86932
113.63625 229.80226 436.02762
114.9007 229.55231 435.18216
116.15983 229.30255 434.33295
117.2316 229.54147 435.41095
118.57368 229.04782 433.58917
119.73358 229.04285 433.6951
120.81009 229.2822 434.76401
122.05299 229.03331 433.8974
123.21249 229.02879 433.9938
124.22083 229.51277 436.0206
125.31231 229.7527 437.07806
126.54955 229.50447 436.19833
127.64597 229.74469 437.24982
128.81262 229.74092 437.33093
129.97919 229.73729 437.40887
131.2657 229.24561 435.54791
132.42691 229.24229 435.61923
133.58803 229.23915 435.68735
134.74905 229.23616 435.75238
135.91 229.23331 435.81421
137.07086 229.23062 435.87292
138.1871 229.47217 436.89725
139.30844 229.71384 437.91864
140.55305 229.22343 436.03027
141.64003 229.70947 438.01453
142.87419 229.21939 436.11945
144.0347 229.21759 436.15933
145.19513 229.21593 436.19611
146.32904 229.45847 437.19916
147.5159 229.21304 436.26025
148.65488 229.4559 437.2572
149.81775 229.45482 437.28152
151.01297 228.96581 435.36343
152.17064 228.96503 435.38141
153.33931 228.72037 434.42661
154.49437 228.71988 434.43829
155.64354 228.96356 435.41669
156.80444 228.71933 434.45242
157.95804 229.20735 436.39435
159.11823 229.20746 436.39368
160.28287 229.45174 437.35959
161.45969 229.9402 439.29208
162.62764 229.94073 439.28198
163.77126 229.45332 437.32928
164.94884 229.69821 438.28262
166.09694 229.45512 437.29346
167.23991 229.21219 436.3013
168.42274 229.45749 437.24509
169.58571 229.45891 437.21622
170.7487 229.46046 437.1842
171.91174 229.46216 437.14905
173.07484 229.46402 437.11078
174.20261 229.22192 436.10022
175.4012 229.46815 437.02481
176.52393 229.22635 436.00815
177.68468 229.22881 435.95746
178.8912 229.47549 436.87228
180.10297 229.72232 437.78366
181.2691 229.72522 437.72327
182.48877 229.9724 438.62799
183.60164 229.73148 437.59293
184.70944 229.49069 436.55505
185.87335 229.4942 436.48215
187.03738 229.49786 436.40613
188.20151 229.50165 436.32684
189.36575 229.50562 436.24448
190.60159 229.75391 437.12598
191.69456 229.51401 436.07016
192.78249 229.27425 435.01154
193.94463 229.27881 434.91663
195.1069 229.28357 434.8186
196.2693 229.28845 434.71735
197.51886 229.53772 435.57867
198.77371 229.7872 436.4364
199.94173 229.79257 436.32507
201.10991 229.79813 436.21057
202.27823 229.80386 436.0928
203.64659 230.29834 437.90094
204.82043 230.30441 437.77621
205.88934 230.06631 436.6842
207.06096 230.07272 436.55325
208.23276 230.07928 436.41904
209.2919 229.84167 435.31851
210.4615 229.84857 435.17813
211.63132 229.85562 435.03448
212.80132 229.86285 434.88754
213.84833 229.62582 433.77551
215.14198 229.87784 434.58389
216.18425 229.64111 433.466
217.48354 229.89352 434.26709
218.38751 229.41263 432.18292
219.68987 229.66541 432.97705
220.72012 229.42932 431.84787
222.02815 229.68248 432.63467
223.34161 229.93585 433.41736
224.66054 230.18945 434.19595
225.83578 230.19867 434.01227
227.16301 230.45268 434.78293
228.3414 230.46231 434.59216
229.36316 230.22742 433.44116
230.69904 230.48206 434.20044
231.71619 230.24753 433.04361
232.89316 230.25784 432.83969
234.07043 230.26839 432.63245
235.41794 230.52388 433.37628
236.77094 230.77962 434.11578
237.95438 230.79077 433.89731
239.31586 231.04698 434.62848
240.50256 231.05853 434.40256
241.68961 231.07028 434.17313
242.69151 230.83733 432.98868
243.68854 230.60448 431.8017
244.87146 230.61679 431.5629
246.05475 230.62927 431.32056
247.23839 230.64197 431.07468
248.62099 230.89995 431.77432
250.00916 231.15817 432.46924
251.19919 231.17154 432.2117
252.59598 231.43024 432.89777
253.99841 231.68921 433.57913
254.98328 231.45799 432.36356
256.17752 231.47217 432.09106
257.58902 231.73184 432.75977
258.56729 231.50113 431.5351
259.98489 231.76126 432.19537
261.63281 232.26703 433.7937
263.06436 232.52774 434.44345
264.04175 232.29779 433.20468
265.47943 232.55893 433.8457
266.45248 232.32932 432.60077
267.65854 232.34537 432.29324
269.10544 232.60721 432.92096
270.80109 233.11493 434.48199
272.50775 233.62302 436.03656
273.72876 233.63998 435.71036
274.95026 233.65718 435.38034
275.66519 233.18301 433.17535
276.88239 233.20049 432.83908
277.84131 232.97227 431.56479
279.57968 233.48184 433.08826
280.5369 233.25394 431.80695
282.02271 233.51807 432.38702
282.97565 233.29041 431.09943
283.92374 233.06284 429.80942
284.86707 232.83533 428.51706
286.08279 232.854 428.15106
287.85873 233.36516 429.63705
289.36319 233.6304 430.18869
291.15851 234.14212 431.66104
292.67712 234.40781 432.20059
293.91095 234.42737 431.80975
294.8522 234.20065 430.49109
296.38 234.46677 431.0159
297.31677 234.24014 429.69083
298.54974 234.26003 429.28461
300.0867 234.52649 429.79465
301.62936 234.79312 430.29886
303.17767 235.05986 430.79712
305.04324 235.57339 432.20709
306.29126 235.59367 431.77585
307.22266 235.36719 430.42465
308.14908 235.14061 429.07114
309.39267 235.16077 428.62927
310.31165 234.93399 427.27036
311.88058 235.2009 427.73318
313.45502 235.46783 428.18997
315.03488 235.73476 428.64063
316.95569 236.24869 429.99426
318.54907 236.51555 430.4317
319.80707 236.53517 429.95584
321.40848 236.80179 430.3819
323.0152 237.06827 430.80176
323.92969 236.84006 429.40735
325.5415 237.10609 429.81683
326.09634 236.62988 427.51431
327.35373 236.64795 427.01364
329.32953 237.16051 428.3085
330.95361 237.42535 428.69626
335.86444 239.91724 437.15665
341.19507 242.65686 446.48782
346.21344 245.14917 454.8952
350.53894 247.14636 461.48761
354.90601 249.14346 468.05795
356.66934 249.4068 468.3613
357.29541 248.92642 465.98517
359.05936 249.18826 466.27893
360.82742 249.44933 466.56631
361.43414 248.96629 464.18463
362.02893 248.48221 461.80359
364.97394 249.48384 464.73456
364.76767 248.50208 460.57999
366.53342 248.75818 460.84531
369.10565 249.50887 462.86786
372.0957 250.50621 465.76001
373.88403 250.75873 466.00122
376.9035 251.75349 468.87067
377.46912 251.25958 466.466
379.68008 251.75563 467.56534
379.39532 250.76282 463.4104
380.34619 250.51198 461.88159
-43.414856 241.60278 427.23206
-42.148575 241.60294 427.82751
-40.471695 241.35124 427.54205
-38.797699 241.09821 427.25107
-37.529678 241.09433 427.83487
-35.859268 240.83879 427.53375
-34.192245 240.58215 427.22699
-32.528671 240.32443 426.9144
-30.476288 239.81534 425.71091
-28.432907 239.30536 424.49924
-27.172974 239.29517 425.05402
-25.527237 239.03381 424.71667
-24.267471 239.02197 425.26294
-23.765198 239.50986 427.58716
-22.121506 239.24625 427.23621
-20.856171 239.23221 427.77222
-19.590073 239.21753 428.30435
-18.69191 239.45239 429.72778
-17.421799 239.43652 430.25305
-16.514511 239.67023 431.67181
-14.879944 239.40332 431.2916
-13.608337 239.38603 431.80475
-11.980927 239.11838 431.41315
-10.358536 238.85043 431.01535
-8.0409088 238.08249 428.80585
-6.7814789 238.06396 429.29733
-5.1770782 237.79535 428.87985
-3.9201202 237.77637 429.36209
-2.6631012 237.75714 429.84015
-1.4060822 237.7377 430.31403
-0.14910889 237.71809 430.78378
1.1077576 237.69833 431.24936
2.3645172 237.67845 431.71078
3.6211243 237.65845 432.16803
5.2011871 237.38892 431.7084
6.1337738 237.61823 433.07001
8.0264435 237.09924 431.68552
9.2768402 237.0791 432.12424
10.526993 237.0589 432.55872
12.087204 236.78949 432.07178
13.641815 236.52014 431.57883
14.580566 236.74927 432.91833
16.431625 236.23094 431.49536
17.672134 236.21103 431.90656
18.615082 236.44019 433.23544
19.857437 236.42035 433.63931
21.391235 236.15164 433.11566
22.340881 236.38092 434.43491
23.868561 236.11249 433.90143
24.822632 236.3419 435.21417
26.344162 236.07378 434.67093
27.581268 236.05461 435.04968
29.093979 235.78685 434.49594
30.600952 235.51932 433.93665
31.831406 235.50066 434.30185
33.061417 235.48212 434.66302
34.556465 235.21521 434.08871
36.045769 234.9485 433.50894
37.00885 235.17902 434.78989
38.749588 234.66429 433.267
39.969345 234.6467 433.60632
41.188637 234.62929 433.94183
42.407471 234.61206 434.27347
43.625832 234.59502 434.60129
44.84375 234.57813 434.92517
46.061188 234.56145 435.24533
47.51741 234.29677 434.62292
48.49469 234.52864 435.87418
49.71077 234.51254 436.18292
50.69503 234.74469 437.42859
52.141579 234.4809 436.78909
53.582436 234.21738 436.14459
55.017624 233.95412 435.49509
56.447159 233.6911 434.84055
58.089294 233.18047 433.2373
59.289223 233.16592 433.51688
60.275696 233.3994 434.73785
61.477425 233.38519 435.01071
62.678719 233.37122 435.28003
63.674416 233.60519 436.49246
65.080147 233.34384 435.80765
66.080269 233.57816 437.01404
67.677399 233.06961 435.37238
68.679359 233.30431 436.57217
70.070511 233.04391 435.87024
71.07695 233.27896 437.064
72.462151 233.01901 436.35394
73.841812 232.75934 435.63928
75.034134 232.74741 435.87183
76.405273 232.48822 435.14865
77.947433 231.98178 433.46829
79.130928 231.97055 433.6889
80.142761 232.20688 434.85968
81.665733 231.70123 433.16562
82.679527 231.93794 434.32999
83.861778 231.92744 434.5368
85.043716 231.91714 434.7402
86.225349 231.90707 434.94028
87.250938 232.14441 436.09323
88.434601 232.13467 436.2869
89.617973 232.12515 436.4772
90.949066 231.86856 435.70648
92.274696 231.61224 434.93161
93.737671 231.10895 433.19415
95.04982 230.85307 432.41064
96.218925 230.84454 432.58215
97.387787 230.83618 432.75037
98.556412 230.82802 432.91528
99.7248 230.82004 433.07693
100.63847 231.30634 435.15649
101.68694 231.54572 436.27322
102.86244 231.53819 436.42603
104.03771 231.53088 436.57556
105.21279 231.52371 436.72174
106.50196 231.26976 435.90247
107.56234 231.50992 437.00436
108.62769 231.75021 438.10367
109.69803 231.99069 439.20029
110.98128 231.73743 438.36728
112.15781 231.73129 438.4942
113.43294 231.47842 437.65387
114.70273 231.22577 436.80978
115.87358 231.22015 436.92648
116.95326 231.46156 438.00464
118.30328 230.96259 436.18509
119.4711 230.95747 436.29181
120.5555 231.19934 437.36084
121.88701 230.70093 435.53003
123.12994 230.44952 434.66107
124.21653 230.69186 435.72073
125.30815 230.93436 436.77768
126.4752 230.93021 436.86523
127.57434 231.17299 437.91638
128.74374 231.16913 437.99774
129.97565 230.91873 437.10895
131.26234 230.42172 435.24936
132.42369 230.41838 435.32077
133.58496 230.41519 435.38901
134.74614 230.41214 435.45404
135.85751 230.65598 436.4838
137.02112 230.65323 436.54272
138.18463 230.65063 436.59851
139.3481 230.64821 436.65112
140.51149 230.64592 436.70059
141.67482 230.64378 436.74692
142.83809 230.64178 436.7901
144.00131 230.63995 436.83014
145.19356 230.39162 435.89841
146.32761 230.63675 436.90082
147.49069 230.63536 436.9314
148.65375 230.63412 436.95889
149.81676 230.63303 436.98322
150.99594 230.38544 436.03552
152.15633 230.38464 436.05353
153.32773 230.13734 435.0994
154.4855 230.13686 435.11118
155.63741 230.38316 436.0889
156.79773 230.38297 436.09442
157.95735 230.62956 437.06595
159.12027 230.62965 437.06525
160.28763 230.87656 438.03052
161.45313 230.87692 438.02347
162.61865 230.87747 438.01337
163.772 230.63153 437.0311
164.93498 230.63235 437.01468
166.09799 230.63333 436.99518
167.26102 230.63446 436.97256
168.42409 230.63574 436.94678
169.58719 230.63719 436.91788
170.75034 230.63876 436.88583
171.8833 230.39381 435.88199
173.04396 230.39569 435.84372
174.20468 230.39771 435.80237
175.36545 230.39987 435.75781
176.48575 230.1555 434.74194
177.68719 230.40469 435.65939
178.89388 230.65401 436.57346
180.10579 230.9035 437.4841
181.27208 230.90645 437.42365
182.49191 231.15628 438.32761
183.60492 230.9128 437.29321
184.71286 230.66946 436.25586
