ply
format ascii 1.0
comment PCL generated
element vertex 1592
property float x
property float y
property float z
element camera 0
property float view_px
property float view_py
property float view_pz
property float x_axisx
property float x_axisy
property float x_axisz
property float y_axisx
property float y_axisy
property float y_axisz
property float z_axisx
property float z_axisy
property float z_axisz
property float focal
property float scalex
property float scaley
property float centerx
property float centery
property int viewportx
property int viewporty
property float k1
property float k2
end_header
-35.943909 55.400879 435.36594
-34.263535 55.539322 435.02881
-32.986694 55.544994 435.59253
-31.313843 55.683895 435.24329
-30.432465 55.557037 436.70694
-28.374237 55.829315 435.43573
-27.102249 55.835831 435.97964
-25.830322 55.842499 436.51929
-24.17598 55.982258 436.1402
-22.147232 56.255054 434.83902
-21.260849 56.129211 436.27872
-19.245819 56.402157 434.96335
-17.241669 56.675152 433.63925
-16.356064 56.549606 435.06592
-15.098907 56.557014 435.56946
-13.842133 56.56448 436.06873
-13.308182 56.306396 438.40955
-12.046875 56.313999 438.90222
-10.074142 56.587185 437.5405
-8.1124725 56.86034 436.17038
-6.1618805 57.133457 434.7919
-3.8744049 57.539249 432.47705
-2.6393433 57.546799 432.93927
-1.0620728 57.687069 432.46713
-0.17070007 57.561924 433.85098
1.4001923 57.702122 433.36859
2.2957764 57.576981 434.746
3.8602905 57.717106 434.25339
5.0894775 57.72456 434.68961
6.3181 57.731976 435.12167
7.5461426 57.739353 435.54968
8.7736206 57.746693 435.97357
9.6816559 57.621429 437.33185
10.910583 57.628689 437.74854
12.452515 57.768406 437.22092
13.677658 57.775543 437.6286
15.210495 57.915092 437.09036
16.737534 58.054577 436.5463
17.349472 57.796574 438.82776
18.572205 57.803448 439.21957
19.794388 57.810265 439.60739
21.015961 57.817009 439.9913
22.236984 57.823681 440.37128
24.037277 58.095051 438.85172
25.251892 58.101547 439.22235
26.750641 58.240334 438.63962
27.961472 58.246658 439.0018
29.171783 58.252907 439.36014
30.658363 58.391403 438.76291
32.139168 58.529793 438.16037
33.342583 58.535782 438.50589
34.814461 58.673965 437.89365
36.014214 58.679787 438.23093
37.213455 58.685528 438.56451
38.412155 58.691181 438.89447
39.610367 58.696754 439.22073
40.552132 58.57003 440.50098
41.751968 58.575455 440.82059
43.202011 58.712994 440.17764
44.398247 58.718239 440.48938
45.839523 58.855576 439.83719
47.032242 58.860657 440.14102
48.224464 58.86565 440.44138
49.416252 58.870567 440.73813
50.607605 58.875404 441.03131
51.7985 58.880157 441.32104
52.988976 58.88483 441.60724
54.406326 59.021526 440.92508
55.143974 58.761864 443.13449
56.557899 58.898392 442.44476
57.966217 59.034821 441.7504
59.152061 59.039101 442.01855
60.337502 59.043297 442.28333
61.734299 59.179466 441.57626
62.916405 59.183506 441.83362
64.304672 59.3195 441.11807
65.483459 59.32338 441.3681
66.863251 59.459198 440.64417
68.237526 59.594929 439.91577
69.41011 59.598583 440.15463
70.582359 59.602161 440.3902
71.75428 59.605667 440.62244
73.114311 59.741085 439.87817
74.468857 59.876408 439.12961
75.634674 59.879696 439.35098
76.800217 59.882927 439.56903
77.965462 59.886086 439.78384
78.95491 59.757244 440.97107
80.122185 59.760277 441.17984
81.118835 59.631329 442.36194
82.455902 59.766163 441.58771
83.62236 59.769005 441.78683
84.951172 59.90369 441.00482
85.954552 59.774509 442.17535
87.27771 59.909065 441.38608
88.285767 59.779781 442.55103
89.755562 60.046074 440.77515
90.915451 60.048553 440.95419
92.222221 60.182835 440.14984
93.379097 60.185192 440.3222
94.535744 60.187485 440.49149
95.552811 60.057888 441.63898
96.848457 60.191925 440.82056
98.004517 60.194065 440.98041
99.292068 60.327976 440.15466
100.44518 60.330009 440.30792
101.72464 60.46381 439.47491
102.99879 60.597553 438.63812
104.14624 60.599419 438.78149
105.29353 60.601231 438.92178
106.67313 60.866619 437.09009
107.7013 60.736523 438.20837
108.73447 60.606392 439.32416
109.88116 60.608017 439.45218
110.92175 60.477795 440.56277
111.96735 60.347538 441.67087
113.11876 60.349026 441.79028
114.27005 60.350479 441.90662
115.32554 60.220097 443.00659
116.57224 60.353237 442.13022
117.81369 60.486324 441.25034
118.87396 60.355824 442.34164
120.11006 60.488819 441.4552
121.17525 60.358238 442.54095
122.32574 60.359379 442.63605
123.47614 60.360485 442.72812
124.70155 60.493301 441.8288
125.77664 60.362564 442.90323
126.99674 60.495296 441.9975
128.14421 60.496243 442.0773
129.2916 60.497139 442.15414
130.50119 60.629749 441.23868
131.70558 60.762318 440.31985
132.90477 60.894836 439.3978
134.04417 60.89558 439.46222
135.1315 60.764538 440.51358
136.22389 60.633469 441.56223
137.36824 60.634094 441.61801
138.51254 60.634701 441.67075
139.6568 60.635254 441.72055
140.87939 60.899254 439.78635
142.05504 61.03146 438.83945
143.15741 60.900177 439.87073
144.32785 61.03233 438.91766
145.43527 60.900963 439.94327
146.57416 60.901314 439.97504
147.71303 60.901619 440.00391
148.87309 61.033619 439.03879
149.99066 60.902126 440.05276
151.12946 60.902332 440.07278
152.26822 60.9025 440.08984
153.40698 60.90263 440.10394
154.54573 60.902733 440.11508
155.69032 61.034523 439.13202
156.82649 61.034554 439.13727
157.96266 61.034554 439.13953
159.10252 60.771046 441.12149
160.24825 60.639256 442.1091
161.39212 60.639149 442.10251
162.52646 60.770733 441.10175
163.6799 60.638828 442.08047
164.80914 60.770348 441.07379
165.95052 60.770103 441.05539
167.0919 60.769821 441.03403
168.21095 60.901241 440.01865
169.29997 61.164349 438.00955
170.43375 61.163963 437.97949
171.53749 61.295288 436.95563
172.63614 61.426567 435.92908
173.80009 61.29435 436.88101
175.00697 61.030346 438.82043
176.14351 61.029793 438.77554
177.23721 61.160927 437.7374
178.50764 60.765076 440.65741
179.60146 60.896149 439.61331
180.74077 60.895439 439.55649
181.93332 60.762943 440.48657
183.01959 60.893913 439.4339
184.04254 61.15659 437.38904
185.23785 61.023979 438.31006
186.31152 61.15485 437.24924
187.57809 60.890408 439.15305
188.71791 60.889431 439.07541
190.00006 60.624897 440.97223
191.0715 60.755608 439.89966
192.13789 60.886276 438.82449
193.27808 60.885136 438.73492
194.41835 60.883965 438.6423
195.47476 61.014526 437.55896
196.78575 60.749718 439.43558
197.83981 60.880192 438.34647
198.88885 61.010635 437.25479
200.02711 61.009254 437.1474
201.0687 61.139614 436.05048
202.10526 61.269936 434.95105
203.3407 61.136635 435.82117
204.37238 61.26688 434.71622
205.61322 61.13348 435.57977
206.85938 61.000023 436.43976
208.11079 60.86652 437.29611
209.13791 60.996578 436.17966
210.39478 60.862972 437.02933
211.53702 60.861126 436.89136
212.55688 60.991055 435.76669
213.57178 61.120949 434.63953
214.96471 60.855286 436.45908
215.97739 60.985081 435.3262
217.25072 60.851143 436.15555
218.39401 60.848991 435.99915
219.81342 60.583088 437.80289
220.96225 60.580814 437.63959
222.11128 60.578495 437.47318
223.2605 60.576122 437.30359
224.55824 60.441803 438.11108
225.71048 60.439312 437.93488
226.86295 60.436768 437.75549
228.32767 60.170361 439.53088
229.48578 60.167686 439.34433
230.48294 60.296841 438.17664
231.63895 60.294056 437.98416
232.62888 60.423115 436.81134
233.95172 60.288273 437.58975
235.10851 60.285294 437.38773
236.26556 60.282249 437.1825
237.59955 60.147198 437.94943
238.93896 60.01207 438.71219
239.7384 60.272732 436.54745
241.08099 60.137463 437.30325
242.24208 60.134087 437.08133
243.2139 60.262615 435.88324
244.56519 60.127121 436.62775
246.11671 59.859547 438.33984
247.28424 59.855869 438.10379
248.65205 59.720119 438.83527
250.22791 59.452251 440.53268
251.19913 59.580379 439.31519
252.37323 59.576401 439.06467
253.758 59.440292 439.77951
254.93542 59.436169 439.52164
256.11322 59.431957 439.26038
257.29141 59.427677 438.99573
258.47 59.423317 438.72763
259.42572 59.550976 437.49036
260.37665 59.678574 436.25089
261.0943 59.938232 434.04459
262.2641 59.933601 433.76517
263.43439 59.928894 433.4823
265.07764 59.659809 435.12134
266.01508 59.787079 433.86826
267.67224 59.517792 435.49701
268.85205 59.512733 435.19827
270.03235 59.507599 434.89594
271.46243 59.370174 435.54947
272.6463 59.364864 435.23935
274.33969 59.09502 436.84171
275.78687 58.957287 437.48032
277.49951 58.687191 439.0705
278.43604 58.813766 437.7865
279.8978 58.67572 438.41061
280.83017 58.802147 437.12076
282.02802 58.796219 436.78235
282.95361 58.92252 435.4873
284.1499 58.916447 435.14218
285.34677 58.910294 434.79337
286.82486 58.771709 435.39139
288.02542 58.765392 435.03421
289.22656 58.758987 434.67328
290.13974 58.884911 433.36026
291.33942 58.878365 432.99255
292.83344 58.739338 433.5676
294.03687 58.732639 433.19138
295.53992 58.593418 433.75626
296.74713 58.586575 433.3714
298.5636 58.314678 434.86935
299.16339 58.572666 432.59006
301.30109 58.168079 435.01822
302.83081 58.028404 435.55576
304.36633 57.888634 436.08752
305.27283 58.013905 434.73563
307.13501 57.741413 436.19565
308.04004 57.866592 434.83655
309.59119 57.726547 435.3476
311.14819 57.586418 435.85278
312.71106 57.446228 436.35193
313.94647 57.438629 435.91165
315.1825 57.431 435.46719
316.08044 57.556038 434.0871
316.63232 57.813805 431.77411
318.20596 57.673447 432.24966
319.43884 57.665794 431.79041
321.3707 57.392628 433.18213
322.96179 57.252174 433.63904
324.91321 56.978924 435.0152
325.44696 57.236851 432.68488
327.05005 57.096405 433.12491
328.29642 57.088802 432.63611
329.90833 56.94841 433.06436
332.62939 56.40942 436.24731
338.336 54.807289 446.77167
342.24103 53.86937 452.67471
346.55945 52.798416 459.47513
350.92068 51.727325 466.25354
354.56244 50.922028 471.17972
355.5498 51.047409 469.69131
357.69135 50.774071 470.93839
359.8436 50.500847 472.17621
361.61475 50.360756 472.49438
362.99677 50.353874 471.89627
364.77576 50.214188 472.20148
366.95963 49.941704 473.40649
368.34909 49.935539 472.79071
370.95349 49.530472 474.88382
371.94241 49.657974 473.35165
372.92554 49.785828 471.81732
373.90271 49.914078 470.28073
375.70535 49.776535 470.54135
375.0022 50.438065 465.40424
-38.950516 56.898773 432.01385
-37.677612 56.903202 432.59338
-36.404175 56.907955 433.16861
-35.937912 56.652122 435.55063
-34.257339 56.787876 435.21301
-32.581802 56.923866 434.86865
-30.911423 57.060055 434.51767
-30.032486 56.935677 435.98035
-27.976761 57.202625 434.707
-27.095123 57.078629 436.16211
-26.208191 56.95483 437.61511
-24.168564 57.222195 436.32178
-22.13974 57.489647 435.01962
-20.876083 57.496552 435.54254
-18.863632 57.764141 434.22504
-16.49025 58.162045 431.97974
-15.609863 58.038906 433.40436
-14.724518 57.915871 434.82681
-13.470337 57.923157 435.32477
-12.938995 57.670074 437.66507
-12.038864 57.547295 439.08078
-10.422073 57.684933 438.64349
-8.1044922 58.082901 436.34689
-6.5045624 58.220486 435.8949
-4.2144928 58.618324 433.57968
-2.6314545 58.755836 433.11316
-1.054245 58.893314 432.64044
-0.16285706 58.770584 434.02438
1.4080048 58.908009 433.54132
2.6382751 58.915325 433.9856
3.8679962 58.922619 434.42563
5.42659 59.059902 433.92639
6.3257599 58.937119 435.29337
7.5537567 58.944309 435.72113
8.4596558 58.821472 437.08273
9.3702698 58.698631 438.44208
10.601776 58.705715 438.85941
12.146301 58.842682 438.332
13.373993 58.84964 438.74033
15.217712 59.116341 437.25995
16.438965 59.123158 437.65854
17.659592 59.129898 438.05322
18.579208 59.006729 439.38885
19.50351 58.883518 440.7222
20.727661 58.890095 441.10666
22.243744 59.026413 440.53989
24.043961 59.292439 439.01932
25.258484 59.298756 439.38971
26.757126 59.434776 438.80646
27.967911 59.440937 439.16833
29.178101 59.44701 439.52652
30.664589 59.582748 438.92871
32.145302 59.718388 438.32559
33.348633 59.724209 438.6709
34.820412 59.859646 438.05807
36.020088 59.865311 438.39514
37.219223 59.87088 438.72858
38.156731 59.746716 440.01486
39.35746 59.752148 440.34161
40.557693 59.757496 440.66473
41.757416 59.762764 440.98422
43.207375 59.897572 440.3407
44.403526 59.90266 440.65228
45.844711 60.037277 439.99951
47.280205 60.171791 439.34186
48.710052 60.306202 438.67929
49.421188 60.051834 440.89993
50.612442 60.056526 441.19299
51.803268 60.061138 441.48251
52.763779 59.936157 442.73306
54.183632 60.070148 442.05103
54.923813 59.815514 444.26163
56.34024 59.949337 443.57199
57.751076 60.083073 442.87769
58.93943 60.087234 443.14627
60.341698 60.220795 442.4433
61.738403 60.354256 441.73578
62.920425 60.358181 441.99298
64.308617 60.49147 441.27695
65.691261 60.624676 440.55646
66.867043 60.628368 440.80237
68.042465 60.631989 441.04498
69.413734 60.764946 440.31229
70.392334 60.639011 441.52017
71.757767 60.771828 440.77975
73.117722 60.904556 440.03503
74.472198 61.037205 439.28598
75.637955 61.040394 439.5072
76.803429 61.043526 439.72516
77.96859 61.046574 439.93991
78.957993 60.920216 441.12732
79.952278 60.793804 442.31241
80.951469 60.667347 443.49515
82.458786 60.928852 441.74362
83.460022 60.802277 442.92038
84.791336 60.934303 442.1384
85.957237 60.936939 442.33096
87.280334 61.068836 441.54129
88.443192 61.071354 441.72699
89.910339 61.332413 439.94989
91.067581 61.334808 440.12851
92.224602 61.337147 440.30392
93.381416 61.33942 440.47623
94.538017 61.341652 440.64536
95.555023 61.214539 441.79315
96.850616 61.345936 440.9743
98.140862 61.477276 440.15158
99.294113 61.47929 440.30786
100.44718 61.481251 440.46103
101.60007 61.483162 440.61115
102.87673 61.614277 439.77429
104.0267 61.616074 439.91794
105.17651 61.617836 440.05841
106.44241 61.748798 439.21103
107.58934 61.750458 439.34509
108.73611 61.752071 439.47614
109.88275 61.753643 439.60406
110.92329 61.625935 440.71497
112.07223 61.627419 440.8371
113.22102 61.628864 440.95615
114.36969 61.630253 441.07224
115.42258 61.502392 442.17221
116.57356 61.503704 442.28244
117.81497 61.634178 441.40216
118.87521 61.506199 442.49377
120.11125 61.636589 441.60696
121.25923 61.63773 441.70483
122.40712 61.63884 441.79962
123.47721 61.5107 442.88007
124.62746 61.511723 442.96912
125.70509 61.383526 444.04404
126.85773 61.384468 444.12726
128.01028 61.385384 444.20737
129.22763 61.515446 443.29501
130.50203 61.774635 441.38968
131.7661 62.033783 439.48071
132.96268 62.163715 438.55807
134.09947 62.164433 438.62231
135.18419 62.035931 439.67386
136.22453 61.778221 441.7131
137.36885 61.778843 441.76877
138.4688 61.650238 442.81219
139.65733 61.779949 441.87131
140.8407 61.909626 440.92728
141.98225 61.910084 440.97104
143.12378 61.910522 441.01178
144.29675 62.040089 440.05844
145.40671 61.911285 441.08441
146.57448 62.040779 440.12506
147.7133 62.04108 440.15387
148.87334 62.170502 439.18839
149.97221 61.912399 441.19421
151.12964 62.041759 440.22275
152.25484 61.912762 441.23129
153.4071 62.042053 440.25385
154.5374 61.912987 441.25659
155.68452 62.042206 440.27322
156.81995 61.913078 441.27005
157.96193 62.04224 440.2807
159.10248 61.913033 441.27173
160.24815 61.783802 442.25967
161.38503 61.912861 441.26154
162.52631 61.912724 441.25198
163.67972 61.78339 442.23108
164.82359 61.783184 442.21561
165.9675 61.782948 442.19714
167.09161 61.911835 441.18436
168.23299 61.911537 441.16
169.32454 62.169533 439.15012
170.46085 62.169159 439.12003
171.59718 62.168755 439.08698
172.6683 62.426655 437.06879
173.79959 62.426178 437.03009
175.00644 62.167336 438.97012
176.10262 62.295971 437.93448
177.19371 62.424561 436.89615
178.46155 62.03643 439.81732
179.55275 62.164963 438.77301
180.68947 62.16428 438.71634
181.87939 62.034374 439.64694
183.0188 62.033627 439.58414
184.04172 62.291195 437.53867
185.17612 62.290371 437.47025
186.31061 62.289513 437.39893
187.51115 62.159428 438.314
188.71692 62.029297 439.22583
189.92792 61.899124 440.13431
191.07043 61.898098 440.05054
192.13678 62.026245 438.97507
193.27692 62.025146 438.88553
194.33577 62.153217 437.80466
195.47354 62.152042 437.70932
196.61142 62.150829 437.61099
197.7494 62.149578 437.50967
198.88751 62.148281 437.40533
200.02573 62.146946 437.29797
201.06726 62.274788 436.20074
202.20316 62.273365 436.08768
203.4411 62.142685 436.95789
204.47531 62.270409 435.85242
205.71869 62.139622 436.71613
206.8577 62.138027 436.59067
208.10907 62.007137 437.44748
209.25095 62.005447 437.31564
210.51033 61.874466 438.16541
211.65509 61.872677 438.02722
212.67749 62.000092 436.90195
213.56982 62.256729 434.79056
214.96269 61.996281 436.61084
215.97531 62.123566 435.47769
217.11578 62.121548 435.32477
218.39183 61.990192 436.15115
219.81119 61.729485 437.95569
220.81941 61.856583 436.81085
221.96581 61.854343 436.6449
223.11241 61.852047 436.4758
224.4075 61.720387 437.28409
225.55711 61.717972 437.1084
226.70694 61.715515 436.9295
228.16902 61.45435 438.70602
229.32448 61.451752 438.52008
230.31902 61.578442 437.35251
231.47238 61.575741 437.16058
232.62598 61.572983 436.96552
233.77986 61.57016 436.76727
235.10547 61.43792 437.54245
236.43654 61.305607 438.31354
237.41974 61.431961 437.129
238.75652 61.299507 437.8927
239.73511 61.425747 436.70264
240.89323 61.422539 436.48462
242.05167 61.419273 436.26334
243.39998 61.286533 437.01212
244.56161 61.283127 436.78375
246.30782 60.891384 439.46899
247.6752 60.758389 440.20428
248.84818 60.754742 439.96399
250.22401 60.621582 440.69101
251.19516 60.747242 439.47333
252.3692 60.743378 439.22299
253.54358 60.739452 438.96924
254.93121 60.605976 439.68054
256.32443 60.472401 440.38733
257.28705 60.59774 439.15494
258.24487 60.723015 437.92029
259.4212 60.718712 437.64957
260.37207 60.843864 436.40988
261.08966 61.098503 434.20306
262.2594 61.094009 433.9238
263.42957 61.089439 433.64111
264.60019 61.084793 433.35495
266.0101 60.950493 434.02768
267.42566 60.816086 434.69568
268.84692 60.681583 435.35883
270.2738 60.546986 436.01706
271.70639 60.412281 436.67044
272.89276 60.407116 436.35986
274.58862 60.142574 437.96237
276.03833 60.007565 438.60083
277.49374 59.872448 439.23425
278.43024 59.996601 437.95013
279.62695 59.990993 437.61929
280.82419 59.98531 437.28479
282.02197 59.979546 436.94659
283.22028 59.973701 436.60468
284.4191 59.967781 436.259
285.6185 59.961784 435.90961
286.81842 59.955708 435.55646
288.01892 59.949558 435.19955
289.22 59.943329 434.83884
290.13312 60.066845 433.52567
291.62384 59.930656 434.10599
292.8266 59.924213 433.73383
294.02997 59.917694 433.35782
295.83197 59.651375 434.86868
296.74011 59.774574 433.53873
298.25214 59.637943 434.0939
298.84924 59.890953 431.81494
300.98422 59.494339 434.24533
302.19901 59.487392 433.84326
304.04407 59.220467 435.31766
305.26532 59.213375 434.90585
306.80728 59.076248 435.42841
308.03238 59.069038 435.0076
309.25806 59.06179 434.5827
310.81238 58.924461 435.08942
312.37256 58.787071 435.59015
313.9386 58.649609 436.08487
315.5105 58.512093 436.57352
316.74969 58.504612 436.12421
316.96564 58.887463 432.8779
318.54187 58.749863 433.35309
319.7774 58.742378 432.89316
321.01346 58.734898 432.42892
322.25 58.727421 431.96051
324.19611 58.459576 433.33972
325.08176 58.582302 431.93588
327.04205 58.314426 433.30145
328.28842 58.307007 432.8129
329.90036 58.169369 433.24182
332.98926 57.51067 437.34729
338.32788 56.070156 446.95566
342.23288 55.150604 452.8616
346.55124 54.100609 459.66534
351.29089 52.920135 467.36343
354.93536 52.130569 472.29108
356.30933 52.123154 471.71555
358.4563 51.855125 472.96143
359.83582 51.847984 472.37418
361.60712 51.71064 472.6929
363.38373 51.573463 473.00464
365.16562 51.436485 473.30933
367.35239 51.169289 474.51416
368.74475 51.163223 473.89734
371.75714 50.635582 476.89554
371.93622 51.021477 473.55334
372.50928 51.277283 471.11621
373.89722 51.272507 470.48187
374.86877 51.398598 468.94293
374.57916 51.916649 464.70529
-38.945511 58.144955 432.19455
-37.672287 58.149319 432.77393
-36.39859 58.153996 433.34903
-35.52829 58.031116 434.82578
-34.251221 58.036354 435.39343
-32.575485 58.16964 435.04855
-30.904907 58.303123 434.69699
-30.025787 58.181221 436.15988
-27.969894 58.442852 434.8855
-27.088089 58.321327 436.34079
-25.815887 58.327736 436.87997
-24.543777 58.33429 437.41473
-22.512207 58.596401 436.11273
-20.868637 58.730877 435.71918
-18.481644 59.1208 433.48236
-16.482727 59.383053 432.15408
-15.233093 59.390018 432.65826
-14.350342 59.269386 434.0798
-13.462631 59.148853 435.49911
-12.570007 59.028408 436.9162
-11.672501 58.908028 438.33102
-10.414261 58.915295 438.81784
-8.4499664 59.177723 437.44672
-6.8473816 59.31255 436.99506
-4.554718 59.702438 434.67947
-2.9690399 59.837189 434.21332
-1.3892059 59.971897 433.74097
-0.49519348 59.851589 435.12598
1.4155731 60.113716 433.71063
2.311142 59.993393 435.08826
3.8755493 60.12796 434.59436
4.7752533 60.007607 435.96561
6.006424 60.01466 436.39813
7.2369995 60.021671 436.82657
8.1455231 59.901264 438.18918
9.0587463 59.780846 439.5495
10.609039 59.915104 439.02737
11.839905 59.921951 439.44037
13.381088 60.056065 438.9075
14.916428 60.190086 438.36887
15.834549 60.069435 439.71167
17.060379 60.076023 440.10782
18.285629 60.082558 440.49997
19.212494 59.961769 441.83423
20.439178 59.968174 442.21936
22.250336 60.228966 440.70505
24.050446 60.489635 439.18356
25.264893 60.495781 439.55371
26.763443 60.629044 438.96988
28.25618 60.762203 438.38065
29.463699 60.768105 438.73776
30.670654 60.773922 439.09113
32.15126 60.906807 438.48749
33.354523 60.912468 438.83252
34.557251 60.918049 439.17389
35.759438 60.92355 439.51154
37.224846 61.056065 438.88931
38.16227 60.93433 440.17572
39.621437 61.066666 439.54468
40.563072 60.944794 440.82523
41.762711 60.949905 441.14456
43.212578 61.081974 440.50049
44.656746 61.213951 439.85144
45.849747 61.218815 440.15854
47.285149 61.350601 439.50037
48.71489 61.482288 438.83731
49.425972 61.232941 441.05844
50.617149 61.237488 441.35135
51.807892 61.241966 441.64069
52.768341 61.119423 442.89142
54.415375 61.377647 441.24335
55.377579 61.254955 442.48773
56.788719 61.386051 441.79642
57.974785 61.390152 442.06775
59.160461 61.394173 442.33566
60.560059 61.525021 441.63159
61.954086 61.655785 440.92297
63.133446 61.659573 441.17947
64.518959 61.790165 440.46243
65.695015 61.793812 440.71158
67.07206 61.924244 439.98611
68.244827 61.927738 440.22806
69.417259 61.931171 440.46667
70.589363 61.934532 440.70197
72.143143 62.191479 438.98718
73.121025 62.067875 440.18875
74.475426 62.197845 439.43927
75.457878 62.074127 440.63525
76.625862 62.077168 440.85355
77.793556 62.080135 441.06863
78.960976 62.083046 441.2804
79.955208 61.95911 442.46573
81.124657 61.96191 442.67148
82.461563 62.091396 441.89645
83.462753 61.967312 443.07336
84.793999 62.096676 442.29099
86.11985 62.225983 441.50446
87.440292 62.355209 440.71396
88.600502 62.357643 440.8992
90.065025 62.613487 439.12085
91.219627 62.615788 439.29898
92.226913 62.491322 440.4549
93.239128 62.366806 441.60846
94.398254 62.368961 441.77792
95.417786 62.244354 442.92633
96.579086 62.246418 443.08981
98.008667 62.501827 441.28458
99.164436 62.503773 441.44116
100.19093 62.378983 442.57813
101.34892 62.380836 442.72879
102.63067 62.509315 441.89227
103.66438 62.384399 443.02087
104.94066 62.512787 442.17746
106.09541 62.514446 442.31546
107.36366 62.642731 441.46494
108.51553 62.644302 441.59641
109.88429 62.899151 439.7529
110.9248 62.773964 440.86401
112.07368 62.775391 440.98615
113.22243 62.776779 441.10516
114.27283 62.651478 442.20822
115.32824 62.526138 443.30875
116.57485 62.654057 442.43158
117.72568 62.655277 442.53873
118.8764 62.656464 442.64282
120.1124 62.784245 441.75562
121.34317 62.91198 440.86493
122.40819 62.786411 441.94824
123.55592 62.787426 442.04007
124.62846 62.661789 443.11792
125.70604 62.536121 444.19318
126.78867 62.410412 445.26581
128.01117 62.537922 444.35641
129.16362 62.538757 444.43353
130.56511 63.046032 440.54761
131.76686 63.173405 439.62793
133.02054 63.427349 437.71469
134.15474 63.428036 437.77872
135.18484 63.175468 439.82104
136.2746 63.049477 440.87018
137.36943 62.92345 441.91663
138.46935 62.797405 442.96027
139.6161 62.797928 443.01013
140.80199 62.925014 442.06586
141.94608 62.925465 442.10968
143.09013 62.925884 442.15051
144.26564 63.052872 441.19693
145.40704 63.053219 441.23175
146.5748 63.180134 440.27203
147.71358 63.180424 440.30084
148.87358 63.307274 439.33499
149.97241 63.054298 441.34146
151.11371 63.054482 441.36151
152.25497 63.054638 441.37857
153.40721 63.181366 440.40076
154.52907 62.928265 442.39575
155.67873 63.054916 441.41205
156.81668 62.928349 442.40924
157.96118 63.054943 441.41959
159.10426 62.928307 442.41092
160.24808 62.928238 442.40726
161.39188 62.928131 442.40073
162.52615 63.0546 441.39923
163.67953 62.927837 442.37863
164.8087 63.054241 441.37131
165.95 63.054008 441.35294
167.09132 63.053745 441.3316
168.23267 63.053452 441.30728
169.32419 63.306324 439.29678
170.46045 63.305969 439.26666
171.5667 63.432178 438.24213
172.66786 63.558361 437.21484
173.7991 63.557907 437.17606
174.96815 63.430817 438.12561
176.10207 63.43029 438.0809
177.19313 63.556339 437.04224
178.41547 63.302536 438.97354
179.55209 63.301918 438.91983
180.68878 63.301254 438.86319
181.87866 63.17395 439.7941
183.07376 63.046604 440.72177
184.15747 63.172455 439.66574
185.29698 63.171661 439.59705
186.43657 63.170826 439.52542
187.57623 63.169956 439.45078
188.78452 63.042419 440.36282
189.92691 63.041466 440.2821
191.0694 63.040485 440.19836
192.21198 63.039467 440.1116
193.35463 63.038406 440.02188
194.49741 63.037304 439.92917
195.5563 63.162811 438.84503
196.69672 63.161636 438.74652
197.92633 63.033779 439.63297
199.06952 63.032524 439.5282
200.11859 63.157875 438.43295
201.25946 63.156536 438.32245
202.40045 63.155159 438.20889
203.54156 63.153751 438.09229
204.57831 63.278942 436.9863
205.82422 63.15078 437.8501
207.07539 63.022564 438.7103
208.33186 62.894291 439.56693
209.47882 62.892654 439.43457
210.62595 62.890965 439.29919
211.65329 63.015911 438.17609
212.79816 63.014145 438.03482
213.69302 63.265701 435.92255
214.96074 63.137142 436.75955
215.97333 63.261932 435.6261
217.24655 63.133266 436.45633
218.52512 63.004547 437.28275
219.94698 62.749046 439.08768
221.09827 62.746918 438.92419
222.24976 62.74474 438.75757
223.25578 62.86924 437.60663
224.40512 62.866962 437.43411
225.55467 62.864632 437.25848
226.55104 62.988991 436.09973
227.85446 62.85981 436.89783
229.16327 62.730553 437.69199
230.15518 62.854755 436.5246
231.14217 62.978916 435.35489
232.62318 62.722713 437.11655
233.77701 62.719978 436.91843
235.10257 62.590401 437.69409
236.43355 62.460754 438.46561
237.41669 62.584629 437.28082
238.57416 62.58165 437.06943
239.55011 62.705425 435.87958
240.88998 62.575508 436.63681
242.04834 62.572342 436.41565
243.39659 62.44228 437.16489
244.55815 62.43898 436.93668
246.30426 62.055069 439.62305
247.67157 61.924759 440.35883
248.64456 62.048084 439.14709
250.01773 61.917629 439.87512
250.98622 62.040836 438.65778
252.15758 62.037106 438.40808
253.53958 61.906414 439.12439
254.71426 61.902534 438.86743
255.88931 61.89859 438.60706
257.28284 61.767639 439.31097
258.2406 61.890472 438.07608
259.41684 61.886303 437.80551
260.59348 61.882053 437.53149
261.3136 62.131664 435.32352
262.48587 62.127289 435.04379
263.42493 62.249825 433.79663
264.59546 62.245316 433.51068
265.76642 62.24073 433.22122
267.17929 62.109058 433.89035
268.59784 61.977287 434.55469
270.26871 61.718399 436.17487
271.70117 61.586426 436.82877
272.88748 61.581409 436.51837
274.32877 61.449245 437.16306
275.51865 61.444061 436.84479
276.96875 61.311714 437.48013
277.89993 61.433449 436.19736
279.35626 61.300922 436.82397
280.81836 61.168293 437.44553
282.01605 61.162697 437.10748
283.21429 61.157017 436.76581
284.68845 61.024105 437.37323
285.89035 61.018269 437.02325
286.81219 61.13953 435.71823
288.2959 61.006359 436.31207
289.21362 61.127502 435.00101
290.12665 61.248604 433.68771
291.61725 61.115185 434.26859
293.11371 60.981667 434.84399
294.31964 60.975311 434.46741
295.52612 60.968891 434.08694
296.43158 61.089695 432.75769
297.94092 60.955856 433.3143
298.84225 61.076565 431.97891
300.66757 60.815231 433.46832
301.5675 60.935837 432.12592
304.0368 60.419579 435.48416
305.258 60.412682 435.07257
306.79987 60.278328 435.59576
308.67035 60.016499 437.0509
309.90128 60.009403 436.62445
311.13278 60.002277 436.19385
312.36493 59.995098 435.75922
313.93091 59.860424 436.25455
315.16684 59.853172 435.81064
316.40332 59.845905 435.36252
316.61664 60.221172 432.11636
318.19019 60.08638 432.59311
319.42307 60.079098 432.1344
320.30725 60.199387 430.7431
322.24219 59.936954 432.13165
324.18823 59.67448 433.51184
325.43109 59.667187 433.03314
327.39404 59.404663 434.39868
328.64307 59.397404 433.9093
329.89258 59.39019 433.41565
332.61365 58.87233 436.60208
337.57904 57.588264 445.29587
341.85181 56.559395 452.12576
346.16742 55.530373 458.93384
350.52594 54.501205 465.71985
354.1651 53.72744 470.65219
355.9176 53.592438 470.99368
357.28922 53.58532 470.41486
358.66089 53.578377 469.83121
360.42435 53.443817 470.15399
362.58759 53.181595 471.37973
364.36432 53.047371 471.68732
366.94571 52.657677 473.80316
369.14044 52.396027 475.00067
371.34561 52.13459 476.18881
371.93011 52.384911 473.75098
372.91388 52.507713 472.21613
374.71786 52.375092 472.48242
376.52655 52.242821 472.74167
376.66638 52.622551 469.397
-38.940582 59.391071 432.37158
-37.667053 59.39537 432.95081
-36.7995 59.274727 434.43085
-35.522507 59.27961 435.00269
-34.245209 59.284744 435.57016
-32.56929 59.415318 435.22476
-30.898514 59.546093 434.87259
-30.019226 59.426662 436.33569
-28.353622 59.5578 435.97244
-27.081207 59.563919 436.51578
-25.808853 59.570179 437.05475
-24.15419 59.70171 436.67386
-21.745407 60.08358 434.45322
-20.107071 60.215267 434.05692
-18.474335 60.347027 433.65408
-16.475372 60.603928 432.32483
-15.225677 60.610718 432.8288
-14.34285 60.492523 434.25043
-13.455093 60.374413 435.66986
-12.562424 60.256382 437.08707
-10.947815 60.388428 436.65176
-10.050705 60.270493 438.06238
-7.7358856 60.652504 435.76212
-6.489212 60.659557 436.23602
-4.8950806 60.791576 435.77643
-3.6520996 60.79863 436.24084
-2.0669708 60.930599 435.76981
-0.82769775 60.937618 436.22479
0.74836731 61.069511 435.74246
1.6491852 60.951611 437.12213
3.5508423 61.208279 435.69461
4.4531708 61.09034 437.06689
6.0136871 61.222042 436.56326
6.9201202 61.104061 437.92917
8.15271 61.110863 438.35416
9.0658875 60.99284 439.71457
10.299911 60.999557 440.13232
11.533356 61.006226 440.54596
13.077103 61.137585 440.01337
14.306702 61.144119 440.41812
15.230026 61.025894 441.76279
16.764084 61.157028 441.21555
17.991882 61.163391 441.60831
18.921326 61.045013 442.94357
20.74086 61.300564 441.43469
22.549301 61.556 439.91861
24.346664 61.811306 438.39545
25.558395 61.817261 438.76459
27.338898 62.072353 437.22891
28.262238 61.953548 438.54013
29.190262 61.834702 439.84906
30.399742 61.840359 440.20303
31.882874 61.970505 439.59958
32.817101 61.851463 440.89954
34.562889 62.105976 439.332
35.765007 62.11132 439.66943
36.966583 62.116573 440.00323
38.428772 62.246262 439.37604
39.885239 62.375858 438.74374
40.824196 62.256397 440.02374
42.274445 62.385818 439.38278
43.719009 62.515141 438.73682
44.909782 62.51992 439.04666
46.100098 62.524616 439.35294
47.28994 62.529251 439.65561
48.719589 62.658215 438.99207
49.430618 62.413883 441.21368
50.38665 62.293903 442.47043
51.57991 62.298256 442.76025
52.772751 62.302536 443.04654
54.192421 62.431095 442.36353
55.381821 62.435223 442.64221
56.792885 62.563618 441.95038
58.198372 62.691929 441.25388
59.381371 62.695816 441.52106
60.563988 62.699627 441.78482
62.16964 62.952007 440.10629
63.346329 62.955673 440.36209
64.522667 62.959267 440.6145
65.698639 62.962791 440.86356
67.075607 63.090542 440.1376
68.049561 62.96965 441.35156
69.224518 62.972977 441.59058
70.399139 62.976238 441.82626
71.955414 63.227943 440.11124
72.935837 63.106815 441.31348
74.29274 63.234119 440.56403
75.460968 63.237118 440.78546
76.628868 63.240047 441.00372
77.796509 63.242928 441.21866
78.788368 63.121521 442.40701
79.958031 63.124283 442.61591
80.786781 62.878578 444.77667
82.296532 63.129623 443.02402
83.465408 63.132214 443.22321
84.796585 63.258923 442.4404
86.282364 63.50975 440.67416
87.442757 63.512146 440.86249
88.757736 63.63866 440.06757
90.067352 63.76511 439.26862
91.221909 63.767342 439.44662
92.229134 63.645367 440.60278
93.385841 63.647495 440.7749
94.400375 63.525429 441.92596
95.419868 63.403328 443.07458
96.717911 63.529449 442.25525
98.144859 63.779644 440.44891
99.298004 63.781521 440.60507
100.45097 63.78336 440.75806
101.47725 63.661015 441.89221
102.63245 63.662754 442.0394
103.66611 63.540337 443.1683
104.94234 63.6661 442.32446
106.09705 63.667709 442.46237
107.36523 63.793365 441.61148
108.51707 63.794876 441.74295
109.88577 64.044525 439.89871
110.92624 63.921856 441.0101
112.07508 63.923237 441.13214
113.22379 63.92458 441.2511
114.27415 63.801804 442.35443
115.32951 63.678982 443.45526
116.48299 63.680202 443.56561
117.72688 63.805462 442.68478
118.96552 63.930676 441.80045
120.19891 64.055847 440.91263
121.34424 64.056915 441.01019
122.48947 64.05793 441.10477
123.55692 63.934856 442.18555
124.62943 63.811752 443.26367
125.70697 63.688606 444.33923
126.78956 63.565434 445.41214
128.01202 63.690342 444.50241
129.22928 63.815201 443.58932
130.5036 64.064072 441.68259
131.76759 64.312897 439.77225
133.02124 64.561691 437.85825
134.15541 64.562347 437.9223
135.18549 64.314896 439.96518
136.32465 64.315491 440.02362
137.41689 64.192017 441.07019
138.55852 64.192535 441.1228
139.7001 64.193039 441.17242
140.88083 64.317551 440.22754
142.01974 64.317978 440.27112
143.12459 64.194344 441.30347
144.29749 64.318741 440.34949
145.40738 64.195053 441.37607
146.57509 64.319389 440.41599
147.66626 64.071609 442.42874
148.83134 64.195877 441.46274
149.95395 64.072052 442.47778
151.09778 64.072235 442.49789
152.22804 63.948353 443.50717
153.39635 64.196533 441.53693
154.52914 64.072601 442.54028
155.67291 64.072647 442.54855
156.8134 63.948647 443.54605
157.96045 64.07267 442.55609
159.10606 63.948597 443.54776
160.24799 64.072571 442.55182
161.38478 64.196503 441.55301
162.51646 64.320404 440.55127
163.66724 64.196205 441.53104
164.79382 64.320053 440.52338
165.94977 64.195801 441.49722
167.09105 64.195541 441.47589
168.23236 64.195267 441.45154
169.34877 64.318985 440.43237
170.48758 64.318634 440.40222
171.59636 64.442291 439.37732
172.73267 64.441895 439.34134
173.83383 64.565483 438.31079
175.00542 64.440971 439.26059
176.10153 64.564514 438.22433
177.14967 64.812057 436.19397
178.32397 64.687447 437.13486
179.50345 64.562805 438.07254
180.58693 64.686218 437.02499
181.82481 64.437454 438.94745
183.0173 64.312714 439.87558
184.09842 64.43602 438.81943
185.29617 64.311203 439.74133
186.37231 64.434448 438.67953
187.50937 64.433609 438.60513
188.71506 64.308678 439.51764
189.85484 64.307762 439.4371
190.99472 64.306824 439.35361
192.05844 64.429901 438.27777
193.19592 64.428879 438.18848
194.33353 64.427826 438.09622
195.47121 64.426743 438.00095
196.52249 64.549675 436.91425
197.83601 64.300354 438.78979
199.06825 64.175072 439.67331
200.21152 64.17382 439.56561
201.35492 64.172531 439.45486
202.49843 64.171204 439.34109
203.54013 64.293915 438.23727
204.57684 64.416595 437.13104
205.71561 64.415154 437.0087
206.96417 64.289566 437.8696
208.33025 64.03981 439.7128
209.47717 64.038223 439.58054
210.62424 64.036598 439.44522
211.77148 64.034927 439.30682
212.79636 64.157326 438.18069
213.69119 64.403809 436.06778
214.83121 64.402008 435.9212
215.84116 64.524292 434.78784
217.24457 64.274139 436.60214
218.52307 64.148056 437.42892
219.80693 64.021912 438.25201
221.09613 63.89571 439.07123
222.24756 63.893612 438.90466
223.25354 64.01561 437.75348
224.40282 64.013412 437.58109
225.40149 64.135315 436.42484
226.39523 64.257187 435.26627
227.85199 64.006485 437.04507
229.00218 64.004074 436.86014
230.15259 64.001602 436.672
231.30327 63.999081 436.48077
232.62048 63.872303 437.26453
233.77423 63.869659 437.06647
235.09973 63.742752 437.84256
236.25659 63.739983 437.6377
237.23709 63.861389 436.45316
238.57115 63.73428 437.21826
239.54703 63.855583 436.0282
241.07123 63.604092 437.76083
242.4191 63.476768 438.51379
243.3933 63.597897 437.31445
244.93912 63.346161 439.03339
246.49557 63.094341 440.74689
247.86539 62.966705 441.4826
249.0408 62.96328 441.242
250.21657 62.959789 440.99808
250.9825 63.204826 438.80917
252.15378 63.201218 438.5596
253.11516 63.321857 437.33704
254.49744 63.193787 438.05045
255.88531 63.065639 438.75934
257.27872 62.937397 439.46368
258.23642 63.05777 438.22867
259.4126 63.053726 437.95825
260.58914 63.049618 437.68436
261.76614 63.045437 437.40707
262.94351 63.041187 437.12625
263.8877 63.161259 435.87766
265.06335 63.15686 435.59058
266.23944 63.152397 435.30002
267.41595 63.147858 435.00592
268.34891 63.267689 433.74658
270.26373 62.889656 436.32941
271.69611 62.760414 436.9838
272.88235 62.755535 436.67365
274.06906 62.750587 436.35983
275.51337 62.621075 437.00076
276.70364 62.615974 436.67899
277.63214 62.735302 435.39673
279.35071 62.481003 436.9808
280.81271 62.351109 437.60294
282.01031 62.345673 437.26511
283.4812 62.215607 437.87753
284.6825 62.210011 437.53152
285.88437 62.204338 437.18179
286.80615 62.323196 435.87659
288.00647 62.317383 435.52011
289.2074 62.311504 435.15982
290.12036 62.430199 433.84637
291.6109 62.299538 434.42783
293.10727 62.168781 435.00385
294.31311 62.162609 434.62747
295.51953 62.156364 434.24722
296.42493 62.274773 432.91782
297.93414 62.143703 433.47498
298.83545 62.262009 432.1395
300.04163 62.255524 431.74451
301.56055 62.124237 432.28732
303.7149 61.743305 434.70627
304.61597 61.861393 433.3558
306.1525 61.729862 433.88132
307.69495 61.598244 434.40106
308.91788 61.591385 433.9776
310.79742 61.334785 435.42285
312.02682 61.327824 434.98929
313.59012 61.195953 435.48618
315.49524 60.939114 436.91061
316.73431 60.932022 436.46176
317.29156 61.174759 434.14551
318.18262 61.292599 432.75958
319.41547 61.285507 432.30109
319.25214 61.778294 428.12369
320.82721 61.646282 428.58847
322.76263 61.389244 429.97369
324.70917 61.132164 431.35062
327.02655 60.750015 433.6438
328.63544 60.617901 434.07932
330.25009 60.48579 434.50845
332.60602 60.103561 436.77405
336.83044 59.095833 443.63089
341.09778 58.087952 450.46609
345.40808 57.079914 457.27951
350.13965 55.946613 464.98798
354.53833 54.938316 471.75592
356.67734 54.680916 473.01184
358.05438 54.673927 472.431
359.43152 54.667114 471.84528
360.80878 54.660461 471.25491
362.186 54.653999 470.65976
363.5632 54.647743 470.05984
366.13947 54.266006 472.17932
368.3291 54.009682 473.38019
370.52914 53.753586 474.57153
371.51636 53.873543 473.04004
372.49774 53.993843 471.50616
374.29944 53.863892 471.77426
375.27441 53.984886 470.23355
376.24335 54.106277 468.69073
-38.523956 60.759792 431.64185
-37.661896 60.641361 433.12399
-36.794083 60.523232 434.60422
-35.113083 60.65065 434.26926
-33.43718 60.778278 433.92767
-32.16478 60.783516 434.48828
-30.892258 60.788963 435.04459
-30.012756 60.672009 436.50778
-28.347046 60.800407 436.14401
-27.850037 60.56126 438.51431
-26.572235 60.56741 439.0553
-24.912125 60.69622 438.67603
-22.877747 60.947639 437.37326
-20.854248 61.19912 436.06165
-18.841629 61.450642 434.74124
-16.839981 61.702187 433.41217
-15.218445 61.831287 432.99573
-14.335556 61.715511 434.41748
-13.447723 61.599831 435.83698
-11.832672 61.729057 435.40543
-10.581879 61.735886 435.89294
-9.6874237 61.620346 437.30264
-7.3752899 61.994377 435.00006
-6.1312561 62.001232 435.47272
-4.8877106 62.008095 435.94107
-3.989975 61.892635 437.33566
-2.4022522 62.021828 436.86508
-1.5002899 61.906372 438.25317
0.41830444 62.157795 436.83881
1.3217468 62.042309 438.21954
3.2259979 62.293621 436.79199
4.4602966 62.300343 437.2291
6.0207825 62.429268 436.72485
6.9271851 62.313686 438.09085
8.1596985 62.32029 438.51566
9.0728302 62.204666 439.87619
10.306824 62.211201 440.29367
11.540192 62.217678 440.70709
13.083862 62.346252 440.17392
14.3134 62.352612 440.5784
15.236679 62.236786 441.92319
16.770645 62.365147 441.3754
18.298767 62.493416 440.82199
19.22551 62.37743 442.15656
20.747177 62.505547 441.59357
22.848038 62.877686 439.12814
24.062897 62.883541 439.50177
25.277191 62.889336 439.87149
27.060196 63.139103 438.33569
27.986099 63.02272 439.64783
29.196075 63.028294 440.00531
30.128693 62.9118 441.31219
31.888542 63.161186 439.75504
32.822685 63.044559 441.05518
34.568344 63.293728 439.48682
35.770393 63.298916 439.82404
37.235611 63.425945 439.20074
38.695107 63.552887 438.5723
40.148865 63.679729 437.93881
41.341026 63.684578 438.25928
42.785965 63.811245 437.61642
44.225212 63.937809 436.9686
45.162636 63.82056 438.23798
46.350281 63.825115 438.54333
47.780304 63.951427 437.88284
48.964417 63.95583 438.18048
49.672768 63.716496 440.40201
50.626137 63.598949 441.65826
51.816734 63.603153 441.94727
52.777031 63.485489 443.19839
54.423889 63.733135 441.54865
55.610611 63.737122 441.8266
57.01899 63.862804 441.1337
58.421791 63.988396 440.43616
59.602135 63.992149 440.70258
60.56781 63.874092 441.93475
62.173363 64.121201 440.25546
63.349983 64.124741 440.51114
64.526253 64.12822 440.7634
65.702156 64.131638 441.0123
67.079041 64.256691 440.28595
68.05294 64.13826 441.50009
69.227829 64.141487 441.73895
70.40239 64.144646 441.97449
71.767593 64.269409 441.23276
72.938942 64.272446 441.46115
74.109978 64.275406 441.68628
75.280708 64.278305 441.90817
76.63179 64.402802 441.15073
77.6213 64.283928 442.34207
78.966637 64.408295 441.57718
79.960762 64.289322 442.76294
81.130089 64.291931 442.96851
82.634605 64.537727 441.21426
83.963394 64.661835 440.43378
85.124222 64.664261 440.62833
86.444771 64.788239 439.84018
87.759941 64.912155 439.04797
88.760056 64.792816 440.21259
90.069603 64.916611 439.41327
91.224106 64.91877 439.59116
92.231293 64.799294 440.74756
93.243408 64.679764 441.90164
94.402435 64.681778 442.07086
95.561249 64.683739 442.23703
96.719872 64.685654 442.40002
98.146759 64.930649 440.59296
99.299858 64.932465 440.74902
100.45277 64.934219 440.90204
101.60551 64.935944 441.05188
102.75809 64.937614 441.19867
103.78914 64.817703 442.32748
104.94395 64.819298 442.46841
105.98239 64.69931 443.59201
107.36676 64.943878 441.755
108.51855 64.945335 441.88638
109.7787 65.068275 441.02811
110.92763 65.069649 441.15311
112.17979 65.192497 440.28787
113.22511 65.072273 441.39398
114.27542 64.952011 442.49756
115.42641 64.953232 442.61063
116.57728 64.954407 442.72073
117.81856 65.077049 441.83929
119.05457 65.199646 440.95441
120.28535 65.322212 440.06598
121.42809 65.323227 440.16327
122.49046 65.202713 441.24695
123.63557 65.203674 441.33838
124.70546 65.083084 442.41666
125.78041 64.962479 443.49228
126.79042 64.720352 445.55539
128.01285 64.842651 444.64536
129.16522 64.843437 444.72235
130.50435 65.208626 441.82449
131.70859 65.330811 440.90427
132.96477 65.574448 438.98978
134.15604 65.696564 438.06284
135.2381 65.575691 439.11511
136.37468 65.576263 439.17334
137.46431 65.45533 440.22012
138.64766 65.577316 439.28098
139.74232 65.456314 440.32205
140.88127 65.456764 440.36859
142.02016 65.457184 440.41217
143.12497 65.336098 441.44479
144.23485 65.214981 442.47467
145.37877 65.215309 442.50952
146.54901 65.337067 441.54919
147.6665 65.215866 442.57034
148.83157 65.337563 441.604
149.95415 65.216309 442.61932
151.09793 65.216484 442.6394
152.24171 65.216629 442.65652
153.38547 65.216736 442.67065
154.52081 65.09536 443.67438
155.67296 65.216881 442.69003
156.81342 65.095428 443.68793
157.96043 65.216896 442.6976
159.10602 65.095398 443.68954
160.24791 65.216797 442.69333
161.38467 65.338165 441.69418
162.51633 65.459511 440.69211
163.66707 65.337891 441.67221
164.80829 65.337708 441.6568
165.96677 65.216019 442.63092
167.09079 65.33725 441.6171
168.25443 65.2155 442.58521
169.34845 65.458138 440.5733
170.48723 65.457809 440.54318
171.59598 65.578911 439.51797
172.73225 65.578522 439.48203
173.86858 65.578094 439.44312
175.00493 65.577637 439.40128
176.10101 65.698631 438.36472
177.19202 65.81958 437.32544
178.32339 65.819038 437.27499
179.50282 65.696983 438.21301
180.63687 65.696373 438.15656
181.82413 65.574249 439.08829
183.01659 65.452087 440.01685
184.15596 65.451385 439.9512
185.35623 65.329155 440.87332
186.43491 65.44986 439.81104
187.50851 65.570541 438.74612
188.64563 65.569687 438.66882
189.78281 65.568817 438.58847
190.92007 65.567909 438.50519
191.9812 65.688461 437.42929
193.1949 65.565987 438.32968
194.33246 65.564972 438.23746
195.47011 65.563904 438.1423
196.52135 65.684326 437.05524
197.83482 65.440186 438.93149
198.97537 65.439018 438.82706
200.21027 65.316299 439.70773
201.25682 65.436569 438.60919
202.59645 65.192261 440.47095
203.6407 65.312454 439.36664
204.67993 65.43261 438.25983
205.9283 65.309692 439.12408
207.18196 65.186714 439.98474
208.4409 65.06369 440.84186
209.59036 65.062149 440.70935
210.73996 65.060577 440.57379
211.88972 65.05896 440.43518
212.91713 65.178848 439.30847
213.8145 65.420242 437.1947
215.08469 65.296951 438.03217
216.22998 65.295158 437.8819
217.50826 65.171768 438.71219
218.79187 65.048302 439.53876
220.21875 64.803215 441.34442
221.23457 64.922806 440.19775
222.24544 65.042343 439.04871
223.10568 65.28344 436.91547
224.1041 65.402916 435.76205
225.09755 65.522339 434.60635
226.23949 65.520126 434.42899
227.53763 65.396255 435.22876
228.84117 65.272324 436.02454
229.98895 65.269943 435.83691
231.13699 65.267502 435.64624
232.28528 65.265022 435.45233
233.60268 65.140854 436.23331
234.75406 65.138245 436.03262
236.07974 65.013947 436.80594
237.05762 65.132874 435.6217
238.38901 65.008438 436.38766
239.54407 65.0056 436.17371
240.88379 64.881035 436.93176
242.04202 64.878067 436.71085
243.39012 64.753357 437.46097
244.74371 64.628571 438.20685
246.2975 64.382019 439.92166
247.66466 64.25708 440.65833
248.83743 64.253761 440.4184
249.80804 64.372108 439.20346
250.7738 64.490417 437.98621
251.94243 64.486923 437.73737
253.11142 64.483376 437.48514
254.28076 64.479752 437.22958
255.66595 64.354301 437.93954
257.0567 64.22876 438.64499
258.23239 64.22493 438.37805
259.40848 64.221016 438.10776
260.58496 64.217033 437.83401
261.9903 64.091187 438.52274
263.17023 64.087051 438.24152
263.8833 64.326492 436.02747
264.82263 64.444061 434.77652
266.23486 64.317909 435.45013
267.41132 64.313507 435.15619
268.34421 64.430908 433.8967
270.01227 64.182625 435.51929
271.69122 63.934238 437.13559
272.62549 64.051407 435.86551
273.3006 64.290428 433.63382
274.99402 64.041763 435.23602
276.17905 64.036835 434.91589
277.10223 64.15377 433.63489
278.5506 64.026749 434.2648
280.53967 63.655724 436.80118
281.73459 63.650463 436.46429
283.20282 63.523155 437.07803
284.4014 63.517738 436.73294
285.60056 63.512249 436.38416
286.51965 63.6287 435.07959
287.71729 63.623081 434.72409
288.91547 63.617386 434.36481
290.11426 63.611622 434.00171
291.60471 63.483727 434.58371
293.39471 63.23365 436.10834
294.89948 63.105556 436.67859
296.11105 63.099476 436.29688
297.02167 63.215443 434.96573
298.23181 63.209244 434.57706
298.82883 63.447277 432.29669
300.03491 63.440987 431.90189
301.24164 63.434639 431.50317
303.39325 63.06168 433.92426
304.60907 63.055187 433.51492
306.14554 62.926418 434.04108
307.68787 62.797588 434.56134
308.91077 62.790924 434.13812
310.13428 62.78421 433.71085
311.68896 62.655197 434.21524
312.91629 62.648415 433.77875
314.81604 62.396988 435.20602
316.72693 62.145485 436.62527
317.28418 62.383228 434.30853
318.5191 62.37632 433.85352
319.40805 62.491768 432.46426
319.59393 62.851986 429.21472
320.81982 62.845131 428.75104
322.40076 62.715874 429.21024
324.3446 62.464184 430.58914
326.6593 62.090015 432.88464
328.62799 61.838245 434.24573
329.87756 61.831379 433.75259
332.59854 61.334656 436.94232
336.45251 60.470383 442.88153
341.09021 59.360958 450.64063
345.77618 58.251369 458.37567
350.88876 57.019073 467.004
354.91168 56.15427 472.85645
357.43719 55.779644 475.02753
358.81967 55.772812 474.44458
359.42419 56.011292 472.03088
360.80157 56.004795 471.4407
362.17899 55.998482 470.84573
363.95343 55.869736 471.15564
365.73309 55.741192 471.45844
368.32266 55.367554 473.5686
370.11789 55.239433 473.85483
