ply
format ascii 1.0
comment PCL generated
element vertex 1592
property float x
property float y
property float z
element camera 0
property float view_px
property float view_py
property float view_pz
property float x_axisx
property float x_axisy
property float x_axisz
property float y_axisx
property float y_axisy
property float y_axisz
property float z_axisx
property float z_axisy
property float z_axisz
property float focal
property float scalex
property float scaley
property float centerx
property float centery
property int viewportx
property int viewporty
property float k1
property float k2
end_header
194.07913 78.347351 436.61642
195.12482 78.439987 435.53018
196.42497 78.252762 437.41708
197.55737 78.252068 437.3168
198.87314 78.064789 439.19638
199.91667 78.157333 438.09845
201.24551 77.970001 439.97083
202.4854 77.875916 440.84857
203.83246 77.688522 442.7132
204.8765 77.78096 441.6033
206.12961 77.686798 442.47064
207.16876 77.779205 441.35522
208.20291 77.871582 440.23737
209.34683 77.870628 440.10605
210.49091 77.869652 439.97171
211.63512 77.868652 439.83432
212.90196 77.774315 440.68195
214.04906 77.773254 440.53815
215.06871 77.865479 439.40387
216.21359 77.864357 439.2543
217.35861 77.86322 439.10159
218.50385 77.86203 438.94589
219.92506 77.674179 440.75922
221.21628 77.579605 441.58224
222.3698 77.578323 441.41623
223.5235 77.577011 441.24707
224.67743 77.575668 441.07477
225.83154 77.57428 440.89935
226.98589 77.572876 440.72079
228.14044 77.571426 440.53915
229.29523 77.569946 440.35431
230.45024 77.568428 440.16632
231.6055 77.566872 439.97522
232.761 77.565277 439.78091
234.08557 77.470291 440.5647
235.24417 77.46862 440.36362
236.40302 77.466911 440.15936
237.38553 77.55854 438.97205
238.7215 77.463379 439.74121
239.88116 77.461555 439.52731
241.40976 77.272919 441.26706
242.38824 77.364395 440.06778
243.55136 77.362442 439.84369
244.71478 77.360451 439.61636
245.87854 77.358414 439.3858
246.64809 77.543152 437.2001
248.00711 77.447632 437.93933
249.37167 77.352051 438.67426
250.74173 77.256409 439.40479
252.11734 77.160721 440.13095
253.49844 77.064972 440.85263
254.67233 77.062614 440.59723
255.84659 77.060204 440.33847
256.80322 77.151199 439.10483
257.97565 77.148697 438.8399
259.37164 77.052689 439.54187
260.54742 77.050079 439.26953
261.72363 77.04744 438.99377
262.90024 77.044739 438.71457
264.07727 77.041992 438.43198
265.25473 77.039185 438.1459
266.19388 77.129837 436.88977
267.61099 77.033432 437.56335
268.78979 77.030479 437.26685
269.96902 77.027481 436.9668
271.39789 76.930901 437.6272
272.83246 76.834259 438.28271
273.76398 76.924622 437.00818
275.20471 76.827858 437.65521
276.39157 76.824585 437.33609
277.57895 76.821251 437.01337
278.76685 76.817863 436.68704
280.22266 76.720856 437.31607
281.14417 76.810944 436.02344
282.60626 76.713821 436.64368
283.52362 76.803818 435.34518
285.26993 76.612953 436.91269
286.46625 76.609238 436.56284
287.38007 76.699097 435.25473
288.86066 76.601669 435.85187
290.05869 76.597794 435.49078
290.96631 76.687531 434.17374
292.75012 76.496254 435.70856
294.54498 76.304909 437.23624
296.05212 76.207153 437.80713
297.56512 76.109314 438.37253
299.08398 76.011429 438.93225
300.302 76.007172 438.53925
301.21124 76.096581 437.19604
302.42786 76.092247 436.79599
303.64508 76.087875 436.39197
304.86292 76.083466 435.98392
306.40131 75.98526 436.51471
307.30051 76.074516 435.15591
308.84543 75.976227 435.67682
309.7406 76.065445 434.31174
311.29208 75.967072 434.82272
312.51636 75.962448 434.3895
314.41272 75.770195 435.82666
315.64352 75.765503 435.3833
317.55707 75.573151 436.80649
319.82553 75.286896 439.15601
321.7641 75.094429 440.56198
323.36487 74.995758 441.02737
324.61987 74.990936 440.55505
325.52112 75.080002 439.14804
325.7037 75.356857 435.88
325.87085 75.633789 432.61377
327.1095 75.629066 432.13147
329.07855 75.436539 433.49734
330.32349 75.431854 433.0043
335.27164 74.487831 441.74847
339.52765 73.731537 448.62079
343.82666 72.975143 455.47131
348.54697 72.12468 463.22079
353.69653 71.180145 471.86569
356.59818 70.799408 474.97141
363.77036 69.384735 488.15695
366.74457 69.003952 491.22275
369.74036 68.623199 494.27444
366.84381 69.652817 483.5994
357.53778 72.187241 458.33633
348.48743 74.628189 434.04321
348.95267 74.812622 431.66281
346.9776 75.561554 423.82578
350.66608 74.993927 428.71973
362.59167 72.54509 451.737
369.7005 71.224998 463.81625
371.48083 71.127975 464.09613
372.84775 71.125282 463.46545
-39.296692 75.493973 435.24316
-39.244415 75.222488 438.54572
-37.957047 75.225533 439.1236
-37.073151 75.137329 440.60736
-35.782867 75.140717 441.17752
-34.094269 75.235672 440.83047
-31.619812 75.513565 438.64899
-29.554367 75.700142 437.37106
-27.109436 75.978195 435.168
-24.680664 76.256302 432.95364
-23.423035 76.260315 433.4834
-22.165634 76.264412 434.00867
-20.908569 76.268578 434.52966
-19.651825 76.27282 435.04617
-18.769791 76.185776 436.48114
-17.511169 76.190132 436.99002
-16.990967 76.011887 439.34433
-15.727921 76.016342 439.84656
-14.829025 75.929535 441.27142
-13.203262 76.02536 440.8378
-11.225037 76.212448 439.46875
-9.9693298 76.21698 439.95145
-8.0080719 76.404053 438.56754
-6.4084015 76.499832 438.10748
-4.814621 76.595581 437.64117
-3.9169006 76.50885 439.03683
-1.9871521 76.695801 437.625
-0.40838623 76.791489 437.14111
1.1644745 76.887138 436.65112
2.7314453 76.982758 436.15506
4.2924957 77.078323 435.65302
5.1891785 76.991501 437.02469
6.7437134 77.087006 436.51257
7.644455 77.000137 437.87784
8.5498352 76.913254 439.24097
9.4598694 76.82637 440.60175
11.006622 76.921722 440.07159
11.607269 76.743652 442.37134
13.460907 76.930038 440.88614
14.687119 76.934128 441.28745
16.523727 77.120384 439.78909
17.743469 77.124382 440.18073
19.563049 77.310486 438.66953
21.073929 77.405457 438.10138
22.578979 77.500359 437.52768
23.785797 77.504135 437.90051
24.412491 77.325775 440.17508
25.049118 77.1474 442.44897
25.980148 77.060028 443.76788
26.915863 76.972641 445.0845
28.41478 77.067238 444.48712
29.907898 77.161774 443.88443
31.395256 77.256241 443.27643
32.605377 77.259659 443.62137
33.814957 77.263016 443.96262
35.02404 77.266327 444.30008
36.759766 77.451523 442.71323
38.484535 77.63665 441.11987
39.681633 77.639786 441.44348
41.389755 77.82476 439.83862
42.833801 77.918724 439.19052
43.771019 77.830742 440.46512
44.96093 77.833664 440.77301
45.905029 77.745598 442.04251
46.611099 77.566574 444.27563
47.807426 77.569359 444.57489
49.240875 77.662994 443.9035
50.668694 77.756584 443.22729
52.323235 77.941002 441.578
53.737206 78.034454 440.89172
54.918388 78.036964 441.17041
56.09919 78.039429 441.44559
57.501556 78.132721 440.74658
58.459587 78.04422 441.98575
59.855995 78.137413 441.27875
61.032654 78.139687 441.53976
62.42054 78.232773 440.82428
63.593872 78.234955 441.078
64.766861 78.237091 441.32837
66.143333 78.330017 440.60062
67.313042 78.332062 440.84381
68.283745 78.243233 442.05957
69.063232 78.063553 444.24933
70.239716 78.065475 444.48422
71.415901 78.067375 444.7157
72.40345 77.978409 445.92181
73.953079 78.161842 444.19052
75.675262 78.436035 441.47504
76.83992 78.437744 441.69156
78.182289 78.530228 440.92502
79.343819 78.53186 441.13458
80.505089 78.533463 441.34091
81.495842 78.444237 442.5253
82.659172 78.445763 442.72574
83.822258 78.447258 442.92294
85.147614 78.539497 442.13446
86.147697 78.450142 443.30783
87.310074 78.45153 443.49554
88.626999 78.543655 442.69635
89.93856 78.635742 441.89313
90.795853 78.455498 444.0397
92.104416 78.547516 443.2298
93.407623 78.639503 442.41602
94.705475 78.731445 441.59839
95.858658 78.732597 441.763
97.148407 78.824471 440.93808
98.432831 78.916313 440.10928
99.580322 78.917374 440.26392
100.59859 78.827667 441.40295
101.87479 78.919418 440.56393
102.89787 78.829651 441.69748
103.92593 78.739868 442.82867
105.1965 78.831528 441.97983
106.22941 78.741684 443.1055
107.1537 78.561104 445.21802
108.5323 78.743408 443.37006
109.57506 78.653503 444.48779
110.72874 78.654305 444.61273
111.98561 78.745804 443.74417
113.338 78.927994 441.88123
114.58178 79.019432 441.00531
115.82031 79.110847 440.12585
116.96054 79.111519 440.23441
118.19114 79.202881 439.34827
119.32858 79.203506 439.45059
120.38055 79.113396 440.54221
121.52036 79.113976 440.63882
122.57985 79.023827 441.7251
123.72205 79.024368 441.81598
124.78905 78.934174 442.89694
125.93362 78.934677 442.98203
127.00817 78.844452 444.05756
128.15515 78.84491 444.1369
129.30206 78.845337 444.21329
130.44891 78.845764 444.28659
131.71507 79.027573 442.3688
132.85666 79.027954 442.43591
134.05273 79.119011 441.50568
135.19162 79.119347 441.56677
136.33046 79.119675 441.62485
137.42236 79.029266 442.6748
138.56366 79.029556 442.72714
139.74666 79.120522 441.78152
140.92448 79.211472 440.8327
142.06052 79.2117 440.87601
143.19652 79.211914 440.91632
144.33249 79.212105 440.95374
145.4395 79.12159 441.98367
146.55161 79.031052 443.01083
147.69261 79.031204 443.03958
148.85483 79.122025 442.06973
149.99323 79.122131 442.09256
151.14771 79.212921 441.11667
152.31056 79.394379 439.14206
153.44122 79.39444 439.15594
154.56346 79.303787 440.16281
155.70251 79.394501 439.17505
156.83316 79.394516 439.18021
157.96307 79.303818 440.17838
159.09627 79.303787 440.1777
160.23389 79.213058 441.17001
161.36966 79.212997 441.16354
162.50545 79.212921 441.15411
163.64125 79.21283 441.14172
164.77705 79.212723 441.1265
165.91289 79.212593 441.10828
167.08832 79.031067 443.07849
168.20695 79.121597 442.05872
169.3205 79.212128 441.03607
170.42894 79.30262 440.01068
171.56233 79.302414 439.97794
172.66315 79.392883 438.94687
173.79404 79.392639 438.90833
174.96272 79.301682 439.86203
176.05595 79.392097 438.82248
177.18698 79.3918 438.77521
178.27261 79.482185 437.7301
179.40118 79.48185 437.67709
180.58037 79.3908 438.61572
181.71161 79.390427 438.55676
182.8429 79.390045 438.49478
183.97426 79.389633 438.42993
185.1665 79.298508 439.35611
186.30057 79.298065 439.28519
187.50067 79.206886 440.20505
188.63745 79.206398 440.12805
189.7032 79.2966 439.05475
190.69026 79.477493 436.98581
191.74336 79.567665 435.90753
192.79141 79.657814 434.82675
194.07851 79.4758 436.7211
195.12418 79.56591 435.63467
196.4243 79.38385 437.52203
197.55667 79.383194 437.42178
198.78078 79.291809 438.31015
199.91594 79.291107 438.20377
201.14798 79.199661 439.08548
202.38527 79.108185 439.96378
203.62782 79.016693 440.8385
204.66669 79.106628 439.72894
206.02168 78.924347 441.58719
207.05826 79.014229 440.47189
208.08981 79.104095 439.35406
209.46065 78.921722 441.20163
210.60724 78.920799 441.06699
211.63411 79.01059 439.94073
212.90091 78.918869 440.78864
214.04799 78.917862 440.64487
215.06763 79.007576 439.51044
216.21246 79.006516 439.3609
217.35747 79.005432 439.20828
218.63799 78.913559 440.03928
220.06175 78.730896 441.85275
221.3555 78.638947 442.67575
222.65462 78.546967 443.49493
223.66782 78.636482 442.3399
224.82428 78.635201 442.1673
225.83015 78.724663 441.00714
226.98445 78.72332 440.82864
228.13898 78.721939 440.64706
229.29373 78.720535 440.46228
230.28763 78.809875 439.29166
231.60394 78.717613 440.08337
232.59314 78.8069 438.90723
233.9151 78.714554 439.69174
235.07108 78.712975 439.49121
236.22729 78.711349 439.28748
237.2072 78.800507 438.10043
238.71968 78.617203 439.85001
239.8793 78.615463 439.63617
241.40784 78.432053 441.3765
242.38632 78.521057 440.17709
243.54938 78.519196 439.95309
244.52069 78.608131 438.74863
245.68179 78.606201 438.51865
246.64598 78.695053 437.30927
248.00497 78.602203 438.04886
249.36948 78.5093 438.78409
250.94449 78.325493 440.4895
252.32262 78.232475 441.21542
253.70628 78.139404 441.93692
254.88269 78.137154 441.681
255.84412 78.225723 440.44946
256.80072 78.314255 439.2157
257.97311 78.311874 438.9509
259.14584 78.309448 438.68265
260.54474 78.21608 439.38095
261.72092 78.213547 439.10535
262.6665 78.30188 437.85751
263.84091 78.299263 437.57565
264.7796 78.387512 436.32288
265.7135 78.475723 435.0679
267.12531 78.38205 435.74307
268.29886 78.379242 435.44803
269.71939 78.285446 436.11429
271.39474 78.100647 437.73993
272.82925 78.006721 438.39584
274.01505 78.003693 438.08395
275.45837 77.909637 438.73071
276.38818 77.997482 437.44958
277.83768 77.90332 438.08765
279.02814 77.900085 437.76077
280.21909 77.89679 437.43018
281.14056 77.984451 436.13745
282.32996 77.981064 435.80032
283.24466 78.068649 434.50247
284.98828 77.883133 436.07132
286.18195 77.879593 435.72235
287.37616 77.875999 435.36969
288.85669 77.781311 435.96722
290.05469 77.777618 435.60632
291.25323 77.773865 435.24158
292.74597 77.679008 435.82458
294.24457 77.584076 436.40222
296.04788 77.397995 437.92432
297.25931 77.394043 437.54092
299.07959 77.207809 439.05026
300.29755 77.203743 438.65741
301.51611 77.199631 438.26065
302.73529 77.19548 437.85989
303.95511 77.191284 437.45517
304.54102 77.369347 435.1586
306.07672 77.273941 435.69064
307.29578 77.269638 435.27484
308.5155 77.265312 434.85495
309.73581 77.260956 434.43097
311.28726 77.165367 434.94241
312.17834 77.252159 433.57086
314.07208 77.065292 435.0097
315.30017 77.060814 434.56747
317.55206 76.782608 436.92795
319.47675 76.595581 438.34375
321.41266 76.408508 439.75143
323.01074 76.312653 440.21826
324.26309 76.308044 439.74716
324.8074 76.486008 437.41043
325.34161 76.664017 435.07343
325.86578 76.842087 432.73624
327.10443 76.83757 432.25412
329.07349 76.650436 433.62067
330.31845 76.645943 433.12784
334.526 75.910751 440.02603
339.14954 75.084091 447.82608
342.69464 74.531395 452.83545
348.54169 73.43042 463.35434
352.16754 72.877571 468.32172
355.44214 72.416077 472.35214
359.90247 71.680389 479.12021
365.57251 70.670441 488.61563
366.99405 70.66597 488.00967
364.86749 71.484436 479.1687
356.34241 73.766052 455.73102
351.28021 75.225266 440.55576
347.74176 76.319061 429.05728
347.78351 76.590118 425.7706
354.33057 75.39801 437.02396
365.04938 73.291275 457.3154
372.17422 72.007713 469.39124
374.80194 71.730453 471.47409
376.6087 71.636368 471.7374
-38.881699 76.830765 434.46173
-38.831894 76.56691 437.76376
-37.953293 76.480957 439.24969
-37.472855 76.306351 441.64423
-36.179779 76.309586 442.21539
-34.488403 76.401779 441.86917
-32.011169 76.671707 439.68787
-29.942963 76.852921 438.4104
-27.105026 77.211792 435.29114
-24.676239 77.481918 433.0759
-23.418503 77.485748 433.60544
-21.778763 77.57843 433.21082
-20.524292 77.582397 433.73047
-19.270187 77.586426 434.24579
-18.390747 77.50177 435.67975
-17.506409 77.417183 437.11148
-16.98613 77.243927 439.46613
-15.723053 77.248184 439.96814
-14.460495 77.252464 440.46585
-12.837418 77.345474 440.03079
-10.861816 77.527176 438.65997
-9.2530975 77.620171 438.21112
-7.6502228 77.713165 437.75589
-6.403595 77.717468 438.22678
-4.8098297 77.810432 437.76004
-3.9121246 77.726089 439.15579
-2.3248444 77.819016 438.67862
-1.0832672 77.823288 439.13159
0.49484253 77.916168 438.6431
2.4015656 78.097626 437.2103
3.96521 78.190422 436.70877
4.8645172 78.105988 438.08145
6.74823 78.287308 436.62878
7.6489258 78.202835 437.9942
8.2330017 78.029785 440.30014
9.4642944 78.033844 440.71823
11.011002 78.126427 440.18762
11.925018 78.04187 441.54221
13.465195 78.134361 441.00186
14.999496 78.226799 440.45575
16.527908 78.319168 439.90399
18.050446 78.411499 439.34659
20.167603 78.680756 436.88409
21.673187 78.772934 436.3139
22.877884 78.776581 436.68964
24.082047 78.780182 437.06149
24.995834 78.695267 438.38257
25.340042 78.433395 441.60904
26.268433 78.34845 442.92719
27.201447 78.263451 444.24319
28.418427 78.266861 444.60077
29.358185 78.181793 445.9115
30.850685 78.273544 445.30463
32.065994 78.27681 445.65091
33.549583 78.368431 445.0343
35.02739 78.459991 444.41257
36.763069 78.639893 442.82507
38.48777 78.819702 441.23111
39.943176 78.911072 440.59259
41.39286 79.00238 439.9491
42.836845 79.093613 439.30066
43.774002 79.008064 440.57541
44.963875 79.010841 440.88318
45.662567 78.836868 443.11819
46.613945 78.751213 444.38629
47.570084 78.665527 445.65213
49.006065 78.756462 444.98105
50.436417 78.847351 444.30515
51.861145 78.938171 443.62448
53.51001 79.117264 441.96985
54.920906 79.207962 441.27921
56.101669 79.210312 441.55426
57.503975 79.300911 440.85492
58.681335 79.303162 441.12262
60.075104 79.393661 440.4147
61.03492 79.307526 441.64783
62.42276 79.397926 440.93204
63.596062 79.400002 441.18561
64.768997 79.402039 441.43588
66.145416 79.492294 440.70782
67.315086 79.494232 440.9509
68.285744 79.407867 442.16681
69.065201 79.233231 444.35699
70.241638 79.235062 444.59177
71.226875 79.148605 445.80084
72.405281 79.15036 446.02951
73.769135 79.240326 445.27625
75.310677 79.418488 443.53961
76.661049 79.508354 442.77734
78.005959 79.598175 442.01099
79.170029 79.599731 442.22095
80.333839 79.60125 442.42767
81.497383 79.602737 442.63126
82.660683 79.604187 442.8316
83.82373 79.605598 443.02875
85.311554 79.783401 441.2572
86.309036 79.696533 442.43036
87.311432 79.60965 443.60117
88.628326 79.699127 442.80164
89.939842 79.788574 441.99817
90.797119 79.613403 444.14511
91.958595 79.614594 444.3201
93.264336 79.703941 443.50644
94.564728 79.793259 442.68887
95.720451 79.794342 442.85382
97.012756 79.883598 442.02893
98.433899 80.060997 440.21323
99.449753 79.973824 441.35513
100.47057 79.886627 442.49469
101.7493 79.975754 441.65576
102.77493 79.888504 442.78986
103.92686 79.889404 442.93277
105.1974 79.978447 442.08368
106.34647 79.979294 442.22021
107.38177 79.891953 443.34329
108.64417 79.980911 442.48413
109.68434 79.893524 443.60175
110.83542 79.894279 443.72638
112.08969 79.983162 442.85727
113.43948 80.160179 440.99359
114.68068 80.249008 440.1171
115.91661 80.337822 439.23712
117.05424 80.338455 439.34543
118.19176 80.33905 439.45078
119.24126 80.251495 440.54529
120.29578 80.163918 441.6373
121.43814 80.164467 441.7341
122.58039 80.164993 441.82797
123.6449 80.077347 442.9119
124.78955 80.077843 442.99994
126.00663 80.166458 442.09155
127.00863 79.990616 444.16077
128.22299 80.079193 443.24625
129.36731 80.079605 443.32239
130.44931 79.991859 444.38974
131.65576 80.080368 443.46582
132.85701 80.168869 442.53857
134.05307 80.257339 441.60809
135.19196 80.25766 441.6691
136.33076 80.257957 441.72723
137.42265 80.170105 442.77737
138.60825 80.258514 441.83453
139.74692 80.258766 441.88376
140.92471 80.347122 440.93478
142.06073 80.347351 440.978
143.19672 80.347549 441.01834
144.33266 80.347725 441.05579
145.46858 80.3479 441.09021
146.57811 80.259911 442.11755
147.69275 80.171921 443.14203
148.85493 80.260162 442.17194
149.97466 80.172142 443.19067
151.13168 80.260361 442.2146
152.28357 80.348557 441.23553
153.41933 80.34861 441.24954
154.56351 80.436775 440.26453
155.70253 80.524933 439.27652
156.82988 80.436813 440.2778
157.96306 80.436798 440.28009
159.09624 80.436783 440.27942
160.23384 80.348602 441.27197
161.3696 80.348557 441.26547
162.49583 80.436615 440.26004
163.64114 80.348404 441.24368
164.77695 80.348297 441.22842
165.91275 80.348175 441.21027
167.06837 80.259911 442.18503
168.18443 80.347885 441.1651
169.32031 80.347725 441.13809
170.42874 80.435677 440.11243
171.56212 80.435478 440.07968
172.6629 80.523399 439.0484
173.82896 80.435028 440.00537
174.96245 80.434784 439.96384
176.05568 80.522659 438.9241
177.14381 80.610504 437.88165
178.27231 80.610214 437.83151
179.44885 80.521774 438.77344
180.52945 80.609573 437.7226
181.71123 80.521088 438.65842
182.7868 80.608856 437.60193
184.0321 80.432205 439.526
185.16608 80.431793 439.45804
186.36353 80.343231 440.38129
187.5002 80.342789 440.30728
188.63696 80.342331 440.23035
189.7027 80.43 439.15686
190.68973 80.605797 437.0874
191.74281 80.693436 436.00897
192.79085 80.781052 434.92798
193.99655 80.692352 435.83002
195.03964 80.77993 434.74359
196.25069 80.691177 435.63937
197.55602 80.514267 437.5238
198.78011 80.425476 438.41248
200.00943 80.336662 439.29773
201.14725 80.335983 439.18805
202.48386 80.158958 441.05774
203.52515 80.246384 439.95071
204.56142 80.333801 438.84125
205.80678 80.244858 439.70999
206.94778 80.244064 439.58505
208.08893 80.24324 439.45715
209.34499 80.154228 440.3157
210.489 80.153351 440.18146
211.63315 80.152458 440.04413
212.89993 80.063354 440.89236
213.92195 80.150589 439.76044
215.06659 80.149612 439.61401
216.34158 80.060425 440.45206
217.62189 79.971207 441.28644
218.7722 79.970139 441.13013
220.19849 79.792671 442.94376
221.35431 79.79155 442.78052
222.36728 79.878593 441.62845
223.52094 79.877411 441.45938
224.67477 79.876205 441.28723
225.67805 79.963165 440.12726
226.67639 80.05011 438.96503
227.98166 79.960602 439.7681
228.97528 80.047485 438.60043
229.96399 80.134338 437.43039
231.27512 80.044724 438.2233
232.42538 80.043304 438.03003
233.74472 79.953613 438.81528
235.06946 79.863892 439.5965
236.22565 79.86235 439.39282
237.55865 79.772552 440.16623
239.07626 79.59446 441.91547
240.05928 79.681046 440.72141
241.40604 79.59111 441.48285
242.57137 79.589386 441.26169
243.73697 79.587616 441.03726
244.71085 79.674072 439.83221
245.67984 79.76049 438.62488
246.64397 79.846886 437.41528
248.00291 79.756699 438.15521
249.36737 79.666466 438.89084
250.73734 79.576187 439.62204
252.11282 79.485855 440.34879
253.28365 79.483765 440.09744
254.66763 79.393333 440.81595
255.62642 79.479446 439.58484
257.0163 79.388924 440.29544
258.63232 79.210037 441.97281
260.25909 79.031097 443.64444
261.44519 79.028702 443.36996
263.31671 78.761314 446.00064
264.28046 78.847153 444.74844
265.70654 78.756287 445.43063
266.66595 78.842041 444.17267
268.09808 78.751076 444.84656
269.77719 78.571693 446.48209
270.73535 78.657318 445.21414
271.68878 78.742905 443.94397
272.63745 78.828445 442.67157
273.32965 79.002335 440.43317
273.50323 79.352966 436.26788
274.94122 79.261658 436.91629
276.1254 79.258682 436.59811
277.57224 79.167252 437.23737
279.02478 79.07576 437.87152
280.2157 79.072624 437.54111
281.40714 79.069443 437.207
282.59912 79.066208 436.86929
283.51636 79.151367 435.57053
284.98465 79.059601 436.18274
286.17828 79.056213 435.83395
287.65552 78.96434 436.43637
288.85287 78.960861 436.07932
290.33917 78.868858 436.67197
291.54028 78.86528 436.30655
293.03561 78.773163 436.88922
294.83301 78.592484 438.41745
296.34265 78.500237 438.98834
297.25519 78.584961 437.65494
299.07538 78.404091 439.16489
300.29327 78.400208 438.77219
301.20245 78.484818 437.42877
302.10696 78.569405 436.0831
303.32147 78.565422 435.68027
304.21936 78.649963 434.32932
305.75238 78.557335 434.86273
306.64621 78.64183 433.50552
308.51093 78.460526 434.97061
309.7312 78.45636 434.54684
311.28262 78.363564 435.05869
312.17371 78.44796 433.68707
314.40314 78.177841 436.06439
315.63385 78.173553 435.62137
317.88831 77.90332 437.98178
319.47192 77.810318 438.46243
321.40778 77.628632 439.87079
322.30786 77.712921 438.47223
323.20325 77.797226 437.07135
324.09387 77.881546 435.66821
324.9798 77.965897 434.26285
325.50134 78.138985 431.92636
327.46185 77.957245 433.30109
329.43353 77.77549 434.66733
330.68121 77.771194 434.17358
334.52112 77.145699 440.14825
338.77167 76.431351 447.02722
342.31409 75.894455 452.03937
348.91486 74.647293 464.40543
352.92429 74.021423 470.29388
358.50568 73.040359 479.83896
363.37357 72.236794 487.5184
368.28979 71.433167 495.17276
368.16379 71.784119 490.8956
366.04541 72.579376 482.04907
357.92557 74.707382 459.51508
354.47266 75.769806 447.98068
354.97821 75.944077 445.58194
355.47305 76.118515 443.18335
360.44052 75.315689 450.78217
369.14807 73.71315 466.52362
373.8222 72.999313 473.15268
373.5517 73.352127 468.89508
374.93243 73.349686 468.25845
-38.878464 78.07605 434.5834
-38.419525 77.906097 436.97757
-37.543427 77.822578 438.46243
-36.661896 77.739227 439.94528
-35.374023 77.742264 440.51401
-34.086151 77.745453 441.07825
-32.007111 77.921188 439.80923
-30.331772 78.010803 439.44666
-27.881393 78.272919 437.24402
-25.834793 78.448891 435.94788
-23.799133 78.624908 434.64285
-22.156693 78.714813 434.24896
-20.519867 78.804764 433.84839
-19.265701 78.808601 434.36353
-18.386215 78.726341 435.79755
-17.501816 78.64415 437.22937
-16.612564 78.562004 438.65894
-15.352112 78.566048 439.15973
-14.092194 78.570114 439.65622
-12.471756 78.660324 439.21967
-10.49884 78.836624 437.84717
-8.8927765 78.926811 437.39685
-7.292572 79.016998 436.94022
-5.6982422 79.107162 436.47733
-4.4575348 79.111252 436.94177
-3.5624847 79.029274 438.33667
-2.3203125 79.033356 438.79364
-1.0787659 79.03743 439.24646
0.8364563 79.213547 437.82007
2.4060059 79.303604 437.32407
4.3014526 79.479614 435.88278
5.1981201 79.397568 437.25455
6.7525482 79.487503 436.74161
7.6532288 79.405426 438.10709
8.5585632 79.323334 439.47028
9.1498566 79.155258 441.77527
11.015167 79.331024 440.30029
11.929169 79.248871 441.65494
13.158539 79.25264 442.06079
14.695404 79.342316 441.51517
16.531876 79.51786 440.01553
18.054367 79.607414 439.45776
20.171448 79.868744 436.99442
21.974579 80.044083 435.47299
22.881638 79.961639 436.79938
23.793365 79.879166 438.12357
24.999496 79.882553 438.49228
25.630798 79.714149 440.76526
26.556503 79.631592 442.08279
27.768753 79.634872 442.44247
28.980438 79.6381 442.7984
29.914917 79.555435 444.10767
31.128098 79.558578 444.45682
32.340736 79.561684 444.80222
33.552841 79.564735 445.14389
35.030594 79.653564 444.52176
37.029785 79.913971 441.9729
38.751823 80.088486 440.37756
40.204559 80.177109 439.73804
41.651573 80.265686 439.09351
42.839729 80.268402 439.40765
43.776855 80.185303 440.68246
44.718712 80.102158 441.95511
45.665321 80.018967 443.22552
46.373924 79.849991 445.45999
47.332619 79.766754 446.72659
48.771141 79.854988 446.05582
49.969101 79.857422 446.34839
51.398949 79.945557 445.6687
53.282707 80.205124 443.04529
54.696159 80.293137 442.35486
56.104004 80.381104 441.65982
57.506279 80.469009 440.96008
58.464218 80.385422 442.19955
59.860519 80.473236 441.49194
60.822891 80.389572 442.72577
62.21328 80.477295 442.01016
63.598122 80.564972 441.2901
64.977432 80.652596 440.56561
66.147392 80.65448 440.81192
67.317017 80.656319 441.05493
68.287651 80.572433 442.27094
69.067055 80.402824 444.46155
70.243469 80.404564 444.69617
71.419556 80.406265 444.92758
72.407028 80.32225 446.134
73.956581 80.495224 444.40155
75.495491 80.668137 442.66394
76.843231 80.755356 441.90091
78.007538 80.756851 442.11404
79.346985 80.843987 441.34314
80.335342 80.759766 442.53061
81.49884 80.761154 442.73413
82.662117 80.762527 442.93436
83.825127 80.76387 443.13147
85.31292 80.936462 441.35938
86.310356 80.852081 442.53271
87.312729 80.767685 443.7037
88.78437 80.94017 441.91965
89.941078 80.941345 442.1001
90.947937 80.856865 443.26245
92.106804 80.857986 443.43704
93.265465 80.85907 443.60849
94.423927 80.860138 443.77679
95.721527 80.946793 442.95547
97.013794 81.033417 442.13034
98.30072 81.120003 441.30136
99.319122 81.035339 442.44379
100.47153 81.036263 442.59595
101.75023 81.122772 441.75671
102.77583 81.038033 442.89096
103.92774 81.038879 443.03394
105.19826 81.125305 442.18451
106.34729 81.126099 442.32101
107.38258 81.041275 443.44431
108.64494 81.127625 442.58487
109.79356 81.128357 442.71222
110.83615 81.043465 443.82721
112.0904 81.129745 442.95786
113.44016 81.30159 441.09369
114.58313 81.302231 441.20844
115.91724 81.474014 439.33676
117.05486 81.474609 439.44498
118.19235 81.475174 439.55029
119.24182 81.390144 440.64502
120.21098 81.219513 442.72992
121.43866 81.305611 441.83401
122.50068 81.22052 442.9209
123.64539 81.221001 443.01193
124.79002 81.221458 443.09998
126.00708 81.30748 442.19135
127.07902 81.222321 443.26709
128.2234 81.222725 443.34619
129.43253 81.308685 442.42813
130.5742 81.309052 442.50113
131.77551 81.394974 441.57663
132.97162 81.480881 440.64883
134.10796 81.481201 440.71265
135.24425 81.481491 440.77353
136.38048 81.481773 440.83148
137.4698 81.396469 441.88168
138.60849 81.396713 441.9339
139.74715 81.396957 441.98309
140.88576 81.397171 442.02939
142.06094 81.482941 441.07706
143.16286 81.397568 442.11313
144.33284 81.483307 441.15479
145.46873 81.483459 441.18924
146.60461 81.483597 441.22079
147.69287 81.312592 443.24149
148.87627 81.483833 441.27505
149.99341 81.398361 442.29398
151.14786 81.484009 441.31766
152.29716 81.569641 440.33829
153.43034 81.569687 440.35226
154.56354 81.569725 440.36325
155.70255 81.655312 439.37506
156.83316 81.655319 439.38025
157.96304 81.569748 440.37885
159.09621 81.569717 440.3782
160.22939 81.569679 440.37466
161.35559 81.655197 439.37186
162.49576 81.569565 440.35873
163.62895 81.569481 440.34647
164.77682 81.483818 441.32745
165.8954 81.569275 440.31308
167.04845 81.483582 441.28815
168.13957 81.654572 439.27194
169.27031 81.654419 439.24509
170.40106 81.654251 439.2153
171.53186 81.654068 439.18262
172.66269 81.653862 439.14703
173.82874 81.568069 440.10425
174.92447 81.653412 439.06711
176.01511 81.738739 438.02725
177.14352 81.73848 437.98004
178.22656 81.823776 436.93466
179.35252 81.823479 436.88177
180.47855 81.823166 436.82599
181.65775 81.737259 437.76224
182.78644 81.736923 437.70047
184.03172 81.565414 439.625
185.16568 81.565033 439.5571
186.3631 81.479057 440.48056
187.49976 81.478653 440.40652
188.56796 81.563797 439.33563
189.63113 81.648926 438.26218
190.61559 81.819626 436.19247
191.66608 81.904732 435.11401
192.71153 81.989815 434.03305
193.83328 81.989304 433.94254
195.03908 81.903175 434.84195
196.33658 81.731445 436.73047
197.64447 81.559692 438.61517
198.87109 81.473503 439.50391
200.00877 81.472885 439.39731
201.14658 81.472237 439.28775
202.38382 81.385986 440.1665
203.42252 81.470901 439.05951
204.45621 81.555786 437.95016
205.806 81.383858 439.81
206.94699 81.383102 439.68512
207.97594 81.467941 438.56723
209.22937 81.381538 439.42633
210.3708 81.380722 439.29245
211.39247 81.465485 438.16641
212.65408 81.379005 439.01553
213.79596 81.378113 438.8725
215.06561 81.29158 439.71457
216.34056 81.205017 440.55292
217.62085 81.118423 441.38757
218.90646 81.031799 442.21838
220.05948 81.030777 442.05865
221.21271 81.029716 441.89587
222.36612 81.028625 441.72998
223.37411 81.113144 440.57535
224.67355 81.026375 441.38885
225.52603 81.196472 439.24396
226.52176 81.280914 438.08191
227.98035 81.108414 439.86972
228.97394 81.192795 438.70184
229.80154 81.362808 436.54849
231.2737 81.190201 438.32483
232.59018 81.103195 439.11401
233.74323 81.101807 438.91721
235.06795 81.014732 439.6987
236.39807 80.927612 440.47614
237.55707 80.926132 440.26889
238.89548 80.838928 441.03851
240.0576 80.837372 440.82434
241.40433 80.750092 441.58615
242.56961 80.748459 441.36502
243.7352 80.746788 441.14069
244.709 80.830765 439.93542
245.67796 80.914719 438.72797
246.83929 80.912933 438.49487
248.20081 80.825417 439.23462
249.16296 80.909256 438.01889
250.5303 80.821655 438.75095
252.11072 80.6483 440.453
253.28152 80.646324 440.20178
254.45267 80.644295 439.9472
255.83955 80.556503 440.66211
257.44995 80.382935 442.3446
259.07111 80.209297 444.02142
260.47986 80.121338 444.72144
261.89423 80.033325 445.41684
263.54254 79.859512 447.07733
264.50885 79.942902 445.82437
265.4704 80.026253 444.56915
266.89941 79.938042 445.24753
268.09537 79.935539 444.95389
269.53308 79.847229 445.62329
270.48862 79.930405 444.35593
271.93246 79.841988 445.01694
272.88373 79.925095 443.74377
274.08197 79.922363 443.43234
274.26334 80.262817 439.2641
275.70911 80.17421 439.91083
276.3819 80.342987 437.66687
277.83127 80.254288 438.30569
279.55115 80.079689 439.89996
280.74725 80.076691 439.56824
281.67386 80.159492 438.27383
282.59576 80.242264 436.97717
283.78821 80.239136 436.63586
284.9812 80.235977 436.29089
286.17477 80.232758 435.94223
287.3689 80.2295 435.58981
288.8493 80.140305 436.18817
290.33551 80.051056 436.78119
291.53659 80.047646 436.41595
293.03186 79.958282 436.99896
294.53296 79.868866 437.57651
296.03986 79.779388 438.14859
297.25128 79.775787 437.76563
299.07138 79.600266 439.27618
300.28925 79.596558 438.88367
301.19836 79.678772 437.54013
301.79083 79.846931 435.24817
303.31732 79.757172 435.79172
303.89789 79.925293 433.49622
305.74811 79.749466 434.97446
306.64191 79.831558 433.61722
307.85626 79.827644 433.19946
308.74341 79.909714 431.83685
310.28683 79.819717 432.35187
311.16998 79.901756 430.983
313.39139 79.639626 433.36404
315.6293 79.377426 435.73523
317.88373 79.115158 438.09653
319.46732 79.024948 438.57764
321.40314 78.848648 439.98666
321.95422 79.01664 437.65482
322.84692 79.098572 436.25488
323.73492 79.180519 434.85269
324.61819 79.262489 433.44827
325.13708 79.430611 431.11249
327.45721 79.168137 433.41696
329.06396 79.077911 433.85687
330.67654 78.987686 434.29031
333.40567 78.639023 437.49213
338.02112 77.859497 445.30032
338.55359 78.027763 442.93405
345.50589 76.731049 456.23642
351.7767 75.606537 467.66016
357.73364 74.568054 478.13101
361.05127 74.132904 482.14169
368.28485 72.835648 495.30865
368.94214 73.003983 492.86292
364.85812 74.207199 479.43719
361.49335 75.238266 467.86636
361.26129 75.579697 463.61975
361.00784 75.921326 459.37772
361.13794 76.17691 456.05072
366.14285 75.397568 463.63531
370.37512 74.790833 469.37787
372.99289 74.529297 471.47208
373.96399 74.613052 469.93237
375.3476 74.610756 469.29468
-38.463776 79.404953 433.79382
-38.007324 79.240021 436.18719
-37.133774 79.158928 437.67105
-35.851135 79.161644 438.24167
-34.969391 79.080872 439.72015
-33.684082 79.083862 440.28311
-31.60762 79.254211 439.01233
-29.93486 79.341049 438.64816
-27.87735 79.511566 437.36044
-25.830704 79.682152 436.06366
-23.410049 79.936371 433.83884
-21.770218 80.023476 433.44342
-20.515656 80.027054 433.96277
-19.261444 80.030685 434.47772
-18.756195 79.867264 436.83539
-17.86911 79.78746 438.26837
-16.239212 79.874809 437.84769
-14.9814 79.878639 438.34726
-13.724121 79.882492 438.8425
-11.745346 80.053406 437.47571
-10.136108 80.140793 437.03036
-8.5326843 80.22818 436.57858
-6.9351501 80.315552 436.12054
-5.6938782 80.319427 436.58914
-4.1054535 80.406784 436.11957
-3.2130737 80.327187 437.51355
-1.9735718 80.331055 437.96942
-0.73468018 80.334915 438.42111
0.84072876 80.422211 437.93082
2.4102173 80.509468 437.43448
3.9738007 80.596695 436.93213
4.8730621 80.517044 438.30493
6.4301147 80.604202 437.79248
7.3334198 80.524529 439.15894
8.2413483 80.444832 440.52316
9.1539154 80.36512 441.88513
10.703171 80.452164 441.35461
11.933121 80.455765 441.76434
13.47319 80.542709 441.22318
15.00737 80.629608 440.6763
16.841156 80.799797 439.17523
18.360962 80.886581 438.61618
20.17514 81.056641 437.10135
21.97818 81.226631 435.57938
22.59024 81.063278 437.8577
23.796906 81.066544 438.23007
25.00296 81.069763 438.59869
25.634247 80.906342 440.87201
26.844406 80.909485 441.23456
28.053986 80.912598 441.59332
29.262985 80.915649 441.94836
30.194824 80.835403 443.25696
31.40535 80.838379 443.60519
32.615318 80.841316 443.94974
33.824753 80.844208 444.29056
35.033653 80.847046 444.62769
36.769196 81.016327 443.039
38.493774 81.185547 441.44385
39.949066 81.271454 440.80466
41.398636 81.357315 440.16046
42.58934 81.359894 440.47519
43.52903 81.279236 441.75082
44.473457 81.198532 443.02423
45.667953 81.200996 443.32959
46.619247 81.120224 444.59793
47.575302 81.039413 445.86398
48.773636 81.041763 446.16003
50.206474 81.127243 445.4841
51.401352 81.129501 445.77246
53.05529 81.29805 444.11798
54.698441 81.466537 442.45755
55.881683 81.468651 442.73306
57.286491 81.553879 442.03363
58.466362 81.555908 442.3017
59.645844 81.557884 442.56641
60.824951 81.55983 442.8277
62.003685 81.561729 443.08566
63.391075 81.646729 442.36584
64.772934 81.731689 441.64157
65.741608 81.650337 442.86383
67.117607 81.735207 442.13181
68.090797 81.653793 443.34848
68.872749 81.489235 445.53998
70.051712 81.490875 445.77509
71.421249 81.575592 445.02881
72.408691 81.494064 446.23538
73.958183 81.661804 444.50244
75.497055 81.829491 442.76428
76.844749 81.914047 442.00098
78.187004 81.99855 441.23352
79.348434 81.999939 441.44284
80.336761 81.918198 442.63046
81.500237 81.919525 442.83389
82.66346 81.920815 443.03409
83.826439 81.922073 443.23114
85.314194 82.089447 441.45859
86.311607 82.007568 442.63205
87.31395 81.925674 443.80316
88.630783 82.009888 443.00302
89.790031 82.010986 443.18387
90.799446 81.929001 444.34677
91.960861 81.930069 444.52167
93.266533 82.014145 443.70746
94.424973 82.015152 443.8757
95.583206 82.016121 444.04089
96.878021 82.100121 443.21579
98.301682 82.267136 441.39944
99.45166 82.268021 441.55429
100.47243 82.185844 442.69415
101.7511 82.26973 441.85468
102.90057 82.270546 442.00031
103.92857 82.188301 443.13199
105.19905 82.27211 442.28235
106.46425 82.355896 441.42905
107.49694 82.273575 442.55222
108.64568 82.274284 442.68256
109.79427 82.274963 442.80991
110.83682 82.192596 443.92511
112.09106 82.276268 443.05545
113.4408 82.44294 441.19083
114.78014 82.609589 439.32217
116.01347 82.693192 438.44138
117.14848 82.693733 438.54944
118.2834 82.694275 438.65439
119.24236 82.52874 440.74176
120.21149 82.363205 442.82706
121.43916 82.446701 441.93094
122.58138 82.447159 442.02472
123.64584 82.364594 443.10904
124.86554 82.448029 442.20334
126.08002 82.531464 441.29425
127.07942 82.365829 443.36411
128.22379 82.366196 443.44321
129.49773 82.532578 441.53046
130.63681 82.532928 441.60327
131.77585 82.533257 441.67307
132.97192 82.616577 440.74506
134.16283 82.699875 439.81381
135.29654 82.700157 439.87451
136.43019 82.700409 439.93234
137.51692 82.617653 440.98267
138.65303 82.617889 441.0347
139.74738 82.535095 442.07944
140.88596 82.535301 442.12573
142.06113 82.618492 441.17322
143.12898 82.45266 443.20544
144.30151 82.535812 442.24698
145.43996 82.535965 442.28146
146.57838 82.536095 442.31308
147.69298 82.453209 443.33798
148.87637 82.619324 441.37112
149.9935 82.5364 442.39026
151.14792 82.619476 441.4137
152.28368 82.619537 441.43063
153.43039 82.702591 440.44812
154.56355 82.702621 440.45911
155.70256 82.785645 439.47064
156.82988 82.702652 440.47238
157.96303 82.702637 440.47467
159.09618 82.702606 440.47406
160.23375 82.619568 441.46704
161.3625 82.70253 440.46399
162.50522 82.619461 441.45108
163.62886 82.702393 440.44229
164.77673 82.619293 441.42349
165.89528 82.702194 440.40891
167.04831 82.619072 441.38419
168.16177 82.701942 440.36389
169.29506 82.701797 440.33694
170.37341 82.867645 438.31479
171.53168 82.78447 439.27832
172.66249 82.784279 439.24274
173.79333 82.784081 439.20419
174.88649 82.866867 438.16696
176.01486 82.866631 438.12277
177.14326 82.866394 438.07553
178.27173 82.866135 438.02548
179.40024 82.86586 437.9725
180.57936 82.782562 438.91187
181.71056 82.782242 438.85294
182.8418 82.781921 438.79105
184.03136 82.698578 439.72104
185.10448 82.781235 438.65848
186.29932 82.697853 439.58234
187.43338 82.697464 439.50851
188.49902 82.780075 438.43762
189.5596 82.862679 437.36407
190.61513 82.945259 436.28799
191.58939 83.110847 434.21573
192.63225 83.193398 433.1348
193.83276 83.109901 434.03769
194.95462 83.10939 433.94434
196.33603 82.85981 436.82635
197.64389 82.693222 438.71158
198.8705 82.609634 439.60052
200.00815 82.609055 439.49393
201.14594 82.608444 439.3844
202.28381 82.607819 439.27185
203.31993 82.690216 438.16498
204.45549 82.689552 438.04669
205.80527 82.522804 439.90698
206.83662 82.605133 438.79169
207.97516 82.604408 438.66412
209.34334 82.437576 440.51343
210.36998 82.519852 439.38962
211.39163 82.602097 438.26343
212.65321 82.518242 439.11279
213.79506 82.517403 438.96979
214.93707 82.516541 438.82379
216.33961 82.349556 440.65076
217.61987 82.265587 441.48563
218.90546 82.181595 442.31674
220.05846 82.180618 442.1571
221.35211 82.096573 442.9809
222.36502 82.178604 441.82849
223.37299 82.26062 440.67368
224.67241 82.176483 441.48749
225.67563 82.258453 440.32721
226.67392 82.340393 439.16464
227.97911 82.256165 439.96829
228.97269 82.338051 438.80029
229.80025 82.502991 436.64655
231.1087 82.418678 437.4404
232.25632 82.417412 437.24765
233.40421 82.416107 437.05185
234.89511 82.248596 438.81616
236.39661 82.081047 440.57556
237.379 82.162735 439.38763
238.71478 82.078201 440.15802
240.05603 81.993622 440.92429
241.21838 81.992119 440.70694
242.38106 81.99057 440.48645
243.54401 81.988998 440.26263
244.51523 82.070503 439.0578
245.48154 82.151978 437.85065
246.64026 82.150307 437.61816
247.99911 82.06546 438.3587
249.36348 81.980576 439.09491
251.14334 81.729378 441.77716
252.52393 81.644394 442.50351
253.69984 81.642509 442.25125
255.30167 81.474289 443.94275
256.69888 81.38916 444.65567
258.10162 81.303986 445.36401
259.7305 81.135605 447.03955
261.37015 80.967148 448.70938
262.56912 80.964989 448.43207
263.76849 80.962784 448.15121
264.73737 81.043716 446.89755
265.93497 81.041435 446.61032
267.36914 80.955917 447.28781
268.33154 81.036728 446.02542
269.77179 80.951111 446.69458
270.48596 81.115067 444.46017
271.68323 81.112564 444.15601
272.63181 81.193245 442.88333
274.07916 81.107437 443.53693
274.51483 81.354492 440.33139
275.96313 81.2686 440.97781
277.15762 81.265892 440.65707
278.61481 81.179886 441.29416
279.81293 81.177086 440.96548
281.27893 81.090981 441.59305
282.21069 81.171341 440.29709
283.4104 81.168411 439.9574
284.33542 81.248703 438.65616
285.5336 81.245682 438.30981
286.4519 81.325912 437.00354
287.64859 81.3228 436.65054
288.84583 81.319656 436.29373
290.332 81.233154 436.88708
291.82397 81.146606 437.47504
293.32178 81.05999 438.05765
294.5293 81.056656 437.68332
296.33502 80.886597 439.20648
297.54895 80.883163 438.82275
299.06757 80.796341 439.38412
300.28534 80.792824 438.9917
301.50378 80.789268 438.5954
302.09888 80.952438 436.30228
303.31329 80.948822 435.89981
304.21112 81.02858 434.54861
305.74402 80.941505 435.08286
306.96033 80.937805 434.66837
308.17731 80.934067 434.24988
309.39484 80.930305 433.82733
310.94348 80.843094 434.34082
311.83191 80.922714 432.97006
313.72284 80.751984 434.41183
315.62494 80.581207 435.84564
317.19727 80.493843 436.33514
318.77551 80.406448 436.81857
320.70599 80.23555 438.23019
321.25183 80.398575 435.90005
322.13922 80.478149 434.50204
323.37622 80.474213 434.0332
324.25681 80.553818 432.6297
325.13266 80.633438 431.22397
327.45276 80.378944 433.52939
328.69461 80.375061 433.04236
330.30453 80.287643 433.47729
333.03101 79.94957 436.6813
338.76236 78.942909 447.26517
338.92471 79.189751 443.97345
346.63602 77.764999 459.12241
352.91473 76.674408 470.54617
358.87964 75.667282 481.01675
360.6604 75.579742 481.35107
368.28015 74.238045 495.44046
366.19662 74.986771 486.57996
366.03641 75.317581 482.311
365.85501 75.64856 478.04633
366.05197 75.896088 474.69891
365.4285 76.311081 469.5303
367.61264 76.140709 470.74237
369.80734 75.970474 471.94489
370.37164 76.135056 469.50522
372.1637 76.048836 469.78641
372.71411 76.213837 467.34335
374.08997 76.2117 466.70947
-38.049271 80.728592 433.00015
-37.186386 80.649757 434.48367
-36.318008 80.571083 435.96527
-35.040588 80.573608 436.53342
-33.763153 80.576279 437.09717
-32.485718 80.579071 437.65646
-30.812759 80.663002 437.29642
-28.752319 80.828049 436.01361
-27.093002 80.912155 435.63895
-25.439224 80.996338 435.2576
-23.406113 81.161583 433.95016
-22.148499 81.164902 434.47482
-20.891205 81.168289 434.99512
-19.634308 81.17173 435.51105
-18.75206 81.094261 436.94632
-17.864929 81.016846 438.37939
-16.235016 81.101395 437.95831
-14.610916 81.185959 437.53076
-13.356262 81.18959 438.02478
-11.74115 81.274185 437.58539
-10.490219 81.277847 438.0697
-9.2398529 81.281532 438.54974
-7.6369934 81.366135 438.09326
-6.3904419 81.36982 438.56372
-4.4490204 81.535278 437.16165
-3.2089233 81.538956 437.62155
-1.9694519 81.542625 438.07727
-1.0703278 81.465424 439.46576
0.50769043 81.549927 438.97607
1.7453003 81.553558 439.41928
3.6459656 81.718842 437.97855
4.5478516 81.641594 439.35236
6.1074982 81.725983 438.84045
7.0134125 81.648697 440.20792
8.245224 81.652206 440.62958
9.1577606 81.57489 441.99161
10.70694 81.659149 441.46078
12.250259 81.743362 440.92407
13.787628 81.82753 440.38168
15.319153 81.911652 439.83356
16.844772 81.995712 439.27982
18.364517 82.079727 438.72043
19.878387 82.163696 438.15549
21.386444 82.247612 437.58493
22.298676 82.169998 438.91315
23.507904 82.173096 439.28622
25.006302 82.256874 438.70175
25.637527 82.09845 440.9754
26.847626 82.101425 441.33786
28.057159 82.104362 441.6965
29.266144 82.107254 442.05136
29.92128 81.94873 444.31766
31.134361 81.951553 444.66656
32.346901 81.954338 445.01172
33.827698 82.03775 444.39331
35.302734 82.121109 443.76978
36.772041 82.204422 443.14108
38.235588 82.287674 442.50732
39.951775 82.451523 440.90588
41.401299 82.53466 440.26135
42.591965 82.537102 440.57593
43.78215 82.539505 440.88693
44.475998 82.380608 443.12518
45.670433 82.382935 443.43048
46.621704 82.304611 444.69888
47.577705 82.226242 445.96509
48.776009 82.228455 446.26099
49.973854 82.230637 446.55344
51.171272 82.232758 446.84235
52.827766 82.396049 445.1879
54.47345 82.55928 443.52759
55.883804 82.641861 442.83243
57.510521 82.804977 441.16104
58.687759 82.806885 441.42841
60.081375 82.889328 440.71957
61.041084 82.810577 441.95306
62.217194 82.812378 442.21036
63.392944 82.814133 442.46426
64.774742 82.8964 441.73975
65.539566 82.736969 443.93781
66.918106 82.819168 443.20602
68.092484 82.82077 443.44666
68.874435 82.661263 445.63843
70.246826 82.743347 444.89569
71.422844 82.744858 445.12689
72.41024 82.665802 446.33365
73.959702 82.828308 444.60022
75.315392 82.910248 443.84128
76.665627 82.992142 443.07822
78.010437 83.074005 442.31091
79.3498 83.15583 441.53946
80.338097 83.076584 442.72723
81.671791 83.15834 441.94846
82.832397 83.159546 442.14819
83.992775 83.160736 442.34467
85.315399 83.242386 441.55466
86.312782 83.162994 442.7283
87.315109 83.083595 443.89954
88.631905 83.165161 443.09918
89.791122 83.166199 443.27994
90.950142 83.167221 443.45752
92.10894 83.168205 443.63202
93.26754 83.169159 443.80341
94.567841 83.250587 442.98499
95.723488 83.251495 443.14972
97.015686 83.332855 442.3241
98.302567 83.4142 441.49457
99.320923 83.334564 442.63733
100.47327 83.335373 442.78937
101.75192 83.416634 441.94965
102.90137 83.417404 442.09518
103.92935 83.337662 443.22705
105.1998 83.418854 442.3772
106.46498 83.500031 441.52359
107.49764 83.420227 442.647
108.53532 83.340424 443.76785
109.79492 83.421524 442.90457
110.94337 83.42215 443.02881
112.19501 83.503204 442.15869
113.64291 83.745163 439.3017
114.8789 83.826172 438.42398
116.10963 83.907166 437.54272
117.14902 83.827225 438.64285
118.3744 83.908188 437.75516
119.33078 83.747749 439.84265
120.38268 83.667755 440.93506
121.52241 83.668198 441.03156
122.66204 83.668625 441.12512
123.64627 83.508133 443.20313
124.86595 83.588989 442.29718
126.08041 83.669823 441.38785
127.14975 83.589737 442.46384
128.29153 83.590088 442.54269
129.5629 83.751312 440.62933
130.6994 83.751625 440.702
131.83585 83.75193 440.77167
132.97221 83.752213 440.83838
134.1631 83.832939 439.90686
135.2968 83.833191 439.96762
136.381 83.752991 441.0209
137.56403 83.833664 440.08023
138.65326 83.753433 441.12793
139.74757 83.673195 442.17288
140.88615 83.673378 442.21918
142.02469 83.673553 442.26251
143.12915 83.593269 443.29907
144.27017 83.593422 443.33661
145.44009 83.673996 442.37488
146.60486 83.754562 441.41003
147.71687 83.674225 442.43509
148.89769 83.835205 440.46771
150.0309 83.835281 440.49042
151.14799 83.754913 441.50677
152.29727 83.835403 440.52707
153.44141 83.915886 439.54428
154.56358 83.83548 440.55197
155.70258 83.915932 439.56335
156.83315 83.915939 439.56851
157.96301 83.83548 440.5676
159.09799 83.75502 441.56366
160.2337 83.75499 441.56015
161.36943 83.754944 441.55362
162.51468 83.674438 442.54095
163.64088 83.754814 441.53186
164.77664 83.75473 441.5166
165.89517 83.835068 440.50183
167.0284 83.834961 440.48074
168.11693 83.995728 438.46375
169.24507 83.995583 438.43698
170.34576 84.075874 437.41095
171.47141 84.075714 437.37842
172.59708 84.075539 437.34305
173.79314 83.914467 439.29697
174.88626 83.994705 438.25952
176.01462 83.994492 438.2153
177.18588 83.913818 439.164
178.31689 83.913574 439.1138
179.39996 83.993759 438.06516
180.5285 83.993492 438.00925
181.65712 83.99321 437.95044
182.78578 83.992905 437.8887
183.97276 83.91214 438.81909
