ply
format ascii 1.0
comment PCL generated
element vertex 1591
property float x
property float y
property float z
element camera 0
property float view_px
property float view_py
property float view_pz
property float x_axisx
property float x_axisy
property float x_axisz
property float y_axisx
property float y_axisy
property float y_axisz
property float z_axisx
property float z_axisy
property float z_axisz
property float focal
property float scalex
property float scaley
property float centerx
property float centery
property int viewportx
property int viewporty
property float k1
property float k2
end_header
306.42102 181.33871 433.19815
307.96686 181.48593 433.71295
309.19269 181.49921 433.28607
310.41913 181.51257 432.85501
311.64612 181.52608 432.41986
312.87378 181.53967 431.98056
314.10193 181.55338 431.53708
315.66992 181.70146 432.02051
317.58563 181.98401 433.42783
318.82349 181.99809 432.96887
320.75623 182.28101 434.36182
322.00046 182.2953 433.89227
322.89273 182.17522 432.49234
323.78021 182.05515 431.09021
325.37842 182.20407 431.53391
326.62195 182.21857 431.04819
328.59222 182.50224 432.40216
330.20773 182.65147 432.82657
332.19745 182.93542 434.1644
336.05383 183.89282 440.08731
339.94788 184.85065 445.99066
343.87958 185.8089 451.87424
348.60712 187.03708 459.56876
352.61932 187.99622 465.40994
354.7467 188.28165 466.66452
357.65915 188.83684 469.73404
359.42361 188.98755 470.05685
361.58588 189.27312 471.28238
364.15393 189.69363 473.40714
364.74878 189.43933 470.98273
365.73322 189.31976 469.46454
366.7121 189.19995 467.94403
368.09113 189.21494 467.32513
368.65271 188.95952 464.89612
371.25888 189.3793 466.97479
372.63898 189.39357 466.34079
374.43488 189.54269 466.60123
374.97775 189.28595 464.16122
-38.912735 185.21906 430.42487
-37.640182 185.20584 431.0076
-35.959854 185.05472 430.6832
-34.688934 185.04105 431.25623
-32.613846 184.75195 430.01437
-31.746765 184.87552 431.48288
-30.080994 184.72379 431.13412
-28.420395 184.57195 430.77869
-27.156235 184.55753 431.32654
-25.503479 184.40552 430.95892
-24.241974 184.39093 431.49695
-22.980499 184.37625 432.03058
-21.719162 184.36153 432.55981
-20.835861 184.48407 434.00031
-19.572235 184.46922 434.52194
-17.563705 184.17981 433.20346
-15.936066 184.02776 432.79529
-14.681244 184.01297 433.30045
-13.062225 183.86102 432.88025
-11.810806 183.84628 433.37567
-10.559799 183.8316 433.86679
-8.9526672 183.67987 433.42941
-7.3512726 183.52826 432.98563
-5.7556763 183.37675 432.53552
-4.5144806 183.36237 433.00632
-3.273819 183.34805 433.47287
-2.0336456 183.33382 433.93512
-0.79403687 183.31966 434.39319
0.10707092 183.44246 435.77814
2.0188751 183.1548 434.3645
3.586853 183.00415 433.87585
4.818924 182.99043 434.31516
6.0503845 182.97685 434.75037
7.281311 182.96335 435.18134
8.5115967 182.94998 435.60825
10.06073 182.80008 435.09335
11.604004 182.65034 434.57251
12.827209 182.63739 434.98535
14.672836 182.35143 433.5134
15.580719 182.47533 434.85764
16.493256 182.5993 436.19958
17.714035 182.58688 436.59637
19.235214 182.43813 436.04529
20.452209 182.42598 436.4332
21.964264 182.27757 435.87173
23.177414 182.26575 436.25098
24.389969 182.25406 436.62637
25.314163 182.37883 437.94574
26.528183 182.3674 438.31415
27.741608 182.35611 438.67871
29.234421 182.20868 438.08908
30.721405 182.06146 437.49411
32.202568 181.91441 436.8938
33.405891 181.90376 437.24078
34.878098 181.75708 436.63065
36.077713 181.7467 436.96936
37.540985 181.60039 436.34961
38.475342 181.72644 437.63571
40.191307 181.44434 436.05081
41.383583 181.4346 436.37335
42.575356 181.42499 436.69223
43.766647 181.41553 437.00745
45.205933 181.2702 436.36008
46.147736 181.397 437.62711
47.094261 181.52391 438.89191
48.286201 181.51497 439.19345
49.477707 181.50616 439.49136
50.433273 181.63341 440.74808
51.859337 181.48897 440.07654
53.279747 181.3447 439.40024
54.694511 181.20061 438.71915
55.878593 181.1925 438.99817
57.284706 181.04872 438.30826
58.46534 181.04091 438.57977
59.862839 180.89743 437.88113
60.825424 181.02563 439.11237
62.216942 180.88245 438.4057
63.602875 180.73943 437.69452
64.776382 180.73225 437.94769
65.949516 180.72522 438.19751
67.122292 180.71831 438.44397
68.095627 180.84718 439.65762
69.073807 180.97614 440.86893
70.056839 181.10519 442.07794
71.236023 181.09871 442.31253
72.603584 180.95673 441.57117
73.965645 180.81491 440.82547
75.138695 180.80879 441.04904
76.673317 180.53165 439.32111
77.840561 180.5258 439.5372
79.007523 180.52005 439.74994
80.347382 180.37889 438.98392
81.5112 180.37337 439.18967
82.842751 180.23245 438.4158
83.838005 180.36266 439.59152
84.838173 180.49295 440.76492
85.843239 180.62332 441.936
87.010918 180.6183 442.12643
88.023247 180.74884 443.2923
89.498024 180.47316 441.51889
90.812332 180.33302 440.71991
91.826546 180.46387 441.87659
92.990463 180.45938 442.05072
94.296356 180.31958 441.24109
95.457275 180.31528 441.40842
96.617981 180.3111 441.57266
98.047394 180.03625 439.77048
99.202545 180.03226 439.9277
100.4868 179.89301 439.09946
101.76572 179.75388 438.26746
102.79103 179.8855 439.39764
103.94289 179.8819 439.54205
104.97559 180.01369 440.66702
106.01328 180.14555 441.78946
107.05595 180.2775 442.90948
108.32614 180.13892 442.05792
109.37366 180.27101 443.17227
110.6384 180.13261 442.31393
111.89784 179.99432 441.45193
113.152 179.85611 440.58633
114.3025 179.85327 440.70303
115.54867 179.71527 439.83054
116.78957 179.57735 438.9545
117.93454 179.57475 439.06152
119.16749 179.43701 438.17865
120.22414 179.56982 439.26657
121.36877 179.56749 439.36456
122.43292 179.70044 440.44708
123.57991 179.69826 440.53925
124.65158 179.83136 441.61633
125.87363 179.69411 440.71451
127.02034 179.69215 440.79758
128.2345 179.55505 439.8891
129.37846 179.55325 439.966
130.52237 179.55151 440.03989
131.66618 179.54987 440.11078
132.86717 179.4131 439.18951
133.95361 179.54678 440.24356
135.09723 179.54533 440.30542
135.99315 180.21988 445.31232
137.05557 180.48892 447.34824
138.03946 181.02837 451.3613
139.12747 181.29753 453.39236
140.18646 181.70193 456.41086
141.4809 181.29539 453.48596
142.72577 181.02411 451.54767
144.02341 180.48259 447.62537
145.24251 180.21147 445.68011
146.5305 179.53496 440.76019
147.74512 179.12885 437.81766
148.94431 178.72281 434.87177
150.10934 178.452 432.91327
151.29636 177.91096 428.97034
152.43567 177.6403 427.00562
153.59769 176.96425 422.06546
154.73399 176.28828 417.12231
155.82704 176.01782 415.14853
156.9164 175.47714 411.19019
157.98375 175.20682 409.21066
159.039 174.80142 406.23764
160.08766 174.66637 405.24344
161.12422 174.39624 403.25577
162.1505 174.12617 401.26547
163.16653 173.85617 399.27255
164.20169 173.85652 399.25848
165.21959 173.7218 398.25107
166.25221 173.72227 398.23163
167.28487 173.72282 398.20959
168.3425 173.85858 399.17532
169.37776 173.85925 399.14777
170.47328 174.13031 401.09827
171.51375 174.13113 401.06519
172.58951 174.26715 402.01959
173.59482 174.13292 400.99084
174.6758 174.26909 401.93964
175.71899 174.27016 401.89557
176.80779 174.40646 402.83856
177.85367 174.40767 402.78894
178.95026 174.54411 403.72607
179.99883 174.54546 403.67087
181.04745 174.54686 403.61288
182.03777 174.41313 402.56305
183.08395 174.41467 402.49976
184.0667 174.28108 401.44492
185.04437 174.14755 400.38766
186.01698 174.01407 399.32803
186.98454 173.88065 398.26602
187.94704 173.7473 397.20169
188.98083 173.74922 397.12283
190.01472 173.75122 397.04129
191.13022 173.88852 397.94443
192.16689 173.89066 397.85721
193.37695 174.16336 399.74127
194.41896 174.16565 399.6481
195.55289 174.30328 400.53873
196.69205 174.44099 401.42609
197.64258 174.30826 400.33807
198.78714 174.44612 401.21936
199.83487 174.44881 401.11185
200.88274 174.45157 401.00159
201.93073 174.45439 400.88843
202.97884 174.45731 400.77252
204.0271 174.4603 400.65381
205.19048 174.59868 401.51636
206.24161 174.60184 401.39172
207.29288 174.60507 401.26428
208.34431 174.60838 401.13403
209.02005 174.20573 398.05234
210.06409 174.2092 397.91742
210.8474 173.942 395.81531
212.01962 174.08099 396.65723
213.06158 174.08467 396.51413
214.38008 174.35924 398.33044
215.56833 174.49854 399.16171
216.90527 174.77335 400.96976
218.25273 175.04828 402.77341
219.46222 175.18791 403.59299
220.52599 175.19221 403.42972
221.74365 175.33206 404.24234
223.27917 175.74295 407.0079
224.51279 175.88306 407.81216
226.07462 176.29425 410.56766
227.65219 176.7056 413.3176
229.41211 177.25264 417.03854
231.53131 178.07092 422.70532
233.51006 178.75391 427.38782
235.86365 179.70822 434.01324
238.25372 180.66283 440.62894
239.78271 180.93985 442.36288
240.95816 180.94586 442.14383
242.13391 180.95201 441.92154
242.93539 180.68703 439.75006
243.72684 180.42212 437.57733
244.89317 180.42854 437.34705
246.05986 180.43509 437.11349
247.02922 180.30606 435.90573
247.99373 180.17714 434.69568
249.35912 180.31972 435.423
250.93549 180.59814 437.11499
252.10652 180.60532 436.86414
253.48859 180.74834 437.57797
254.66296 180.75575 437.31973
255.83774 180.76331 437.05811
256.79449 180.63518 435.82672
258.18851 180.77878 436.5246
259.14087 180.65086 435.28751
260.31467 180.65891 435.01266
261.26007 180.5312 433.77051
262.66357 180.67537 434.45273
263.83868 180.68381 434.16748
265.01425 180.69237 433.87881
266.66879 180.97296 435.5094
268.09235 181.1178 436.17307
269.2771 181.12683 435.8718
270.70944 181.27199 436.52631
271.89777 181.28131 436.21722
273.33893 181.42682 436.86252
274.53088 181.43643 436.54547
275.72333 181.4462 436.22482
276.91632 181.45609 435.90045
278.1098 181.46613 435.57245
279.03842 181.34016 434.28629
280.49841 181.48663 434.90536
281.69348 181.49709 434.56622
283.16241 181.64392 435.17566
284.36121 181.65469 434.82828
285.83911 181.80186 435.42786
287.32285 181.94925 436.02216
288.52863 181.96048 435.66183
289.73499 181.97186 435.29773
290.94189 181.98338 434.92972
292.14944 181.99506 434.55795
293.35754 182.00687 434.18219
294.56628 182.01881 433.80261
295.77557 182.03088 433.41907
296.98547 182.04311 433.03162
298.19598 182.05545 432.64023
299.7146 182.2045 433.18658
300.92896 182.21713 432.78632
302.76941 182.50313 434.26205
304.30566 182.65274 434.79117
305.84781 182.80251 435.31433
306.75452 182.67908 433.95712
307.65652 182.55573 432.59772
308.87979 182.56915 432.17136
309.77505 182.44594 430.80643
310.99689 182.45958 430.37283
312.2193 182.47333 429.93509
313.77887 182.62405 430.42487
315.6835 182.91182 431.8392
317.94125 183.33675 434.1752
319.18182 183.35106 433.71484
321.11737 183.63943 435.10574
322.36432 183.65396 434.63489
323.25928 183.53149 433.23398
324.14941 183.40906 431.83087
326.10822 183.69794 433.19647
327.35712 183.71269 432.70837
328.9696 183.86467 433.13745
330.22198 183.87953 432.63962
332.21176 184.1689 433.97635
336.06836 185.14476 439.89612
340.33643 186.25839 446.71365
343.89447 187.09781 451.67679
348.24307 188.21234 458.45227
352.63461 189.32733 465.20541
354.76196 189.61816 466.4588
356.90009 189.90904 467.70306
359.04895 190.19995 468.93793
361.2085 190.49088 470.16348
363.3786 190.7818 471.37961
363.9679 190.52235 468.95807
364.94681 190.40022 467.44235
365.9201 190.27783 465.92435
367.29352 190.29288 465.30756
368.258 190.16995 463.78381
370.8613 190.59764 465.86227
372.2384 190.61194 465.22925
374.44778 190.90146 466.38889
375.40942 190.77733 464.84689
-38.512451 186.33002 429.32596
-36.832932 186.17647 429.00638
-35.565445 186.16299 429.58273
-34.297394 186.14929 430.15475
-32.225159 185.8549 428.91281
-31.360962 185.98102 430.38
-30.094589 185.96674 430.93799
-28.828033 185.9523 431.49164
-27.561356 185.93771 432.04095
-26.294601 185.92302 432.58588
-24.641953 185.76819 432.21466
-23.377914 185.75334 432.74973
-22.494537 185.87839 434.19446
-21.228088 185.86337 434.72189
-19.586578 185.7084 434.32861
-18.323227 185.69337 434.84616
-16.320297 185.39861 433.52231
-14.695602 185.2438 433.10941
-13.076523 185.08905 432.68991
-11.825119 185.07413 433.1857
-10.574081 185.05927 433.67715
-8.9668579 184.90472 433.24048
-7.7193604 184.88995 433.72226
-6.1210327 184.73561 433.2739
-4.877121 184.72098 433.746
-3.633728 184.70644 434.2139
-2.0475464 184.55243 433.74872
-0.80784607 184.53809 434.20709
0.43132019 184.5238 434.66122
2.6759796 184.09131 432.31601
3.9060669 184.0773 432.75885
4.8055267 184.2028 434.13116
6.0371094 184.189 434.56668
7.2681122 184.17529 434.99802
8.1764221 184.30103 436.36163
9.7283478 184.14827 435.84833
11.591187 183.85646 434.39096
12.814545 183.84329 434.80405
14.348801 183.6911 434.27319
15.568314 183.67822 434.67737
16.480957 183.8046 436.01923
17.398254 183.93106 437.35886
19.22319 183.6404 435.86591
20.141953 183.76711 437.19839
21.656815 183.61586 436.63843
22.872726 183.60382 437.01883
24.088058 183.59189 437.39526
25.014954 183.71906 438.71539
26.802139 183.42958 437.1882
27.73053 183.55699 438.50131
29.22348 183.4068 437.91241
30.710625 183.25677 437.31808
32.466652 182.96814 435.76697
33.123329 183.23489 438.01788
34.86779 182.94662 436.45615
36.067535 182.9361 436.79514
37.266747 182.9257 437.1304
38.465424 182.91547 437.46201
39.922585 182.76668 436.83398
41.117622 182.75674 437.15744
42.312141 182.74693 437.47726
43.757309 182.59866 436.83548
44.948227 182.58917 437.14734
46.138687 182.5798 437.45554
47.085312 182.70915 438.72021
48.277405 182.70006 439.02197
49.230949 182.82959 440.28137
50.66021 182.68227 439.61465
51.850929 182.67357 439.9057
53.501755 182.38811 438.26678
54.686401 182.37973 438.54947
56.095673 182.23306 437.86426
57.499336 182.08656 437.17432
58.457611 182.217 438.4111
59.855255 182.0708 437.71304
60.817963 182.20145 438.94403
62.209618 182.05554 438.23795
63.386208 182.0481 438.4953
64.355545 182.17909 439.71777
65.533997 182.17189 439.96884
66.712082 182.16483 440.21655
67.889809 182.15787 440.46091
69.067177 182.15105 440.7019
70.050308 182.28256 441.91071
71.229607 182.27594 442.14545
72.597313 182.13126 441.40457
73.773361 182.12491 441.63214
75.132645 181.9805 440.88315
76.48645 181.83624 440.12985
77.834778 181.69212 439.37228
79.001846 181.68626 439.58521
80.34182 181.5424 438.8197
81.505737 181.53679 439.02563
82.837402 181.39319 438.25226
83.832756 181.52588 439.42773
84.833023 181.65863 440.60086
85.998459 181.65344 440.79431
87.163643 181.64835 440.98453
88.173485 181.7814 442.14975
89.645821 181.50044 440.37665
90.807693 181.49568 440.55692
91.822006 181.629 441.71326
92.986023 181.62442 441.88748
94.149818 181.61995 442.05856
95.313416 181.61555 442.22638
96.613831 181.47331 441.41019
97.90889 181.33118 440.59009
99.198593 181.18916 439.76614
100.35366 181.1852 439.92032
101.50853 181.1813 440.07138
102.53908 181.31544 441.202
103.69617 181.31175 441.34717
104.8531 181.30814 441.4892
105.89345 181.44252 442.61176
106.93878 181.57697 443.73175
108.10037 181.57361 443.86505
109.3705 181.43246 443.01083
110.52922 181.42929 443.13766
111.79133 181.28836 442.27637
113.04815 181.14751 441.41147
114.20129 181.14461 441.5285
115.45013 181.00395 440.65668
116.6937 180.8634 439.78134
117.93199 180.72293 438.90237
119.07692 180.72037 439.0065
120.22174 180.71791 439.10754
121.36646 180.71552 439.2056
122.43068 180.85101 440.28781
123.57776 180.84879 440.38007
124.6495 180.98442 441.45682
125.94428 180.70676 439.56757
127.0885 180.70476 439.65051
128.30016 180.56506 438.74234
129.37669 180.701 439.8074
130.58304 180.56146 438.89282
131.66455 180.69756 439.95227
132.80838 180.69594 440.02017
133.95213 180.6944 440.08511
134.99162 180.96848 442.12527
135.89275 181.65584 447.13058
136.96039 181.93002 449.16614
137.99385 182.34201 452.18857
139.04268 182.75406 455.20865
140.18538 182.89066 456.24689
141.4799 182.47638 453.32312
142.72485 182.19992 451.38559
143.99101 181.78581 448.45468
145.24174 181.37177 445.5202
146.55623 180.54462 439.61197
147.76834 180.13075 436.67041
148.94376 179.85471 434.71582
150.12758 179.44101 431.76776
151.31209 178.88963 427.82617
152.46246 178.47609 424.87173
153.60841 177.92487 420.92377
154.74223 177.23601 415.98236
155.83278 176.96039 414.00925
156.91963 176.40939 410.05237
157.98376 176.27165 409.06403
159.03908 175.85851 406.09201
160.09222 175.85863 406.08871
161.13141 175.58333 404.10165
162.16032 175.30811 402.11203
163.17899 175.03296 400.11981
164.21677 175.03333 400.10568
165.22005 174.75829 398.10825
166.25273 174.75877 398.08884
167.28543 174.75934 398.06674
168.34314 174.89769 399.03214
169.40602 175.03612 399.99469
170.47406 175.17462 400.95438
171.54727 175.31317 401.91119
172.62567 175.4518 402.86505
173.67142 175.45276 402.82635
174.7576 175.59154 403.77454
175.80602 175.59262 403.73026
176.85448 175.59378 403.6832
177.8549 175.45724 402.64407
178.95157 175.59631 403.5809
180.0002 175.59767 403.5256
181.04889 175.59911 403.46762
182.03928 175.46283 402.41809
183.08553 175.4644 402.35474
184.06834 175.32825 401.30023
185.04608 175.19217 400.24329
186.01877 175.05615 399.18396
187.0576 175.05798 399.11017
188.02274 174.92209 398.0459
189.05917 174.92406 397.96686
190.09572 174.92609 397.88501
191.13234 174.92821 397.80051
192.25316 175.06821 398.70013
193.29256 175.07047 398.60983
194.4213 175.21063 399.50327
195.46349 175.21304 399.40729
196.60017 175.35339 400.29449
197.74211 175.4938 401.17841
198.88933 175.63431 402.05905
199.9397 175.63705 401.95114
201.09489 175.77774 402.82538
202.04085 175.64276 401.72705
203.09163 175.64574 401.61081
204.25494 175.78668 402.47574
205.1936 175.65193 401.36981
206.24481 175.65515 401.24509
207.29617 175.65843 401.11752
208.22496 175.5239 400.00433
209.02347 175.2515 397.90649
210.0676 175.25502 397.77151
210.85097 174.98273 395.66998
212.02328 175.12436 396.51144
213.20094 175.26608 397.3494
214.38394 175.40793 398.18381
215.71304 175.68787 399.99503
217.05267 175.96793 401.80185
218.2569 176.11011 402.62463
219.46648 176.25241 403.44379
220.53035 176.25681 403.2804
221.74811 176.39931 404.0925
223.28377 176.81804 406.8569
224.51747 176.96082 407.66064
226.24088 177.51791 411.39212
227.82115 177.93713 414.14038
229.7504 178.63272 418.83563
231.70578 179.32852 423.52335
233.68726 180.02455 428.20343
235.86926 180.85895 433.85071
238.0826 181.6936 439.48923
239.7887 182.11407 442.19684
240.96423 182.12021 441.97763
242.32483 182.26465 442.72824
243.12897 181.99461 440.55679
243.9231 181.72467 438.38416
245.09213 181.73123 438.1532
246.26154 181.73792 437.91895
247.0359 181.46819 435.74039
248.20081 181.47508 435.50052
249.77176 181.75867 437.19608
251.14801 181.90414 437.91724
252.32178 181.91144 437.66568
253.49591 181.91887 437.41064
254.88367 182.06479 438.11938
255.84534 181.93411 436.89041
256.80219 181.80353 435.65918
257.97528 181.81146 435.39111
259.1488 181.81952 435.11957
260.32275 181.8277 434.84457
261.4971 181.83603 434.56613
262.67191 181.84448 434.28418
263.84714 181.85306 433.99875
265.02283 181.86179 433.70984
266.67755 182.14772 435.33948
268.10126 182.2953 436.00253
269.53064 182.44307 436.66077
270.71863 182.45242 436.35498
271.9071 182.46191 436.04565
273.34842 182.61018 436.69037
274.28555 182.48131 435.41611
275.47552 182.49121 435.09589
276.66602 182.50127 434.77203
277.85706 182.51147 434.44452
279.04855 182.5218 434.11325
280.5087 182.67105 434.73172
281.43326 182.54291 433.4397
283.173 182.83131 435.00113
284.37195 182.84227 434.65347
285.57147 182.85336 434.30206
287.05273 183.00351 434.89642
288.53979 183.15384 435.48544
289.45984 183.02646 434.17303
290.95337 183.17712 434.75278
292.16101 183.189 434.38065
293.36926 183.20099 434.00464
294.57813 183.21313 433.62476
295.48798 183.08635 432.29706
296.69537 183.09875 431.91016
298.20825 183.2504 432.46149
299.72699 183.40225 433.00714
301.25159 183.55429 433.54706
303.09491 183.84573 435.02084
304.63391 183.99815 435.54828
306.17886 184.15079 436.06989
306.76758 183.88568 433.77499
307.99304 183.89926 433.35156
309.21906 183.91293 432.92401
309.78839 183.64796 430.62408
311.01031 183.6618 430.19016
312.23282 183.67578 429.75211
313.79248 183.82932 430.24115
315.35803 183.983 430.72406
317.61328 184.41592 433.05951
318.85129 184.43042 432.59982
320.7843 184.72418 433.99057
322.02866 184.73889 433.52036
323.6261 184.89333 433.97116
324.51889 184.76849 432.56708
326.48047 185.06284 433.93051
327.73206 185.07782 433.44101
329.34726 185.23264 433.86838
330.60229 185.24771 433.36911
332.96332 185.68237 435.62259
336.82544 186.67679 441.53708
340.72522 187.67165 447.43198
344.28607 188.52698 452.39124
349.01672 189.80261 460.07666
352.65002 190.65872 464.99683
354.39282 190.81491 465.33667
356.52823 191.11115 466.58084
358.67438 191.40741 467.81573
360.04608 191.42342 467.22336
362.6033 191.85977 469.34964
363.5849 191.73535 467.83765
364.56091 191.61069 466.32324
366.33768 191.7663 466.61508
367.71353 191.78143 465.99683
369.49744 191.93666 466.27582
372.10852 192.37236 468.34915
373.49332 192.38678 467.71222
375.71039 192.68167 468.86713
377.51794 192.83589 469.11557
-38.112152 187.43594 428.22412
-36.84552 187.4227 428.80484
-35.578278 187.40916 429.38138
-34.310516 187.39539 429.95367
-32.238434 187.09569 428.7128
-31.773758 187.36714 431.08548
-30.504898 187.35272 431.6449
-29.23584 187.33813 432.19998
-27.966644 187.32343 432.75076
-27.085983 187.45126 434.20749
-25.42807 187.29361 433.8392
-23.775528 187.13593 433.46429
-22.509003 187.12082 433.99643
-21.242615 187.10565 434.52417
-19.601105 186.94791 434.13156
-18.337799 186.93269 434.64948
-16.704773 186.77499 434.24487
-15.077393 186.61734 433.83374
-13.455643 186.45978 433.41608
-11.839569 186.30228 432.99197
-10.229248 186.14487 432.56146
-8.6246185 185.98756 432.12451
-7.3797455 185.97263 432.60559
-5.7839966 185.81552 432.15695
-5.2400055 186.08514 434.48123
-3.3019104 185.78601 433.09567
-2.061615 185.77138 433.55865
-0.82183838 185.75681 434.01733
0.75544739 185.60025 433.54147
2.6622314 185.30179 432.12817
3.8924103 185.2876 432.57135
4.7919159 185.4155 433.94363
6.0236359 185.40147 434.37939
7.254715 185.38759 434.81113
7.8409729 185.65759 437.11063
9.7151794 185.36012 435.66205
11.261353 185.20474 435.14359
12.801651 185.04953 434.61926
14.336075 184.8945 434.08908
15.555695 184.88144 434.49356
16.46843 185.01021 435.83536
17.385849 185.13907 437.1749
18.909958 184.98468 436.62607
20.129837 184.97211 437.01544
21.644836 184.81807 436.45618
22.860886 184.80582 436.83685
24.07634 184.7937 437.21359
25.291229 184.78172 437.58643
26.790741 184.62839 437.00748
27.719223 184.75822 438.32056
29.212341 184.60522 437.73227
30.699661 184.45241 437.13858
32.181152 184.29979 436.53958
33.112648 184.43015 437.8389
34.857277 184.13651 436.27826
36.057175 184.12579 436.61749
37.256531 184.11523 436.95303
38.455345 184.1048 437.28488
39.912666 183.95325 436.65747
40.85144 184.08438 437.93741
42.30249 183.93317 437.30127
43.496658 183.92334 437.61768
44.690331 183.91364 437.93042
46.129463 183.76294 437.28064
47.31955 183.75356 437.58554
48.509171 183.74431 437.88684
49.460197 183.87631 439.14551
50.651505 183.86734 439.44031
51.842354 183.85849 439.73157
53.263069 183.70872 439.0564
54.450432 183.70018 439.33997
55.862465 183.55075 438.65594
57.26886 183.40149 437.96722
58.229866 183.53436 439.20441
59.412971 183.52637 439.47333
60.595665 183.51849 439.73889
61.777962 183.51077 440.00098
62.959869 183.50316 440.25967
64.141403 183.4957 440.51495
65.118271 183.62921 441.73547
66.503372 183.48111 441.0152
67.484711 183.61487 442.23001
68.863914 183.46704 441.50186
69.849731 183.60101 442.71103
71.223091 183.45346 441.97504
72.590904 183.30608 441.23477
73.953224 183.15884 440.49011
74.942932 183.29324 441.68689
76.299461 183.14627 440.93457
77.650497 182.99944 440.17801
78.996056 182.85275 439.41727
80.162956 182.84689 439.62701
81.500183 182.70047 438.85831
82.663933 182.69485 439.06119
83.661957 182.83002 440.23691
84.664902 182.96527 441.41025
85.833031 182.95996 441.60422
87.0009 182.95476 441.79501
88.168541 182.94965 441.98248
89.488457 182.80406 441.1886
90.802979 182.65858 440.39063
91.964737 182.65382 440.56778
92.981491 182.78975 441.72116
94.287598 182.64461 440.91248
95.4487 182.64017 441.08008
96.609604 182.6358 441.24451
97.770294 182.63155 441.40579
99.062683 182.48686 440.5827
100.34973 182.34227 439.75571
101.37797 182.47884 440.88882
102.65948 182.33447 440.05493
103.69252 182.47119 441.18246
104.84953 182.46753 441.32462
105.77354 182.74487 443.43002
106.93538 182.74138 443.56662
108.09706 182.73796 443.70001
109.14989 182.87508 444.81442
110.41997 182.73138 443.95752
111.58119 182.72824 444.08163
112.94423 182.44431 442.23276
114.10004 182.44135 442.35013
115.35153 182.29805 441.47903
116.59776 182.15485 440.60431
117.83871 182.01175 439.72607
118.98631 182.00914 439.83047
120.13377 182.00662 439.93188
121.28114 182.00418 440.03018
122.50878 181.86145 439.13867
123.57555 181.99954 440.21771
124.72261 181.99734 440.30698
125.94225 181.85486 439.40573
127.08654 181.85283 439.48877
128.23076 181.85086 439.56873
129.37488 181.849 439.64575
130.51894 181.8472 439.71973
131.60309 181.98582 440.77896
132.74956 181.98419 440.84714
133.84128 182.12294 441.90079
134.88599 182.40213 443.94052
135.84183 182.96204 447.95547
136.91211 183.24133 449.99042
137.90382 183.80138 454.0011
138.99969 184.08081 456.0311
140.18428 184.07965 456.07983
141.4422 183.79793 454.14661
142.72391 183.37596 451.22037
143.99016 182.9541 448.2905
145.26993 182.392 444.36752
146.55553 181.68967 439.45111
147.76773 181.26805 436.51071
148.94321 180.98683 434.55682
150.1458 180.42508 430.61993
151.32782 179.8634 426.67981
152.47571 179.44211 423.72644
153.61916 178.88057 419.77991
154.74203 178.31909 415.83029
155.83852 177.89803 412.86783
156.91957 177.47702 409.9025
157.9845 177.19638 407.92441
159.03729 176.77551 404.95352
160.08353 176.63531 403.96005
161.12463 176.49518 402.96387
162.15105 176.21481 400.97501
163.17932 176.07481 399.97357
164.21716 176.07518 399.95944
165.2205 175.79498 397.96268
166.27309 175.93581 398.93317
167.30844 175.93637 398.91104
168.36877 176.07733 399.87592
169.40674 176.07803 399.84833
170.50496 176.35944 401.79724
171.54814 176.36028 401.76407
172.66183 176.64182 403.70703
173.71024 176.64279 403.66818
174.79906 176.78418 404.61594
175.85011 176.78529 404.57147
176.90121 176.78647 404.52426
177.90427 176.6474 403.48541
179.00357 176.78906 404.42166
180.05484 176.79044 404.36621
181.05037 176.65157 403.31952
182.04082 176.51274 402.27029
183.08714 176.51434 402.20697
184.0065 176.23529 400.16464
185.04782 176.23703 400.09613
185.9519 175.95808 398.04938
186.98825 175.95993 397.97571
188.02467 175.96187 397.89929
189.06119 175.96388 397.82022
190.01884 175.82558 396.75143
191.13449 175.96811 397.65372
192.2554 176.11073 398.55289
193.29488 176.11304 398.46265
194.42369 176.25584 399.35565
195.55777 176.39871 400.24539
196.69711 176.54169 401.13196
197.84171 176.68474 402.01517
198.89204 176.68745 401.91003
200.0446 176.83067 402.78687
201.20245 176.97401 403.66043
202.15106 176.83652 402.56204
203.09467 176.6991 401.46152
204.14565 176.70219 401.34229
205.19679 176.7054 401.22037
206.24808 176.70868 401.09552
207.05923 176.43105 399.00241
208.10567 176.43448 398.87259
208.90166 176.15695 396.77567
209.94328 176.16055 396.64093
210.98506 176.16422 396.50327
212.16005 176.3085 397.34396
213.34038 176.4529 398.18106
214.52606 176.59741 399.01465
215.71709 176.74202 399.84464
216.91345 176.88675 400.67096
218.1152 177.03159 401.49371
219.3223 177.17654 402.31277
220.53479 177.32161 403.12808
221.90634 177.60742 404.91782
223.4447 178.034 407.68054
224.68111 178.17947 408.48343
226.40721 178.74701 412.2128
228.15427 179.31476 415.93585
229.92224 179.88271 419.65228
232.04953 180.73224 425.31302
234.37994 181.72275 431.94031
236.57248 182.57283 437.5834
238.44244 183.14171 441.26944
239.9743 183.42932 443.00113
241.15256 183.43558 442.78134
241.96167 183.16042 440.61288
242.94804 183.02609 439.41522
243.92957 182.89188 438.2153
244.90625 182.75774 437.01309
246.26825 182.90536 437.74979
247.04272 182.63058 435.57181
248.20773 182.6376 435.33179
249.77884 182.92651 437.02643
251.3607 183.21558 438.71545
252.32912 183.08212 437.49524
253.71405 183.23062 438.2074
254.89128 183.23834 437.94821
256.06891 183.24619 437.68561
256.81 182.9722 435.48837
257.98325 182.98027 435.22009
259.15689 182.98846 434.94836
260.55725 183.13783 435.63696
261.50546 183.00528 434.39453
262.91187 183.15495 435.07495
264.08984 183.16371 434.7887
265.26825 183.17261 434.4989
266.92575 183.4639 436.12686
268.35223 183.61427 436.7887
269.53986 183.62364 436.48627
270.728 183.63315 436.1803
271.9166 183.64282 435.87073
273.35806 183.79385 436.51477
274.29532 183.66257 435.24075
275.48541 183.67264 434.92023
276.67606 183.68286 434.59613
278.13004 183.83456 435.22278
279.0589 183.70377 433.93686
280.78723 183.99716 435.50763
281.71454 183.86664 434.21506
283.45706 184.16043 435.77454
284.38287 184.03015 434.47522
285.58252 184.04144 434.12354
286.78278 184.05289 433.7681
288.26736 184.20599 434.35718
289.18494 184.07619 433.04572
290.67596 184.22961 433.62558
291.8811 184.24167 433.254
293.08685 184.25385 432.87851
293.99622 184.1245 431.55478
295.20053 184.13693 431.17236
296.40543 184.14951 430.78598
298.2207 184.44568 432.27927
299.73956 184.60033 432.82419
301.26434 184.75519 433.36346
302.48221 184.76839 432.9577
304.64703 185.20728 435.36285
305.55591 185.07898 434.00894
306.46014 184.95071 432.65283
307.68304 184.96446 432.22992
309.23254 185.1203 432.73761
309.47327 184.70831 429.50449
310.3613 184.58032 428.1384
311.57861 184.59442 427.70193
313.13306 184.7507 428.19214
314.69342 184.90717 428.67627
316.94354 185.34805 431.01208
318.86551 185.64706 432.40988
320.45135 185.80405 432.87253
322.04306 185.96115 433.32892
323.64056 186.11841 433.77899
324.53339 185.99115 432.37494
326.49506 186.29091 433.73721
327.74664 186.30609 433.24741
329.36188 186.46371 433.67395
330.98285 186.62143 434.09409
333.34662 187.06415 436.34491
336.84039 187.93457 441.33752
341.48816 189.23299 449.0621
345.05444 190.10425 454.01627
349.41147 191.26106 460.78122
353.04755 192.13306 465.69739
355.17749 192.43472 466.94736
357.31818 192.73642 468.18808
359.8595 193.18085 470.32925
360.8465 193.05432 468.82446
363.01373 193.35593 470.03949
364.39566 193.37186 469.43262
365.37677 193.24475 467.91599
366.3522 193.11737 466.39709
368.53961 193.41843 467.58389
370.32858 193.57639 467.8598
372.53351 193.87708 469.0289
373.92059 193.89156 468.3905
376.55655 194.33478 470.44092
378.78827 194.6347 471.58279
-38.124435 188.68239 428.01855
-36.448166 188.52356 427.69907
-35.183884 188.51003 428.27463
-33.919037 188.49622 428.84595
-32.251785 188.3367 428.50903
-31.388077 188.46788 429.97589
-30.518738 188.59882 431.44083
-29.249863 188.58412 431.99622
-28.372131 188.71461 433.45599
-27.488953 188.84491 434.9137
-25.828491 188.68448 434.54733
-24.556641 188.66925 435.0864
-22.904236 188.50873 434.70782
-21.635223 188.49338 435.23694
-19.615814 188.18768 433.93085
-18.352524 188.1723 434.44901
-16.349548 187.86674 433.12756
-14.724792 187.70636 432.71613
-13.105713 187.54602 432.29819
-11.492264 187.38576 431.87381
-9.5252075 187.08063 430.52106
-8.2825317 187.06551 431.00574
-7.0402679 187.05042 431.48615
-5.7984467 187.03537 431.96219
-4.905777 187.16521 433.35999
-3.3162384 187.00548 432.90161
-1.7325134 186.84589 432.43695
-0.49531555 186.83115 432.89502
0.74134827 186.8165 433.34885
2.6483002 186.5126 431.93668
3.8785706 186.4982 432.38022
4.7781372 186.62851 433.75244
5.6824799 186.75885 435.12228
6.9163208 186.74472 435.55524
7.505249 187.01971 437.85522
9.3822784 186.7168 436.40869
10.931259 186.55856 435.89188
12.47435 186.40051 435.36914
14.011551 186.24265 434.84058
15.233932 186.22934 435.24631
16.455719 186.21616 435.64795
17.06955 186.49173 437.92917
18.596466 186.3345 437.38193
19.819092 186.32169 437.77246
21.632675 186.0206 436.27042
22.848862 186.00815 436.65137
24.354965 185.85165 436.08249
25.279465 185.98367 437.40161
26.77916 185.82751 436.82327
27.707764 185.95976 438.13623
29.20105 185.80396 437.54861
30.41114 185.7924 437.90555
32.170174 185.49295 436.3573
33.101791 185.62573 437.65652
34.846611 185.32671 436.09692
35.779755 185.45975 437.38937
37.246117 185.30507 436.77228
38.183434 185.43835 438.05875
39.643532 185.284 437.43271
40.841461 185.27368 437.75739
42.038879 185.26352 438.0784
43.235794 185.25351 438.39575
44.432198 185.24362 438.70947
45.874107 185.09012 438.06097
47.066948 185.08057 438.36676
48.500053 184.92741 437.70908
49.689346 184.91815 438.00699
50.878174 184.90903 438.30139
51.833649 185.0437 439.55402
53.254486 184.8912 438.87955
54.214287 185.02612 440.12634
55.629066 184.87393 439.44354
57.038223 184.72192 438.75601
58.001938 184.85721 439.99359
59.405067 184.70551 439.29791
60.587898 184.69748 439.5636
61.770325 184.68962 439.8259
62.952362 184.68188 440.08478
64.134026 184.67427 440.34021
65.110992 184.81024 441.56058
66.496246 184.65942 440.84082
67.477676 184.79564 442.05551
68.857025 184.64511 441.32788
69.842957 184.78154 442.53687
71.025085 184.77466 442.77243
72.584389 184.48117 441.06168
73.760674 184.47459 441.28961
74.936653 184.46811 441.51413
76.293297 184.31844 440.76239
77.822868 184.02557 439.0329
78.990158 184.0195 439.24609
80.330383 183.87027 438.48166
81.494522 183.86443 438.68787
82.658379 183.8587 438.89084
83.656502 183.99635 440.06631
84.659554 184.13408 441.23938
85.827774 184.12868 441.43356
86.995758 184.12338 441.62442
88.163498 184.11819 441.8121
89.483528 183.96991 441.01868
90.798164 183.82176 440.22125
91.96003 183.81693 440.3985
92.976875 183.95532 441.55161
94.140869 183.95068 441.72287
95.304657 183.94614 441.89096
96.468231 183.94168 442.05588
97.631615 183.93732 442.21759
98.794785 183.93307 442.37619
100.0871 183.78583 441.55038
101.37405 183.6387 440.72079
102.53151 183.63475 440.86926
103.68878 183.63092 441.01465
104.84589 183.62717 441.15689
105.88641 183.76657 442.27881
107.04576 183.763 442.41513
108.09367 183.90256 443.53183
109.364 183.75613 442.67847
110.52289 183.75284 442.80545
111.78519 183.60663 441.9451
112.94122 183.60352 442.06561
114.09711 183.60049 442.18307
115.34869 183.45456 441.31241
116.50176 183.45171 441.42343
117.74538 183.30597 440.5459
118.89563 183.30331 440.65057
120.04575 183.30074 440.75226
121.27873 183.15527 439.86462
122.50647 183.0099 438.97354
123.5733 183.15054 440.05234
124.72044 183.14832 440.14163
125.94017 183.0032 439.24081
127.08454 183.00113 439.32388
128.1613 183.14209 440.39136
129.30807 183.14017 440.46854
130.45477 183.13834 440.54279
131.54158 183.2795 441.60184
132.6907 183.27782 441.67017
133.83974 183.27621 441.73547
134.8324 183.70345 444.76285
135.74135 184.41656 449.76505
136.81685 184.70099 451.79953
137.85815 185.12839 454.82022
138.91484 185.55586 457.8385
140.14391 185.41177 456.89847
141.40448 185.12488 454.96606
142.68884 184.69516 452.04111
143.98929 184.12262 448.12326
145.24016 183.69308 445.19104
146.502 183.12074 441.26599
147.74326 182.54849 437.3374
148.94266 182.1192 434.39481
150.16402 181.40422 429.46985
151.32741 180.9751 426.52072
152.47537 180.54605 423.56845
153.6189 179.97421 419.62344
154.74185 179.40242 415.67532
155.82668 179.25938 414.69345
156.91295 178.83063 411.72925
157.98308 178.54483 409.75189
159.03923 177.97333 405.7923
160.08368 177.68767 403.80951
161.11784 177.40208 401.82401
162.14175 177.11655 399.83588
163.16753 176.97397 398.83478
164.20288 176.97435 398.82071
165.22098 176.83191 397.81433
166.27364 176.97531 398.78445
167.30904 176.97589 398.76224
168.36945 177.11943 399.72678
169.43503 177.26305 400.68851
170.53589 177.54962 402.63663
171.5817 177.55048 402.6033
172.73329 177.98013 405.53461
173.7869 177.98112 405.49554
174.88094 178.12511 406.44263
175.93719 178.12625 406.39792
177.03903 178.27037 407.3392
178.04987 178.12874 406.30026
179.10629 178.1301 406.24734
180.05627 177.84567 404.21497
181.05186 177.70424 403.16858
181.98399 177.41994 401.13171
182.96687 177.27863 400.0806
183.94467 177.13737 399.02704
184.98349 177.13913 398.95859
185.88507 176.85507 396.91275
186.91891 176.85696 396.8392
188.02666 177.00189 397.74991
189.06325 177.00394 397.67075
190.09991 177.00604 397.58881
191.21823 177.15121 398.49054
192.34177 177.29646 399.38904
193.3839 177.29883 399.29849
194.51538 177.44424 400.19083
195.56027 177.44676 400.09445
196.69971 177.59236 400.98056
197.84439 177.73805 401.86334
198.99435 177.88383 402.74286
200.25169 178.17273 404.60345
201.31009 178.17567 404.49185
202.36861 178.17871 404.37738
203.31743 178.03877 403.27652
204.37366 178.04196 403.15668
205.20003 177.75911 401.06802
206.13382 177.61938 399.96042
207.06262 177.47972 398.85065
207.98642 177.34012 397.73868
208.90521 177.20059 396.62454
210.0748 177.34735 397.47107
211.11925 177.3511 397.33301
212.42996 177.64117 399.15359
213.47992 177.64511 399.00919
214.80649 177.93544 400.8219
215.86197 177.93958 400.67102
217.06104 178.08698 401.49655
218.26546 178.2345 402.31836
219.62378 178.52531 404.11505
220.84152 178.67307 404.92911
222.21837 178.96416 406.71713
223.9183 179.54182 410.45505
225.00372 179.54677 410.27933
226.89661 180.26802 414.98273
228.65155 180.84624 418.70276
230.42743 181.42467 422.4162
232.39346 182.14658 427.09811
235.07283 183.44189 435.67099
236.75275 183.87775 438.38724
238.62546 184.45709 442.07111
239.9805 184.60669 442.82816
241.15887 184.61307 442.60822
241.78333 184.18948 439.46808
242.76723 184.05267 438.27121
243.74626 183.91597 437.07199
244.91296 183.92276 436.84125
246.2751 184.07309 437.57739
247.24738 183.93671 436.36975
248.61539 184.08733 437.09814
249.98895 184.2381 437.82208
251.36807 184.38904 438.5416
252.33659 184.25311 437.32153
253.93234 184.54785 439.00009
255.11232 184.55573 438.74014
256.07681 184.42018 437.51102
257.03647 184.28473 436.27954
258.43353 184.43655 436.9751
259.38882 184.30133 435.73795
260.56561 184.30981 435.46188
261.51395 184.17482 434.2196
262.92053 184.32724 434.89944
264.09863 184.33615 434.61295
265.51389 184.48892 435.28381
266.93488 184.64188 435.94995
268.36148 184.79498 436.61108
269.79382 184.9483 437.26743
270.98468 184.95801 436.96054
272.17603 184.96785 436.65002
273.36789 184.97784 436.33594
274.56024 184.98798 436.01813
275.49548 184.85437 434.74121
276.68628 184.86479 434.41687
277.87756 184.87534 434.08881
279.06937 184.88605 433.75705
281.06601 185.3288 436.27936
281.99606 185.19586 434.98611
283.74142 185.49509 436.54388
284.94589 185.50647 436.19418
286.15094 185.51801 435.8407
287.07538 185.38559 434.53467
288.27893 185.39737 434.17426
289.48306 185.40933 433.81012
290.97687 185.56558 434.38846
292.18481 185.57785 434.01575
293.39331 185.59024 433.6391
294.60242 185.60278 433.25867
295.51251 185.47119 431.93112
296.72018 185.48401 431.54364
298.23334 185.64127 432.09357
299.75238 185.79874 432.63776
300.96713 185.81201 432.23663
302.4953 185.96982 432.77023
304.02936 186.12784 433.29803
305.25116 186.14154 432.883
306.15283 186.01086 431.52783
307.37317 186.02478 431.10556
308.59418 186.03883 430.67923
309.15826 185.76376 428.38214
310.04373 185.63335 427.01709
311.25845 185.64761 426.58118
312.81042 185.8067 427.07162
314.36823 185.96591 427.55597
316.61584 186.41483 429.8912
318.53528 186.71922 431.28882
320.46588 187.0238 432.67819
322.40759 187.3286 434.05933
324.36047 187.63358 435.43207
325.25861 187.50398 434.02609
326.86774 187.66426 434.46262
328.12207 187.67967 433.97144
329.37674 187.6951 433.47586
330.63181 187.71054 432.97592
333.36157 188.30634 436.14441
337.59805 189.48288 442.96844
341.87744 190.65991 449.77057
345.82312 191.69228 455.63577
350.18567 192.87027 462.39474
353.82715 193.75818 467.30573
355.19324 193.77472 466.72913
356.94662 193.93649 467.05823
359.09528 194.24353 468.28961
360.07672 194.11444 466.78723
361.84326 194.27597 467.09647
363.21698 194.2919 466.49283
364.18982 194.16219 464.97989
365.15698 194.03217 463.4646
367.33615 194.33844 464.6539
369.52548 194.64456 465.8338
371.72479 194.95047 467.00421
373.52014 195.11057 467.26663
375.73648 195.41595 468.41937
377.54333 195.57541 468.66663
-38.549347 190.07721 428.70795
-37.280731 190.0639 429.29034
-36.011414 190.05026 429.86853
-34.741562 190.03635 430.44257
-33.069199 189.87408 430.1087
-32.200409 190.00775 431.57773
-31.325974 190.14114 433.04483
-30.051971 190.12631 433.60287
-28.777756 190.1113 434.15652
-27.89209 190.24406 435.61523
-26.22905 190.08087 435.25076
-24.954651 190.06546 435.79126
-23.299667 189.90216 435.41458
-22.028091 189.88663 435.94519
-20.005997 189.57553 434.64136
-18.740097 189.55994 435.16095
-16.73439 189.24896 433.84174
-15.106995 189.08575 433.43219
-13.485199 188.92258 433.01608
-11.869095 188.75951 432.59354
-9.8993073 188.44894 431.2431
-9.0106354 188.58112 432.65164
-7.7630157 188.56578 433.13443
-6.1644592 188.40302 432.68835
-4.9204102 188.38782 433.16153
-3.3307648 188.22527 432.70389
-1.4035339 187.91548 431.31244
-0.16893005 187.90057 431.76987
1.0651398 187.88577 432.22314
2.969574 187.57651 430.81122
3.5316925 187.85641 433.117
4.4339905 187.98907 434.49005
5.3410339 188.1218 435.86078
6.577652 188.10742 436.29498
7.1692963 188.38739 438.59537
8.7295685 188.2261 438.08704
10.600876 187.91794 436.63577
12.146774 187.75705 436.11469
13.998398 187.44934 434.64899
14.911926 187.58279 435.9946
16.44281 187.42244 435.457
16.753006 187.84991 438.67908
18.2827 187.68985 438.13342
19.806549 187.52997 437.58203
21.324509 187.3703 437.02505
22.836639 187.21082 436.4624
24.342911 187.05151 435.8942
25.267532 187.18593 437.2132
26.767349 187.02701 436.63565
28.261383 186.86826 436.05258
29.469559 186.85638 436.41284
30.677177 186.84467 436.76926
32.159004 186.68646 436.1716
33.090736 186.82166 437.47067
34.566216 186.66382 436.86398
35.502083 186.79926 438.15704
36.971252 186.64175 437.54132
38.172981 186.63094 437.87433
39.374184 186.62027 438.2037
40.318428 186.75621 439.48477
41.775032 186.5994 438.85135
42.723495 186.7356 440.12643
43.925285 186.72549 440.44177
45.372559 186.56918 439.79526
46.81414 186.41309 439.1438
48.250023 186.25714 438.48737
49.442062 186.2477 438.78619
50.869179 186.09213 438.12073
52.057701 186.08298 438.41177
53.476105 185.92776 437.73724
54.433403 186.06514 438.98331
55.620621 186.0564 439.26373
56.807396 186.04784 439.54071
57.993752 186.0394 439.81421
59.17971 186.0311 440.0842
60.365265 186.02292 440.35074
61.550407 186.01489 440.61383
62.944717 185.8609 439.90659
64.126503 185.85315 440.16223
65.103592 185.99158 441.38235
66.287247 185.98407 441.63168
67.66967 185.83069 440.9086
69.046562 185.67746 440.18106
70.029999 185.81635 441.38928
71.209679 185.80937 441.62448
72.577766 185.65656 440.88528
73.754158 185.64986 441.1134
74.93026 185.64326 441.3381
76.287041 185.49088 440.58688
77.638336 185.33865 439.83142
78.808327 185.33246 440.04532
80.151276 185.18048 439.2818
81.3181 185.17453 439.48868
82.484657 185.1687 439.69223
83.485474 185.30881 440.86789
84.654083 185.30319 441.0654
85.662132 185.44348 442.23584
86.990517 185.2923 441.45068
88.313499 185.1412 440.66138
89.631065 184.99026 439.8681
90.943237 184.83945 439.07074
92.102615 184.83453 439.24774
93.116966 184.97545 440.40021
94.136269 185.11646 441.55026
95.300156 185.11182 441.71841
96.463837 185.10728 441.88348
97.492828 185.24857 443.02548
98.790573 185.09854 442.20407
99.953667 185.0943 442.35959
101.24331 184.94449 441.53079
102.40344 184.94046 441.67969
103.68498 184.79089 440.84363
104.72318 184.93271 441.96814
105.88278 184.92899 442.10767
107.04223 184.92535 442.24405
108.20152 184.9218 442.37735
109.36064 184.91837 442.50757
110.51963 184.91499 442.63461
111.78203 184.76613 441.77472
112.83716 184.90857 442.87955
114.09413 184.75989 442.01288
115.24998 184.7569 442.12735
116.49895 184.60843 441.25381
117.65198 184.60562 441.36185
118.893 184.45734 440.48148
120.04321 184.45471 440.58319
121.19331 184.45218 440.68185
122.42371 184.30417 439.79141
123.57103 184.30179 439.88376
124.64299 184.44507 440.95966
125.86536 184.29733 440.05948
127.0124 184.29521 440.14276
128.15933 184.29318 440.22305
129.3062 184.29123 440.30029
130.45297 184.28934 440.37448
131.53986 184.43307 441.43329
132.68904 184.43137 441.50168
133.83818 184.42972 441.56699
134.8309 184.86465 444.59329
135.73991 185.59067 449.59363
136.76851 186.02571 452.61566
137.81247 186.46083 455.63538
138.87178 186.89601 458.65265
140.1035 186.74931 457.71317
141.40341 186.31174 454.79297
142.68785 185.87427 451.86917
143.95685 185.43689 448.94168
145.26833 184.70863 444.03284
146.52768 184.12595 440.10919
147.7426 183.68884 437.17114
148.94208 183.2518 434.22977
150.16353 182.52391 429.30667
151.31085 182.23251 427.34796
152.48859 181.50479 422.4183
153.61862 181.06808 419.46405
154.74165 180.48596 415.51746
155.83241 180.19489 413.54657
156.91618 179.75839 410.58347
157.98381 179.46744 408.60693
159.03931 179.03108 405.63821
160.08382 178.74026 403.65616
161.11807 178.44952 401.67145
162.1516 178.30431 400.67334
163.16788 178.01369 398.68329
164.20329 178.01407 398.66919
165.22145 177.86905 397.66318
166.27419 178.01505 398.6329
167.30966 178.01563 398.61072
168.39511 178.30724 400.56387
169.43578 178.30797 400.53616
170.53671 178.59973 402.48352
171.64795 178.89157 404.4278
172.73427 179.03799 405.38031
173.78793 179.03902 405.34122
174.92244 179.33109 407.27646
176.02431 179.47775 408.22006
177.08583 179.47899 408.17236
178.0993 179.33481 407.1337
179.15836 179.3362 407.08054
180.11099 179.04665 405.04877
180.99759 178.61163 402.02698
181.86882 178.17668 399.00336
182.90758 178.17833 398.94037
183.88287 178.03453 397.88733
184.91919 178.03632 397.819
185.9556 178.03818 397.74796
186.9921 178.0401 397.67419
188.02867 178.04213 397.59772
189.06534 178.0442 397.51849
190.18106 178.19193 398.42273
191.38354 178.48526 400.30972
192.42821 178.48759 400.22162
193.47299 178.49001 400.1308
194.51785 178.49249 400.03714
195.56284 178.49504 399.9407
196.70236 178.64328 400.82642
197.94411 178.93719 402.6933
199.09673 179.0856 403.57208
200.35674 179.37973 405.43158
201.52249 179.52835 406.30341
202.47897 179.38585 405.20486
203.43044 179.24339 404.10394
204.37689 179.10101 403.00082
205.08833 178.66742 399.93024
206.01962 178.52515 398.82324
206.82574 178.2373 396.73203
207.8672 178.24084 396.60269
208.78351 178.09879 395.48917
210.07851 178.39388 397.31659
211.12305 178.39771 397.17847
212.56693 178.83871 399.97845
213.61955 178.84274 399.83362
214.81059 178.9926 400.6655
216.00696 179.14255 401.49374
217.20871 179.29263 402.31839
218.26987 179.29706 402.16086
219.77684 179.73889 404.93475
220.99728 179.88934 405.74789
222.37683 180.1857 407.53464
224.0795 180.7738 411.27054
225.16757 180.77884 411.09421
226.7403 181.22148 413.84305
228.82089 182.10181 419.51303
230.76614 182.83656 424.19958
232.90677 183.71741 429.85327
235.76593 185.18204 439.39542
237.28195 185.47992 441.13467
238.98563 185.92389 443.84216
240.34596 186.07619 444.59769
241.16531 185.79083 442.43185
241.60507 185.21365 438.32086
242.77383 185.22034 438.09607
243.75298 185.08116 436.89706
244.9198 185.08807 436.66614
246.28207 185.24112 437.4017
247.25446 185.10226 436.19427
248.6226 185.25562 436.92212
249.7934 185.26305 436.67728
251.3756 185.56277 438.36447
252.34421 185.42439 437.14456
253.94012 185.72446 438.82214
255.12024 185.73248 438.56204
256.30072 185.74063 438.29846
257.04462 185.45657 436.10178
258.4418 185.61115 436.79672
259.62091 185.61967 436.52338
260.57416 185.48212 435.28348
261.75153 185.49092 435.00385
263.16083 185.6461 435.68234
264.34167 185.6552 435.39502
265.52298 185.66443 435.10419
267.18344 185.96646 436.72946
268.37088 185.97601 436.43018
269.80338 186.1321 437.08585
270.99438 186.14197 436.77869
272.18588 186.15198 436.46799
273.63031 186.30858 437.11008
274.57037 186.17245 435.83557
275.7634 186.18292 435.51392
276.69666 186.04703 434.23422
277.88812 186.05777 433.90588
279.08008 186.06863 433.57385
281.0769 186.51938 436.0947
282.2778 186.53064 435.75302
284.02597 186.83527 437.30893
284.95724 186.70023 436.00827
285.88382 186.56528 434.70535
286.80573 186.43042 433.40021
288.00677 186.44238 433.04031
289.20844 186.4545 432.67664
290.98889 186.76031 434.20108
292.19699 186.77277 433.82809
293.40564 186.78537 433.45117
