ply
format ascii 1.0
comment PCL generated
element vertex 1591
property float x
property float y
property float z
element camera 0
property float view_px
property float view_py
property float view_pz
property float x_axisx
property float x_axisy
property float x_axisz
property float y_axisx
property float y_axisy
property float y_axisz
property float z_axisx
property float z_axisy
property float z_axisz
property float focal
property float scalex
property float scaley
property float centerx
property float centery
property int viewportx
property int viewporty
property float k1
property float k2
end_header
173.13055 242.72952 434.59274
174.2626 242.45898 433.5892
175.35152 241.91574 431.6214
176.55199 242.19131 432.53436
177.67131 241.92126 431.52179
178.83133 241.9243 431.46722
179.94305 241.65459 430.44867
181.10065 241.65796 430.38791
182.2048 241.3886 429.36343
183.41609 241.66524 430.25684
184.63264 241.94208 431.14676
185.85448 242.21912 432.03314
187.08159 242.49635 432.91602
188.31398 242.7738 433.79535
189.48262 242.77844 433.71149
190.50815 242.2373 431.70581
191.74608 242.51529 432.57507
192.91252 242.52048 432.48175
194.0791 242.52585 432.38522
195.2458 242.5314 432.28546
196.49722 242.81018 433.14075
197.57968 242.54306 432.07626
198.65712 242.27608 431.00894
199.72954 242.00928 429.9389
200.89186 242.01572 429.82343
202.05434 242.02237 429.70471
203.31708 242.30231 430.53946
204.58517 242.58249 431.37042
205.85864 242.86288 432.19754
207.02962 242.87033 432.06488
208.20081 242.87799 431.92899
209.37218 242.88579 431.7897
210.65939 243.16707 432.6022
211.95201 243.44855 433.41068
213.37083 244.00354 435.16946
214.30664 243.46565 433.1077
215.48428 243.47449 432.95117
216.53357 243.21019 431.83801
217.57791 242.94606 430.72226
218.61731 242.68208 429.60385
219.92451 242.96506 430.38724
221.09821 242.97485 430.21466
222.27214 242.98486 430.03876
223.59052 243.26852 430.81046
224.76759 243.27896 430.62738
226.09433 243.56311 431.39111
227.27454 243.57397 431.20078
228.30049 243.31148 430.05765
229.63586 243.59631 430.80984
230.97678 243.88142 431.55774
232.32315 244.16675 432.30121
233.51009 244.17871 432.0928
234.69734 244.19089 431.88092
235.71472 243.92953 430.71887
236.55444 243.39459 428.60815
237.38406 242.85977 426.49591
238.55959 242.87262 426.27243
239.55484 242.61188 425.10086
240.91168 242.89899 425.81512
242.4599 243.46024 427.46851
244.01892 244.02182 429.11621
245.58875 244.58374 430.75833
247.36304 245.41997 433.33667
248.56454 245.43457 433.08365
249.96535 245.72342 433.76801
250.76724 245.19031 431.62643
252.17143 245.47961 432.30292
253.16779 245.22092 431.09616
253.7406 244.41397 428.00964
254.93402 244.42969 427.73718
256.34238 244.71985 428.39841
257.32202 244.4617 427.18115
258.73645 244.75232 427.83383
260.379 245.31757 429.41711
261.80734 245.60876 430.05917
263.24139 245.90022 430.69623
264.45081 245.91751 430.39468
265.66061 245.93497 430.08929
267.10641 246.22713 430.71237
268.55792 246.51956 431.33032
269.77429 246.53764 431.01221
271.47794 247.10519 432.55063
272.70044 247.12372 432.22342
273.92334 247.14236 431.8923
275.39804 247.43596 432.48538
276.62445 247.455 432.14578
277.5947 247.1993 430.87561
278.81934 247.21857 430.5289
280.04437 247.23798 430.17825
281.26987 247.25752 429.82367
282.76288 247.55222 430.38873
283.99182 247.57204 430.02548
285.22113 247.59195 429.65823
286.45087 247.61197 429.28699
287.68097 247.6321 428.91183
288.9115 247.65228 428.53262
289.85938 247.39725 427.23062
291.65918 247.96817 428.68011
292.89337 247.98857 428.28802
294.1279 248.00899 427.89194
295.65631 248.3049 428.4072
297.19025 248.60089 428.91663
298.13214 248.34589 427.59299
299.37048 248.36632 427.17978
300.6091 248.38673 426.76254
302.15466 248.68275 427.25223
302.46808 247.87592 424.09573
304.32608 248.44751 425.48639
306.50955 249.29497 427.77759
308.07434 249.5909 428.2446
309.32443 249.61079 427.79916
311.5426 250.45831 430.06589
313.12604 250.75394 430.51392
314.38681 250.77338 430.05243
315.64752 250.79256 429.58685
317.24136 251.08752 430.01865
318.16858 250.82999 428.64343
319.42883 250.84818 428.16562
321.03003 251.1422 428.58231
321.94852 250.88339 427.198
323.20786 250.90031 426.70816
324.11761 250.64044 425.31894
326.07697 251.209 426.61096
326.98303 250.948 425.21497
328.95444 251.51555 426.49396
332.01474 252.9119 430.43829
336.18768 255.13724 437.03836
340.76691 257.63873 444.50623
345.39261 260.13989 451.95059
349.3241 262.08746 457.59763
352.91837 263.75784 462.33954
355.79181 264.87424 465.29495
357.17233 264.88327 464.7037
358.55127 264.89117 464.10861
360.69525 265.45105 465.27219
360.91797 264.62653 462.02728
361.90024 264.35388 460.54343
364.83118 265.46307 463.44711
366.99316 266.01749 464.58493
369.55957 266.84702 466.59021
372.13892 267.6748 468.58505
373.52643 267.67096 467.95059
374.91098 267.66522 467.31302
377.51276 268.48749 469.28448
379.30807 268.75446 469.50702
381.1051 269.01935 469.72443
383.31805 269.55853 470.80386
384.2865 269.26581 469.2785
386.08484 269.5238 469.48245
-42.911057 255.31239 422.15668
-42.076981 255.60471 423.61139
-40.418533 255.33682 423.3277
-39.573013 255.62535 424.78009
-37.510818 255.07454 423.61737
-37.057281 255.63873 425.93854
-36.193085 255.92209 427.38766
-34.926132 255.92465 427.96109
-33.656799 255.92567 428.53152
-31.995392 255.64601 428.22141
-30.337082 255.36497 427.90582
-28.682068 255.08261 427.58472
-27.030457 254.799 427.25803
-25.382385 254.51422 426.92572
-24.114838 254.50748 427.47092
-22.845825 254.49968 428.01263
-21.203842 254.2117 427.66534
-19.93486 254.20193 428.19882
-18.298355 253.91214 427.84094
-17.029785 253.9006 428.36594
-15.399185 253.60921 427.99738
-14.131409 253.59612 428.51373
-12.151215 253.02435 427.24237
-10.887192 253.00993 427.74893
-9.6225586 252.99492 428.25165
-8.7052002 253.25818 429.64548
-7.0915985 252.96313 429.24524
-6.1680145 253.22528 430.63321
-4.5588379 252.92931 430.22287
-3.2919769 252.91174 430.70575
-2.0248413 252.89378 431.18457
-0.75746155 252.87543 431.65924
0.83943176 252.57813 431.22778
2.4311676 252.28059 430.79022
4.3417664 251.7043 429.4426
6.2418213 251.12793 428.08704
7.4936829 251.10846 428.53561
8.7455597 251.08878 428.98004
9.9973297 251.06891 429.42044
10.938156 251.32727 430.76553
12.192352 251.3071 431.19867
13.751953 251.00856 430.71704
15.003159 250.98824 431.14108
16.254135 250.96786 431.56107
18.100159 250.39114 430.1503
19.345367 250.37077 430.56033
20.590317 250.35037 430.96631
21.834976 250.32997 431.36816
23.366409 250.0316 430.84921
24.607803 250.01129 431.24219
26.412399 249.43526 429.79431
27.647827 249.41513 430.17755
29.159409 249.11723 429.63672
30.665359 248.81952 429.0903
31.623207 249.07739 430.3815
32.317383 249.61292 432.59265
33.553596 249.59315 432.95667
34.526085 249.85107 434.2406
35.764137 249.8315 434.59738
37.259804 249.53455 434.02481
38.749809 249.23781 433.44675
39.981346 249.21872 433.79019
41.462608 248.92239 433.20209
42.690697 248.90363 433.53696
44.163223 248.60776 432.93893
45.630074 248.31213 432.33563
47.091248 248.01672 431.72705
48.309746 247.99875 432.04437
49.527832 247.98096 432.35785
50.977249 247.68625 431.73508
51.962723 247.94592 432.97348
53.406059 247.65166 432.34177
54.39595 247.91162 433.57388
55.833214 247.61781 432.93335
56.827522 247.87811 434.15921
58.042694 247.86165 434.44623
59.470879 247.56854 433.7926
60.89341 247.2757 433.13403
62.10215 247.25992 433.40866
63.310478 247.24435 433.67969
64.518425 247.22897 433.94696
65.52565 247.49046 435.15042
66.735443 247.47548 435.41098
67.944855 247.46069 435.66782
69.153893 247.44614 435.92108
70.74234 246.87866 434.28653
71.945419 246.86459 434.5314
73.332809 246.57422 433.82962
74.532578 246.56059 434.0668
75.731987 246.54718 434.30045
76.931068 246.53397 434.53046
78.304031 246.24461 433.81189
79.671455 245.95551 433.08878
80.695305 246.2193 434.25327
81.890434 246.20697 434.46875
83.2491 245.91859 433.73364
84.279793 246.18295 434.8891
85.474007 246.17126 435.09402
86.823944 245.88358 434.34708
88.014961 245.87231 434.54462
89.205688 245.86127 434.73871
90.396126 245.85046 434.92938
91.877541 245.28763 433.21646
93.062233 245.27727 433.39941
94.106255 245.54312 434.52972
95.293015 245.53316 434.70627
96.47953 245.52338 434.87939
97.400528 246.06577 436.953
98.591736 246.05635 437.12006
99.910156 245.77118 436.33099
101.22314 245.4863 435.53787
102.40846 245.47751 435.69403
103.71322 245.19305 434.89313
105.01257 244.90884 434.08823
106.30653 244.62486 433.2793
107.5951 244.34113 432.46646
108.65968 244.60925 433.55969
109.94267 244.32591 432.73956
111.01206 244.59439 433.82672
112.18797 244.58725 433.95529
113.3637 244.58028 434.08051
114.53925 244.57355 434.20251
115.62087 244.84268 435.27786
116.79868 244.8363 435.39352
117.97633 244.83011 435.50586
119.15381 244.8241 435.61499
120.33115 244.81827 435.72079
121.50834 244.81267 435.82339
122.92008 243.98029 433.04843
124.08923 243.97507 433.1438
125.25826 243.97003 433.23596
126.49763 243.68958 432.36615
127.66383 243.68491 432.45166
128.82991 243.68044 432.53391
130.05859 243.40056 431.65372
131.22186 243.39645 431.72937
132.38504 243.39252 431.80179
133.54811 243.38879 431.87109
134.71111 243.38522 431.93713
135.77441 243.93291 433.92001
136.89519 244.2052 434.94003
138.06567 244.20215 434.99692
139.27814 243.92375 434.09015
140.44589 243.92108 434.1405
141.61359 243.91855 434.18759
142.84981 243.36522 432.31012
144.01221 243.36307 432.35068
145.14545 243.6366 433.34891
146.31035 243.6348 433.38318
147.47519 243.63316 433.41428
148.61864 243.90717 434.40317
149.80479 243.63043 433.46686
150.96954 243.6293 433.48834
152.13426 243.62836 433.50668
153.29897 243.62762 433.52188
154.47212 243.35156 432.5726
155.62833 243.62662 433.54266
156.7897 243.90186 434.50961
157.95766 243.62633 433.55075
159.12419 243.90189 434.51129
160.287 243.62669 433.54605
161.45168 243.62718 433.53903
162.61636 243.62781 433.52872
163.78108 243.6286 433.51529
164.93103 243.3541 432.53741
166.09322 243.35527 432.5177
167.25543 243.3566 432.49478
168.41766 243.35809 432.46866
169.60507 243.63525 433.40036
170.76997 243.63712 433.3678
171.96523 243.91464 434.29291
173.13281 243.91684 434.25394
174.30048 243.91922 434.2117
175.43018 243.64627 433.20578
176.59537 243.649 433.15729
177.71745 243.37639 432.14532
178.83444 243.10394 431.13037
179.94635 242.83165 430.11246
181.00221 242.28397 428.13171
182.15489 242.28755 428.06796
183.36378 242.56686 428.96066
184.57794 242.84637 429.84988
185.79738 243.1261 430.73563
187.02209 243.40602 431.6178
188.25208 243.68613 432.4964
189.41832 243.69084 432.41266
190.51306 243.4201 431.3671
191.75116 243.70079 432.23544
192.91779 243.70605 432.14203
194.16394 243.98715 433.00333
195.25145 243.71713 431.94547
196.50305 243.99863 432.79987
197.58569 243.72894 431.73593
198.75302 243.73512 431.62622
199.82822 243.46579 430.55655
200.9933 243.47232 430.44064
202.15857 243.47906 430.3215
203.4241 243.76176 431.15506
204.69498 244.04468 431.98477
205.86597 244.05203 431.85526
207.03714 244.05957 431.72241
208.20851 244.06731 431.58627
209.38008 244.07523 431.44681
210.78316 244.6351 433.21252
212.07858 244.91936 434.01971
213.50023 245.47975 435.77646
214.43878 244.93671 433.71561
215.6192 244.94565 433.55847
216.7999 244.95485 433.39807
217.71838 244.41225 431.32993
218.76056 244.14578 430.21167
220.07059 244.43153 430.99365
221.24707 244.44148 430.82047
222.2822 244.17557 429.69327
223.4566 244.18588 429.51367
224.77808 244.47253 430.28055
226.10503 244.75946 431.04321
227.13348 244.49429 429.90366
228.46619 244.78165 430.65857
229.80441 245.06927 431.40927
230.98831 245.08093 431.20792
232.33496 245.36905 431.95038
233.6871 245.65746 432.68848
234.87715 245.66977 432.47574
235.89732 245.40594 431.31369
236.9126 245.1423 430.14911
237.92302 244.87881 428.98203
238.92856 244.61548 427.81238
239.9292 244.35226 426.64017
241.47473 244.9187 428.29565
242.65933 244.93243 428.05984
244.22122 245.49948 429.70517
245.79391 246.06683 431.34476
247.37743 246.63455 432.97858
248.57916 246.64929 432.72522
249.78127 246.66426 432.46823
250.98376 246.67944 432.20764
252.18665 246.69481 431.94333
253.18317 246.43361 430.73697
253.96545 245.89572 428.59024
255.16167 245.91159 428.31668
256.57291 246.20459 428.9762
257.33807 245.66708 426.82269
258.75275 245.96048 427.47412
260.61801 246.80817 429.99017
262.04926 247.10217 430.63043
263.25839 247.11938 430.33212
264.6983 247.41389 430.96289
265.67798 247.15439 429.72424
266.8884 247.17215 429.41461
268.33749 247.46733 430.03204
269.55136 247.48549 429.71408
271.00919 247.78113 430.32175
272.47269 248.07703 430.92419
273.69315 248.09576 430.59335
275.16534 248.39211 431.18588
276.38928 248.41119 430.84653
277.87027 248.70795 431.42908
279.09766 248.72736 431.08112
280.58737 249.02449 431.65353
281.55371 248.76659 430.37341
283.0495 249.06406 430.93643
284.55099 249.36172 431.49393
285.51324 249.10403 430.2034
286.7457 249.12419 429.83093
288.25623 249.42224 430.37402
289.77243 249.72046 430.91147
290.72827 249.46295 429.60736
292.25043 249.76135 430.1351
293.48996 249.78188 429.74088
294.7298 249.8024 429.34256
296.26349 250.10106 429.85483
297.50656 250.12163 429.44754
298.45105 249.86397 428.12335
299.08893 249.32796 425.88492
300.62897 249.62656 426.37918
301.86768 249.64687 425.95743
302.79712 249.38869 424.62234
304.65775 249.96555 426.01007
307.15857 251.09935 429.20483
308.09369 250.84085 427.85571
309.6637 251.13916 428.31546
311.8844 251.99454 430.5784
312.81958 251.73541 429.21701
314.4054 252.03326 429.65869
315.66583 252.05223 429.19278
317.25934 252.34961 429.62341
318.18619 252.08917 428.24875
320.12317 252.66469 429.56796
321.04681 252.40341 428.18619
321.96484 252.14163 426.80243
323.22363 252.15819 426.31235
324.48199 252.17422 425.8183
325.38806 251.91072 424.42685
326.28821 251.64655 423.0336
328.61078 252.49789 425.20432
332.74707 254.74413 431.8165
336.56238 256.71094 437.5184
340.77863 258.95648 444.08945
346.13885 262.039 453.30045
350.44507 264.28351 459.82544
352.92761 265.13141 461.90448
355.80005 266.25751 464.85672
357.93567 266.82416 466.03088
358.5571 266.27267 463.67075
361.08316 267.11615 465.71329
361.69308 266.56201 463.34921
362.67914 266.28574 461.86432
364.83142 266.84576 463.00897
367.38559 267.68353 465.02136
369.55652 268.24042 466.14893
372.53308 269.35406 469.01532
373.92133 269.34888 468.38034
376.11487 269.90024 469.48441
377.90887 270.17035 469.711
379.29541 270.15924 469.06384
381.09021 270.42511 469.28134
383.30084 270.9679 470.36023
384.26697 270.6709 468.83685
386.06287 270.92969 469.04123
-44.134125 257.42072 424.35364
-43.294449 257.71725 425.81021
-41.222321 257.1665 424.66156
-39.968109 257.17731 425.24503
-38.308044 256.90442 424.9552
-37.851074 257.47516 427.27637
-36.585709 257.48056 427.85321
-35.317749 257.48431 428.42719
-34.047394 257.48645 428.99829
-31.994949 256.92346 427.81305
-30.725342 256.92267 428.37567
-28.684372 256.35684 427.17728
-27.798203 256.63519 428.61133
-25.766632 256.06683 427.40063
-24.497604 256.06091 427.94672
-22.852814 255.77213 427.6059
-21.211838 255.48228 427.25931
-19.943848 255.47324 427.79272
-18.674637 255.46323 428.32248
-17.040558 255.17061 427.96066
-15.410767 254.87721 427.59299
-13.785278 254.58304 427.21936
-11.808411 254.00658 425.94876
-10.547684 253.99268 426.45435
-9.6368866 254.25972 427.8494
-9.0680695 254.8076 430.13681
-7.4523468 254.51031 429.73868
-6.8692932 255.0569 432.02338
-4.915329 254.47716 430.71887
-3.6462402 254.45987 431.20297
-2.3768616 254.44218 431.68311
-0.775177 254.14276 431.25879
1.1508331 253.5618 429.92715
2.4128876 253.54312 430.39212
4.3232727 252.96176 429.04651
6.2231445 252.38028 427.69299
7.1559753 252.64209 429.04709
8.4102631 252.62253 429.49292
9.6645203 252.60277 429.93463
10.918671 252.58286 430.37231
11.864471 252.84375 431.71475
13.426651 252.54259 431.23529
14.680389 252.52232 431.66071
15.933945 252.50194 432.08197
17.782623 251.91994 430.67426
19.030457 251.89954 431.0856
20.27803 251.8791 431.49286
21.52533 251.85866 431.89606
23.059418 251.55762 431.37933
24.303482 251.53722 431.77353
25.829025 251.23636 431.24619
27.348953 250.93562 430.71317
28.863266 250.63501 430.17447
30.371948 250.33455 429.63016
31.603737 250.31461 430.00101
32.566528 250.57506 431.28949
33.800194 250.55525 431.65317
34.506783 251.09601 433.85913
35.48423 251.35652 435.14026
36.982697 251.05679 434.5697
38.47551 250.75726 433.99365
39.456985 251.01808 435.26443
41.193878 250.43892 433.75226
42.672264 250.14005 433.16083
44.145012 249.84138 432.564
45.612045 249.54298 431.96198
47.073441 249.24481 431.35461
48.529137 248.9469 430.7421
49.744759 248.92902 431.05539
50.72818 249.19106 432.29654
51.945595 249.17349 432.60287
53.162598 249.15613 432.90543
54.155266 249.41856 434.13779
55.595367 249.12193 433.49915
57.029831 248.82556 432.85541
58.242561 248.80902 433.1423
59.668358 248.51315 432.48926
60.877686 248.49702 432.76804
62.086617 248.48108 433.04309
63.089554 248.74474 434.25238
64.300308 248.72919 434.52066
65.310333 248.99315 435.72427
66.72068 248.69872 435.04617
67.930298 248.68378 435.30344
69.332085 248.38983 434.61627
70.728249 248.09618 433.92447
72.118858 247.80278 433.22791
73.319176 247.7888 433.46906
74.51915 247.77502 433.7066
75.898254 247.48239 432.99722
77.094933 247.46907 433.22711
78.46553 247.17694 432.50912
79.658928 247.16409 432.73145
80.851997 247.15143 432.95026
82.044754 247.13898 433.16553
83.23719 247.12675 433.37729
84.429314 247.11475 433.58557
85.462486 247.38177 434.73752
86.968697 246.8125 433.0441
88.15731 246.80115 433.24152
89.194817 247.06876 434.38385
90.533699 246.77908 433.62598
92.012764 246.21088 431.91449
93.052017 246.4791 433.04697
94.096214 246.7475 434.17682
95.14534 247.01605 435.30402
96.334656 247.00612 435.47775
97.39106 247.27502 436.5993
98.582474 247.26549 436.7666
99.773636 247.25616 436.93048
101.21432 246.68994 435.18643
102.39983 246.68106 435.34286
103.58512 246.67239 435.49591
105.00438 246.1069 433.73901
106.18405 246.09869 433.8847
107.47542 245.81218 433.07312
108.54279 246.08279 434.16602
109.82857 245.79672 433.3472
110.90073 246.06772 434.43408
111.97788 246.33884 435.51816
113.15898 246.33179 435.6442
114.3399 246.32492 435.76688
115.52065 246.31824 435.88629
116.79242 246.03342 435.0462
117.97025 246.02713 435.15875
119.06192 246.29936 436.22467
120.32545 246.01517 435.37399
121.50282 246.00946 435.47672
122.7583 245.72566 434.6188
123.93282 245.72034 434.71472
125.25333 245.15872 432.892
126.42242 245.15381 432.98102
127.59138 245.14908 433.06683
128.76022 245.14452 433.14935
129.99168 244.86194 432.2702
131.15773 244.85779 432.34619
132.26611 245.13197 433.37769
133.43454 245.12817 433.44739
134.60287 245.12453 433.51379
135.72131 245.39926 434.53629
136.84485 245.67413 435.55579
138.0181 245.67102 435.61285
139.23332 245.38995 434.70706
140.40384 245.38722 434.75757
141.61118 245.10654 433.84497
142.81328 244.82603 432.92905
143.97844 244.82385 432.96979
145.11444 245.09998 433.96741
146.30864 244.82001 433.04153
147.44971 245.09647 434.03293
148.61728 245.095 434.06094
149.8036 244.81557 433.12531
150.98474 244.53638 432.18652
152.13342 244.81351 433.16528
153.29831 244.81274 433.18048
154.46317 244.81216 433.19247
155.62802 244.81174 433.20129
156.78955 245.0896 434.16745
157.95769 244.81145 433.20941
159.12253 244.81155 433.20865
160.28737 244.81183 433.20471
161.44519 244.53419 432.23709
162.60748 244.53484 432.22681
163.76978 244.53564 432.21338
164.9321 244.53664 432.19678
166.09445 244.53781 432.177
167.27679 244.81726 433.11438
168.41927 244.54066 432.12784
169.60684 244.82047 433.05872
170.77193 244.82236 433.02618
171.96735 245.10255 433.95047
173.13512 245.1048 433.91144
174.30295 245.10721 433.86917
175.47086 245.1098 433.8237
176.59819 244.83443 432.81534
177.72044 244.5592 431.80402
178.79182 244.00601 429.83032
179.90131 243.73114 428.81323
181.00571 243.45644 427.79324
182.15857 243.46005 427.7294
183.31152 243.46388 427.66238
184.52328 243.74606 428.55087
185.74031 244.02847 429.43591
186.96263 244.31105 430.31738
188.12375 244.31561 430.23706
189.35406 244.5986 431.1116
190.51802 244.60355 431.02469
191.75633 244.88693 431.89218
192.92313 244.89227 431.79858
194.16948 245.17607 432.659
195.33914 245.18178 432.55869
196.59354 245.466 433.41196
197.67892 245.19379 432.34839
198.75931 244.92174 431.28207
199.927 244.92819 431.16901
201.09486 244.93483 431.05261
202.26291 244.94168 430.93304
203.43112 244.9487 430.81012
204.80493 245.51276 432.59384
205.9787 245.52023 432.46384
207.15265 245.52789 432.33057
208.43729 245.81421 433.14798
209.50116 245.54379 432.05396
210.7914 245.83054 432.86411
212.08704 246.11754 433.67032
213.50891 246.68329 435.42529
214.57108 246.41367 434.31818
215.7543 246.42276 434.16052
216.93777 246.4321 433.99951
217.99026 246.16298 432.8837
219.03781 245.89404 431.76526
220.21681 245.90392 431.59476
221.3961 245.91402 431.42096
222.43402 245.6456 430.29385
223.61122 245.65608 430.11359
224.93552 245.94553 430.87906
226.11588 245.95642 430.69156
227.29651 245.96756 430.50067
228.47745 245.97888 430.30634
229.97311 246.54816 432.00336
231.00003 246.28108 430.85434
232.34688 246.57199 431.59567
233.69925 246.86314 432.33264
234.88953 246.87561 432.11963
235.90988 246.6093 430.95804
237.09819 246.62216 430.73853
238.11139 246.3562 429.57135
239.11969 246.09039 428.40164
240.3038 246.10384 428.17252
241.67154 246.39664 428.88248
243.04483 246.68967 429.58783
244.61221 247.26222 431.23016
246.1904 247.83508 432.86673
247.58569 248.12903 433.55713
248.79025 248.14397 433.30283
249.79622 247.87978 432.1055
250.79736 247.61574 430.9057
251.99783 247.63121 430.64157
253.19868 247.64691 430.37381
253.98111 247.10388 428.2283
255.38956 247.39941 428.89084
256.80365 247.69522 429.54846
257.78882 247.43216 428.33072
258.98907 247.44884 428.04514
260.85724 248.30461 430.55771
262.29132 248.60147 431.19611
263.5033 248.61882 430.89667
264.48529 248.35666 429.66153
265.69547 248.37439 429.35526
266.90607 248.3923 429.0452
268.35535 248.69025 429.66132
269.56943 248.70853 429.34296
271.02744 249.00696 429.9494
272.245 249.02562 429.62262
273.71173 249.32446 430.21921
274.93271 249.34348 429.88394
276.15417 249.36264 429.54489
277.88934 249.94225 431.05188
279.11688 249.96178 430.70346
280.60675 250.26164 431.2746
281.57312 250.00119 429.99481
283.06909 250.30138 430.55652
284.30084 250.3214 430.1915
285.53299 250.34151 429.82251
286.7655 250.36169 429.44952
288.27615 250.66246 429.99133
289.79248 250.96335 430.5275
290.74829 250.70325 429.22372
292.55621 251.28496 430.6665
294.08673 251.58618 431.1864
295.62283 251.88751 431.70053
296.87085 251.90817 431.2951
298.41547 252.20961 431.79855
299.36777 251.94942 430.47211
300.01349 251.4082 428.23224
301.25717 251.42856 427.81223
302.19424 251.16789 426.47891
302.81668 250.62602 424.23492
304.67725 251.20807 425.62057
306.86328 252.07126 427.90503
308.11295 252.09106 427.46289
310.00284 252.67305 428.82608
312.22607 253.53621 431.08514
313.48901 253.55556 430.62607
315.07986 253.85593 431.06464
316.34525 253.87473 430.59641
317.61041 253.89316 430.12405
318.87543 253.91124 429.64771
320.47876 254.21037 430.06519
321.74579 254.22763 429.57971
322.66858 253.96289 428.19452
323.93216 253.97914 427.70215
325.19525 253.99483 427.20587
326.10596 253.72829 425.81299
327.01068 253.46106 424.41833
329.33789 254.31984 426.58423
333.47894 256.58667 433.18747
337.29889 258.57141 438.88126
341.88474 261.1192 446.33075
347.25217 264.23004 455.52924
351.56537 266.49493 462.04422
354.05475 267.34998 464.11752
356.18292 267.92212 465.29736
358.31998 268.49316 466.46896
359.32349 268.21735 464.99023
361.47006 268.78583 466.14877
362.08118 268.2254 463.78561
363.45694 268.22729 463.17801
365.61285 268.79144 464.31915
367.383 269.07208 464.57742
369.55219 269.63293 465.70392
372.9259 271.03757 469.44022
373.51175 270.46725 467.06207
375.70071 271.02243 468.1665
377.89676 271.5755 469.26337
378.87183 271.28094 467.74924
380.25006 271.26608 467.10162
383.28198 272.37592 469.91324
383.8288 271.79285 467.52768
385.2002 271.77081 466.87076
-45.355453 259.5434 426.54263
-44.09967 259.55981 427.13449
-41.616592 258.72113 425.12137
-40.361786 258.7334 425.70517
-38.298218 258.17493 424.54654
-37.442764 258.46777 425.99411
-36.579361 258.75888 427.44138
-35.708191 259.04834 428.88828
-34.044327 258.76721 428.58527
-31.993408 258.20013 427.40118
-30.337967 257.91595 427.08643
-28.300964 257.34595 425.88815
-27.036636 257.34344 426.44061
-25.390991 257.05524 426.10938
-24.502655 257.33466 427.53568
-23.233246 257.32849 428.07816
-21.590744 257.03687 427.73343
-19.952103 256.74414 427.3829
-18.683853 256.73486 427.9126
-17.050705 256.44031 427.55164
-15.421692 256.1449 427.18475
-13.797012 255.84872 426.81204
-12.176682 255.5518 426.43344
-11.267288 255.82266 427.83154
-10.001312 255.80859 428.3356
-9.430542 256.36221 430.62256
-7.8127136 256.06268 430.22644
-7.2276611 256.61493 432.51071
-5.2714996 256.03027 431.2092
-4.0002289 256.01334 431.69458
-2.728653 255.99593 432.17596
-1.1246796 255.69414 431.75378
0.80368042 255.10811 430.42514
2.0680237 255.08968 430.89145
3.9808502 254.50319 429.5488
5.5616455 254.20041 429.10165
6.8183441 254.18121 429.55289
8.0750732 254.16177 430
9.6453094 253.85847 429.53693
10.899307 253.83868 429.97498
11.84494 254.10234 431.31699
13.101364 254.08221 431.7478
14.660629 253.77844 431.26468
15.613754 254.04163 432.59711
17.465088 253.45435 431.19244
19.010559 253.15056 430.69263
20.258087 253.13016 431.10034
21.505371 253.10973 431.504
22.75235 253.08931 431.90366
23.999069 253.06888 432.29916
25.527313 252.76529 431.77396
27.049957 252.46185 431.24307
28.567001 252.15851 430.70645
30.078415 251.85532 430.16428
31.041618 252.11827 431.45636
32.278381 252.09828 431.82532
33.514771 252.07838 432.19028
34.223999 252.62433 434.39584
35.46492 252.60452 434.75433
36.963547 252.30205 434.18506
38.201004 252.28256 434.53491
39.43808 252.26317 434.88077
41.175179 251.67862 433.37073
42.65377 251.37698 432.78055
44.371643 250.79298 431.25763
45.59391 250.7744 431.58429
47.055496 250.47348 430.97824
48.274323 250.45526 431.29648
49.492737 250.43721 431.6109
50.47892 250.70174 432.85236
51.699135 250.68401 433.15979
52.918945 250.66644 433.46341
53.914375 250.93138 434.69608
55.135986 250.91418 434.99277
56.357178 250.89717 435.28568
57.794075 250.59818 434.64008
59.225334 250.29947 433.98947
60.440094 250.28311 434.2699
61.654449 250.26698 434.54657
62.868416 250.25105 434.81955
64.081993 250.23532 435.08878
65.094795 250.50175 436.2926
66.508011 250.20447 435.61621
67.915627 249.90746 434.93497
69.125076 249.89259 435.18896
70.524094 249.59615 434.49887
71.917534 249.29993 433.80405
73.120674 249.28578 434.04608
74.323471 249.27182 434.28448
75.525909 249.2581 434.51935
76.728012 249.24457 434.75055
78.104057 248.94962 434.03473
79.474571 248.65492 433.3143
80.501373 248.92369 434.47842
81.866013 248.6295 433.75003
83.225136 248.33557 433.01712
84.417473 248.32343 433.22571
85.450836 248.59296 434.37714
86.957291 248.0183 432.68564
87.992661 248.28822 433.83054
89.183807 248.27692 434.02521
90.522926 247.98444 433.26834
91.856575 247.69223 432.5072
93.041679 247.68159 432.6907
94.086067 247.95248 433.82001
95.135368 248.22356 434.94675
96.189613 248.4948 436.0708
97.248795 248.7662 437.1922
98.443008 248.75652 437.36008
99.636978 248.74706 437.52457
101.08049 248.17542 435.78265
102.2688 248.16641 435.93967
103.57659 247.87646 435.14108
104.87897 247.58675 434.3385
106.17595 247.29729 433.53192
107.46754 247.00804 432.72131
108.53508 247.28119 433.81366
109.82108 246.99239 432.99579
110.89342 247.26591 434.08209
111.97074 247.5396 435.16565
113.15204 247.53244 435.29184
114.23678 247.80649 436.36957
115.4203 247.79968 436.48938
116.78606 247.23117 434.69516
117.96408 247.22482 434.80789
119.05594 247.49957 435.87314
120.31967 247.21268 435.02341
121.49724 247.20688 435.12628
122.75291 246.92039 434.26932
123.92761 246.91501 434.36539
125.17526 246.62894 433.50125
126.41761 246.34306 432.63345
127.58676 246.33827 432.71939
128.75578 246.33365 432.80206
129.98744 246.0484 431.9238
131.09351 246.32501 432.95776
132.31978 246.04013 432.07269
133.43083 246.31708 433.10046
134.59935 246.31339 433.16702
135.71796 246.5907 434.18884
136.84167 246.86816 435.2077
137.97046 247.14578 436.22351
139.2305 246.58127 434.35986
140.44067 246.29774 433.45151
141.60872 246.29517 433.49875
142.81102 246.01199 432.58362
144.00807 245.72902 431.6651
145.11252 246.28848 433.62125
146.33345 245.72514 431.73688
147.44815 246.28494 433.68689
148.63727 246.00272 432.75537
149.8024 246.00139 432.78018
150.95129 246.28099 433.76141
152.11894 246.28001 433.77982
153.28659 246.27924 433.79507
154.46266 245.99792 432.84738
155.62769 245.9975 432.85623
156.79271 245.99725 432.86188
157.95844 245.71646 431.90454
159.12086 245.71658 431.90378
160.28331 245.71686 431.8999
161.44576 245.71733 431.89276
162.61783 245.99872 432.84229
163.77069 245.71881 431.86905
164.9332 245.71982 431.85245
166.09572 245.72099 431.83261
167.25827 245.72235 431.8096
168.39835 245.44316 430.82391
169.60863 246.00638 432.7135
170.7739 246.00827 432.68085
171.9695 246.29111 433.60431
173.13745 246.29337 433.56519
174.30547 246.29584 433.52292
175.4355 246.0177 432.51834
176.60106 246.02049 432.4697
177.68027 245.46193 430.50031
178.79501 245.1843 429.48682
179.95305 245.18762 429.42896
181.06021 244.91034 428.40952
182.16229 244.63321 427.38718
183.37155 244.91788 428.27811
184.58609 245.20276 429.16559
185.80589 245.48788 430.04962
187.03099 245.77315 430.92999
188.26137 246.05865 431.80688
189.42798 246.06349 431.72287
190.5947 246.06851 431.63565
191.8358 246.35461 432.50201
193.00537 246.36003 432.40811
194.2545 246.64655 433.26736
195.42694 246.65234 433.16669
196.59955 246.65836 433.06281
197.85947 246.9455 433.91135
198.94519 246.67091 432.84512
200.02591 246.39648 431.77612
201.19655 246.40324 431.65933
202.36737 246.41019 431.53928
203.43823 246.13629 430.46146
204.81227 246.70575 432.2435
205.98624 246.7133 432.11331
207.05247 246.43996 431.02615
208.33473 246.72897 431.84286
209.50929 246.73715 431.70276
210.79974 247.02664 432.51193
212.09558 247.31636 433.31711
213.51772 247.88751 435.07034
214.58005 247.61536 433.96381
215.76349 247.62457 433.80588
217.07581 247.91524 434.59555
217.99982 247.36237 432.52927
219.04755 247.09091 431.41138
220.09033 246.81963 430.29083
221.26721 246.82982 430.11713
222.16107 246.2775 428.04178
223.47752 246.56944 428.81079
224.79945 246.86163 429.57556
226.12686 247.15407 430.33609
227.45975 247.44676 431.09241
228.79813 247.73973 431.84436
230.14203 248.03296 432.59204
231.17169 247.7634 431.44302
232.52139 248.0571 432.18283
233.54649 247.7879 431.02774
234.73438 247.80049 430.81488
235.75229 247.53166 429.65424
236.9382 247.54463 429.43481
238.12445 247.55782 429.21188
239.13295 247.28951 428.04263
240.31726 247.3031 427.8132
241.68524 247.59866 428.52197
243.24469 248.17632 430.16751
244.62643 248.47246 430.86655
246.2049 249.05077 432.50119
247.79417 249.62943 434.1301
248.80518 249.36258 432.9357
249.81131 249.09589 431.7388
250.81262 248.82935 430.5394
252.2175 249.12703 431.21231
253.42117 249.14288 430.94351
254.20636 248.59476 428.79861
255.40558 248.61098 428.52371
256.81992 248.90956 429.18015
258.02255 248.92621 428.89722
259.22562 248.94305 428.61057
261.09668 249.80695 431.11963
262.5336 250.10661 431.75613
263.74838 250.12416 431.45566
264.73315 249.85951 430.22021
265.94614 249.8774 429.91281
266.92386 249.61299 428.67175
268.37335 249.91373 429.28665
269.58759 249.93214 428.96783
271.04578 250.23332 429.57297
272.26349 250.25208 429.2457
273.73041 250.55368 429.84097
274.95154 250.5728 429.50531
275.91907 250.30931 428.24084
277.39508 250.61145 428.82224
278.8768 250.91382 429.39825
280.10223 250.93352 429.0462
281.328 250.95332 428.69019
283.08871 251.53915 430.17249
284.59045 251.84227 430.72739
286.09784 252.14552 431.27667
287.33572 252.16586 430.90164
288.85175 252.46939 431.44046
290.09296 252.48988 431.05658
291.05139 252.22717 429.75232
292.29062 252.24768 429.36115
293.81854 252.55151 429.88058
295.35199 252.85545 430.39426
296.89105 253.15944 430.90219
298.43567 253.4635 431.40433
299.68683 253.4841 430.98944
300.33496 252.93755 428.74985
301.8855 253.24149 429.23798
302.21387 252.41089 426.08621
302.83609 251.8636 423.84344
304.69659 252.45082 425.22699
307.19739 253.60558 428.41431
308.44952 253.62527 427.97083
310.34192 254.21242 429.33099
312.89038 255.36723 432.48911
313.83289 255.10251 431.12576
315.09805 255.12135 430.66119
316.03235 254.8559 429.29266
317.29456 254.87401 428.82101
318.55646 254.89172 428.34531
319.81812 254.90901 427.86569
320.73807 254.64169 426.48605
321.99628 254.65799 425.99948
323.25403 254.67372 425.50897
324.51123 254.68889 425.01456
325.76782 254.70343 424.51633
327.37823 255.00162 424.90503
329.70746 255.8678 427.06723
333.85052 258.15518 433.66257
338.39722 260.7265 441.12442
342.99023 263.29736 448.56302
348.36481 266.43652 457.74893
352.68497 268.72174 464.25394
354.4353 269.01492 464.55515
356.18939 269.30695 464.85028
358.32516 269.88226 466.02036
358.94659 269.31836 463.66302
361.47253 270.17554 465.70001
362.08221 269.60883 463.33899
363.45642 269.60956 462.73181
365.61072 270.17773 463.8718
367.77295 270.7442 465.00388
369.54657 271.02448 465.25525
373.31732 272.72525 469.85983
374.70688 272.71716 469.22403
376.09326 272.70709 468.58536
377.88303 272.97937 468.8121
378.44672 272.39624 466.43292
379.82013 272.3797 465.78766
382.43262 273.21381 467.7337
384.2226 273.47675 467.9436
385.17462 273.16852 466.42471
-44.922867 260.53278 425.2662
-43.671768 260.55078 425.85571
-41.601364 259.9928 424.70966
-39.537811 259.43259 423.55655
-37.884155 259.15732 423.2655
-37.43335 259.74115 425.58057
-36.571747 260.03625 427.02628
-35.307159 260.04248 427.59891
-34.432556 260.33417 429.04266
-32.380615 259.76303 427.86087
-30.724091 259.47739 427.54761
-28.685928 258.9032 426.35175
-27.802444 259.18881 427.78336
-26.152908 258.89899 427.45499
-24.883682 258.8949 428.00165
-23.238586 258.60257 427.66324
-21.597168 258.30914 427.31915
-19.590561 257.7276 426.08539
-17.959549 257.43213 425.72879
-16.69632 257.42267 426.25259
-15.070847 257.12537 425.88553
-13.808121 257.11414 426.40091
-12.544464 257.10208 426.91263
-11.279953 257.08929 427.42059
-10.365265 257.36255 428.81622
-9.4446106 257.63513 430.21011
-7.8273773 257.33344 429.81503
-6.9002686 257.60471 431.20319
-5.287262 257.30194 430.79819
-4.01651 257.28534 431.28381
-2.410614 256.98169 430.86783
-1.1417999 256.96423 431.34442
1.1157227 256.08664 429.11816
2.3770447 256.06854 429.58386
4.286972 255.47705 428.24228
5.5433044 255.45837 428.69794
6.480835 255.72581 430.05298
7.4236755 255.99294 431.40591
9.3126831 255.4007 430.0405
10.258148 255.66733 431.38617
11.517181 255.64743 431.82239
13.081772 255.34119 431.34647
14.337952 255.32104 431.77356
15.593948 255.3008 432.19662
17.147522 254.99437 431.70483
18.695618 254.68794 431.20718
20.23819 254.38158 430.70377
21.485443 254.36118 431.10788
22.445221 254.62669 432.42221
24.263641 254.0345 430.98895
25.507416 254.01413 431.38007
26.75087 253.9938 431.76721
27.994019 253.9735 432.15027
29.78479 253.38184 430.69263
30.750626 253.64738 431.98523
31.990089 253.62729 432.35544
33.229202 253.60728 432.72165
34.467957 253.58736 433.08386
35.706322 253.56755 433.44211
36.94429 253.54785 433.79642
38.437401 253.24286 433.22299
39.671967 253.22343 433.5686
40.90612 253.20415 433.91031
42.635155 252.61444 432.39621
44.353249 252.02505 430.87543
45.333298 252.29158 432.12988
47.037453 251.70268 430.59778
48.493553 251.39925 429.98782
49.709518 251.38112 430.30197
50.693192 251.64821 431.54242
51.910973 251.63039 431.84961
52.901703 251.89772 433.08441
53.897285 252.16516 434.31668
54.89769 252.43272 435.54651
56.559212 251.84584 433.97391
57.777588 251.82892 434.26282
59.209061 251.52744 433.61349
60.213135 251.79567 434.82938
61.43029 251.77937 435.10712
62.441414 252.04793 436.31738
63.863472 251.74734 435.65131
65.079483 251.73166 435.91785
66.492935 251.43159 435.24265
67.90078 251.13181 434.56265
69.110451 251.11679 434.81699
70.509712 250.81754 434.12808
71.716034 250.80299 434.3746
72.921982 250.78867 434.61755
74.127594 250.77454 434.85684
75.332855 250.76064 435.09253
76.537766 250.74695 435.32465
77.916664 250.44917 434.61041
79.290024 250.15169 433.89163
80.319611 250.42293 435.05579
81.687103 250.12593 434.32898
83.049065 249.82919 433.59766
84.40551 249.53271 432.86191
85.597748 249.52065 433.06729
86.945778 249.22469 432.32324
87.981323 249.49716 433.46771
89.172684 249.4857 433.66263
90.512039 249.19046 432.90683
91.700218 249.17947 433.09448
92.888138 249.16869 433.27863
94.07579 249.15814 433.45938
95.125275 249.43173 434.58557
96.179703 249.70547 435.70911
97.239075 249.9794 436.82996
98.433487 249.96962 436.99817
99.755173 249.67618 436.21249
101.07143 249.38301 435.42279
102.38226 249.09009 434.62894
103.56796 249.08119 434.78247
104.87056 248.78873 433.98083
106.16776 248.49654 433.17529
107.34761 248.48828 433.31805
108.52728 248.48024 433.45746
109.81349 248.18872 432.64063
110.886 248.46477 433.72632
111.96352 248.741 434.8093
113.04602 249.0174 435.88947
114.13353 249.29396 436.96689
115.31985 249.28706 437.08713
116.68842 248.71318 435.29489
117.86923 248.70673 435.40802
119.04988 248.70047 435.51785
120.31381 248.41084 434.66907
121.49157 248.40498 434.77209
122.74745 248.11577 433.91602
123.92235 248.11031 434.01224
125.1702 247.82155 433.14905
126.41274 247.53297 432.28214
127.58208 247.52811 432.36819
128.75128 247.52344 432.45099
129.92039 247.51895 432.53058
131.02924 247.79814 433.56403
132.20071 247.79401 433.63727
133.37209 247.79008 433.70731
134.54337 247.78635 433.77411
135.66475 248.06622 434.79535
136.79121 248.34627 435.81363
137.96742 248.34306 435.87097
139.18559 248.05666 434.96701
140.43802 247.48705 433.10141
141.64313 247.20102 432.19043
142.84302 246.91519 431.276
144.00597 246.91296 431.31677
145.13972 247.19427 432.31284
146.30515 247.19238 432.34723
147.44656 247.47406 433.33716
148.63588 247.18918 432.40646
149.78238 247.47121 433.39011
150.95024 247.47006 433.41177
152.10445 247.75244 434.38916
153.27486 247.75165 434.40445
154.4537 247.46767 433.45755
155.62149 247.46724 433.4664
156.78926 247.46701 433.47211
157.95775 247.18356 432.51553
159.12108 246.90033 431.55576
160.28369 246.90063 431.55188
161.44632 246.90111 431.54477
162.60895 246.90176 431.53445
163.77161 246.9026 431.521
164.93428 246.90363 431.5043
166.097 246.90482 431.4845
167.25974 246.9062 431.46146
168.39996 246.62439 430.47647
169.61044 247.19289 432.36447
170.77589 247.19479 432.33176
171.94139 247.19693 432.2959
173.10693 247.19922 432.25681
174.27255 247.20172 432.21457
175.40018 246.92096 431.21082
176.56332 246.9238 431.16217
177.64012 246.36 429.1944
178.75246 246.07976 428.1817
179.90808 246.08313 428.1239
181.01283 245.80325 427.10529
182.16606 245.80698 427.04123
183.31937 245.8109 426.974
184.53151 246.09845 427.86075
185.74893 246.38623 428.74399
186.97162 246.67419 429.62366
188.13312 246.67889 429.54315
189.29474 246.68376 429.45938
190.59981 247.25587 431.285
191.76685 247.26114 431.19434
193.01086 247.55014 432.05637
194.33963 248.12292 433.87039
195.51486 248.12885 433.76941
196.69023 248.13492 433.66507
197.77856 247.8576 432.60251
198.86188 247.58047 431.53717
199.94019 247.3035 430.46902
201.01346 247.02667 429.3981
202.17931 247.03369 429.27844
203.44547 247.32455 430.10913
204.81972 247.89935 431.88937
205.99387 247.907 431.75894
207.27614 248.19856 432.578
208.45328 248.20663 432.44067
209.63062 248.21489 432.29993
210.80818 248.22337 432.15591
212.10425 248.51584 432.96011
213.40573 248.80856 433.76028
214.46565 248.53386 432.6546
215.6467 248.54318 432.49686
216.82799 248.55269 432.33566
217.74696 247.99463 430.27148
218.92355 248.00452 430.10425
220.10037 248.01463 429.93365
221.27747 248.02493 429.75967
222.31314 247.75148 428.634
223.7767 248.3302 430.3494
224.95718 248.34116 430.16479
226.43689 248.92046 431.87094
227.77521 249.21597 432.62527
228.96437 249.22765 432.42911
230.3111 249.52367 433.1752
231.34357 249.25163 432.02621
232.53363 249.26395 431.81961
233.724 249.27647 431.60944
234.74698 249.00497 430.45181
235.93539 249.01791 430.23511
237.29703 249.31535 430.95789
238.31319 249.0444 429.79114
239.32446 248.77362 428.62183
240.5116 248.78737 428.39151
241.88242 249.08577 429.09863
243.44476 249.66887 430.74164
244.82935 249.96783 431.43903
246.41068 250.55161 433.07117
248.00284 251.13571 434.69748
249.21303 251.15099 434.44128
250.22458 250.88187 433.24365
251.23129 250.61288 432.04355
252.64163 250.91342 432.71405
253.64389 250.64478 431.50769
254.43182 250.09154 429.36343
255.42175 249.82312 428.15262
256.8363 250.12451 428.80783
257.82178 249.85641 427.59085
259.24237 250.15826 428.2374
260.66861 250.46036 428.87894
262.10049 250.76273 429.51544
263.31018 250.78033 429.21582
264.52029 250.79813 428.91241
265.73083 250.81612 428.60532
266.94177 250.83426 428.29431
268.62979 251.42293 429.8363
270.08777 251.72668 430.44397
271.55145 252.03072 431.04645
272.77454 252.04967 430.71732
274.49576 252.63945 432.23544
275.47345 252.3734 430.97226
276.44629 252.10742 429.70663
277.92776 252.41241 430.28531
279.15552 252.4321 429.93591
280.12164 252.16635 428.66077
281.34756 252.18622 428.30429
282.84113 252.49179 428.86411
284.34033 252.79756 429.41846
285.84521 253.10349 429.96722
287.35571 253.40956 430.51044
289.14966 254.00157 431.96509
290.39355 254.02213 431.5799
291.9209 254.32858 432.10611
293.16803 254.34921 431.71198
294.70392 254.65582 432.22757
295.95428 254.67648 431.82443
297.2049 254.69711 431.41721
298.15942 254.43163 430.09476
299.70685 254.73825 430.59064
300.05322 253.90013 427.44287
301.60101 254.20657 427.9306
302.2334 253.65414 425.68948
303.47455 253.67406 425.26144
305.34024 254.26654 426.64108
307.21655 254.85898 428.01291
308.78595 255.16493 428.47299
310.68082 255.75723 429.83017
312.90903 256.63593 432.08151
313.5257 256.08173 429.81757
314.7879 256.10028 429.3537
315.71912 255.83183 427.98663
317.31165 256.13626 428.41382
318.23709 255.86691 427.04071
319.83429 256.17056 427.45798
320.75372 255.90018 426.07892
322.01135 255.91605 425.59213
323.26852 255.93132 425.10144
324.87436 256.23288 425.49893
326.4848 256.53387 425.8905
328.45435 257.12112 427.16608
330.79077 257.99469 429.32245
335.3009 260.5896 436.79544
339.85745 263.18408 444.24533
344.46021 265.77798 451.67188
349.47675 268.65833 459.95956
353.80383 270.96381 466.45453
355.18793 270.97165 465.86935
355.81934 270.40411 463.51801
358.32941 271.27081 465.56793
358.9494 270.70056 463.21262
361.09055 271.2774 464.36957
362.46802 271.2785 463.76517
364.23187 271.56519 464.03293
366.38968 272.13733 465.16946
368.5553 272.7077 466.29816
370.33221 272.98914 466.54703
374.10614 274.7041 471.14496
375.09735 274.40744 469.638
376.88831 274.6828 469.86758
379.08765 275.24304 470.95947
379.6568 274.65292 468.5795
380.21198 274.06061 466.20184
382.82449 274.90067 468.14548
384.19763 274.87738 467.49216
384.72772 274.2778 465.11417
-44.901611 261.80505 424.85196
-44.063202 262.11426 426.30508
-41.584579 261.26318 424.29489
-39.928497 260.98895 424.00961
-38.677063 261.0022 424.58792
-37.422546 261.01349 425.16385
-36.562759 261.31256 426.60791
-35.695023 261.6098 428.05164
-34.819504 261.9054 429.495
-32.37674 261.04059 427.44135
-31.109085 261.04321 428.00369
-29.069794 260.46494 426.81018
-27.80304 260.46457 427.36411
-26.154831 260.1731 427.03616
-24.886917 260.17004 427.58258
-23.243027 259.87604 427.24475
-20.859451 259.00159 425.13727
-19.22818 258.70532 424.78595
-17.600784 258.40802 424.42892
-16.341187 258.39935 424.95157
-15.080414 258.38971 425.47061
-13.818558 258.37918 425.98599
-12.55574 258.3678 426.49774
-11.645294 258.64511 427.89536
-10.378098 258.63214 428.40063
-9.4581451 258.9079 429.79373
-7.8415375 258.60406 429.39966
-6.9150696 258.87845 430.78714
-5.302597 258.57346 430.38321
-4.3698273 258.84668 431.76486
-2.761734 258.54068 431.35092
-1.1585999 258.23431 430.93112
0.76908875 257.63837 429.60648
2.0326996 257.62051 430.07336
4.2692108 256.73486 427.83414
5.2036438 257.00555 429.1918
6.4624176 256.98679 429.64471
7.721283 256.96771 430.09351
9.6074524 256.37045 428.72937
10.550018 256.63995 430.07364
11.497864 256.90918 431.41565
12.450897 257.17813 432.75546
13.712204 257.15802 433.18481
14.973358 257.13782 433.61014
16.532166 256.82877 433.1214
18.380646 256.23096 431.716
20.218353 255.63332 430.30307
21.46553 255.61301 430.7077
22.425262 255.8812 432.02161
24.243744 255.28372 430.59052
25.487503 255.26338 430.98215
26.731003 255.24301 431.36966
27.69751 255.51111 432.66992
29.491028 254.91411 431.2153
30.730911 254.89391 431.58997
31.970451 254.87378 431.96066
33.209625 254.85373 432.32736
34.448448 254.83377 432.69009
35.426056 255.10205 433.97025
36.924965 254.79414 433.40363
38.162682 254.77448 433.75439
39.399986 254.75494 434.10123
40.887207 254.44756 433.51981
42.616447 253.85246 432.00787
44.089722 253.54555 431.41495
45.557343 253.23888 430.81674
47.259102 252.64464 429.28607
48.475594 252.62625 429.60461
49.926254 252.32028 428.99069
50.675529 252.87764 431.15927
51.664177 253.14737 432.39688
52.657677 253.41718 433.63193
53.880058 253.39954 433.93332
54.880623 253.66962 435.16269
56.323608 253.36481 434.52463
57.760963 253.06026 433.88153
59.192665 252.756 433.23346
60.196884 253.02676 434.44897
61.414253 253.0103 434.72708
62.631226 252.99408 435.0015
63.847832 252.97803 435.27213
64.863579 253.24945 436.47574
66.279884 252.94656 435.80228
67.690582 252.64395 435.12405
68.903053 252.62878 435.37936
70.305183 252.32669 434.69214
71.514313 252.31198 434.93961
72.907883 252.01042 434.2435
73.931519 252.28319 435.42361
75.319168 251.98212 434.71924
76.5243 251.96829 434.95172
77.729088 251.95468 435.18057
79.277031 251.36746 433.52103
80.475937 251.35435 433.74182
81.67453 251.34145 433.95901
83.036728 251.04193 433.22885
84.393417 250.74271 432.49423
85.427147 251.01724 433.64468
86.778015 250.71849 432.90216
87.969856 250.70671 433.10092
89.161423 250.69516 433.29617
90.501022 250.39713 432.54144
91.689415 250.38603 432.7294
92.877533 250.37515 432.91388
94.065392 250.36446 433.09488
95.115074 250.64055 434.22052
96.169693 250.91682 435.34354
97.229233 251.19327 436.4639
98.423866 251.18336 436.63229
99.618256 251.17368 436.79727
100.93732 250.87772 436.00894
102.25098 250.58203 435.21649
103.43947 250.57301 435.37057
104.74489 250.27779 434.57031
106.0449 249.98282 433.76608
107.33952 249.68808 432.95779
108.51938 249.67995 433.09744
109.80581 249.38568 432.28159
110.77432 249.95061 434.31918
111.9562 249.94305 434.4491
113.03889 250.22198 435.52866
114.22299 250.21483 435.65219
115.40691 250.20789 435.7724
116.77312 249.62865 433.98166
117.8629 249.90834 435.04874
119.12978 249.6158 434.20447
120.30788 249.60966 434.31091
121.56671 249.31754 433.45929
122.82021 249.02565 432.60394
124.06839 248.73395 431.7449
125.23816 248.72867 431.83768
126.40781 248.72354 431.92709
127.64525 248.4325 431.0575
128.74673 248.7139 432.09622
129.85327 248.99544 433.13202
131.08521 248.70499 432.25232
132.25429 248.70082 432.32553
133.36827 248.98294 433.35214
134.53973 248.97916 433.41904
135.71112 248.97556 433.4827
136.83517 249.25819 434.50015
137.96432 249.541 435.51462
139.18271 249.25191 434.61151
140.43532 248.67699 432.74753
141.64063 248.38831 431.83743
142.8407 248.09984 430.92392
144.03555 247.81154 430.00699
145.1669 248.09547 431.00229
146.32993 248.09357 431.03665
147.46893 248.37785 432.02576
148.61307 248.66231 433.01181
149.78114 248.66095 433.03671
150.93297 248.94579 434.01654
152.10358 248.94478 434.035
153.26311 249.22997 435.00851
154.45319 248.65738 433.10428
155.62115 248.65694 433.11313
156.78911 248.65668 433.1188
157.95778 248.37064 432.16306
159.12129 248.08476 431.2041
160.28854 248.37105 432.15839
161.45392 248.37152 432.15125
