ply
format ascii 1.0
comment PCL generated
element vertex 1592
property float x
property float y
property float z
element camera 0
property float view_px
property float view_py
property float view_pz
property float x_axisx
property float x_axisy
property float x_axisz
property float y_axisx
property float y_axisy
property float y_axisz
property float z_axisx
property float z_axisy
property float z_axisz
property float focal
property float scalex
property float scaley
property float centerx
property float centery
property int viewportx
property int viewporty
property float k1
property float k2
end_header
156.84219 140.29405 437.49854
157.96484 140.34177 438.49963
159.09077 140.34178 438.49896
160.21669 140.34183 438.49545
161.34264 140.3419 438.48904
162.47812 140.38974 439.47852
163.59453 140.34216 438.46753
164.73517 140.39006 439.4512
165.84648 140.34254 438.43439
166.97249 140.34277 438.41354
168.12088 140.39078 439.38837
169.27443 140.43881 440.36014
170.40564 140.43915 440.33047
171.53688 140.4395 440.29782
172.66815 140.43991 440.2623
173.76427 140.39259 439.22559
174.9308 140.4408 440.18246
176.02187 140.39355 439.14017
177.19362 140.4418 440.091
178.3251 140.44237 440.04089
179.45663 140.44296 439.98788
180.58821 140.44357 439.93195
181.71985 140.44423 439.87308
182.7401 140.34944 437.81665
183.86673 140.35016 437.75223
184.93256 140.30316 436.68784
186.05675 140.30394 436.61774
187.24698 140.35251 437.54144
188.44243 140.40111 438.46185
189.57196 140.40199 438.38263
190.77527 140.45067 439.2966
191.83128 140.40387 438.21539
193.03989 140.45262 439.12314
194.25372 140.50142 440.02753
195.38884 140.50249 439.9332
196.61057 140.55135 440.83099
197.83752 140.60025 441.7254
198.79474 140.50589 439.63245
199.93025 140.5071 439.52625
201.06587 140.50833 439.41705
202.10225 140.46184 438.3111
203.23553 140.46315 438.19623
204.47345 140.51228 439.07175
205.60956 140.51369 438.95068
206.74579 140.51511 438.82657
207.88216 140.51657 438.69952
208.90387 140.47029 437.57727
210.03795 140.47183 437.44446
211.05223 140.4256 436.31705
212.18404 140.42722 436.17862
213.31599 140.42886 436.03717
214.57576 140.47839 436.88336
215.71062 140.48013 436.73553
216.84563 140.4819 436.58466
218.25157 140.57939 438.4101
219.668 140.67694 440.23108
220.81384 140.67886 440.06967
221.95988 140.68082 439.90524
222.96045 140.63498 438.74945
224.10429 140.63702 438.57922
225.0975 140.59126 437.41846
226.39261 140.64125 438.22946
227.3811 140.59557 437.06335
228.52324 140.59778 436.88116
229.98785 140.6958 438.66736
231.13559 140.69812 438.47809
232.11726 140.6526 437.30078
233.26288 140.65501 437.10565
234.40877 140.65747 436.90744
235.38084 140.61206 435.72247
236.52466 140.61461 435.51843
237.66873 140.6172 435.31119
238.99486 140.66777 436.08298
240.32645 140.7184 436.85065
241.4765 140.72116 436.63297
242.81641 140.7719 437.39273
244.16177 140.82271 438.14832
245.1232 140.77768 436.94028
246.27707 140.78065 436.70926
247.43124 140.78368 436.47495
248.38326 140.73877 435.25928
249.53549 140.7419 435.01898
250.68808 140.74507 434.77548
252.05124 140.7963 435.50513
253.41995 140.8476 436.23038
254.79422 140.89896 436.95123
256.17401 140.95039 437.66757
257.55939 141.00191 438.37943
258.72711 141.00546 438.11319
260.12106 141.05711 438.81653
261.06375 141.01274 437.5705
262.23267 141.01648 437.2941
263.16843 140.9722 436.04315
264.57181 141.02412 436.73105
265.5032 140.97995 435.47455
266.91263 141.03201 436.1543
268.08371 141.03604 435.86075
269.74847 141.13637 437.49957
270.92572 141.14056 437.19775
272.10336 141.14481 436.89236
273.79041 141.24539 438.51532
274.97424 141.24979 438.20154
275.63934 141.15794 435.95523
276.81897 141.16245 435.63571
278.52887 141.26338 437.23877
279.71478 141.26805 436.91068
281.44141 141.36919 438.50223
282.90631 141.42221 439.12625
284.65231 141.52356 440.70526
285.29758 141.43208 438.44003
286.49408 141.43713 438.09143
287.40796 141.394 436.78119
288.60297 141.39917 436.42584
289.79855 141.4044 436.06677
291.57681 141.5063 437.61493
292.77887 141.5117 437.24673
293.68518 141.46887 435.92081
294.88583 141.47443 435.54581
296.38861 141.52837 436.11914
297.28894 141.48572 434.78424
299.10504 141.58821 436.29871
300.93231 141.69081 437.80591
302.14658 141.69676 437.40805
303.36151 141.70279 437.00629
304.89447 141.75731 437.54761
306.11334 141.7635 437.13699
307.01025 141.72133 435.77707
307.57727 141.63074 433.47049
308.79022 141.6371 433.05054
310.66489 141.74049 434.51157
311.21802 141.65004 432.19836
313.10461 141.75363 433.64755
315.34094 141.90588 436.02856
316.22922 141.86414 434.64459
317.80048 141.91954 435.13406
319.72412 142.02361 436.55414
320.61172 141.98204 435.15863
321.84637 141.98911 434.69565
323.79053 142.09348 436.09613
323.96057 141.9548 432.82422
324.83475 141.91341 431.41772
326.42896 141.96936 431.87048
328.02905 142.02539 432.31689
329.63507 142.08151 432.7569
331.9877 142.23515 435.04568
336.22208 142.63257 441.95633
340.12393 142.98154 447.91992
343.68524 143.28204 452.93936
348.42218 143.7291 460.71091
352.44019 144.07892 466.61362
354.17767 144.13617 466.96973
357.86621 144.43759 471.91833
359.62854 144.49506 472.2547
361.00208 144.50372 471.66623
362.77301 144.56128 471.98941
364.5495 144.61888 472.30542
365.52667 144.5787 470.78586
366.90369 144.58743 470.17682
367.87299 144.54723 468.65112
369.24738 144.55594 468.0336
371.86099 144.71156 470.13934
372.82736 144.67128 468.6004
373.78809 144.63095 467.05905
-36.513321 143.77979 430.3367
-36.067886 143.87471 432.72897
-35.205261 143.91805 434.20944
-33.933426 143.90981 434.77438
-32.661667 143.90158 435.33487
-32.186935 143.99629 437.72232
-30.118546 143.88513 436.44244
-28.454132 143.82549 436.07141
-27.185791 143.81732 436.61282
-25.142166 143.70636 435.30908
-23.494705 143.64688 434.91791
-22.617813 143.69023 436.36508
-20.976456 143.63087 435.96274
-19.340836 143.57158 435.55374
-18.08548 143.56369 436.06403
-16.458832 143.50455 435.64297
-15.207153 143.49677 436.1434
-13.955978 143.48904 436.63943
-12.341568 143.43011 436.20102
-11.455338 143.47377 437.61844
-9.8473969 143.41499 437.16928
-8.2453613 143.35631 436.71378
-6.6492615 143.29771 436.25195
-5.4096069 143.29041 436.71902
-4.1705475 143.28316 437.18179
-2.9321442 143.27597 437.64041
-1.6943817 143.26886 438.09476
-0.79716492 143.31294 439.48398
0.44195557 143.30595 439.93091
2.3496552 143.19685 438.49173
3.2501984 143.24112 439.87033
5.1433716 143.13225 438.41815
6.6986237 143.07454 437.90198
7.5998535 143.119 439.26917
8.8271027 143.1125 439.6886
10.053696 143.10608 440.10397
10.963516 143.15071 441.46268
12.191467 143.14441 441.87085
14.040466 143.03627 440.37689
15.570068 142.97922 439.8255
17.093796 142.92224 439.26837
18.308655 142.91631 439.65729
19.522888 142.91045 440.04233
21.034195 142.85376 439.47021
21.949524 142.89894 440.80072
22.869415 142.94418 442.12915
24.373688 142.88774 441.54379
25.872086 142.83141 440.95313
27.080093 142.82599 441.3143
28.569489 142.76984 440.71368
29.773682 142.7646 441.06662
30.977341 142.75943 441.4158
32.18045 142.75432 441.76123
33.111465 142.80008 443.06412
34.584991 142.74434 442.4411
36.05275 142.68869 441.81293
36.987404 142.73463 443.10623
38.709953 142.62842 441.5054
40.163132 142.57303 440.86273
41.354729 142.56845 441.18048
42.799065 142.51324 440.52863
44.237701 142.45811 439.87183
45.422638 142.45377 440.17755
46.361664 142.50015 441.44785
47.791107 142.44525 440.77844
48.734413 142.49176 442.04309
49.920128 142.48767 442.33542
50.870377 142.53427 443.59497
52.290253 142.47966 442.90976
53.474686 142.47575 443.19168
54.658691 142.47191 443.47025
56.066948 142.41753 442.77219
57.469612 142.3632 442.06955
58.427788 142.41016 443.31097
59.824509 142.35599 442.60034
61.001381 142.35246 442.86072
62.38958 142.29843 442.14163
63.563148 142.29503 442.39468
64.942863 142.24113 441.6673
65.909241 142.28841 442.89087
67.283096 142.23465 442.15573
68.25399 142.28201 443.37375
69.622025 142.22838 442.63098
70.791016 142.22533 442.86368
72.150673 142.17181 442.11279
73.316467 142.16888 442.33847
74.481972 142.166 442.56088
75.463959 142.21365 443.76187
76.631477 142.21088 443.97827
77.620651 142.25864 445.17426
78.790215 142.25594 445.38467
79.959511 142.2533 445.59189
81.298843 142.20026 444.81186
82.29731 142.24818 445.9968
83.631004 142.19525 445.20944
84.634155 142.24326 446.38882
85.802216 142.24088 446.58011
87.127457 142.1881 445.78198
88.447334 142.13538 444.97986
89.609573 142.13315 445.1608
90.921295 142.08054 444.35114
92.080544 142.07838 444.52545
93.095062 142.12671 445.68484
94.256493 142.12466 445.85324
95.417732 142.12265 446.01855
96.715591 142.07028 445.19144
98.008133 142.01797 444.3605
99.163681 142.01611 444.51584
100.44816 141.9639 443.67767
101.72732 141.91174 442.83582
102.75329 141.96039 443.97223
104.02699 141.90831 443.1236
105.17659 141.90666 443.26294
106.20982 141.95543 444.39117
107.36171 141.95386 444.52466
108.51345 141.95233 444.65521
109.55656 142.00119 445.77545
110.9225 141.89903 443.914
111.96791 141.94797 445.02847
113.21996 141.89624 444.1532
114.46674 141.84457 443.27438
115.61259 141.84328 443.38623
116.85146 141.79169 442.50064
117.904 141.84082 443.60089
119.1375 141.78931 442.70889
120.28038 141.78816 442.8085
121.34033 141.83739 443.90042
122.4856 141.83632 443.99429
123.78614 141.73465 442.09375
124.85097 141.78398 443.17719
126.1385 141.68237 441.26971
127.34571 141.63113 440.35486
128.48029 141.63026 440.43314
129.67964 141.5791 439.51187
130.81152 141.57829 439.58411
131.94333 141.57751 439.65335
133.07506 141.57678 439.71979
134.20674 141.57608 439.78317
135.28635 141.62572 440.84106
136.42049 141.62508 440.89883
137.60147 141.57417 439.95599
138.68861 141.6239 441.00549
139.90613 141.52277 439.05872
141.03496 141.52226 439.10449
142.20036 141.4715 438.14935
143.32655 141.47105 438.18924
144.4212 141.52095 439.22449
145.57881 141.47029 438.26038
146.73126 141.41965 437.29318
147.83096 141.46965 438.31989
148.95702 141.46938 438.34525
150.1017 141.41884 437.36923
151.20903 141.46893 438.38742
152.33502 141.46875 438.40411
153.47198 141.41832 437.41928
154.59538 141.41821 437.43021
155.71878 141.41814 437.43823
156.84218 141.41809 437.44339
157.96556 141.41808 437.44562
159.08896 141.41809 437.44501
160.21236 141.41814 437.44144
161.33575 141.41823 437.43506
162.4687 141.46863 438.42447
163.58258 141.41849 437.41357
164.72069 141.46896 438.39713
165.82947 141.41887 437.38052
166.95294 141.41913 437.35971
168.0988 141.4697 438.33444
169.27475 141.57059 440.3046
170.40599 141.57094 440.27487
171.53726 141.5713 440.24225
172.66856 141.57172 440.2067
173.79991 141.57216 440.16821
174.89352 141.52234 439.12888
175.98206 141.47253 438.08676
177.15128 141.52338 439.03757
178.28023 141.52396 438.98755
179.40923 141.52457 438.93466
180.53827 141.52519 438.87881
181.66737 141.52588 438.82007
182.74081 141.47627 437.76123
183.86746 141.47701 437.69675
184.99419 141.47778 437.62939
186.18439 141.5289 438.55582
187.31381 141.52975 438.48245
188.44331 141.53062 438.40616
189.57288 141.53154 438.32697
190.70253 141.53249 438.24478
191.75601 141.48315 437.16388
193.04091 141.58482 439.06726
194.25479 141.63622 439.9715
195.47388 141.68765 440.87238
196.61169 141.68878 440.77478
197.8387 141.7403 441.6691
198.8876 141.69116 440.57089
199.83727 141.59172 438.47586
200.87355 141.54265 437.37289
202.10356 141.59431 438.25504
203.13493 141.54532 437.14661
204.26581 141.54671 437.02905
205.50391 141.5985 437.90146
206.6376 141.59996 437.77765
207.77144 141.60147 437.65082
208.90541 141.60303 437.52106
209.92215 141.55424 436.39642
211.05385 141.55586 436.26096
212.1857 141.55753 436.12247
213.31769 141.55923 435.98093
214.5775 141.61137 436.82697
215.71239 141.61317 436.67914
216.71463 141.56461 435.53839
218.25343 141.71768 438.35336
219.53195 141.77002 439.18488
220.67526 141.77199 439.02374
222.10498 141.87485 440.83646
222.96246 141.77608 438.69238
223.9581 141.72777 437.53445
225.09964 141.72992 437.36148
226.24136 141.73212 437.18542
227.38332 141.73436 437.00623
228.52548 141.73665 436.82397
229.82901 141.78943 437.6243
231.13794 141.84227 438.42062
231.95334 141.74379 436.25861
233.09644 141.74628 436.06387
234.41125 141.79927 436.84995
235.38339 141.75137 435.66507
236.35059 141.70352 434.47794
237.67136 141.75668 435.25369
238.99753 141.80991 436.02527
240.14478 141.81268 435.81116
241.29233 141.81552 435.59393
242.6297 141.86893 436.35403
243.78041 141.87187 436.12988
245.12613 141.9254 436.88202
246.28006 141.92847 436.65091
247.43427 141.93158 436.41653
248.38632 141.8842 435.2009
249.53864 141.88742 434.9606
250.89893 141.94127 435.69388
252.26477 141.99518 436.42282
253.42328 141.99858 436.17154
255.22847 142.15381 438.84256
256.39548 142.15736 438.58295
257.56287 142.16096 438.31995
258.73068 142.16463 438.05362
259.89886 142.16837 437.78391
260.83902 142.12152 436.53857
262.0054 142.12537 436.26273
263.17224 142.12927 435.98346
264.57562 142.18388 436.67108
265.74591 142.18793 436.38437
266.91663 142.19203 436.09421
268.57581 142.29756 437.73746
269.99921 142.35251 438.40686
270.92987 142.30614 437.13712
272.35944 142.36124 437.79816
273.79471 142.41641 438.45425
274.46454 142.3195 436.21027
275.64374 142.32408 435.89423
276.82346 142.32874 435.57462
278.00369 142.33347 435.25146
279.71942 142.4398 436.84912
281.17603 142.49548 437.47882
282.6384 142.55124 438.10336
284.6572 142.70869 440.64276
285.30252 142.61223 438.37772
286.49908 142.61743 438.02896
287.69617 142.62271 437.67648
288.60806 142.57721 436.36331
289.80374 142.58263 436.00415
291.58209 142.68987 437.55188
292.78418 142.69545 437.18359
293.69061 142.65021 435.8577
294.89127 142.65593 435.48254
296.09259 142.66173 435.10358
297.29449 142.6676 434.72073
298.49707 142.67355 434.33405
300.31915 142.78149 435.84253
301.52826 142.78761 435.44632
303.0527 142.8448 435.99393
304.26572 142.85109 435.58896
306.11938 142.95947 437.07205
306.69373 142.86389 434.767
308.23398 142.92143 435.29425
309.78015 142.9791 435.81558
311.33234 143.03685 436.33109
312.224 142.99254 434.9577
314.11859 143.10158 436.40356
315.68597 143.15962 436.90201
317.25928 143.21777 437.39435
318.15094 143.17374 436.00528
319.3844 143.18089 435.55063
320.96759 143.23929 436.02747
321.85321 143.1954 434.62866
323.08862 143.20276 434.16138
323.61041 143.10773 431.8244
324.84167 143.11519 431.35059
326.79834 143.22522 432.73364
328.40118 143.28409 433.17877
329.64218 143.29176 432.6889
331.99493 143.45341 434.97708
335.85638 143.82053 440.96005
339.00427 144.08522 445.07288
343.69287 144.55557 452.86725
348.04895 144.9749 459.71423
351.68069 145.29175 464.69482
354.57208 145.50603 467.81549
357.48526 145.72049 470.92245
358.85321 145.72934 470.341
360.22144 145.73819 469.75467
362.38409 145.85004 470.99615
363.3584 145.80748 469.48264
365.13239 145.86792 469.79462
366.10159 145.82535 468.27377
368.69666 145.98892 470.397
370.48679 146.04944 470.68729
371.86908 146.05841 470.06119
373.25116 146.06735 469.43021
375.46997 146.17949 470.60797
-36.932739 145.06598 431.17139
-36.48468 145.16589 433.56464
-35.212921 145.15747 434.13425
-33.537308 145.09491 433.78613
-33.070526 145.19467 436.17438
-31.796219 145.1862 436.73172
-29.730423 145.06963 435.45105
-28.461838 145.06122 435.9971
-27.193481 145.05283 436.53867
-25.149826 144.93643 435.23541
-23.502304 144.87415 434.84448
-22.242966 144.86589 435.36932
-20.604218 144.80371 434.96616
-19.348373 144.79556 435.48102
-17.718521 144.73352 435.0658
-16.838089 144.77937 436.49747
-15.214554 144.71747 436.07129
-13.596878 144.65564 435.63861
-12.348877 144.64777 436.12936
-11.10144 144.63995 436.61578
-9.854599 144.63219 437.09793
-8.6083527 144.6245 437.57571
-7.0095062 144.56306 437.1152
-5.7671356 144.55551 437.58344
-4.8732452 144.60179 438.98334
-3.284256 144.54062 438.50705
-2.0437775 144.53326 438.96252
-1.1438599 144.57971 440.35269
0.43522644 144.5188 439.86087
2.0083923 144.45798 439.36292
3.2436371 144.45094 439.80069
5.1368713 144.33669 438.34903
6.365509 144.32982 438.7767
7.5934906 144.32304 439.20032
8.820816 144.31633 439.61987
10.047485 144.30969 440.03537
11.273514 144.30315 440.44681
12.498871 144.29668 440.85431
14.034485 144.23672 440.30881
15.564163 144.17688 439.75766
17.087967 144.11714 439.20081
17.999893 144.16452 440.54141
19.216843 144.15846 440.92737
20.730865 144.099 440.35632
21.648834 144.14658 441.68771
23.156418 144.08728 441.10727
24.658096 144.02811 440.52148
26.153992 143.96902 439.93021
27.359436 143.96346 440.29074
28.282303 144.01138 441.60547
29.489197 144.00595 441.95926
31.249039 143.89384 440.39041
31.901329 143.99533 442.65561
33.106544 143.99014 442.99823
34.580139 143.93167 442.37546
35.781685 143.92662 442.70996
37.246384 143.86833 442.07767
38.705345 143.81012 441.44034
40.158569 143.75201 440.79797
41.350227 143.7473 441.11581
42.794647 143.68936 440.46414
43.982712 143.6848 440.77423
45.418358 143.62703 440.1134
46.357437 143.67586 441.38367
48.0298 143.565 439.74588
48.970566 143.61397 441.0098
50.153748 143.60974 441.30161
51.10144 143.65881 442.56049
52.286339 143.65472 442.84598
53.240982 143.7039 444.09982
54.427658 143.69992 444.37903
55.838562 143.64284 443.68185
57.021843 143.63899 443.95358
58.20472 143.63522 444.22195
59.820969 143.52519 442.53738
60.997917 143.52156 442.79773
62.386162 143.46484 442.07895
63.76889 143.4082 441.35562
64.939568 143.40477 441.60489
66.109917 143.4014 441.8508
67.279922 143.39807 442.09341
68.250862 143.44792 443.31137
69.61895 143.39162 442.56882
70.594429 143.44156 443.78122
71.956734 143.38538 443.03107
73.313553 143.32927 442.27664
74.479111 143.32629 442.49911
75.461143 143.37645 443.70001
76.809349 143.32051 442.93442
77.796013 143.37076 444.12976
79.138504 143.31494 443.35678
80.302689 143.31224 443.56311
81.466614 143.30959 443.7663
82.630272 143.30699 443.96634
83.793701 143.30444 444.16315
84.794319 143.35497 445.34201
85.959846 143.35251 445.5329
86.967728 143.40311 446.70673
88.445068 143.29474 444.9187
89.759621 143.23944 444.11282
90.769432 143.29019 445.27759
92.07843 143.23499 444.46457
93.237526 143.23283 444.63577
94.254448 143.28371 445.79236
95.555122 143.22867 444.9689
96.713654 143.22664 445.13077
98.006233 143.17171 444.30002
99.161827 143.16978 444.45535
100.44634 143.11494 443.6174
101.72556 143.06017 442.7757
102.8755 143.05838 442.92117
104.0253 143.05664 443.0636
105.17494 143.05495 443.20294
106.20821 143.10623 444.33105
107.24648 143.15753 445.45673
108.51193 143.10303 444.59515
109.55507 143.15442 445.7153
110.70917 143.15292 445.84003
111.96651 143.09854 444.96851
113.11778 143.09714 445.08688
114.36717 143.04285 444.20853
115.61131 142.9886 443.32663
116.8502 142.9344 442.44122
117.99333 142.93315 442.54681
119.13634 142.93195 442.64948
120.27925 142.93077 442.74908
121.42207 142.92964 442.84579
122.64506 142.87566 441.94406
123.78513 142.8746 442.03458
124.92511 142.87358 442.1221
126.13756 142.8197 441.21072
127.27482 142.81877 441.29214
128.41199 142.81786 441.37067
129.67882 142.71123 439.45316
130.81071 142.71039 439.52542
131.88284 142.76248 440.59155
133.13148 142.65596 438.66418
134.20605 142.70811 439.72458
135.28569 142.7603 440.78238
136.41986 142.75964 440.84012
137.60088 142.70615 439.8974
138.68806 142.75842 440.94675
139.82208 142.75787 440.99576
140.99527 142.7045 440.04398
142.16328 142.65115 439.08902
143.258 142.70357 440.12704
144.38931 142.70316 440.16422
145.57846 142.59705 438.20212
146.70457 142.59669 438.23334
147.83067 142.59637 438.26163
148.95676 142.5961 438.28708
150.08281 142.59586 438.30957
151.20885 142.59564 438.32922
152.33487 142.59546 438.34592
153.47185 142.54245 437.36121
154.6037 142.48949 436.3736
155.71872 142.54227 437.38016
156.84215 142.54222 437.38531
157.96556 142.54221 437.38757
159.09084 142.59509 438.38553
160.21683 142.59514 438.38199
161.34283 142.59521 438.37555
162.46884 142.59534 438.36621
163.59486 142.59549 438.35406
164.72089 142.59567 438.33893
165.84694 142.5959 438.32092
166.97301 142.59615 438.30002
168.09911 142.59644 438.27625
169.25015 142.64961 439.2478
170.37886 142.64996 439.21817
171.5076 142.65034 439.18558
172.63637 142.65077 439.15015
173.76518 142.65123 439.11176
174.89403 142.6517 439.07047
176.02292 142.65224 439.02628
177.10895 142.59991 437.98148
178.32628 142.70625 439.9267
179.40985 142.65401 438.87622
180.53893 142.65466 438.82031
181.72122 142.70822 439.75876
182.79726 142.65608 438.69989
183.80994 142.55109 436.64151
184.99498 142.60477 437.57098
186.1218 142.60559 437.5007
187.24869 142.60646 437.42749
188.37566 142.60736 437.35135
189.57382 142.66119 438.26831
190.70351 142.66217 438.18616
191.75702 142.61029 437.10541
193.04196 142.71713 439.00848
194.25587 142.77112 439.91257
195.47502 142.82515 440.81329
196.61285 142.82632 440.71573
197.8399 142.88043 441.6098
198.79718 142.77586 439.51727
199.74429 142.67133 437.42279
200.87485 142.67264 437.31406
202.00552 142.67398 437.20239
203.03438 142.62245 436.09436
204.26724 142.6768 436.97012
205.50536 142.7312 437.84235
206.6391 142.73273 437.71857
207.77298 142.73427 437.59171
208.907 142.73587 437.46188
209.92378 142.68457 436.33737
211.17545 142.73918 437.19318
212.18738 142.68796 436.06329
213.44452 142.74266 436.91251
214.57927 142.74446 436.76758
215.58398 142.69336 435.6297
216.71649 142.69524 435.4791
218.11996 142.80312 437.30426
219.258 142.8051 437.14691
220.53674 142.86011 437.97519
221.96393 142.96814 439.78793
222.96457 142.9173 438.63242
224.10852 142.91946 438.46207
225.25266 142.92169 438.2886
226.24359 142.87096 437.1254
227.69757 142.97928 438.91882
228.5278 142.87563 436.76385
229.99252 142.98407 438.54944
231.30409 143.03955 439.34515
232.12212 142.93602 437.18295
233.26784 142.93858 436.98776
234.5853 142.99423 437.77319
235.56003 142.94385 436.58792
236.88316 142.99962 437.36615
238.03249 143.0024 437.15784
239.1821 143.00522 436.94638
240.1476 142.95502 435.7504
241.48216 143.01102 436.51401
242.82216 143.06709 437.27335
243.78337 143.01704 436.06873
245.12918 143.07324 436.82071
246.28314 143.0764 436.58954
247.2375 143.0265 435.37671
248.18704 142.97664 434.16174
249.54187 143.03308 434.89917
250.90224 143.0896 435.63226
252.47839 143.19934 437.33716
253.8524 143.25601 438.06085
255.4474 143.36592 439.75516
256.6171 143.3696 439.49496
258.00778 143.4265 440.2052
258.95758 143.37712 438.96432
259.90259 143.32777 437.72116
261.07123 143.33168 437.448
262.00925 143.28244 436.19995
263.17612 143.28647 435.92059
264.81586 143.39702 437.57828
265.98877 143.4012 437.29083
267.16214 143.40544 436.99994
268.57996 143.46301 437.67386
269.75684 143.46739 437.37531
270.93414 143.47185 437.0733
272.36383 143.52966 437.73413
273.79916 143.58757 438.38998
274.98315 143.59225 438.07602
276.16766 143.59702 437.75854
276.82809 143.49518 435.51038
278.27328 143.55339 436.14993
279.72418 143.61169 436.78439
281.18088 143.6701 437.41382
282.37061 143.67523 437.07748
284.11154 143.7872 438.65726
285.02963 143.73911 437.353
286.22363 143.74446 437.00491
287.41821 143.74989 436.65308
288.61334 143.7554 436.29752
290.09753 143.81444 436.89429
291.58755 143.87357 437.48563
292.7897 143.87933 437.11713
293.69617 143.8317 435.79129
294.59799 143.7841 434.46332
296.39984 143.89708 435.98886
297.30029 143.84962 434.65399
298.19611 143.80223 433.31693
300.01566 143.91553 434.82587
300.91006 143.86826 433.48181
302.11456 143.87462 433.08322
303.63715 143.93466 433.62753
305.16562 143.9948 434.16614
306.05472 143.9478 432.80893
307.91507 144.06175 434.2818
309.13074 144.06854 433.8606
311.00827 144.18272 435.31985
312.23059 144.1897 434.8887
313.78943 144.25043 435.39383
315.69272 144.36499 436.83234
316.92493 144.37222 436.38593
317.47015 144.27205 434.06033
319.73779 144.44066 436.41702
320.97461 144.44812 435.95706
321.50848 144.34807 433.62372
323.0957 144.40944 434.09076
323.26044 144.25563 430.82147
324.48914 144.26329 430.34854
326.80563 144.43257 432.66266
328.40854 144.49426 433.10745
330.0173 144.55606 433.54578
332.74319 144.77966 436.75961
335.86401 145.05736 440.88672
339.76349 145.44318 446.84894
343.32239 145.77531 451.8674
347.6759 146.21567 458.71405
352.07263 146.65634 465.53839
354.9668 146.88127 468.65717
356.71542 146.94431 469.0033
360.03683 147.22359 473.01636
361.41309 147.23276 472.42639
362.39249 147.18785 470.91544
364.5661 147.30524 472.147
365.14075 147.20621 469.71359
365.70483 147.10712 467.28012
368.29721 147.27872 469.40387
369.67419 147.2879 468.78482
371.05109 147.29704 468.16095
372.84357 147.36038 468.44009
375.05966 147.47792 469.61862
-37.352356 146.35751 432.00201
-36.083344 146.34892 432.57498
-34.81427 146.3403 433.14349
-33.545197 146.33167 433.70761
-32.677292 146.37973 435.18143
-31.007172 146.31438 434.82236
-29.342545 146.24907 434.45642
-28.076614 146.24046 435.0015
-26.420441 146.17525 434.6232
-25.157684 146.16669 435.15814
-23.510147 146.10156 434.76758
-22.250793 146.09309 435.29254
-20.612 146.02809 434.88974
-18.978973 145.96317 434.48029
-17.726227 145.95483 434.98981
-16.845779 146.00307 436.42151
-14.853043 145.88184 435.06799
-13.970932 145.93015 436.49197
-13.084061 145.97849 437.9137
-11.108932 145.85754 436.5408
-10.579041 145.96239 438.88669
-8.9715576 145.89803 438.43384
-7.0168304 145.77739 437.04083
-6.124939 145.82599 438.44406
-4.8804626 145.81827 438.90912
-3.2913818 145.75427 438.43311
-2.0508575 145.7467 438.88876
-1.1508789 145.79552 440.27893
0.42829895 145.7318 439.78738
1.6669006 145.72446 440.23044
3.5688324 145.60468 438.78607
4.8008423 145.59752 439.21896
6.3588867 145.53421 438.70428
7.5869446 145.52722 439.12802
8.4928741 145.57651 440.49301
10.041046 145.51349 439.96341
11.267151 145.50673 440.37497
12.179092 145.55621 441.73047
14.028275 145.43733 440.2374
15.558044 145.37471 439.68652
16.776321 145.3683 440.08047
17.993927 145.36197 440.47055
19.210938 145.35573 440.85666
20.725052 145.29349 440.28589
21.938202 145.28741 440.66339
23.150726 145.28142 441.03711
24.362671 145.27551 441.40692
25.861252 145.21365 440.81674
27.069382 145.20792 441.17819
28.276932 145.20224 441.53586
29.483917 145.19666 441.88974
30.967087 145.13518 441.28064
31.896156 145.1857 442.5864
33.372986 145.1244 441.96832
34.57515 145.11914 442.30658
36.043068 145.05801 441.67892
37.241531 145.05292 442.00919
38.439484 145.04788 442.33572
39.895393 144.98703 441.69434
41.089729 144.98215 442.01297
42.283562 144.97736 442.32806
43.727577 144.91676 441.6731
45.165886 144.85628 441.01328
46.107635 144.90755 442.28409
47.782669 144.79138 440.6474
48.726097 144.84279 441.9119
49.911942 144.83842 442.20441
51.097343 144.83414 442.49347
52.282326 144.82993 442.77902
53.237007 144.88155 444.03284
54.651009 144.82169 443.33987
55.83474 144.81767 443.61514
57.018074 144.81372 443.88696
58.201019 144.80983 444.15536
59.600441 144.75027 443.44583
60.780029 144.74652 443.70691
62.38266 144.63139 442.01306
63.556328 144.62778 442.26633
64.936188 144.56853 441.53931
66.106583 144.56505 441.78531
67.276642 144.56163 442.02805
68.247627 144.61395 443.24591
69.419624 144.61066 443.48254
70.591316 144.60741 443.71585
71.953667 144.54855 442.96597
73.122162 144.54543 443.19223
74.290352 144.54236 443.41528
75.45826 144.53935 443.63504
76.806526 144.48076 442.86963
77.793221 144.53349 444.06494
79.311264 144.4194 442.30923
80.300011 144.47224 443.4986
81.6343 144.41391 442.71802
82.627693 144.46684 443.90189
83.956337 144.40862 443.11407
84.954422 144.46164 444.29239
86.117401 144.45912 444.483
87.28019 144.45665 444.67032
88.752434 144.34308 442.88177
89.757339 144.39629 444.04883
90.767197 144.44954 445.2135
92.076241 144.39169 444.40067
93.379929 144.33392 443.58398
94.394318 144.38731 444.74011
95.831863 144.27409 442.92776
96.848465 144.32758 444.078
98.138519 144.27002 443.24713
99.159912 144.32356 444.39185
100.44448 144.26611 443.55411
101.72374 144.20869 442.71255
102.74979 144.26237 443.84875
104.02357 144.20508 443.00049
105.17326 144.20332 443.13992
106.20657 144.25713 444.26788
107.35854 144.25546 444.40155
108.62146 144.19835 443.53983
109.55354 144.30775 445.65216
110.81363 144.25073 444.78409
112.06844 144.19374 443.91248
113.11638 144.24777 445.02399
114.36581 144.19089 444.14575
115.61 144.13403 443.26404
116.75583 144.13271 443.37296
117.99209 144.07594 442.48444
119.13514 144.07471 442.5871
120.36349 144.01804 441.69199
121.50378 144.01686 441.78842
122.56371 144.07121 442.87717
123.70638 144.07011 442.96786
124.84897 144.06908 443.05569
125.99148 144.06805 443.14041
127.20389 144.01163 442.22623
128.4111 143.95525 441.30875
129.6131 143.8989 440.38794
130.7476 143.89804 440.46033
131.82233 143.95267 441.52649
133.07358 143.841 439.59961
134.15074 143.89569 440.66
135.285 143.89499 440.7207
136.41922 143.8943 440.77844
137.60027 143.83823 439.83588
138.68748 143.89307 440.88516
139.82155 143.8925 440.93417
140.99477 143.83653 439.98248
142.12617 143.83603 440.02554
143.25757 143.83557 440.06558
144.42041 143.77972 439.10486
145.57809 143.72389 438.14102
146.73062 143.66811 437.17407
147.85419 143.66779 437.20233
148.97772 143.66751 437.22772
150.10124 143.66725 437.25018
151.22475 143.66704 437.26978
152.34824 143.66685 437.28647
153.47173 143.6667 437.30026
154.59518 143.66658 437.31119
155.7128 143.72192 438.31766
156.84212 143.66646 437.32434
157.96484 143.72186 438.32507
159.09087 143.72189 438.32443
160.2169 143.72194 438.32086
161.34293 143.72203 438.31445
162.47852 143.77757 439.30359
163.59503 143.72231 438.29294
164.75044 143.83334 440.27448
165.88165 143.83357 440.25644
167.01289 143.83383 440.23544
168.12178 143.7787 439.21332
169.25049 143.77902 439.18655
170.35173 143.72397 438.15881
171.47795 143.72437 438.12634
172.60419 143.72479 438.09091
173.73047 143.72525 438.05261
174.89453 143.78119 439.00916
175.98312 143.72629 437.96729
177.10953 143.72685 437.92026
178.32689 143.83835 439.86517
179.41051 143.78354 438.81485
180.53961 143.78423 438.75897
181.66879 143.78494 438.70016
182.74229 143.73024 437.64157
183.81073 143.67558 436.58032
184.9958 143.73184 437.5097
186.18608 143.78815 438.43585
187.31558 143.78905 438.36243
188.44514 143.78998 438.28613
189.57478 143.79094 438.20682
190.7782 143.84741 439.12036
191.75806 143.73753 437.04398
192.96422 143.79407 437.95142
194.257 143.90613 439.85068
195.39221 143.90729 439.75632
196.52753 143.90848 439.65894
197.75204 143.96519 440.5531
198.70679 143.85553 438.46109
199.74561 143.80136 437.36105
200.87619 143.80272 437.25229
201.90753 143.74861 436.14709
203.0358 143.75005 436.03268
204.26871 143.80701 436.90833
205.39978 143.80852 436.78766
206.64066 143.86557 437.65646
207.66232 143.81168 436.53745
208.90862 143.86882 437.39972
210.04282 143.8705 437.26685
211.17715 143.87222 437.13098
212.31166 143.87399 436.99213
213.5714 143.93134 437.84082
214.58112 143.87767 436.70532
215.58585 143.82404 435.56747
216.71841 143.82599 435.41681
217.85117 143.82797 435.26321
219.26001 143.9411 437.08429
220.53882 143.99873 437.91238
221.82295 144.05643 438.73669
222.82104 144.00305 437.5816
224.11072 144.06085 438.39902
225.25491 144.06314 438.22549
226.39931 144.06548 438.04895
227.54393 144.06787 437.86929
228.68875 144.0703 437.68649
229.995 144.12837 438.48599
231.30661 144.18651 439.28152
232.29097 144.1335 438.104
233.43933 144.13614 437.90833
234.58792 144.13884 437.7095
235.73679 144.14159 437.50754
236.70927 144.08876 436.31967
237.85606 144.09161 436.11176
239.00314 144.09451 435.90076
239.96611 144.04182 434.70529
241.29813 144.10048 435.46915
242.8252 144.21487 437.20914
243.78644 144.16234 436.00455
245.13228 144.22121 436.75629
246.48364 144.28015 437.50385
247.24074 144.17209 435.31235
248.19031 144.11975 434.09741
249.5452 144.17886 434.83463
250.90564 144.23807 435.56754
252.48187 144.35306 437.27206
253.6431 144.35669 437.02008
255.02011 144.41611 437.73965
256.62079 144.53137 439.4292
257.79089 144.5352 439.16544
258.29166 144.37183 435.97888
259.6806 144.43155 436.68277
260.61829 144.37978 435.43814
261.55115 144.32806 434.19141
262.71289 144.3322 433.91321
264.58374 144.50383 436.54187
265.75412 144.50812 436.25497
267.16638 144.56831 436.93341
268.58429 144.6286 437.60712
269.7612 144.63312 437.30847
270.9386 144.63771 437.00635
272.11649 144.64236 436.70078
273.54932 144.70299 437.35712
274.73074 144.70779 437.04373
275.65305 144.6568 435.76273
276.83289 144.66174 435.44296
278.27814 144.72269 436.08224
279.99664 144.83966 437.67834
281.45602 144.90082 438.30682
282.3757 144.85016 437.00922
283.84137 144.9115 437.62885
285.03488 144.91695 437.28433
285.94836 144.86647 435.97794
287.42358 144.92807 436.5842
288.90463 144.98976 437.18515
290.10306 144.99553 436.82492
291.59314 145.05743 437.41605
293.08911 145.11943 438.00174
293.7019 145.01332 435.72162
294.90274 145.01941 435.34625
296.40579 145.08167 435.91885
297.30624 145.03181 434.58392
298.8158 145.09425 435.14709
300.33124 145.1568 435.70462
301.54047 145.16331 435.30814
302.75037 145.16991 434.90771
304.27826 145.23276 435.44995
305.49207 145.2395 435.04068
306.38385 145.19014 433.68259
307.59631 145.19704 433.26624
309.13739 145.26025 433.78888
310.68442 145.32358 434.3056
311.90414 145.33075 433.87521
313.7963 145.45056 435.32117
315.69971 145.57051 436.75922
316.59076 145.52164 435.37433
318.16492 145.58548 435.86191
319.3985 145.59308 435.40698
319.93442 145.48801 433.07703
321.16397 145.49571 432.61566
322.39413 145.50348 432.15002
322.91068 145.39848 429.81543
325.21606 145.57565 432.1373
327.53799 145.75299 434.44873
328.78119 145.76108 433.96188
330.76044 145.8822 435.32709
332.75092 146.00345 436.68365
336.24496 146.35089 441.7359
339.39572 146.64207 445.84576
343.33051 147.04659 451.78802
348.44641 147.62112 460.47882
352.84857 148.08287 467.29947
355.36176 148.26189 469.49463
358.2804 148.49768 472.59769
360.82904 148.67699 474.76855
361.42175 148.5731 472.3418
363.19537 148.63921 472.66287
364.97455 148.70535 472.97672
365.14935 148.54466 469.62863
366.52368 148.55408 469.02032
369.1214 148.73375 471.14099
370.91418 148.79997 471.42947
372.29907 148.8094 470.80185
374.51538 148.9324 471.98465
376.32361 148.99863 472.25131
-37.772202 147.65443 432.82867
-36.500595 147.64561 433.40302
-35.635391 147.69611 434.88458
-33.957138 147.62791 434.5383
-32.284241 147.55972 434.18515
-30.61676 147.49158 433.8252
-28.954803 147.42348 433.45847
-27.691528 147.41467 434.0025
-26.428528 147.40587 434.54214
-25.165771 147.39709 435.07727
-23.903381 147.38835 435.608
-22.641342 147.37962 436.13425
-20.619995 147.25262 434.80969
-18.986923 147.18488 434.40057
-17.734177 147.17632 434.91031
-16.481812 147.16782 435.4155
-14.86087 147.10028 434.98895
-13.978745 147.15096 436.41296
-12.727997 147.14261 436.90509
-11.477798 147.13431 437.39285
-10.586731 147.1851 438.80801
-8.6233063 147.05893 437.42279
-7.0243378 146.99188 436.96295
-5.7818451 146.98389 437.43146
-4.1920776 146.91701 436.96008
-3.2987366 146.96809 438.35577
-2.058136 146.96031 438.81152
-1.1581421 147.01151 440.20172
0.083831787 147.00385 440.65005
1.9944611 146.87856 439.2132
3.2298431 146.87109 439.65125
4.7938995 146.80487 439.14285
6.352066 146.73877 438.62845
7.5801697 146.73158 439.05237
8.4861755 146.78325 440.41733
10.034439 146.71744 439.88803
10.944443 146.76923 441.24661
12.172562 146.76234 441.6553
13.710999 146.69682 441.11124
15.243469 146.63141 440.56155
16.464432 146.62479 440.95651
17.684784 146.61826 441.34747
19.204849 146.55315 440.78256
20.71907 146.48814 440.21207
21.932266 146.48189 440.58978
23.144897 146.47571 440.96356
24.646774 146.41101 440.37827
25.85556 146.40501 440.74365
27.063782 146.39909 441.10519
27.98938 146.45183 442.42062
29.478455 146.3875 441.81702
30.684929 146.38182 442.16733
31.890846 146.37622 442.51389
33.096222 146.37071 442.85669
34.301048 146.36526 443.19586
35.771667 146.30141 442.56915
36.972809 146.29613 442.90027
38.43454 146.23245 442.26413
40.14904 146.11041 440.65872
41.084946 146.16386 441.94174
42.785408 146.04202 440.32565
43.973618 146.03717 440.63586
45.409416 145.97397 439.97556
46.594063 145.96927 440.27808
48.021118 145.90625 439.6088
48.962013 145.96011 440.87256
50.145317 145.95563 441.16455
51.328171 145.95123 441.45309
52.51062 145.9469 441.73813
53.462791 146.00098 442.99115
54.874252 145.93843 442.29788
56.055435 145.9343 442.57266
57.236244 145.93024 442.84396
58.416664 145.92624 443.11185
59.813568 145.86401 442.40198
60.776337 145.91846 443.63757
62.167328 145.85635 442.91971
63.55278 145.79436 442.19742
64.726166 145.7907 442.44736
65.899208 145.78711 442.69403
67.27327 145.72533 441.95953
68.244308 145.78012 443.17731
69.416367 145.77672 443.414
70.588104 145.77338 443.64743
71.759529 145.7701 443.87759
72.930664 145.76688 444.10443
74.287315 145.70549 443.34717
75.272018 145.7606 444.54843
76.622955 145.69934 443.78366
77.790352 145.69637 443.99704
79.308464 145.57704 442.2417
80.470161 145.57419 442.44775
81.631599 145.57138 442.6506
82.625038 145.62682 443.83441
83.953743 145.56593 443.04675
84.951851 145.62146 444.22507
85.954895 145.67702 445.40103
87.277733 145.61632 444.60303
88.440346 145.61383 444.78726
89.60273 145.61139 444.96835
90.764893 145.60899 445.14633
92.073982 145.54854 444.33377
93.377716 145.48813 443.5173
94.534134 145.4859 443.68509
95.829758 145.4256 442.86127
96.983231 145.42348 443.02252
98.136513 145.4214 443.18069
99.157944 145.47748 444.32541
100.44257 145.41739 443.48776
101.72186 145.35736 442.64645
102.8719 145.35547 442.79199
104.14317 145.29553 441.94357
105.17152 145.35182 443.07391
106.20487 145.40814 444.20178
107.47055 145.34837 443.34363
108.50876 145.40477 444.46603
109.55196 145.46121 445.586
110.8121 145.40157 444.71808
112.06696 145.34196 443.84665
113.21574 145.34048 443.96487
114.36441 145.33904 444.08002
115.60864 145.27957 443.19846
116.75452 145.27821 443.30737
117.90027 145.27689 443.4133
119.04594 145.2756 443.5162
120.27689 145.21634 442.62149
121.41978 145.21513 442.71817
122.56259 145.21397 442.81192
123.70531 145.21286 442.90268
124.92306 145.15375 441.99493
126.06303 145.15271 442.07956
127.27292 145.09369 441.16537
128.41017 145.09274 441.2439
129.61221 145.0338 440.32324
130.74677 145.03291 440.39569
131.82152 145.09009 441.46173
133.07281 144.97327 439.5351
134.20461 144.9725 439.5986
135.2843 145.02977 440.65613
136.41855 145.02908 440.71387
137.55275 145.02843 440.76871
138.59824 145.14381 442.81528
139.77924 145.08522 441.86703
140.91585 145.08467 441.91321
142.08907 145.02615 440.95877
143.25711 144.96768 440.00125
144.38849 144.96725 440.03848
145.54878 144.90884 439.07486
146.73027 144.79248 437.11014
147.83006 144.85016 438.13647
148.97745 144.79187 437.16382
150.10101 144.79161 437.18631
151.22455 144.79138 437.20584
152.34807 144.7912 437.22256
153.47159 144.79105 437.23639
154.58667 144.84892 438.24564
155.70689 144.90683 439.25195
156.83551 144.90677 439.25711
157.96414 144.90677 439.25937
159.09276 144.90678 439.25876
160.21696 144.84885 438.25687
161.34303 144.84894 438.25046
162.46912 144.84906 438.24112
163.60732 144.90721 439.22711
164.75066 144.96541 440.21024
165.8819 144.96564 440.19208
167.01317 144.96591 440.17108
168.12209 144.90822 439.14914
169.22591 144.85056 438.12433
170.35211 144.85092 438.09473
171.4483 144.79333 437.06436
172.57201 144.79378 437.02905
173.73096 144.85225 437.98849
174.8573 144.85277 437.9473
175.98369 144.85332 437.90317
177.11012 144.85391 437.85617
178.28207 144.91254 438.80353
179.41116 144.91319 438.75058
180.54031 144.91389 438.69467
181.61636 144.85661 437.63898
182.7988 144.91539 438.57416
183.92812 144.9162 438.50949
185.05751 144.91705 438.44193
186.2504 144.97595 439.36774
187.38249 144.97687 439.29416
188.44611 144.9198 438.22168
189.64691 144.97882 439.13812
190.77924 144.97986 439.05576
191.83539 144.92291 437.97501
193.12299 145.04008 439.87729
194.25815 145.04123 439.78583
195.47737 145.10046 440.68619
196.52876 145.04367 439.59406
197.66422 145.04494 439.49368
198.70808 144.9882 438.39624
199.74695 144.93152 437.29639
200.78076 144.87485 436.19403
201.90895 144.87628 436.08255
203.03726 144.87775 435.96811
204.2702 144.93732 436.84348
205.50842 144.99695 437.71539
206.64224 144.99855 437.59143
207.66396 144.94212 436.47256
209.0251 145.05997 438.32632
210.04453 145.00362 437.20175
211.29887 145.06348 438.05695
212.31346 145.00722 436.92691
213.57326 145.06717 437.77545
214.58301 145.01099 436.64005
215.58778 144.95485 435.50232
216.58759 144.89874 434.36221
217.85318 144.95889 435.19797
219.12413 145.01909 436.03
220.40039 145.07936 436.85822
221.68201 145.13968 437.68271
222.67757 145.0838 436.52811
223.96472 145.14423 437.3457
225.10638 145.14658 437.17255
226.09482 145.09082 436.00989
227.39034 145.15141 436.81699
228.69122 145.21208 437.62021
229.9975 145.2728 438.41953
231.4729 145.39175 440.19958
232.45992 145.33626 439.02179
233.6109 145.33897 438.82559
234.59065 145.28357 437.64279
235.73956 145.28641 437.44073
236.53543 145.17288 435.27039
237.85895 145.23401 436.04504
239.00607 145.237 435.83395
239.96909 145.18182 434.63858
241.30116 145.24315 435.40219
242.82829 145.36278 437.14185
243.78958 145.30777 435.93735
245.13551 145.36929 436.6889
246.48691 145.43091 437.43619
247.44397 145.37605 436.22299
248.19368 145.26299 434.03009
249.54865 145.32478 434.76706
251.11682 145.44495 436.47617
252.69574 145.5652 438.17981
253.85959 145.56894 437.92715
255.02383 145.57275 437.6712
256.62457 145.69327 439.36032
257.5741 145.6389 438.12292
258.5188 145.58456 436.8833
259.68457 145.58864 436.61392
260.62231 145.53442 435.36945
261.55524 145.48026 434.12268
262.71701 145.48451 433.84442
264.58795 145.664 436.47256
265.99725 145.72682 437.15485
266.68787 145.6145 434.92642
268.34467 145.7359 436.56918
269.51907 145.74054 436.27115
270.4447 145.68683 435.00293
271.86926 145.75006 435.66455
273.29956 145.81339 436.32135
274.47849 145.81833 436.00858
276.17728 145.94032 437.62006
277.1001 145.88695 436.33551
278.54807 145.95065 436.97385
280.00174 146.01443 437.60706
281.19107 146.01981 437.2742
282.10818 145.96671 435.97739
283.57132 146.03076 436.59744
284.48431 145.9778 435.29477
285.67322 145.98347 434.948
287.42914 146.10638 436.51199
288.62442 146.11224 436.15622
290.10876 146.17679 436.75235
291.59894 146.24144 437.34317
292.80127 146.24756 436.97452
293.70782 146.1951 435.64868
295.2077 146.26004 436.22562
296.41187 146.2664 435.84546
297.92087 146.33154 436.41217
299.12891 146.33807 436.02338
300.33759 146.3447 435.63071
301.54688 146.35139 435.23404
303.07159 146.41693 435.78085
303.96741 146.36505 434.42896
305.49866 146.43077 434.966
306.39056 146.37903 433.60797
307.60309 146.38612 433.19144
309.14423 146.45215 433.71378
311.02194 146.57712 435.17209
312.24438 146.5845 434.74063
314.47519 146.7686 437.12521
316.04544 146.8351 437.6218
316.93921 146.78386 436.23596
318.17224 146.79161 435.7851
319.05939 146.74048 434.39377
319.94183 146.68939 433.00024
320.81961 146.63834 431.60443
321.69269 146.58731 430.20642
322.5611 146.53632 428.80624
324.86392 146.72148 431.12851
326.82086 146.84776 432.51019
328.42386 146.91512 432.95432
329.66498 146.92348 432.46399
332.75885 147.22739 436.60413
336.25305 147.59067 441.65521
340.15546 148.01335 447.61368
344.8526 148.55466 455.39987
349.9794 149.15552 464.08444
353.62485 149.51999 469.056
356.52991 149.76631 472.1687
358.67841 149.89435 473.42892
360.05438 149.90398 472.84354
361.8251 149.9729 473.17026
363.20428 149.98257 472.57394
364.58365 149.99226 471.97275
365.1582 149.8833 469.53973
366.53247 149.89294 468.93121
369.13025 150.08066 471.05124
371.3335 150.20908 472.2493
371.89462 150.09995 469.80286
374.93994 150.3472 472.80136
377.16931 150.47568 473.97275
-37.780396 148.89473 432.74219
-36.91803 148.94768 434.22699
-35.237137 148.87666 433.88666
-33.157684 148.74374 432.62683
-32.292557 148.7966 434.09946
-30.226547 148.66376 432.8248
-28.171387 148.53098 431.54102
-27.699875 148.64569 433.91772
-26.436844 148.63667 434.45749
-25.174103 148.62767 434.9928
-24.296875 148.6805 436.44446
-22.649597 148.60974 436.05008
-21.008057 148.53908 435.64905
-19.749481 148.53023 436.16553
-18.116821 148.45969 435.75238
-16.861801 148.45094 436.25888
-15.238113 148.38055 435.83371
-13.986771 148.37193 436.33038
-13.099838 148.425 437.75211
-11.485764 148.35484 437.3107
-10.236084 148.34639 437.79428
-8.9870148 148.338 438.27359
-7.032074 148.20653 436.88156
-5.4389496 148.13675 436.41574
-4.1996765 148.12863 436.87918
-3.3063049 148.1821 438.27493
-2.0656281 148.17409 438.73087
-1.1655884 148.22766 440.12103
0.41377258 148.15833 439.63013
1.6524963 148.15054 440.07349
3.2226257 148.08142 439.57138
4.7867737 148.01241 439.06332
6.01828 148.0049 439.49237
7.2490845 147.9975 439.91739
8.8007355 147.92877 439.39331
9.708786 147.98291 440.7551
10.937668 147.97574 441.16785
12.165894 147.96866 441.57666
13.704391 147.90034 441.03296
15.236984 147.83214 440.48352
16.458008 147.82533 440.87863
17.375412 147.87988 442.22079
19.198608 147.75073 440.70514
20.415131 147.7442 441.08768
21.631058 147.73775 441.46628
23.13887 147.67017 440.88672
24.350952 147.66389 441.25687
25.562424 147.65771 441.62317
26.773346 147.65161 441.98563
27.983658 147.64558 442.3443
29.193405 147.63965 442.69925
30.679375 147.57266 442.0914
31.885361 147.56689 442.43811
33.09082 147.56122 442.78104
34.564667 147.49452 442.15909
35.766434 147.48901 442.4939
36.967659 147.4836 442.82507
38.690567 147.35612 441.22589
40.144043 147.28983 440.58429
41.335922 147.28467 440.90244
42.780571 147.21857 440.25162
44.219536 147.15256 439.59576
45.404732 147.14766 439.90189
46.589447 147.14282 440.20453
48.016609 147.07709 439.53543
49.197815 147.07242 439.83038
50.140915 147.12878 441.09125
51.323845 147.12425 441.37988
52.738823 147.05885 440.69434
53.688438 147.1154 441.94672
55.097382 147.05016 441.25305
56.500725 146.985 440.55478
57.454323 147.04175 441.7981
58.632202 147.03766 442.06552
60.026604 146.97273 441.35522
60.77253 147.09053 443.56506
62.163574 147.02576 442.84753
63.549103 146.96106 442.12543
64.929085 146.89645 441.39893
66.099602 146.89276 441.64511
67.269791 146.88914 441.88794
68.439636 146.88559 442.1275
69.609177 146.8821 442.36371
70.584793 146.93948 443.5759
71.756294 146.9361 443.80609
72.927475 146.93279 444.03302
74.098358 146.92953 444.25671
75.268951 146.92635 444.47714
76.800598 146.80164 442.73096
77.787392 146.85936 443.92609
79.305573 146.7348 442.17111
80.294411 146.79263 443.36026
81.628822 146.72899 442.58014
82.79007 146.72615 442.77985
83.951065 146.72339 442.97641
84.949226 146.7814 444.1546
86.272354 146.718 443.35999
87.432655 146.71539 443.54703
88.592728 146.71284 443.73093
89.752586 146.71033 443.91168
90.912224 146.70789 444.08936
92.071671 146.70549 444.26379
93.230896 146.70314 444.43518
94.389946 146.70084 444.60339
95.688194 146.63791 443.78015
96.844284 146.63573 443.9418
98.134445 146.57291 443.1113
99.287605 146.57082 443.26642
100.5697 146.50812 442.42868
101.71996 146.50612 442.5773
102.99399 146.44353 441.73245
104.14135 146.44164 441.87466
105.28856 146.43979 442.01382
106.20313 146.5593 444.13269
107.35518 146.55753 444.26633
108.61819 146.49518 443.40503
109.65887 146.55414 444.52457
110.91649 146.4919 443.65665
112.16882 146.42969 442.78506
113.31509 146.42816 442.90302
114.36298 146.48729 444.01129
115.70293 146.36461 442.13632
116.75316 146.42383 443.23889
117.89897 146.42247 443.34476
119.13263 146.36055 442.45346
120.36107 146.29868 441.55872
121.50143 146.29744 441.65518
122.72197 146.23566 440.75385
123.78189 146.2951 441.83929
124.922 146.29401 441.92691
126.06201 146.29294 442.01157
127.20194 146.29192 442.09326
128.3418 146.29092 442.172
129.54645 146.22939 441.25162
130.68359 146.22849 441.32428
131.8804 146.16704 440.39761
133.07202 146.10562 439.46762
134.20384 146.10484 439.53119
135.33562 146.1041 439.59177
136.46733 146.10339 439.64944
137.55209 146.16328 440.7012
138.64195 146.22322 441.75031
139.73689 146.28319 442.79672
140.91531 146.22206 441.84558
142.1252 146.1004 439.89386
143.22258 146.16048 440.93155
144.38806 146.09946 439.97119
145.57733 145.97792 438.00998
146.67719 146.0381 439.03903
