ply
format ascii 1.0
comment PCL generated
element vertex 1590
property float x
property float y
property float z
element camera 0
property float view_px
property float view_py
property float view_pz
property float x_axisx
property float x_axisy
property float x_axisz
property float y_axisx
property float y_axisy
property float y_axisz
property float z_axisx
property float z_axisy
property float z_axisz
property float focal
property float scalex
property float scaley
property float centerx
property float centery
property int viewportx
property int viewporty
property float k1
property float k2
end_header
236.08902 209.96513 435.94257
237.08698 209.77339 434.76581
237.90271 209.38135 432.62314
239.24815 209.59073 433.36819
240.23407 209.39938 432.18381
241.40025 209.40863 431.95911
243.31766 210.22009 435.57718
244.49493 210.22977 435.34369
245.86545 210.44016 436.06726
247.24156 210.65076 436.78638
248.42509 210.66098 436.54147
249.20758 210.27014 434.3754
250.38666 210.28065 434.12469
251.3602 210.09068 432.91275
252.32895 209.90083 431.69849
253.71515 210.11255 432.39514
255.10696 210.32446 433.08713
256.50439 210.53662 433.77444
257.68851 210.54822 433.50217
259.0946 210.76079 434.18057
260.2822 210.77277 433.9006
261.47021 210.78491 433.61707
262.88809 210.99814 434.28229
263.8476 210.80975 433.03915
264.56772 210.42053 430.84265
265.98956 210.63434 431.49637
267.17725 210.64735 431.19543
268.36542 210.66055 430.89081
269.79913 210.87498 431.53094
271.23859 211.08966 432.16608
272.43344 211.10349 431.84909
273.62878 211.11745 431.52838
275.08023 211.33279 432.14954
276.53741 211.54837 432.76553
278.26117 211.96545 434.3205
279.46906 211.98026 433.98187
280.94354 212.19656 434.58209
281.88638 212.01041 433.29309
283.09586 212.02576 432.94296
284.30585 212.04126 432.58899
285.23975 211.8555 431.29147
286.16895 211.66982 429.99167
287.65717 211.88727 430.56567
288.58215 211.70187 429.25967
289.78955 211.71814 428.88785
291.57703 212.13779 430.38327
292.49835 211.95277 429.06711
294.00504 212.17122 429.61652
295.51752 212.38988 430.16028
297.33618 212.81053 431.63058
298.25702 212.62604 430.29929
300.08994 213.04715 431.7572
301.93396 213.46852 433.20752
303.78906 213.89018 434.65027
304.7146 213.70621 433.30173
306.26776 213.92627 433.80472
307.18896 213.74242 432.44968
308.10538 213.55859 431.09238
309.34109 213.57687 430.65692
310.57727 213.59525 430.21732
312.14337 213.81586 430.69577
313.71518 214.03661 431.16812
315.6275 214.45975 432.55469
317.21338 214.68076 433.0137
318.46484 214.69951 432.54819
320.05939 214.92065 432.99573
320.96875 214.737 431.60434
322.56921 214.95819 432.04138
323.47382 214.77441 430.64352
325.43347 215.19812 431.98325
326.69183 215.21677 431.49011
328.66779 215.64053 432.815
329.93173 215.65903 432.31116
332.65192 216.48822 435.43927
335.02667 217.11484 437.64651
335.93994 216.93033 436.21533
337.59186 217.15118 436.59363
345.61847 220.82053 452.34515
352.23129 223.67934 464.43796
352.83835 223.29193 462.05566
351.13849 221.68622 454.26544
358.25787 224.74867 467.19312
356.92114 223.34492 460.30325
351.24969 219.70651 443.54852
358.85358 222.97194 457.31943
367.33344 226.64412 472.83951
365.54465 225.03461 465.05972
365.71869 224.43997 461.76044
372.74167 227.29927 473.62726
370.89392 225.68719 465.85968
372.685 225.90343 466.11304
374.47989 226.11891 466.35989
376.27844 226.33359 466.60022
376.41211 225.73407 463.29074
377.36755 225.54021 461.754
-42.102142 219.2439 430.23389
-40.003525 218.82182 429.0524
-38.729752 218.81076 429.64139
-37.049301 218.59311 429.33575
-35.372925 218.37483 429.02396
-34.100677 218.36176 429.599
-33.22467 218.55377 431.06439
-32.342453 218.74519 432.52817
-30.670105 218.52469 432.19693
-29.391663 218.50938 432.75708
-27.339157 218.08243 431.51517
-25.680756 217.86075 431.16464
-23.645798 217.43324 429.90643
-22.37854 217.41653 430.44434
-21.110931 217.39951 430.978
-19.469635 217.17676 430.60287
-18.204208 217.15924 431.12704
-17.67485 217.55219 433.46057
-16.038422 217.32881 433.07053
-14.044479 216.90004 431.76505
-13.141602 217.08701 433.18118
-12.233444 217.27377 434.59518
-9.54599 216.43448 431.44617
-8.2885742 216.41592 431.93735
-7.0313263 216.39731 432.42426
-5.4274597 216.17355 431.99164
-3.4849701 215.74484 430.63651
-2.5779572 215.93115 432.02487
-0.98822021 215.70755 431.57455
-0.07649231 215.89377 432.95636
1.1737061 215.87509 433.4158
2.0926514 216.06123 434.79208
3.6729889 215.8378 434.32187
4.5964355 216.02396 435.69165
5.8476868 216.00542 436.1351
7.4187927 215.78229 435.64941
9.3017883 215.35471 434.23184
10.228729 215.54109 435.58673
12.097549 215.11388 434.15622
13.335861 215.09593 434.57516
14.880737 214.87363 434.06052
15.506577 215.2648 436.33102
17.047791 215.04277 435.80731
18.284073 215.02531 436.20987
19.519821 215.00798 436.60834
21.048935 214.7865 436.06894
22.863419 214.36102 434.58929
24.089676 214.34424 434.97318
25.315399 214.32761 435.35306
26.823914 214.10699 434.79187
28.045944 214.09073 435.16302
28.989395 214.27866 436.46887
30.212997 214.26266 436.83292
31.708832 214.04288 436.2529
33.198921 213.8233 435.66736
34.415672 213.80789 436.01822
36.161697 213.38489 434.48026
37.372177 213.36987 434.82187
38.322464 213.5589 436.10367
39.277512 213.74802 437.38309
40.491699 213.73351 437.71475
41.705376 213.71918 438.04266
43.167709 213.50131 437.41998
44.624329 213.28369 436.79214
46.075226 213.06631 436.15918
47.520393 212.84917 435.52115
48.482468 213.03946 436.77713
49.449303 213.22986 438.03079
50.887833 213.01334 437.3804
52.089821 213.00053 437.67651
53.291367 212.98792 437.96896
54.718094 212.77203 437.30505
56.139153 212.5564 436.63629
57.334137 212.5444 436.91672
58.528717 212.53256 437.19348
59.722862 212.52092 437.46674
61.129181 212.30612 436.78064
62.10994 212.49814 438.00247
63.510239 212.28375 437.30817
64.90493 212.0696 436.60919
66.091873 212.05887 436.86362
67.078857 212.25153 438.07315
68.4646 212.03796 437.36206
69.650421 212.02776 437.60602
70.835876 212.01773 437.84656
72.020966 212.00787 438.08368
73.392281 211.7951 437.35614
74.574089 211.78558 437.58585
75.755562 211.77628 437.81216
77.115479 211.56409 437.07239
78.469902 211.35208 436.32819
79.818794 211.1403 435.57977
80.820221 211.33466 436.75525
81.826515 211.52911 437.92838
83.003525 211.52078 438.13394
84.180237 211.5126 438.33621
85.196037 211.70749 439.5011
86.374771 211.69962 439.69714
87.864113 211.28616 437.9563
88.884285 211.48146 439.11203
90.059624 211.47406 439.29773
91.234711 211.46681 439.48013
92.409554 211.45972 439.65924
93.441635 211.65555 440.80386
94.898407 211.24319 439.03845
96.069946 211.23657 439.2074
97.241257 211.23007 439.37305
98.412338 211.22372 439.53546
99.712784 211.0148 438.72403
100.88086 211.00876 438.87967
102.04874 211.00284 439.03201
103.2164 210.99707 439.18121
104.38388 210.99146 439.32721
105.55116 210.98596 439.46997
106.83234 210.77797 438.63693
107.99667 210.77277 438.77304
109.16084 210.7677 438.90594
110.21851 210.96536 440.00916
111.48868 210.75793 439.1622
112.65234 210.75328 439.28564
113.81586 210.74873 439.40588
115.07524 210.54175 438.5484
116.32932 210.33493 437.68729
117.48723 210.33081 437.79758
118.46848 210.73187 439.85535
119.71698 210.52542 438.98431
120.87708 210.52167 439.08548
121.87598 210.92303 441.13544
122.96304 211.12201 442.20694
124.20591 210.91609 441.32294
125.3707 210.91281 441.41199
126.53539 210.90964 441.49792
127.76762 210.70412 440.60379
128.99461 210.49875 439.70621
130.21635 210.29349 438.80515
131.25307 210.69574 440.8331
132.41472 210.69319 440.90332
133.57628 210.69073 440.9704
134.73775 210.68843 441.03445
135.84953 210.88864 442.07336
137.10754 210.48172 440.17502
138.22177 210.68216 441.20789
139.38298 210.6803 441.25952
140.58345 210.47615 440.32956
141.81548 210.06973 438.41776
143.00298 209.86581 437.48117
144.28009 209.05481 433.60492
145.53656 208.24396 429.72501
146.7195 207.83803 427.79938
147.89211 207.43222 425.87048
149.03308 207.22891 424.91742
150.18761 206.82333 422.98218
151.2995 206.82265 423.00211
152.39778 207.02446 423.99832
153.52322 206.82161 423.03317
154.65195 206.41647 421.08575
155.7645 206.21384 420.11462
156.87189 206.01131 419.14047
157.97342 206.01129 419.14279
159.07495 206.01135 419.14209
160.1765 206.01152 419.13852
161.29205 206.4166 421.09064
162.41791 206.82176 423.03967
163.54192 207.02466 424.00647
164.70056 207.63245 426.92862
165.89195 208.44273 430.82675
167.08411 209.05075 433.74237
168.29172 209.65891 436.65466
169.5148 210.26718 439.56357
170.6982 210.47076 440.51114
171.8566 210.47209 440.47672
173.01505 210.47351 440.43915
174.24417 210.87988 442.35593
175.36998 210.67912 441.33344
176.57162 210.88333 442.26508
177.73544 210.88522 442.215
178.94493 211.08965 443.14005
180.06326 210.88934 442.10556
181.22728 210.8916 442.04623
182.44472 211.09641 442.96164
183.61147 211.09888 442.8959
184.77831 211.1015 442.82712
185.94522 211.10422 442.75519
187.17587 211.30954 443.65732
188.27934 211.11003 442.60193
189.51535 211.3156 443.49753
190.68524 211.3188 443.41287
191.78128 211.11966 442.34866
192.94882 211.12311 442.25793
194.11647 211.12668 442.16412
195.28424 211.13037 442.06717
196.45213 211.1342 441.96704
197.62016 211.13815 441.86383
198.87775 211.34479 442.73264
200.04863 211.349 442.62277
201.21965 211.35333 442.5098
202.39082 211.35782 442.39365
203.6619 211.565 443.24854
204.73364 211.36716 442.15186
205.90527 211.37204 442.02615
206.9696 211.17442 440.92398
208.02895 210.97693 439.81915
208.97066 210.5769 437.73898
210.13266 210.58226 437.60172
211.29486 210.58775 437.4613
212.57765 210.79605 438.28949
213.8658 211.00453 439.11386
214.9082 210.80777 437.9921
216.20192 211.01656 438.80933
217.50102 211.22549 439.62271
218.6722 211.23187 439.46201
219.70769 211.03564 438.32831
221.01523 211.24507 439.13089
222.18709 211.25189 438.96045
223.64651 211.66446 440.724
224.67778 211.46878 439.57803
226.15065 211.88171 441.33307
227.17984 211.68634 440.18088
228.35812 211.69394 439.99323
229.22348 211.29591 437.86905
230.55634 211.50668 438.64182
231.57108 211.31183 437.47891
232.74532 211.32001 437.27887
233.75285 211.1254 436.11063
235.09464 211.33685 436.86874
236.0976 211.14252 435.69473
237.09567 210.94832 434.51831
238.26624 210.95728 434.30246
239.4371 210.9664 434.08328
240.60834 210.97568 433.86075
241.965 211.1882 434.59628
243.51497 211.60406 436.28839
244.50465 211.41077 435.09369
245.68243 211.42075 434.85648
246.66504 211.22772 433.65646
247.84094 211.23804 433.41296
248.81647 211.04529 432.20764
249.99052 211.05591 431.95779
251.37093 211.26999 432.66171
252.54837 211.28101 432.40436
253.93735 211.49548 433.09958
255.11821 211.50687 432.83469
256.51584 211.7218 433.52112
257.70013 211.73355 433.24854
259.10645 211.94891 433.92609
260.07001 211.75761 432.69278
261.48239 211.97339 433.36194
262.67102 211.98589 433.07446
263.86011 211.99857 432.78342
264.815 211.80786 431.53818
266.00241 211.82089 431.24054
267.19025 211.83408 430.93921
268.62109 212.05112 431.58286
269.81253 212.06473 431.27356
271.00446 212.07849 430.96063
272.19687 212.09244 430.64395
273.64276 212.31035 431.26938
274.83878 212.32469 430.94458
276.29352 212.54305 431.56033
278.01492 212.9655 433.1145
279.48383 213.18439 433.71909
280.69238 213.19955 433.37625
281.90149 213.2149 433.02954
283.11111 213.23044 432.67905
284.32129 213.24615 432.32468
284.9787 212.85388 430.08832
286.18463 212.86984 429.72772
287.10919 212.68182 428.42578
288.3136 212.69809 428.05826
289.80566 212.91873 428.62268
291.59338 213.34381 430.11652
292.5148 213.15636 428.80054
294.02167 213.37762 429.34897
295.53436 213.59909 429.89172
297.35321 214.02518 431.36044
298.57709 214.04266 430.96008
300.41287 214.46924 432.41553
302.25974 214.89609 433.86337
304.11768 215.3232 435.30359
305.0459 215.13681 433.95428
306.60184 215.3597 434.45532
307.52576 215.17343 433.09955
308.44482 214.98718 431.74146
309.68329 215.00568 431.30469
310.59534 214.81943 429.94104
311.83197 214.83798 429.49677
313.73334 215.26633 430.88974
315.31097 215.48996 431.35495
316.89423 215.71368 431.81396
318.48315 215.9375 432.26672
320.0777 216.16139 432.71326
320.987 215.97522 431.32208
322.58746 216.19914 431.75806
323.49194 216.0128 430.36035
325.4516 216.44186 431.69849
326.70984 216.46057 431.20493
329.04449 217.09494 433.43884
330.31097 217.11351 432.93356
332.66974 217.74796 435.14932
335.77789 218.79323 439.16913
337.06561 218.81158 438.64224
340.2135 219.85699 442.63705
347.13498 222.95746 455.65732
353.75861 225.85318 467.73676
352.85577 224.63834 461.7435
352.30331 223.62833 456.65994
354.80661 224.26262 458.77991
356.16132 224.27972 458.19333
353.6088 222.23938 448.62979
362.80176 226.3698 465.96796
370.12024 229.47212 478.7803
369.54504 228.45895 473.67822
368.54099 227.23903 467.69101
371.94702 228.28241 471.51868
369.68646 226.44312 462.86819
370.65045 226.24977 461.34668
374.07864 227.29108 465.14975
376.70258 227.91986 467.1636
377.255 227.51804 464.74002
378.21466 227.32112 463.20148
-41.697723 220.30795 429.04602
-40.013062 220.08951 428.7522
-38.332169 219.8703 428.4523
-37.465652 220.06728 429.92645
-35.787277 219.84662 429.61649
-34.513046 219.83377 430.19287
-33.63504 220.02863 431.659
-32.356094 220.01453 432.22861
-30.684235 219.79156 431.89819
-29.406281 219.77644 432.45859
-27.354187 219.34436 431.21811
-25.696167 219.12018 430.86847
-24.042969 218.89569 430.51245
-22.015854 218.46275 429.2482
-21.127335 218.65392 430.68396
-19.486328 218.42859 430.30978
-18.591965 218.61911 431.73938
-17.692123 218.80933 433.16696
-16.78685 218.99922 434.59247
-14.78772 218.56512 433.29077
-13.519531 218.54672 433.79935
-12.251389 218.5282 434.30365
-9.9187775 217.88614 432.06906
-8.6588135 217.86749 432.56171
-7.3990021 217.84875 433.05005
-5.792511 217.62225 432.61948
-3.5031128 216.9805 430.35138
-2.5961761 217.16936 431.73956
-1.0063934 216.94299 431.29019
0.24150085 216.92421 431.75327
1.4890442 216.90546 432.21216
2.4053192 217.09415 433.58734
3.6547852 217.07539 434.03876
4.5782318 217.26404 435.40836
5.8295441 217.24533 435.85223
7.4007568 217.01944 435.36761
8.9662018 216.79369 434.87692
10.210861 216.7753 435.3064
11.767471 216.54982 434.8046
13.318253 216.32455 434.29691
14.556198 216.30653 434.71216
15.489166 216.49568 436.05304
17.030518 216.27087 435.53036
18.266937 216.25322 435.93332
19.502823 216.2357 436.33221
21.032074 216.01144 435.79391
22.846802 215.58051 434.3158
24.073196 215.56354 434.7001
25.013077 215.75352 436.01608
26.524414 215.53006 435.4567
27.749222 215.51358 435.8291
28.973495 215.49722 436.19751
30.472717 215.27441 435.62311
31.966141 215.05182 435.04324
33.453773 214.82947 434.45795
34.668076 214.8139 434.80841
36.14679 214.59201 434.21313
37.357414 214.57683 434.55518
38.307854 214.76828 435.83676
39.263039 214.95984 437.116
40.731842 214.73874 436.5032
41.943077 214.72424 436.83072
43.403008 214.5036 436.20828
44.610626 214.4895 436.52762
46.061722 214.26935 435.8956
47.26577 214.25563 436.20676
48.230614 214.4483 437.46317
49.436317 214.43495 437.76764
50.875053 214.21562 437.11813
52.30809 213.99655 436.46371
53.507202 213.9838 436.75586
54.931511 213.76515 436.09222
56.127121 213.75278 436.3765
57.322296 213.7406 436.6572
58.299217 213.93459 437.88831
59.496162 213.92273 438.16241
60.905289 213.70514 437.47778
62.098778 213.6937 437.74423
63.499283 213.47653 437.05072
64.894173 213.2596 436.3526
66.081291 213.24872 436.6073
67.068436 213.44382 437.81653
68.651352 213.0217 436.14771
69.834732 213.01138 436.39145
70.825974 213.20695 437.59134
72.011238 213.19696 437.82867
73.382744 212.98141 437.1019
74.380722 213.17746 438.29309
75.746353 212.96231 437.55847
77.106461 212.74736 436.81946
78.461044 212.53264 436.07614
79.810135 212.3181 435.3284
80.982697 212.30936 435.54004
81.81813 212.71188 437.67639
82.82946 212.90894 438.84671
83.845688 213.10614 440.01459
85.027443 213.09796 440.21463
86.208939 213.08994 440.41125
87.701065 212.67114 438.67212
88.723953 212.86893 439.82797
90.052315 212.65594 439.04721
91.227554 212.64859 439.2298
92.402534 212.64139 439.40909
93.434761 212.83969 440.55334
94.891708 212.42204 438.78918
96.0634 212.41528 438.95828
97.234848 212.40869 439.12415
98.406075 212.40225 439.28674
99.706665 212.19064 438.47604
100.87489 212.18448 438.63174
102.0429 212.17848 438.78433
103.21071 212.17262 438.93365
104.37833 212.1669 439.0798
105.54574 212.16133 439.22275
106.82707 211.95065 438.39038
107.99155 211.94534 438.52658
109.15585 211.9402 438.65964
110.21364 212.14038 439.76239
111.58769 211.72511 437.94299
112.64774 211.92554 439.0397
113.81139 211.92093 439.1601
114.97488 211.91644 439.27728
116.23167 211.70694 438.41705
117.3923 211.70273 438.52774
118.46451 211.90376 439.60995
119.71315 211.69469 438.73962
120.79025 211.89597 439.81607
121.95294 211.89224 439.91437
123.03753 212.09377 440.98526
124.27795 211.88522 440.10172
125.36748 212.08694 441.16669
126.53228 212.08374 441.25269
127.76465 211.87558 440.35922
128.99176 211.66756 439.46228
130.15112 211.6647 439.53854
131.31039 211.66202 439.61182
132.46957 211.65939 439.68192
133.62868 211.65692 439.74893
134.73549 211.85962 440.79025
135.84738 212.06239 441.8287
137.10553 211.65022 439.93146
138.17538 212.05826 441.94159
139.33928 212.05637 441.99344
140.54245 211.84958 441.06415
141.77716 211.43793 439.15356
143.00154 211.0264 437.23944
144.27878 210.20499 433.36545
145.53537 209.38373 429.4877
146.74489 208.76758 426.58478
147.89114 208.56155 425.63541
149.03223 208.35565 424.68292
150.18687 207.94485 422.74878
151.29887 207.94417 422.76877
152.39726 208.14856 423.76443
153.52281 207.94312 422.7999
154.63477 207.94275 422.81097
155.75258 207.73752 421.84042
156.86194 207.73737 421.84564
157.9713 207.73732 421.8479
159.08066 207.7374 421.8472
160.19446 207.94257 422.82242
161.32742 208.5578 425.75204
162.46625 208.96817 427.69995
163.6154 209.37866 429.64468
164.7896 209.99425 432.565
165.99655 210.81497 436.46069
167.18439 211.2258 438.39581
168.38254 211.63678 440.32767
169.59103 212.04787 442.2562
170.78224 212.25409 443.20303
171.94849 212.25543 443.16833
173.11478 212.25691 443.13055
174.31644 212.4635 444.06775
175.44749 212.26016 443.04559
176.61394 212.26199 442.99847
177.78044 212.26392 442.94827
178.99265 212.47099 443.87262
180.11366 212.26814 442.83853
181.33115 212.47546 443.75641
182.55385 212.68291 444.6709
183.66995 212.48041 443.62772
184.78098 212.27802 442.58167
186.00909 212.48582 443.48645
187.1788 212.48872 443.41116
188.28238 212.28668 442.35626
189.44971 212.28983 442.27487
190.61714 212.29309 442.19037
191.78468 212.29645 442.10269
192.87579 212.09488 441.03619
194.12012 212.30362 441.91803
195.28801 212.30737 441.82098
196.54031 212.51639 442.69589
197.71104 212.52042 442.59225
198.8819 212.52457 442.4855
200.05292 212.52887 442.37561
201.22406 212.53328 442.26254
202.39537 212.53781 442.14624
203.66658 212.74768 443.00046
204.84077 212.7525 442.87756
205.91022 212.55228 441.77838
206.97467 212.35214 440.67661
208.14421 212.35736 440.54471
209.20126 212.15746 439.43738
210.25334 211.95769 438.32751
211.41826 211.96329 438.18658
212.70377 212.17429 439.01379
213.99466 212.38547 439.83713
215.03976 212.18622 438.71539
216.33621 212.39771 439.53159
217.50732 212.40405 439.37399
218.67865 212.41052 439.21313
219.85019 212.41714 439.04901
221.02196 212.42393 438.88168
222.05289 212.22546 437.74261
223.50989 212.64333 439.50522
224.68498 212.65057 439.32773
226.00917 212.8634 440.11417
227.18735 212.87097 439.92963
228.36581 212.87869 439.74179
229.38791 212.68109 438.58463
230.40509 212.48358 437.42493
231.41736 212.28621 436.26276
232.75356 212.50006 437.02768
233.92824 212.50853 436.8241
235.10321 212.51715 436.61713
236.27847 212.52596 436.4068
237.10452 212.12369 434.2674
238.27524 212.13278 434.05133
239.62625 212.34769 434.79382
240.80023 212.35712 434.57053
242.1597 212.57243 435.30475
243.71246 212.99368 436.99503
244.7049 212.79794 435.80008
245.88542 212.80811 435.56207
247.06635 212.81845 435.32071
248.24762 212.82895 435.07584
249.22852 212.63379 433.86975
250.40794 212.64462 433.61853
251.38179 212.44975 432.40717
252.55939 212.46091 432.14951
254.15977 212.88411 433.79938
255.34341 212.89569 433.53363
256.74387 213.11343 434.2186
258.14993 213.33139 434.89886
259.34006 213.34354 434.62122
260.30634 213.14981 433.38745
261.49472 213.16231 433.10327
262.68353 213.17499 432.81552
263.64075 212.98172 431.57355
264.82785 212.99472 431.27917
266.01544 213.00793 430.98117
267.44336 213.22754 431.62814
268.87704 213.44739 432.27014
269.82611 213.2549 431.01257
271.26599 213.47519 431.64587
272.46118 213.48935 431.32816
273.65689 213.50369 431.00671
274.85309 213.51822 430.68152
276.30804 213.73938 431.29639
278.02966 214.1673 432.84906
279.49878 214.38895 433.45264
280.70752 214.40433 433.10941
282.18555 214.62646 433.70316
283.12659 214.43561 432.4115
284.61093 214.65814 432.99594
285.54773 214.46754 431.698
286.75909 214.48376 431.33545
287.68909 214.29343 430.03217
288.89886 214.30992 429.66254
290.39642 214.53343 430.22433
291.89978 214.75716 430.78052
292.53143 214.36038 428.53024
294.03851 214.58447 429.0777
295.25354 214.60175 428.68747
297.06998 215.03323 430.15549
298.29138 215.05087 429.75555
300.73608 215.89702 433.06891
302.2774 216.12218 433.58575
304.75751 216.96907 436.87946
305.6911 216.7803 435.52853
307.25244 217.00607 436.0267
308.1817 216.81741 434.66928
309.10614 216.62877 433.30948
310.0257 216.44009 431.94736
310.61346 216.04401 429.66089
312.17975 216.27017 430.13733
313.75168 216.49646 430.60757
315.32932 216.72284 431.07172
316.9126 216.94931 431.52966
318.50159 217.17587 431.98141
320.43896 217.61015 433.34308
321.35086 217.42151 431.95108
322.95395 217.64818 432.38504
324.21179 217.66711 431.8996
326.17673 218.10158 433.23401
327.44022 218.12041 432.73795
329.78015 218.76279 434.96753
330.69037 218.57355 433.55081
333.05167 219.21594 435.76328
335.79568 220.06641 438.87177
338.93036 221.125 442.87292
343.57983 223.01608 450.47711
350.90021 226.36441 464.38126
355.66357 228.25647 471.92883
356.67374 228.06693 470.43939
352.70282 225.16995 457.24649
353.28156 224.77075 454.86841
355.01318 224.99588 455.18399
355.96808 224.80392 453.69958
361.24365 226.90335 462.06345
368.94733 230.25317 475.76532
369.95795 230.06021 474.24213
368.15314 228.40738 466.47345
370.34409 228.83817 467.62695
370.51138 228.22577 464.32379
372.70746 228.65508 465.46536
374.91251 229.0836 466.59793
376.29742 229.09418 465.95001
376.42908 228.47806 462.64435
376.96268 228.06941 460.22571
-41.292847 221.36671 427.85562
-40.432816 221.56827 429.3353
-38.750076 221.3468 429.03726
-37.881699 221.54669 430.51199
-36.201431 221.32372 430.20404
-34.925217 221.3111 430.78168
-33.647858 221.29784 431.35541
-32.369507 221.28395 431.9252
-30.306107 220.84766 430.70016
-28.641907 220.62183 430.36301
-26.982285 220.39558 430.01947
-25.327362 220.16895 429.66959
-23.67717 219.94197 429.31329
-22.031815 219.71466 428.95056
-21.143723 219.90857 430.38608
-19.502945 219.68066 430.01282
-18.238083 219.66321 430.53763
-16.972992 219.64548 431.05823
-16.073303 219.8381 432.48132
-14.44249 219.60934 432.08682
-13.17717 219.59099 432.59473
-11.91185 219.57248 433.09839
-9.9367828 219.13293 431.77591
-8.3247223 218.90385 431.35699
-7.0676575 218.88509 431.84473
-5.810791 218.86624 432.32822
-3.8656158 218.42679 430.97739
-2.9561005 218.61815 432.36639
-1.0247192 218.17883 431.00208
-0.11312866 218.37009 432.38361
1.1371002 218.35117 432.84387
2.0559692 218.54233 434.21988
3.6364746 218.31339 433.75171
4.2342377 218.71451 436.04303
5.811264 218.48567 435.56552
7.0621948 218.4669 436.00565
8.9481354 218.02844 434.59225
9.8777924 218.21974 435.94778
11.437164 217.99146 435.44794
13.300507 217.55359 434.01483
14.845673 217.3257 433.50226
15.471573 217.72702 435.77127
17.314957 217.28976 434.31955
18.548843 217.27197 434.72211
19.485641 217.4639 436.05234
20.721146 217.44633 436.4476
22.538712 217.00995 434.97202
23.479202 217.20221 436.29184
24.710541 217.18512 436.6741
26.224655 216.95883 436.11664
27.452271 216.94211 436.4902
28.957458 216.71625 435.92233
30.456863 216.49062 435.34897
31.950478 216.2652 434.77008
33.438301 216.04007 434.18582
34.652756 216.02432 434.53668
36.131668 215.79962 433.94238
37.342491 215.78424 434.28476
38.552773 215.76904 434.62338
39.505478 215.96307 435.90167
40.971855 215.7392 435.28912
41.928795 215.93353 436.56128
43.139725 215.91902 436.88538
44.350143 215.90471 437.20578
45.804062 215.6817 436.57538
47.252251 215.45895 435.93994
48.217255 215.65405 437.19608
49.659271 215.43173 436.55188
50.862083 215.4184 436.85233
52.295341 215.19652 436.19876
53.494621 215.18359 436.49127
54.919151 214.96216 435.82849
55.891861 215.15828 437.06537
57.089828 215.14589 437.34695
58.069511 215.34229 438.5784
59.269234 215.33025 438.85342
60.68116 215.10986 438.17029
61.877449 215.09821 438.43756
63.488182 214.66975 436.78973
64.88327 214.45006 436.0925
66.070549 214.43903 436.34747
67.057846 214.63657 437.55637
68.640976 214.20909 435.88901
69.824547 214.19859 436.13293
70.815926 214.39664 437.33255
71.812149 214.59482 438.52975
73.186447 214.3765 437.80435
74.187172 214.57498 438.99567
75.737 214.14879 437.30127
76.918472 214.13934 437.52469
78.452057 213.71362 435.82056
79.801331 213.49635 435.07364
80.974052 213.48747 435.28549
81.97805 213.6869 436.45743
82.986931 213.88647 437.62695
84.163956 213.87805 437.82968
85.340691 213.86978 438.02902
86.517151 213.86166 438.22504
87.848808 213.64563 437.45206
89.022125 213.63786 437.64105
90.195183 213.63025 437.82672
91.220276 213.83081 438.97601
92.250298 214.03148 440.1228
93.427773 214.02429 440.29938
94.744965 213.80928 439.50458
95.919373 213.80243 439.67426
97.093559 213.79572 439.84064
98.267525 213.78912 440.00372
99.570854 213.57481 439.19415
100.74181 213.56854 439.35037
101.91254 213.56244 439.50345
103.08308 213.55646 439.65323
104.25342 213.55063 439.79984
105.42355 213.54495 439.94324
106.70761 213.33157 439.11191
107.87481 213.32617 439.24857
109.04182 213.32094 439.38205
110.20867 213.31583 439.51233
111.5829 212.89526 437.69409
112.64307 213.09821 438.79037
113.80684 213.09354 438.91089
114.97046 213.08897 439.02823
116.22739 212.8768 438.1687
117.29727 213.08026 439.25345
118.46048 213.0761 439.36127
119.70926 212.86435 438.49158
120.78648 213.06816 439.56757
121.86873 213.27209 440.64087
122.95602 213.47614 441.71149
124.19915 213.26492 440.8288
125.29137 213.46919 441.89349
126.52912 213.25824 441.00412
127.76162 213.04742 440.11124
128.98886 212.83676 439.21494
130.14835 212.83386 439.29132
131.30774 212.83112 439.36462
132.58176 212.41319 437.48175
133.68105 212.61832 438.52524
134.7854 212.82358 439.56589
135.89484 213.02892 440.60376
137.10345 212.81915 439.68463
138.17343 213.23233 441.69373
139.37935 213.0228 440.76825
140.58008 212.8134 439.83951
141.81235 212.39651 437.92993
143.03426 211.97977 436.01682
144.27744 211.35556 433.12271
145.50513 210.73146 430.22498
146.71733 210.10751 427.32382
147.86629 209.89888 426.37509
149.03137 209.48276 424.44522
150.18613 209.06676 422.51218
151.29823 209.06606 422.5322
152.39674 209.27306 423.52737
153.5224 209.06497 422.56332
154.63446 209.06461 422.57446
155.74651 209.06436 422.58264
156.85855 209.06421 422.58786
157.9706 209.06418 422.59018
159.0845 209.27182 423.56772
160.20799 209.68716 425.52054
161.34879 210.31021 428.44849
162.50504 210.93335 431.37332
163.67676 211.55664 434.29504
164.86394 212.18004 437.2135
166.04929 212.59598 439.1506
167.22507 212.80446 440.10651
168.40605 213.01306 441.05917
169.59219 213.22177 442.00864
170.78354 213.43062 442.9549
171.98007 213.63959 443.89789
173.18181 213.84866 444.83762
174.35341 213.85028 444.79648
175.48715 213.64441 443.77472
176.6563 213.64624 443.72745
177.78244 213.44061 442.69986
178.99477 213.65033 443.62363
180.16409 213.65253 443.56699
181.3335 213.65485 443.50723
182.55634 213.86493 444.42111
183.67255 213.65988 443.37839
184.78369 213.45493 442.33282
185.95085 213.45773 442.26077
187.18176 213.66835 443.16171
188.28546 213.46375 442.10724
189.52173 213.67462 443.00156
190.69186 213.67792 442.91675
191.78813 213.47369 441.85342
192.95592 213.47726 441.76257
194.12381 213.48096 441.66855
195.29184 213.48477 441.57141
196.45999 213.48874 441.47107
197.71513 213.70053 442.34189
198.88614 213.70477 442.23508
200.05728 213.70912 442.12503
201.22855 213.71362 442.01184
202.49718 213.92603 442.86884
203.67134 213.93079 442.74896
204.84567 213.93568 442.62595
205.91525 213.73294 441.52725
206.97983 213.53027 440.42587
208.14949 213.53557 440.29379
209.31934 213.54102 440.15857
210.37411 213.33873 439.04877
211.65961 213.55231 439.87848
212.83002 213.55817 439.73361
214.12364 213.77205 440.55594
215.17145 213.5703 439.4342
216.47067 213.78452 440.24939
217.51373 213.58302 439.12186
218.6852 213.5896 438.96085
219.72095 213.38838 437.82794
220.89029 213.39525 437.66077
221.91875 213.19429 436.52249
223.22966 213.40944 437.31668
224.54601 213.62479 438.10687
225.7189 213.63228 437.92621
226.89206 213.63992 437.74234
228.06549 213.64774 437.55508
229.23918 213.6557 437.36456
230.41315 213.66382 437.17075
231.42557 213.46397 436.00897
232.76193 213.68054 436.77307
233.93677 213.68915 436.56924
235.28152 213.90611 437.32541
236.45955 213.91505 437.11438
237.4631 213.71596 435.93768
238.63918 213.7252 435.72037
239.81558 213.73465 435.49976
240.99231 213.74426 435.27576
242.16937 213.75403 435.04828
243.53456 213.97229 435.77728
244.52454 213.77408 434.58313
245.89565 213.99275 435.30429
246.88113 213.79485 434.10434
248.25818 214.0139 434.81747
249.23921 213.8163 433.61169
250.41882 213.82729 433.36017
251.39281 213.62994 432.14905
252.77921 213.84981 432.84668
254.1712 214.06989 433.53964
255.56885 214.29019 434.22791
256.75568 214.30212 433.95764
257.9429 214.31425 433.68387
258.90894 214.11789 432.45398
260.09442 214.13036 432.17368
261.28036 214.14301 431.8898
262.46674 214.15582 431.60229
263.65356 214.16882 431.31122
264.84088 214.18204 431.01654
266.26593 214.40424 431.6669
267.45679 214.41782 431.36426
268.89069 214.64047 432.00537
270.08508 214.65446 431.6947
271.27997 214.66864 431.38034
272.72577 214.89197 432.0076
273.92426 214.90652 431.68506
275.12323 214.92126 431.3588
276.58105 215.14526 431.97198
278.04459 215.36952 432.5799
279.2504 215.38489 432.24091
280.45667 215.40041 431.89801
281.93225 215.62531 432.49146
283.14221 215.6412 432.14017
284.62677 215.86658 432.72363
285.84039 215.88286 432.3638
287.05457 215.89931 432.00006
288.26929 215.91592 431.63239
289.7691 216.14212 432.19629
290.70026 215.94963 430.88528
292.20639 216.17621 431.43961
293.13333 215.98395 430.12231
294.35065 216.00131 429.73486
295.27069 215.80922 428.41205
297.08728 216.24612 429.87839
298.30878 216.26393 429.478
300.44803 216.91104 431.8598
301.98688 217.13898 432.37656
304.15356 217.78668 434.7413
305.39557 217.80522 434.31836
306.95441 218.03374 434.81644
308.20001 218.05249 434.38425
309.12445 217.86136 433.02463
310.36832 217.88022 432.58505
310.95874 217.47906 430.29843
312.19812 217.49792 429.85233
313.77011 217.72697 430.32159
315.34778 217.95612 430.78467
316.5936 217.97513 430.32407
318.52014 218.41464 431.69229
320.11469 218.64398 432.13672
321.0238 218.45273 430.74588
322.97241 218.89246 432.09341
323.8793 218.70105 430.69501
326.19507 219.35126 432.94031
327.81458 219.5806 433.35422
329.79834 220.02045 434.67111
330.70831 219.8286 433.25464
333.43372 220.68948 436.37207
336.54712 221.76115 440.38278
339.68701 222.83296 444.37827
344.34186 224.74776 451.97427
350.91824 227.71669 464.06018
354.92664 229.21078 469.79831
357.07141 229.65091 471.01328
356.54706 228.61476 465.92288
356.38098 227.78873 461.7377
357.3573 227.59473 460.24884
361.45331 229.08783 465.92596
367.15906 231.42476 475.16177
370.94214 232.70668 479.89911
371.56662 232.29991 477.47794
372.17932 231.89233 475.05719
371.56833 230.8506 469.96664
369.3031 228.96335 461.32846
371.08121 229.18628 461.58466
374.51044 230.25308 465.38025
375.4772 230.05199 463.84833
375.60254 229.42749 460.54715
376.9693 229.43549 459.8978
-41.30072 222.63388 427.54791
-40.031036 222.62477 428.14053
-38.351746 222.40106 427.84189
-37.486847 222.60397 429.31482
-35.809921 222.37872 429.00632
-34.937088 222.58008 430.47409
-33.660416 222.56711 431.04797
-32.38269 222.55347 431.61792
-30.711899 222.32568 431.28909
-28.656143 221.88391 430.05804
-26.996964 221.65518 429.7153
-24.958328 221.21262 428.46805
-23.692688 221.19662 429.01093
-22.047684 220.96678 428.64908
-21.159973 221.16341 430.08426
-19.519501 220.93295 429.71194
-18.625824 221.12885 431.14099
-17.358353 221.11111 431.66302
-16.090729 221.09314 432.18085
-14.460098 220.86179 431.78735
-13.194946 220.84341 432.29562
-11.57222 220.61179 431.89044
-9.9548645 220.38008 431.47891
-8.3428802 220.14832 431.06104
-7.0859375 220.1295 431.54919
-5.8291473 220.1106 432.03308
-4.2282562 219.87871 431.5983
-3.3161774 220.07257 432.9881
-1.7210693 219.84067 432.54285
-0.80422974 220.03438 433.92615
0.45127869 220.01526 434.38882
2.0374756 219.78348 433.92792
3.6180267 219.55176 433.46082
4.867157 219.53279 433.90891
6.115921 219.51385 434.35272
7.3642273 219.49498 434.79242
9.2476807 219.05118 433.37976
10.489822 219.03252 433.80923
11.731552 219.01393 434.2345
13.592438 218.57069 432.80212
15.135071 218.34006 432.28976
15.758377 218.74649 434.55707
16.995499 218.72839 434.96506
18.531418 218.49817 434.43857
19.468292 218.69252 435.76865
20.703918 218.67479 436.16434
22.230347 218.4451 435.62323
23.462326 218.42767 436.00998
24.693741 218.41043 436.39282
26.208069 218.18134 435.83633
27.435837 218.1644 436.21027
28.663071 218.14766 436.58032
30.165298 217.91919 436.00876
31.934624 217.4791 434.49323
33.152397 217.46294 434.84912
34.637268 217.2352 434.26123
36.116386 217.00768 433.66791
37.064995 217.20383 434.95215
38.278076 217.18845 435.2919
39.233566 217.38484 436.57065
40.702766 217.15814 435.95984
41.914345 217.14328 436.28815
43.125443 217.1286 436.61261
44.336029 217.11411 436.93341
45.790169 216.88831 436.30396
47.238571 216.66273 435.66943
48.20372 216.86029 436.92538
49.645966 216.63513 436.28201
50.848953 216.62164 436.58282
52.051483 216.60831 436.87994
53.48188 216.38385 436.22302
54.680893 216.37094 436.51224
55.656372 216.56946 437.74942
56.85714 216.55688 438.03195
58.057457 216.54448 438.31088
59.257355 216.53229 438.58627
60.456841 216.52023 438.85797
61.655914 216.50841 439.12616
63.26947 216.07455 437.48038
64.462524 216.06313 437.74033
65.85743 215.84082 437.04041
66.847466 216.04083 438.24963
68.433441 215.60793 436.58414
69.619766 215.59726 436.82892
70.613899 215.79774 438.02878
71.802109 215.78741 438.26715
73.36322 215.35544 436.58307
74.361496 215.5564 437.77359
75.727501 215.33574 437.04062
76.909149 215.32614 437.26425
78.442932 214.89508 435.56152
79.618744 214.88586 435.7774
80.965279 214.66605 435.0275
81.800972 215.07872 437.16199
82.978447 215.06999 437.36829
84.155632 215.06143 437.5712
85.332527 215.05304 437.77078
86.509132 215.0448 437.96704
87.840973 214.82605 437.19482
89.014442 214.81815 437.384
90.337975 214.59976 436.60391
91.508347 214.59219 436.78607
92.533325 214.79541 437.9317
93.705772 214.78815 438.1077
94.877991 214.78104 438.28043
96.049965 214.77406 438.44989
97.22171 214.76726 438.61609
98.393234 214.76059 438.77899
99.564537 214.75409 438.93872
100.73563 214.74774 439.09518
101.90651 214.74152 439.24835
102.95532 214.94594 440.36832
104.24767 214.72954 439.54507
105.41795 214.72375 439.68857
106.58804 214.71814 439.82895
107.75797 214.71265 439.96603
109.03665 214.49689 439.12842
110.09726 214.70209 440.23068
111.47423 214.27625 438.41397
112.53709 214.48172 439.51013
113.70359 214.47693 439.63101
114.96597 214.26193 438.77579
116.12959 214.25745 438.89011
117.29306 214.25307 439.00119
118.45638 214.24884 439.10919
119.61958 214.24474 439.21402
120.78265 214.24075 439.31564
121.94558 214.23694 439.41425
123.03041 214.44354 440.48419
124.19569 214.43994 440.57663
125.43369 214.2262 439.69104
126.59617 214.22289 439.77704
127.82622 214.00943 438.88464
128.98592 214.00638 438.9642
130.20804 213.79318 438.06503
131.24509 214.21088 440.08987
132.52184 213.7877 438.20834
133.67859 213.78516 438.27536
134.83528 213.78275 438.33932
135.94226 213.99065 439.37653
137.10138 213.98846 439.43442
138.17145 214.40683 441.44244
139.3775 214.19467 440.51761
140.539 214.19284 440.56631
141.77397 213.77072 438.65799
142.9986 213.34875 436.74619
144.21286 212.9269 434.83093
145.38776 212.71539 433.88956
146.61038 212.08362 430.99039
147.81752 211.45197 428.08774
148.96655 211.24083 427.13666
150.14789 210.60944 424.22742
151.28142 210.39853 423.26996
152.38261 210.60809 424.26462
153.49995 210.6076 424.27881
154.6257 210.39705 423.31235
155.73457 210.60696 424.29825
156.85188 210.60681 424.3035
157.96848 210.81694 425.28342
159.09207 211.23738 427.2381
160.22597 211.65793 429.18973
161.37718 212.28877 432.116
162.55342 213.12991 436.01669
163.73813 213.76099 438.93658
164.90884 213.97183 439.89807
166.10204 214.39299 441.83392
167.26579 214.39392 441.81165
168.45203 214.60513 442.76361
169.61842 214.60626 442.73502
170.78485 214.60754 442.70337
171.98151 214.81912 443.64572
173.18336 215.03084 444.58487
174.35509 215.03249 444.5437
175.48895 214.82404 443.52252
176.6582 214.82591 443.47516
177.82753 214.82791 443.42474
178.99692 214.83003 443.37119
180.16637 214.83228 443.31451
181.33589 214.83466 443.2547
182.55887 215.04738 444.16797
183.67519 214.83975 443.1257
184.78645 214.63226 442.08066
185.89264 214.42487 441.03281
187.12111 214.63812 441.93326
188.28859 214.64124 441.85483
189.45616 214.64447 441.77328
190.62386 214.64783 441.6886
191.79164 214.65134 441.60077
192.95956 214.65497 441.5098
194.04846 214.44841 440.44128
195.21402 214.4523 440.34424
196.46402 214.66663 441.21799
197.7193 214.8811 442.0882
198.80098 214.67505 441.00772
199.96968 214.67949 440.89786
201.23312 214.89441 441.75781
202.50186 215.10947 442.61401
203.57642 214.90393 441.52161
204.85065 215.11929 442.37097
206.02527 215.12442 442.24463
207.09256 214.91927 441.1434
208.15485 214.71423 440.03952
209.43753 214.93021 440.87524
210.49503 214.72543 439.76559
211.66539 214.73122 439.62372
212.95639 214.94765 440.44888
214.12973 214.95377 440.30035
215.17767 214.74951 439.17902
216.47702 214.96643 439.99344
217.52023 214.76245 438.86636
218.55849 214.55859 437.73676
219.5918 214.35484 436.60455
220.89722 214.57237 437.40527
221.92583 214.36893 436.26736
223.0932 214.37619 436.09387
224.55341 214.80486 437.85022
225.72647 214.81247 437.66943
226.89978 214.82025 437.48532
228.22742 215.03885 438.26321
229.40387 215.04694 438.07205
230.42134 214.8445 436.91312
231.59573 214.85291 436.7157
232.93488 215.07224 437.47861
233.94543 214.87021 436.31094
235.29037 215.0899 437.06625
236.46857 215.099 436.85507
237.29745 214.6866 434.71695
238.4711 214.69598 434.49991
239.82507 214.91641 435.2403
241.00195 214.92615 435.01596
242.1792 214.93607 434.78833
243.54459 215.1571 435.51651
244.5347 214.95642 434.32263
245.713 214.96687 434.08469
246.89165 214.97749 433.84329
248.26889 215.19931 434.5556
249.25008 214.99927 433.35013
250.63329 215.2215 434.05441
251.61002 215.02173 432.84299
252.99922 215.24438 433.53918
254.39404 215.46725 434.23065
255.58063 215.47919 433.96365
256.76764 215.4913 433.69315
257.95505 215.5036 433.41904
259.14291 215.51607 433.14139
260.10693 215.31744 431.90881
261.51993 215.54156 432.57532
262.70911 215.5546 432.28687
264.13086 215.77921 432.94424
265.55829 216.00403 433.59668
266.75409 216.01768 433.29608
267.95035 216.03152 432.99176
269.38965 216.25703 433.63052
270.34427 216.05974 432.37204
271.29413 215.86255 431.11121
272.48965 215.87709 430.79276
273.43262 215.68018 429.52658
274.88226 215.90671 430.14465
276.07932 215.92178 429.815
277.79877 216.3605 431.3653
279.00208 216.37601 431.02655
280.2059 216.39169 430.68405
281.41025 216.40756 430.33774
282.8866 216.63544 430.92636
284.36868 216.86357 431.50961
285.57986 216.88 431.15015
287.07092 217.10858 431.72327
288.28577 217.12537 431.35516
289.78577 217.35437 431.91806
291.00433 217.37154 431.54129
292.51331 217.60095 432.09378
293.7355 217.61844 431.70819
294.95825 217.63606 431.3186
295.88367 217.44159 429.99429
297.40527 217.67174 430.5274
298.62952 217.68976 430.12576
300.46585 218.1326 431.57626
302.00482 218.36333 432.09195
303.86066 218.80667 433.52808
305.41385 219.03778 434.03107
306.6564 219.05656 433.60349
307.89944 219.07544 433.17181
308.82126 218.88179 431.81329
310.38684 219.11337 432.2959
310.97717 218.70708 430.01007
312.54623 218.93881 430.48343
314.45325 219.38339 431.86948
315.36639 219.18976 430.49371
316.94977 219.42172 430.94962
318.53876 219.65375 431.39926
320.47626 220.09875 432.7576
321.04236 219.69203 430.45203
322.99091 220.13707 431.79779
324.24857 220.15613 431.31152
326.21344 220.60123 432.64261
327.83286 220.83327 433.05554
329.81653 221.27838 434.37076
331.08783 221.29712 433.86218
333.45163 221.95535 436.06912
337.29868 223.46671 441.8873
341.1828 224.97833 447.68591
345.10397 226.4902 453.46481
349.81177 228.42905 461.02826
353.0571 229.51453 464.96283
355.18823 229.95963 466.18182
354.26721 228.69653 460.20111
352.92828 227.21906 453.33206
355.4325 227.87617 455.44
359.9057 229.60092 462.0137
363.63361 230.89835 466.77597
368.58044 232.83643 474.19888
370.38434 233.06497 474.46149
370.18564 232.22433 470.26416
372.38837 232.66508 471.40891
371.34723 231.39511 465.43875
371.50064 230.76529 462.14011
375.34357 232.05859 466.81714
376.72906 232.06827 466.16806
375.19257 230.58011 459.33176
375.71606 230.15988 456.91965
-41.308136 223.90094 427.23648
-40.039383 223.89229 427.82904
-38.768951 223.88274 428.41806
-37.091583 223.65599 428.11514
-35.82077 223.64479 428.69553
-34.948685 223.84911 430.16275
-33.672699 223.83643 430.73672
-32.395615 223.82306 431.30679
-29.941162 223.16052 429.19049
-28.28064 222.9299 428.85382
-26.624649 222.69879 428.51083
-24.973251 222.46729 428.16156
-23.708054 222.45142 428.70465
-22.821213 222.65117 430.14359
-21.928574 222.85043 431.5806
-19.909546 222.40143 430.30933
-18.642654 222.38406 430.83594
-17.375488 222.36639 431.35831
-16.108124 222.34846 431.8765
-14.477707 222.1145 431.48404
-13.212769 222.09615 431.99268
-11.590195 221.86188 431.58853
-9.9729462 221.62753 431.17801
-8.7133636 221.60875 431.67181
-7.4538727 221.58984 432.16138
-6.1945496 221.57086 432.64676
-4.935379 221.55176 433.12784
-3.6763916 221.53259 433.60464
-2.4176941 221.5134 434.07727
-1.4956055 221.70956 435.46234
0.098922729 221.47491 435.00964
1.3567505 221.45566 435.46948
2.9426422 221.22113 435.00543
4.5228424 220.98671 434.53525
6.0973969 220.75238 434.0589
7.3457642 220.73338 434.49902
8.9115448 220.4993 434.01147
10.471573 220.26538 433.51797
11.713348 220.24664 433.94373
13.574417 219.798 432.51303
15.117203 219.56458 432.00168
16.045059 219.76118 433.34036
17.279678 219.74294 433.74783
18.513779 219.72482 434.15128
19.747421 219.70682 434.5506
20.392517 220.1185 436.80869
21.921768 219.88596 436.26941
23.445236 219.65363 435.72443
24.676804 219.63618 436.10764
25.907852 219.61891 436.48691
27.138412 219.60178 436.86209
28.368423 219.58481 437.23334
30.149017 219.13896 435.72653
31.645653 218.90791 435.15048
33.136513 218.67712 434.569
34.353935 218.66095 434.92139
35.835884 218.4306 434.32983
37.049652 218.41483 434.67377
38.262924 218.39922 435.01385
39.475677 218.38382 435.35019
40.687943 218.36858 435.68265
41.899712 218.35352 436.01129
43.110985 218.33865 436.33615
44.815086 217.89569 434.767
46.020142 217.88124 435.08298
47.466141 217.65292 434.44876
48.428833 217.85294 435.70374
49.86866 217.62503 435.06073
50.83564 217.82536 436.30972
52.038345 217.81186 436.60721
53.240608 217.79855 436.901
54.668144 217.57152 436.24075
55.643791 217.77249 437.47766
56.844734 217.75972 437.76053
58.263138 217.53334 437.08752
59.460602 217.521 437.36261
60.657654 217.50882 437.63409
62.064377 217.28311 436.94797
63.258011 217.27133 437.2117
64.451248 217.25974 437.47192
65.644096 217.24834 437.72861
66.836563 217.23711 437.98175
68.225693 217.01245 437.2746
69.609245 216.78802 436.56287
70.79538 216.7774 436.80447
71.981171 216.76694 437.04257
73.353241 216.54312 436.31836
74.535721 216.53305 436.54913
75.717865 216.52315 436.77643
77.078537 216.29996 436.03986
78.433685 216.07697 435.29895
79.609642 216.06763 435.51514
80.785309 216.05846 435.72787
81.792191 216.26282 436.8996
82.969826 216.25397 437.10611
83.983894 216.45862 438.27246
85.324226 216.23676 437.50906
86.501007 216.22839 437.70551
87.988533 215.79361 435.96954
89.159576 215.78561 436.15851
90.480682 215.56454 435.37885
91.648621 215.55687 435.56076
92.671143 215.76257 436.70563
93.698593 215.96841 437.84802
95.010941 215.748 437.05396
96.043091 215.95412 438.19052
97.349792 215.73405 437.38925
98.518883 215.72729 437.55197
99.817375 215.50758 436.7431
100.8564 215.71426 437.86774
102.1493 215.49487 437.05173
103.19308 215.70181 438.17056
104.36111 215.69582 438.31717
105.52896 215.68994 438.46051
106.69662 215.68425 438.60068
107.86409 215.6787 438.73767
109.03139 215.67325 438.87137
110.19851 215.668 439.00198
111.36546 215.66286 439.12933
112.53225 215.65785 439.25351
113.79752 215.44002 438.40244
114.96141 215.43532 438.52002
116.12515 215.43076 438.63443
117.28876 215.4263 438.74567
118.45222 215.42201 438.85373
119.61555 215.41785 438.95868
120.77875 215.41382 439.06046
121.94181 215.40991 439.15912
123.02676 215.61905 440.22858
124.19217 215.61539 440.32111
125.35747 215.61189 440.41055
126.52266 215.60851 440.49683
127.75542 215.3924 439.60526
128.98293 215.17642 438.71021
130.14265 215.17343 438.78674
131.30229 215.17058 438.8602
132.51921 214.95502 437.95517
133.62131 215.16525 438.99774
134.7807 215.16278 439.06192
135.94 215.16043 439.12292
137.09924 215.1582 439.18085
138.16943 215.58173 441.18784
139.37561 215.36694 440.26361
140.53723 215.36508 440.31238
141.69881 215.36334 440.358
142.9287 214.93614 438.4476
144.11662 214.72186 437.51028
145.32841 214.29492 435.59305
146.5563 213.65532 432.69574
147.74484 213.22864 430.77176
148.92303 212.80209 428.84451
150.10963 212.1629 425.93713
151.24843 211.94937 424.98035
152.35489 212.16153 425.97458
153.47748 212.16103 425.9888
154.60007 212.16064 426.00009
155.71091 212.58594 427.96255
156.83864 212.58577 427.96783
157.96564 212.79849 428.94727
159.09964 213.22412 430.90076
160.24838 213.86266 433.82837
161.41258 214.50131 436.75284
162.59225 215.14008 439.6741
163.76306 215.35341 440.63812
164.93904 215.56686 441.59903
166.12019 215.78046 442.55667
167.26675 215.5686 441.55737
168.45313 215.78244 442.50879
169.61963 215.7836 442.48016
170.78619 215.78488 442.44843
171.98297 215.99911 443.39029
173.18494 216.21344 444.32877
174.35678 216.2151 444.28757
175.49077 216.00409 443.26688
176.66016 216.00598 443.21948
177.78653 215.7952 442.19284
178.9991 216.01019 443.11539
180.16869 216.01247 443.05865
181.38913 216.22771 443.97458
182.56143 216.23026 443.91147
183.67787 216.02008 442.86972
184.73073 215.59717 440.84979
185.95667 215.81293 441.7529
187.18784 216.02882 442.65256
188.35802 216.03198 442.57388
189.59714 216.24817 443.46674
190.77011 216.25162 443.38159
191.8692 216.0423 442.319
192.96326 215.83308 441.25366
194.13141 215.83691 441.15945
195.2997 215.84085 441.0621
196.46811 215.84494 440.96158
197.72354 216.06209 441.83109
198.80533 215.85352 440.75101
199.97417 215.858 440.64105
201.23775 216.07559 441.50031
202.50665 216.29335 442.3559
203.58131 216.08528 441.26385
204.95807 216.51633 443.0842
206.03047 216.30853 441.98605
207.20541 216.31387 441.85635
208.38054 216.3194 441.72351
209.55583 216.32501 441.58737
210.61603 216.11774 440.47775
211.78912 216.12366 440.33551
212.96242 216.12971 440.19003
214.13591 216.13593 440.04129
215.05836 215.71605 437.95148
216.22711 215.72253 437.79694
217.26527 215.51602 436.67096
218.29849 215.30963 435.54242
219.32675 215.10336 434.41141
220.62717 215.32358 435.2121
221.79187 215.3308 435.04208
222.9568 215.33815 434.86877
