ply
format ascii 1.0
comment PCL generated
element vertex 1591
property float x
property float y
property float z
element camera 0
property float view_px
property float view_py
property float view_pz
property float x_axisx
property float x_axisy
property float x_axisz
property float y_axisx
property float y_axisy
property float y_axisz
property float z_axisx
property float z_axisy
property float z_axisz
property float focal
property float scalex
property float scaley
property float centerx
property float centery
property int viewportx
property int viewporty
property float k1
property float k2
end_header
316.28787 151.47067 434.01996
317.17194 151.40994 432.63388
318.39789 151.41858 432.18106
319.62445 151.42729 431.72397
321.20349 151.50545 432.19614
323.14307 151.65309 433.59457
324.37946 151.66208 433.1218
325.97626 151.74057 433.57513
327.57898 151.81915 434.02213
329.18759 151.89783 434.46271
331.16992 152.04608 435.8241
334.64551 152.47249 440.88181
338.89993 153.03822 447.77249
343.57343 153.67387 455.56558
348.29535 154.30992 463.33438
351.54105 154.66806 467.3913
354.42999 154.95683 470.5116
355.79462 154.9673 469.93961
357.15958 154.9778 469.36279
358.52484 154.98831 468.78113
361.07404 155.20789 470.94336
362.84503 155.28818 471.2637
364.22165 155.29878 470.66293
365.59839 155.30937 470.05731
367.38037 155.38969 470.3584
368.35193 155.33046 468.83157
369.31805 155.27115 467.3024
371.1051 155.35138 467.58661
372.89731 155.43161 467.86368
373.8573 155.37204 466.32251
-37.403091 153.78513 431.45117
-35.725143 153.70297 431.11554
-34.459015 153.69318 431.68384
-32.788864 153.61099 431.33582
-31.525345 153.60115 431.8941
-30.261887 153.59128 432.44797
-29.39444 153.65369 433.91278
-27.735306 153.57152 433.5423
-26.472305 153.56163 434.08282
-25.209549 153.55176 434.61887
-23.561829 153.4697 434.23047
-22.302368 153.45988 434.75653
-21.043289 153.4501 435.27817
-19.03006 153.29605 433.94873
-18.151718 153.35851 435.38373
-16.152725 153.20465 434.04007
-14.534134 153.12302 433.61432
-13.287949 153.11353 434.10962
-12.042297 153.1041 434.60059
-10.435928 153.02271 434.15756
-9.9112701 153.15741 436.50024
-9.0205841 153.22012 437.91098
-7.0652618 153.06699 436.52121
-5.8224792 153.05788 436.99066
-4.2322998 152.97693 436.52109
-2.648056 152.89609 436.04532
-1.0697174 152.81537 435.56326
0.50265503 152.73477 435.0752
1.73172 152.72612 435.51962
2.9601593 152.71758 435.9599
4.5200653 152.6373 435.45547
5.0856476 152.77251 437.76947
6.6416016 152.69241 437.25592
7.8674469 152.6842 437.67975
8.7711487 152.74782 439.04364
9.6794434 152.81149 440.40536
11.224884 152.73181 439.87286
12.450806 152.72395 440.28137
13.676071 152.71617 440.68591
15.20903 152.63684 440.13791
16.736115 152.55763 439.58417
18.257309 152.47855 439.02481
19.171692 152.5428 440.36212
20.388565 152.53552 440.74518
21.604797 152.52834 441.12442
22.820435 152.52124 441.49976
24.615372 152.37115 439.96252
26.111877 152.29276 439.37341
27.317871 152.28598 439.73486
28.805344 152.20779 439.13586
30.56649 152.05826 437.57404
31.209221 152.19473 439.83841
32.136063 152.2598 441.14319
33.610847 152.18204 440.52612
34.810837 152.17583 440.86444
35.743904 152.24112 442.16028
37.473 152.09227 440.56805
38.929955 152.01495 439.93201
40.122635 152.00911 440.25427
41.058861 152.07472 441.53699
42.506485 151.9977 440.888
43.697678 151.99213 441.19949
44.888382 151.98663 441.50742
46.324142 151.90991 440.84503
48.240059 151.69069 438.24292
49.17865 151.75679 439.50574
50.597427 151.68039 438.82886
52.010551 151.60408 438.14731
52.953049 151.67039 439.40094
53.900307 151.73679 440.65244
55.079674 151.73198 440.93048
56.033905 151.79848 442.17691
57.21505 151.79382 442.44873
58.834862 151.64682 440.77112
60.010048 151.64233 441.03491
61.399185 151.56674 440.32123
62.571022 151.56242 440.57776
63.951675 151.487 439.85559
64.913643 151.554 441.08072
66.084435 151.5499 441.32721
67.254868 151.54587 441.57043
68.623779 151.47076 440.83282
69.790977 151.46689 441.06888
70.764229 151.53419 442.28021
72.124435 151.45934 441.53113
73.102234 151.52676 442.73694
74.45665 151.45206 441.98041
75.805603 151.37743 441.21964
76.968407 151.37396 441.43567
78.309044 151.29948 440.66702
79.29319 151.36722 441.85806
80.455177 151.36395 442.06445
81.616905 151.36073 442.26761
83.113945 151.21552 440.5011
84.270012 151.21245 440.69702
85.425842 151.20943 440.88977
86.581436 151.20648 441.07935
87.736794 151.2036 441.26587
88.89193 151.20078 441.44916
90.046844 151.198 441.62939
91.35128 151.1243 440.82025
92.65036 151.05066 440.00723
93.799507 151.04807 440.17725
94.948448 151.04555 440.34424
96.097198 151.04306 440.50809
97.245773 151.04065 440.66885
98.39415 151.03828 440.8266
99.674072 150.96501 439.99243
100.81953 150.96277 440.14365
101.96483 150.96057 440.29181
102.98598 151.02936 441.4267
104.13354 151.02727 441.56906
105.39977 150.95428 440.71805
106.42818 151.02322 441.84467
107.68897 150.95036 440.98694
108.94447 150.87755 440.12564
110.08616 150.87572 440.2522
111.33368 150.80302 439.38397
112.47253 150.80128 439.50427
113.61126 150.79959 439.62158
114.74986 150.79796 439.73593
115.88837 150.79637 439.8472
117.11986 150.72394 438.96243
118.25557 150.72244 439.06754
119.47915 150.65012 438.17609
120.61208 150.64871 438.27505
121.66206 150.71823 439.36505
122.71709 150.78781 440.45258
123.93259 150.71567 439.54861
125.14285 150.64357 438.64127
126.20276 150.71327 439.72028
127.40773 150.64127 438.80664
128.60748 150.56932 437.88971
129.6723 150.63914 438.96027
130.74217 150.709 440.02814
131.87686 150.70804 440.09778
132.9543 150.77798 441.16031
134.14603 150.70625 440.22815
135.28052 150.70541 440.28894
136.41496 150.70464 440.34683
137.54935 150.70389 440.40173
138.72803 150.63232 439.45718
139.85974 150.63167 439.5061
140.99142 150.63104 439.55215
142.08644 150.70131 440.59207
143.18654 150.77161 441.62924
144.32324 150.77112 441.66666
145.43097 150.84149 442.69824
146.59656 150.77023 441.73273
147.73318 150.76985 441.76135
148.86977 150.76952 441.78702
150.02502 150.69839 440.81244
151.15901 150.69814 440.83224
152.29298 150.69791 440.84912
153.42694 150.69774 440.86307
154.5609 150.6976 440.87415
155.68315 150.83917 442.87717
156.8255 150.7683 441.88495
157.96201 150.76828 441.88721
159.09851 150.7683 441.88657
160.23943 150.8392 442.88046
161.3855 150.91013 443.8714
162.52715 150.91028 443.86197
163.64459 150.7688 441.85471
164.8105 150.91069 443.8342
165.95219 150.91095 443.81589
167.09392 150.91127 443.79468
168.25803 150.98245 444.76773
169.40236 150.98285 444.74057
170.51923 150.91245 443.71335
171.75127 151.12543 446.67148
172.96609 151.26762 448.62918
174.22643 151.4807 451.58041
175.46443 151.62299 453.53137
176.63208 151.62364 453.48563
177.67107 151.4118 450.44714
178.6947 151.19998 447.40625
179.70299 150.98822 444.36316
180.69594 150.77647 441.31784
181.67354 150.56476 438.27029
182.58006 150.28223 434.22482
183.52441 150.07057 431.17331
184.45343 149.85895 428.11984
185.43054 149.7182 426.05991
186.46346 149.64836 424.99307
187.42274 149.50769 422.92862
188.44296 149.43793 421.85696
189.38443 149.29732 419.78812
190.3157 149.15674 417.71719
191.23679 149.0162 415.64426
192.2291 148.94656 414.56345
193.21635 148.87697 413.48032
194.11201 148.73653 411.40106
195.08661 148.66701 410.31345
195.8728 148.45573 407.23697
196.92645 148.45717 407.13824
197.78653 148.31685 405.05118
198.83527 148.31836 404.94742
199.98605 148.39082 405.83316
201.03758 148.39244 405.72363
202.19632 148.46501 406.603
203.36035 148.53763 407.47906
204.52963 148.61029 408.35172
205.58936 148.61211 408.23019
206.76663 148.68489 409.09641
207.82921 148.68678 408.9689
208.89194 148.68874 408.83862
209.82968 148.61978 407.71588
210.50706 148.40897 404.61246
211.55995 148.41106 404.47504
212.61298 148.41316 404.33472
213.39536 148.27341 402.21518
214.44357 148.27562 402.07001
215.49197 148.27789 401.92203
216.3974 148.20921 400.78403
217.44357 148.21158 400.63077
218.48993 148.21397 400.47464
219.3856 148.14545 399.32971
220.58322 148.21896 400.15396
221.47412 148.15051 399.00418
222.67731 148.22415 399.82193
223.88586 148.29785 400.63599
225.09978 148.37161 401.44632
226.15274 148.37442 401.2695
227.54379 148.51936 403.05582
228.60236 148.52229 402.87225
230.00937 148.6674 404.65012
231.07358 148.67047 404.45984
232.31732 148.74466 405.2478
233.74832 148.89001 407.01263
235.00551 148.96436 407.7923
236.0811 148.96768 407.5882
237.34659 149.04219 408.36041
238.42532 149.04565 408.14981
238.92 148.8358 405.00137
239.7942 148.76823 403.80859
240.66351 148.70071 402.61377
241.52792 148.63324 401.41699
242.59265 148.63696 401.19446
243.44995 148.5696 399.99332
244.72302 148.64464 400.7403
245.57578 148.57738 399.53418
246.20816 148.43896 397.35223
247.04861 148.3718 396.14288
247.88425 148.30467 394.93167
248.71503 148.23761 393.7186
249.76686 148.24182 393.47519
250.81906 148.24609 393.22873
252.33382 148.39297 394.91989
253.62564 148.46869 395.63571
254.6868 148.47322 395.37817
256.70392 148.763 398.99121
258.01776 148.83904 399.69254
259.33722 148.91516 400.38947
261.1557 149.13403 403.01477
262.99026 149.35307 405.63278
264.84094 149.57225 408.24356
267.72577 150.07706 414.70465
271.67615 150.86761 425.00763
275.16492 151.51576 433.36575
279.48825 152.37842 444.59454
282.81494 152.95584 451.95615
285.11365 153.24783 455.45898
287.43384 153.54001 458.95212
287.86581 153.3322 455.7197
288.28265 153.1244 452.48788
288.40637 152.84512 448.29889
289.07101 152.70883 446.02646
288.59259 152.28651 439.9278
289.51288 152.22176 438.61258
290.71698 152.22861 438.25
292.50406 152.37866 439.7916
293.71466 152.38573 439.41974
294.92584 152.39288 439.0441
296.73578 152.54335 440.56766
297.65179 152.47911 439.23187
298.56317 152.41492 437.8938
300.08383 152.49409 438.4516
301.61035 152.57339 439.00369
302.20621 152.43777 436.70828
303.42181 152.44559 436.30515
304.95557 152.52519 436.84363
306.49521 152.60493 437.37628
307.39526 152.54129 436.01559
308.61615 152.54947 435.59558
309.83765 152.55775 435.17148
311.05978 152.5661 434.74323
311.94928 152.50273 433.37088
313.50604 152.58308 433.87451
314.73016 152.59171 433.43396
315.61359 152.52852 432.05203
317.1803 152.60918 432.54041
318.75287 152.68996 433.02258
319.63293 152.62697 431.6301
321.2121 152.70795 432.1019
323.15173 152.86101 433.49969
324.03094 152.79822 432.09552
325.62518 152.8795 432.54947
327.58783 153.03293 433.92627
329.92694 153.25856 436.22272
331.17896 153.26813 435.72726
334.65466 153.71036 440.78348
339.28253 154.36926 448.59732
343.58298 154.95642 455.46332
347.16953 155.39964 460.46179
351.93216 156.05971 468.20743
354.44 156.28694 470.405
355.41809 156.22543 468.91336
357.55881 156.38063 470.17407
358.14294 156.24686 467.75671
359.90039 156.3299 468.08725
362.06061 156.48526 469.32544
363.43185 156.49605 468.72684
364.80322 156.50682 468.12338
367.39038 156.73468 470.24911
367.95389 156.60066 467.81219
369.7384 156.68375 468.10202
371.52814 156.76683 468.38467
373.32291 156.84988 468.66013
373.44821 156.64297 465.30725
-37.412201 155.02365 431.34653
-36.143616 155.0137 431.92059
-35.28154 155.07867 433.40082
-32.798141 154.84372 431.23215
-31.133347 154.75874 430.87772
-30.27124 154.82361 432.34467
-29.007889 154.81352 432.89423
-26.958115 154.65369 431.60666
-26.481689 154.79333 433.98007
-25.218948 154.78323 434.51633
-23.571228 154.69836 434.12842
-22.311737 154.68832 434.65463
-21.052628 154.67831 435.17645
-19.416641 154.5936 434.77075
-18.161011 154.58368 435.28265
-16.161926 154.42441 433.93961
-14.912552 154.41463 434.44055
-13.663696 154.40489 434.93716
-12.415329 154.39522 435.42938
-11.167511 154.38559 435.91727
-10.637512 154.52524 438.26178
-9.0295258 154.44113 437.81152
-7.4274597 154.35713 437.35498
-5.8312683 154.27325 436.89203
-3.8929901 154.11496 435.48831
-2.3113098 154.03133 435.01196
-0.73554993 153.94781 434.52939
0.83427429 153.86441 434.04074
2.0607605 153.85559 434.48441
3.2866211 153.84683 434.92389
4.5118713 153.83817 435.35922
5.4069519 153.90398 436.73175
6.6335449 153.89548 437.15982
7.5352936 153.9614 438.52695
8.7632294 153.95306 438.94775
9.990509 153.94479 439.36453
11.533401 153.86235 438.83154
12.756775 153.85431 439.23935
14.290482 153.77209 438.69568
15.818283 153.69 438.14633
17.340195 153.60803 437.59125
18.250031 153.67462 438.93069
19.464966 153.66708 439.31705
20.679276 153.65964 439.69952
21.89299 153.65228 440.07806
22.813522 153.71916 441.40607
24.608551 153.56372 439.86945
26.105164 153.48254 439.2807
27.026535 153.5497 440.59802
28.516724 153.46875 440.00018
30.001129 153.38791 439.39694
30.926018 153.45532 440.70453
32.40403 153.37469 440.09235
33.60466 153.36824 440.43448
34.804741 153.36186 440.77292
36.00428 153.35558 441.1077
37.467079 153.27541 440.47705
38.924149 153.19534 439.84131
40.116905 153.18935 440.1637
41.309158 153.18346 440.48248
42.754265 153.10371 439.83316
43.942932 153.09801 440.14407
45.131111 153.09238 440.45145
46.809883 152.93906 438.82214
48.234871 152.85974 438.15387
49.173531 152.92828 439.4166
50.592392 152.84917 438.74008
52.005615 152.77016 438.05881
52.715652 152.91277 440.28217
53.8955 152.90775 440.56378
55.074936 152.90283 440.84192
56.029228 152.97179 442.08832
57.432602 152.89322 441.38794
58.830368 152.81473 440.68304
60.00563 152.81013 440.94696
61.394844 152.73186 440.23358
62.566772 152.72742 440.49017
64.156654 152.57556 438.79321
65.116089 152.64503 440.01773
66.28437 152.64084 440.26373
67.452278 152.6367 440.50653
68.619873 152.63264 440.74594
69.590919 152.70236 441.9599
70.76046 152.69844 442.19324
71.929688 152.6946 442.42334
73.098602 152.69083 442.65018
74.453087 152.61343 441.89392
75.618828 152.6098 442.11371
76.964981 152.53259 441.34952
78.127563 152.52911 441.56244
79.289886 152.52568 441.77209
80.451935 152.52232 441.97858
81.613724 152.51904 442.18185
82.943062 152.4422 441.39877
84.266968 152.36543 440.61176
85.260223 152.43594 441.78851
86.418465 152.43291 441.97861
87.733932 152.35635 441.18076
88.73423 152.42703 442.34937
89.891785 152.42419 442.53003
91.198868 152.34782 441.7215
92.353416 152.34511 441.89551
93.652351 152.26889 441.07968
94.945938 152.19273 440.25986
95.955315 152.26375 441.41132
97.243378 152.18771 440.58463
98.391815 152.1853 440.7424
99.54007 152.18292 440.89709
100.68816 152.18062 441.04871
101.83609 152.17836 441.19727
102.98386 152.17615 441.34271
104.13145 152.17401 441.48517
105.2789 152.17191 441.62457
106.4262 152.16986 441.76086
107.68704 152.09438 440.90338
108.83148 152.09244 441.03329
110.08434 152.01706 440.16888
111.33191 151.94176 439.3009
112.47081 151.93997 439.42123
113.60959 151.93825 439.53857
114.84651 151.8631 438.66049
115.98248 151.86147 438.77161
117.11833 151.85989 438.87976
118.25409 151.85837 438.98489
119.38973 151.85687 439.08707
120.52527 151.85544 439.18628
121.57787 151.92749 440.27634
122.71579 151.92615 440.36984
123.93134 151.85141 439.46609
125.14165 151.77672 438.55893
126.2016 151.84895 439.63782
127.40662 151.77435 438.72437
128.53899 151.77325 438.8027
129.67126 151.77219 438.87805
130.74118 151.84457 439.9458
131.87592 151.8436 440.01547
133.01056 151.84265 440.08215
134.19977 151.76834 439.15005
135.27969 151.84091 440.2067
136.46365 151.76669 439.26852
137.54861 151.83934 440.31946
138.683 151.83861 440.37146
139.81734 151.83794 440.42053
140.99083 151.76389 439.47015
142.08588 151.8367 440.50989
143.18602 151.90956 441.54688
144.29126 151.98245 442.58115
145.43053 151.98198 442.61569
146.59616 151.90814 441.65039
147.73282 151.90776 441.67902
148.86945 151.90741 441.70474
150.02475 151.83371 440.73035
151.14265 151.90685 441.74738
152.27924 151.90663 441.76428
153.42679 151.83304 440.78101
154.55237 151.90631 441.78928
155.68892 151.9062 441.79745
156.82547 151.90616 441.80267
157.96201 151.90613 441.8049
159.09856 151.90616 441.80432
160.23952 151.97963 442.798
161.38562 152.05313 443.78879
162.52731 152.05328 443.77933
163.66902 152.05348 443.76688
164.81075 152.05371 443.75153
165.93524 151.98059 442.73611
167.07445 151.9809 442.7149
168.23604 152.05466 443.68787
169.37784 152.05505 443.66071
170.49217 151.9821 442.63373
171.72169 152.2028 445.59134
172.99927 152.49696 449.54233
174.19182 152.57095 450.49957
175.42729 152.71838 452.4502
176.59242 152.71906 452.40451
177.62888 152.49951 449.36664
178.60452 152.2066 445.3302
179.65575 152.06056 443.284
180.69676 151.91455 441.23535
181.67441 151.69514 438.18842
182.69243 151.54919 436.13507
183.58365 151.25644 432.08826
184.51527 151.03714 429.03516
185.495 150.89128 426.9754
186.53052 150.81891 425.9086
187.4924 150.67313 423.8443
188.51524 150.60081 422.77264
189.38559 150.38167 419.70938
190.31689 150.23598 417.63876
191.23802 150.09033 415.56619
192.06754 149.87126 412.49762
193.13368 149.87257 412.40881
194.02682 149.72702 410.33017
194.90976 149.5815 408.24957
195.87422 149.50946 407.16028
196.83365 149.43747 406.06866
197.69121 149.29205 403.98221
198.73741 149.29359 403.87869
199.98766 149.44215 405.75653
201.03922 149.4438 405.64694
202.19803 149.51898 406.52609
203.2524 149.52072 406.41064
204.41916 149.59601 407.28339
205.47636 149.59785 407.16214
206.65112 149.67325 408.02838
207.71117 149.6752 407.90118
208.77138 149.67719 407.77118
209.70659 149.60571 406.6489
210.50912 149.46075 404.53537
211.56204 149.46288 404.39786
212.34946 149.31799 402.28079
213.26213 149.24667 401.1503
214.30783 149.24893 401.0054
215.21312 149.1777 399.87036
216.25659 149.18005 399.72025
217.30023 149.18246 399.56726
218.34407 149.18494 399.41156
219.23721 149.11389 398.26715
220.43231 149.19003 399.09152
221.32068 149.11906 397.94223
222.52135 149.19534 398.76019
223.56618 149.19807 398.59027
224.93878 149.34808 400.38495
225.9892 149.35095 400.20844
227.37775 149.50111 401.99478
228.43378 149.5041 401.81158
229.83829 149.65445 403.58951
230.7233 149.58392 402.41806
232.32047 149.80806 405.16879
233.5697 149.88499 405.95264
234.82436 149.96199 406.73245
236.27148 150.11275 408.48801
237.35001 150.11624 408.28033
238.23662 150.0461 407.09109
239.11832 149.97601 405.89981
239.60039 149.75854 402.75143
240.66713 149.76225 402.5343
241.53163 149.69229 401.33771
242.59641 149.69612 401.11505
243.66147 149.70001 400.88937
244.7269 149.70398 400.66071
245.36679 149.56049 398.48041
246.42767 149.56458 398.24673
247.05267 149.42116 396.06381
247.88834 149.35156 394.85266
248.94249 149.35582 394.61166
249.99699 149.36017 394.36758
251.05186 149.36456 394.12045
252.3382 149.44289 394.8403
253.63013 149.5213 395.55588
254.92764 149.59981 396.26709
256.70856 149.82617 398.91034
257.53946 149.75713 397.67624
258.60971 149.76204 397.40723
260.4205 149.98875 400.03378
261.74869 150.06778 400.72195
263.83838 150.36873 404.30035
266.20386 150.74379 408.83417
269.62451 151.4149 417.21194
273.61212 152.23428 427.49945
277.65765 153.05405 437.76788
280.96625 153.65219 445.13278
283.78198 154.1026 450.5611
286.62964 154.55328 455.9769
287.59949 154.48593 454.66553
288.56464 154.41866 453.35184
289.2471 154.27737 451.07813
290.48102 154.28429 450.7175
290.01572 153.84671 444.61603
290.09143 153.55727 440.43088
291.3009 153.56432 440.06653
291.92865 153.42319 437.79083
293.13406 153.43039 437.42044
294.63654 153.51189 437.99841
296.44391 153.66769 439.52222
297.05569 153.52682 437.23679
298.26624 153.53442 436.85013
299.7843 153.61638 437.40836
301.30829 153.69846 437.96097
302.21381 153.63211 436.61371
303.74435 153.7144 437.15668
304.96332 153.72252 436.74854
306.18298 153.73073 436.3364
306.75769 153.59033 434.03308
308.29877 153.67305 434.55728
310.17383 153.83028 436.01733
311.39871 153.83887 435.58804
312.95761 153.92197 436.09448
314.1864 153.93076 435.65594
315.07724 153.86517 434.27536
315.6221 153.72514 431.95551
316.84491 153.73412 431.50742
318.41492 153.81769 431.99017
319.64163 153.82684 431.53275
321.22089 153.91064 432.00415
323.16061 154.06912 433.40137
324.39709 154.07855 432.92816
325.63416 154.08806 432.45068
327.23438 154.17227 432.89789
330.30136 154.55522 437.05038
331.55609 154.56503 436.55368
335.77576 155.17253 443.45898
340.03857 155.7804 450.34268
344.34457 156.38867 457.20465
347.93658 156.84778 462.19937
351.56107 157.30719 467.17633
353.29852 157.39282 467.53348
355.42828 157.55338 468.80283
357.56903 157.71402 470.06287
357.76129 157.50041 466.72882
360.30521 157.73604 468.89169
362.07086 157.82196 469.21344
363.04214 157.75804 467.70114
364.81335 157.84396 468.01093
366.99524 158.00488 469.2247
367.96399 157.94084 467.69916
370.15906 158.10178 468.89728
371.53806 158.11264 468.27081
373.33276 158.19849 468.54584
373.87659 158.05904 466.09854
-38.245483 156.4176 433.05389
-37.380997 156.48503 434.5397
-36.104309 156.47476 435.11313
-33.211594 156.15421 432.03629
-31.945511 156.14395 432.59616
-30.679428 156.13365 433.15152
-28.621475 155.96834 431.8725
-27.360977 155.95807 432.41669
-26.491302 156.02524 433.87375
-25.228577 156.01492 434.41022
-23.580811 155.92722 434.02267
-22.32132 155.91696 434.5491
-21.06221 155.90674 435.07117
-19.803436 155.89655 435.58871
-18.170502 155.80907 435.17798
-16.915298 155.79897 435.68564
-15.29126 155.71164 435.26285
-13.673065 155.6244 434.83359
-12.78862 155.69174 436.25418
-11.176773 155.60466 435.81409
-9.9294586 155.59488 436.29782
-9.0387115 155.66234 437.70856
-7.4365234 155.57552 437.25235
-5.8402863 155.48883 436.78992
-4.249939 155.40224 436.32117
-2.6655273 155.31577 435.84619
-0.74429321 155.15234 434.42877
0.48556519 155.14319 434.87772
2.3896332 154.98006 433.44614
3.2781525 155.04813 434.82401
4.5034637 155.03925 435.25955
5.7281036 155.03046 435.69104
6.2984467 155.17567 438.00226
7.5270996 155.16704 438.4274
8.7551117 155.15848 438.84842
9.9824829 155.15002 439.26535
11.525482 155.06479 438.73276
13.062576 154.97966 438.19434
14.282745 154.97153 438.59747
15.810654 154.88666 438.04852
17.026947 154.87872 438.44281
18.242584 154.8709 438.83325
19.457611 154.86316 439.21976
20.672028 154.85551 439.60233
21.590591 154.92473 440.93341
23.098999 154.84053 440.35593
24.601563 154.75647 439.77301
26.098297 154.67253 439.18463
27.304443 154.66541 439.54642
28.510025 154.65839 439.90442
29.994507 154.5748 439.30157
30.919472 154.64462 440.60916
32.12336 154.63788 440.95584
33.598312 154.55463 440.33957
35.067505 154.47148 439.71808
36.264526 154.46506 440.05225
37.724831 154.38214 439.42117
38.918175 154.37592 439.74734
40.111023 154.36978 440.06985
41.303368 154.36372 440.38879
42.748573 154.28125 439.73975
43.937317 154.27541 440.05087
45.125587 154.26964 440.35837
46.558945 154.18747 439.69592
47.986603 154.10544 439.02869
49.408607 154.0235 438.35663
50.349495 154.09456 439.61639
51.765419 154.01283 438.93607
52.943161 154.00761 439.22064
53.890564 154.0789 440.47192
55.070084 154.07384 440.75018
56.249191 154.06888 441.02502
57.205757 154.14035 442.26846
58.825745 153.98282 440.59189
60.001076 153.97809 440.85593
61.390396 153.89711 440.14276
62.562386 153.89256 440.39951
64.152359 153.73544 438.70306
65.111862 153.80739 439.92746
66.280212 153.80307 440.17355
67.246796 153.87514 441.39297
68.61586 153.79468 440.65594
69.783211 153.7906 440.89215
70.562943 153.93912 443.08136
71.925873 153.85892 442.33344
73.283325 153.77878 441.58121
74.449425 153.77499 441.80435
75.798523 153.69504 441.04416
77.142159 153.61516 440.27982
78.302238 153.61159 440.49225
79.462029 153.60809 440.70157
80.621567 153.60466 440.90762
81.610466 153.67749 442.09293
82.939857 153.59799 441.31021
84.098625 153.59474 441.50671
85.257164 153.59158 441.70004
86.575516 153.5123 440.90601
87.573517 153.58542 442.07721
88.731354 153.58244 442.26108
90.041283 153.50337 441.45642
91.196114 153.50052 441.63358
92.20356 153.57387 442.79379
93.649719 153.41887 440.992
94.943359 153.34009 440.17255
95.952789 153.4136 441.32382
97.240913 153.33495 440.49741
98.389412 153.33246 440.65521
99.669434 153.25394 439.82156
100.68587 153.32767 440.96164
101.83385 153.32535 441.11023
103.10565 153.24699 440.26639
104.12932 153.32088 441.39822
105.27682 153.31873 441.53766
106.54044 153.24057 440.68375
107.68507 153.23853 440.8168
108.71843 153.31259 441.93768
109.97392 153.2346 441.07376
111.22411 153.15668 440.2063
112.36563 153.15485 440.32693
113.60787 153.07703 439.45258
114.74658 153.0753 439.56699
115.98087 152.99759 438.68588
117.11678 152.99597 438.79407
118.25256 152.99442 438.89926
119.47625 152.91687 438.00824
120.60927 152.91541 438.10724
121.65935 152.98999 439.19693
122.71446 153.06464 440.28409
123.85233 153.06329 440.37469
125.06527 152.98601 439.46796
126.2004 152.98477 439.5524
127.33546 152.98358 439.63379
128.53789 152.90643 438.7175
129.67021 152.90535 438.79291
130.80249 152.9043 438.86533
131.93468 152.90329 438.93484
133.06682 152.90233 439.0014
134.19888 152.90141 439.065
135.3309 152.90054 439.12567
136.41339 152.97571 440.17932
137.54787 152.97491 440.23425
138.68228 152.97418 440.28632
139.81667 152.97348 440.33539
140.951 152.97284 440.38156
142.0853 152.97221 440.42477
143.18547 153.04764 441.46158
144.32227 153.0471 441.49902
145.45901 153.04663 441.53354
146.59575 153.04619 441.56512
147.73245 153.04579 441.59378
148.89037 152.96945 440.62253
150.02446 152.96915 440.64532
151.15852 152.96887 440.6651
152.29259 152.96866 440.68201
153.43761 152.8925 439.69891
154.56908 152.89236 439.70996
155.69469 152.96823 440.71515
156.82872 152.96817 440.72034
157.96274 152.96815 440.7226
159.10045 153.12012 442.71619
160.24402 153.19617 443.70969
161.38576 153.19627 443.70316
162.5275 153.19643 443.69366
163.66924 153.19662 443.68127
164.811 153.19687 443.66592
165.93555 153.12117 442.6506
167.07478 153.12149 442.62946
168.21404 153.12186 442.60532
169.35333 153.12227 442.57825
170.46513 153.04675 441.55154
171.7222 153.35114 445.50525
172.99983 153.65559 449.45544
174.15721 153.65619 449.41602
175.39018 153.80878 451.36636
176.59311 153.88544 452.31702
177.62961 153.6582 449.27969
178.65076 153.43103 446.24011
179.70459 153.27986 444.19418
180.74821 153.12874 442.14578
181.78163 152.97765 440.09494
182.69336 152.67459 436.0506
183.58461 152.37158 432.00446
184.51627 152.14459 428.952
185.43259 151.91763 425.89752
186.46558 151.84271 424.83102
187.49352 151.76782 423.76202
188.44525 151.61696 421.69598
189.31308 151.39012 418.63345
190.31813 151.31534 417.55762
191.16043 151.08856 414.49133
192.15025 151.01385 413.4111
193.13504 150.93918 412.32852
194.0282 150.78851 410.25015
194.91119 150.63789 408.16998
195.784 150.48729 406.08795
196.64662 150.33673 404.00409
197.59592 150.26222 402.91086
198.63959 150.26381 402.80756
199.78534 150.34149 403.69333
200.93634 150.41922 404.57584
202.19975 150.57307 406.44641
203.14449 150.49881 405.3399
204.42099 150.65277 407.20346
205.47824 150.65465 407.08212
206.65305 150.73267 407.94815
207.83313 150.81075 408.81073
208.89597 150.81279 408.68039
209.8338 150.7388 407.55792
210.63895 150.58876 405.44446
211.56421 150.51485 404.31799
212.61736 150.51707 404.17764
213.39981 150.36714 402.05875
214.44814 150.36948 401.91345
215.49663 150.37184 401.76535
216.54529 150.37428 401.61441
217.44843 150.30063 400.47427
218.49487 150.30316 400.31802
219.39066 150.22961 399.17343
220.43491 150.23224 399.01193
221.47939 150.23494 398.84763
222.36543 150.16153 397.69608
223.56894 150.24049 398.51047
224.77783 150.31955 399.3212
225.65936 150.24629 398.16193
227.04282 150.40166 399.94867
228.09375 150.40472 399.76633
229.14493 150.40784 399.58109
230.37305 150.48723 400.3743
231.78586 150.64293 402.14441
232.84555 150.64626 401.94907
234.45883 150.87837 404.69031
235.90088 151.03436 406.44635
236.97427 151.03792 406.23959
238.04797 151.04153 406.02985
238.92714 150.96895 404.8392
239.60406 150.82013 402.66928
240.47089 150.74763 401.47522
241.33286 150.6752 400.27924
242.60025 150.75543 401.03281
243.66541 150.75943 400.80704
244.73088 150.76349 400.57828
245.58376 150.69128 399.37238
246.64731 150.69548 399.13809
247.27495 150.54703 396.95483
248.334 150.55135 396.71558
249.3934 150.55574 396.47324
250.22726 150.48381 395.25671
251.05627 150.41193 394.03833
252.34271 150.49295 394.75793
253.40099 150.49762 394.50385
254.45969 150.50238 394.24677
255.99658 150.66013 395.92252
257.3028 150.74153 396.62524
258.37048 150.74655 396.35672
259.68533 150.82816 397.05118
261.25513 150.98636 398.70639
263.33972 151.29773 402.28513
265.19104 151.53275 404.89117
268.85858 152.30376 414.23312
272.0593 152.92198 421.63242
275.82703 153.69366 430.9408
279.91248 154.5423 441.19254
283.25314 155.16153 448.5433
285.5553 155.47462 452.0397
287.60614 155.71132 454.56741
288.57138 155.64162 453.25375
289.53198 155.57199 451.93781
290.48792 155.50243 450.61954
290.30591 155.12619 445.4751
290.6702 154.90331 442.245
291.88501 154.91057 441.87894
291.64447 154.53426 436.74106
293.1412 154.61841 437.32416
294.64377 154.70267 437.90176
295.55405 154.63348 436.57153
296.76141 154.64117 436.18945
297.96939 154.64896 435.80347
298.87103 154.58 434.46497
300.69684 154.74167 435.96753
301.59711 154.67288 434.62204
303.1225 154.75793 435.16635
304.97131 154.92004 436.65005
305.87088 154.85153 435.29346
306.76581 154.78308 433.93466
308.63245 154.94556 435.40091
309.8541 154.95424 434.97641
311.07642 154.96303 434.54782
312.63275 155.04892 435.05478
314.19501 155.13493 435.55573
315.42456 155.14401 435.11288
315.97211 154.99904 432.7923
316.85367 154.93115 431.40726
319.11707 155.17178 433.75928
319.99982 155.10406 432.36578
321.22986 155.11353 431.90292
322.81512 155.20026 432.36771
324.04901 155.2099 431.89532
325.28348 155.2196 431.41867
327.24368 155.38385 432.79523
329.58032 155.6255 435.09097
331.93347 155.86736 437.37613
336.15601 156.49591 444.27838
340.42169 157.12485 451.15906
345.10645 157.83153 458.94131
348.70398 158.30653 463.93237
351.19022 158.54967 466.14182
353.69284 158.79295 468.33984
355.05219 158.80411 467.76947
356.80103 158.89273 468.11209
357.77173 158.82645 466.61423
360.31567 159.07011 468.77615
362.08133 159.15887 469.0975
364.25238 159.3252 470.32495
365.22638 159.25888 468.80664
367.81622 159.50284 470.92944
369.60608 159.59166 471.22089
370.57993 159.52521 469.68814
371.54822 159.45863 468.15295
372.92685 159.4696 467.52151
372.21185 159.09203 462.36124
-38.667023 157.74193 433.84903
-36.981262 157.65134 433.51831
-36.113998 157.7211 435.00079
-33.625275 157.47009 432.8363
-31.955215 157.37946 432.48511
-30.290512 157.28885 432.12711
-28.631226 157.19824 431.76233
-26.977432 157.10768 431.39084
-25.719818 157.0972 431.92969
-24.850403 157.16676 433.38223
-23.205307 157.07626 432.99405
-22.331116 157.14581 434.43997
-21.071991 157.13538 434.96225
-19.813217 157.12495 435.48004
-18.180237 157.03465 435.06973
-16.924988 157.02432 435.57761
-15.300888 156.93417 435.15524
-14.049286 156.92398 435.65335
-12.798172 156.91382 436.14703
-11.186264 156.82393 435.70737
-9.9388885 156.81392 436.19131
-8.6920776 156.80399 436.67096
-7.0924835 156.71437 436.2142
-5.8495026 156.70459 436.68423
-3.911026 156.53549 435.28186
-2.6745605 156.52591 435.74139
-1.0959625 156.43674 435.26065
0.47669983 156.34772 434.7738
2.0434265 156.25879 434.28085
3.269455 156.24962 434.72073
4.4948425 156.24052 435.15646
5.719574 156.23154 435.58813
6.6168213 156.30217 436.9574
7.842926 156.29333 437.38174
8.7467957 156.36412 438.74564
10.293198 156.27596 438.21832
11.51738 156.26741 438.63055
12.740906 156.25896 439.03876
14.274826 156.17117 438.49591
15.494446 156.16293 438.89526
17.019211 156.07538 438.34183
18.538071 155.98798 437.78281
19.450058 156.05943 439.11908
20.664566 156.05161 439.50189
22.173691 155.96454 438.92865
23.091736 156.03625 440.2558
24.594406 155.94942 439.67325
26.378601 155.78342 438.13071
27.012726 155.93469 440.40256
28.503143 155.84821 439.80539
29.987747 155.76187 439.20291
30.635902 155.91333 441.46802
32.116753 155.82719 440.8573
33.863464 155.66199 439.28223
35.061111 155.6553 439.62021
36.258232 155.64871 439.9545
37.98243 155.4839 438.36252
38.912064 155.55667 439.65015
40.363579 155.47125 439.0101
41.553406 155.46507 439.32846
42.742722 155.45898 439.64325
44.182327 155.37389 438.98962
45.368073 155.368 439.2966
46.798912 155.28313 438.63382
48.224068 155.19838 437.96628
49.403221 155.19278 438.26135
50.581932 155.18726 438.55295
52.230476 155.0238 436.90359
52.938034 155.17648 439.12573
53.885498 155.25021 440.37692
55.065094 155.24504 440.65533
56.469032 155.16098 439.95905
57.20092 155.31389 442.17361
58.821022 155.15106 440.4975
59.779465 155.22516 441.73465
61.385826 155.06255 440.04883
62.557892 155.05788 440.30566
63.729591 155.0533 440.55917
65.107536 154.96991 439.83401
66.071953 155.04437 441.05603
67.242607 155.04002 441.29953
68.611763 154.95688 440.56281
69.77916 154.9527 440.79916
70.752609 155.02744 442.01007
72.304092 154.86571 440.28354
73.279495 154.94058 441.48846
74.445663 154.93671 441.71173
75.794838 154.85408 440.95184
77.138557 154.77153 440.18771
78.298698 154.76788 440.40027
79.28302 154.84306 441.59091
80.445206 154.83954 441.79755
81.607124 154.83609 442.00098
82.768791 154.83269 442.20114
84.095428 154.75061 441.41507
85.254021 154.74736 441.60849
86.572433 154.66544 440.81479
87.727989 154.66232 441.0014
88.883308 154.65927 441.18494
89.88607 154.73502 442.35056
91.343025 154.57465 440.55704
92.495125 154.57179 440.73074
93.647018 154.569 440.90137
94.94072 154.48758 440.08215
96.089645 154.48491 440.24622
97.238388 154.4823 440.4071
98.386932 154.47977 440.56503
99.535309 154.47728 440.71985
100.68352 154.47484 440.87152
101.95811 154.3938 440.03131
103.10341 154.39151 440.17664
104.24855 154.38925 440.31882
105.51237 154.3084 439.46817
106.53836 154.3849 440.59406
107.56935 154.46146 441.71759
108.82759 154.38078 440.85727
109.86343 154.45743 441.97525
111.11627 154.37686 441.10825
112.36382 154.29637 440.23773
113.60612 154.21594 439.36362
114.74487 154.21417 439.47803
116.07492 154.05525 437.60489
117.30144 153.97501 436.72031
118.43214 153.9734 436.82507
119.56274 153.97185 436.92682
120.69324 153.97034 437.02567
121.74079 154.04749 438.11496
122.79338 154.12466 439.20178
123.85101 154.20187 440.28601
125.064 154.12199 439.37958
126.19919 154.12073 439.46399
127.26427 154.19807 440.53992
128.53676 154.03976 438.62936
129.66914 154.03864 438.70477
130.86375 153.959 437.78229
131.99344 153.95798 437.85165
133.12305 153.957 437.91809
134.19798 154.03462 438.97702
135.33005 154.03372 439.03772
136.46205 154.03288 439.09549
137.54709 154.11063 440.14615
138.72591 154.03133 439.20227
139.85776 154.03061 439.25125
140.98956 154.02994 439.2973
142.0847 154.10786 440.33667
143.18492 154.18584 441.37329
144.32176 154.1853 441.41077
145.45856 154.1848 441.44525
146.59532 154.18436 441.47684
147.77969 154.02686 439.5123
148.91127 154.0265 439.53787
150.02417 154.10472 440.55725
151.15828 154.10445 440.57709
152.27884 154.18275 441.59082
153.41548 154.18257 441.6048
154.55212 154.18242 441.61584
155.68877 154.18233 441.62405
156.82539 154.18227 441.62924
157.96202 154.18225 441.6315
159.10049 154.2608 442.62778
160.2397 154.26089 442.62421
161.38588 154.33954 443.61456
162.53722 154.41823 444.60193
163.65735 154.26135 442.59586
164.81126 154.34015 443.5773
165.93585 154.26189 442.56223
167.07513 154.26222 442.54108
168.21443 154.2626 442.51694
169.37871 154.34155 443.48639
170.46561 154.18494 441.46326
171.72273 154.49962 445.41623
172.96777 154.73581 448.3692
174.15784 154.81497 449.32614
175.39084 154.97272 451.27603
176.55348 154.97342 451.23044
177.67326 154.8956 450.18579
178.69702 154.66074 447.14667
179.70543 154.42589 444.10522
180.7491 154.26964 442.05722
181.83572 154.19199 441.00223
182.75006 153.87869 436.95853
183.70221 153.64398 433.90826
184.63904 153.40932 430.85599
185.56053 153.17468 427.80179
186.5327 153.01865 425.74042
187.49466 152.86264 423.67688
188.37529 152.62808 420.61685
189.3143 152.47215 418.54922
190.09055 152.15907 414.49161
191.08289 152.08179 413.41412
192.07018 152.00453 412.33423
193.05241 151.92732 411.25198
193.94305 151.77155 409.17429
194.91264 151.69441 408.08759
195.69379 151.4601 405.01321
196.74243 151.46164 404.91486
197.59749 151.306 402.82935
198.6412 151.30763 402.72601
199.78702 151.38792 403.6116
200.83353 151.38965 403.50247
201.98727 151.47005 404.38168
203.03661 151.47186 404.26675
204.19833 151.55237 405.13959
205.36533 151.63295 406.00906
206.65503 151.79222 407.86514
207.71518 151.79427 407.73782
208.77548 151.79636 407.6077
209.71078 151.71985 406.48575
210.64111 151.64337 405.36163
211.69672 151.64561 405.22372
212.48676 151.49054 403.10687
213.26668 151.33553 400.98871
214.31248 151.33791 400.84375
215.49904 151.41902 401.68286
216.4046 151.34282 400.54535
217.45093 151.34537 400.39188
218.49744 151.34796 400.2356
219.39326 151.2719 399.09109
220.43759 151.2746 398.92957
221.48212 151.27736 398.7652
222.52686 151.28018 398.59799
223.57179 151.28305 398.42795
224.45316 151.20723 397.27167
225.66232 151.28899 398.07925
226.87689 151.37082 398.88306
227.92529 151.37395 398.70111
229.14807 151.45592 399.4978
230.19955 151.45917 399.30954
231.25128 151.46249 399.11847
232.66702 151.6235 400.88474
234.09335 151.78461 402.64612
235.5303 151.9458 404.40268
236.78824 152.02827 405.17554
237.85941 152.03198 404.96622
238.93086 152.03575 404.75388
240.00262 152.0396 404.53851
240.87468 151.96465 403.34354
241.74188 151.88974 402.14658
242.80937 151.89377 401.92325
243.87718 151.89787 401.69684
244.73497 151.82315 400.49298
245.58789 151.74846 399.28717
246.22044 151.59491 397.10623
247.27921 151.59926 396.86987
248.1176 151.52473 395.65839
249.17448 151.52924 395.41656
250.23172 151.5338 395.17166
251.51785 151.61743 395.89401
252.34732 151.54317 394.67264
253.6394 151.62698 395.3876
254.70078 151.63187 395.12973
255.76251 151.63684 394.86871
257.06619 151.72093 395.57172
257.88724 151.647 394.33728
259.4437 151.81036 395.9985
261.01105 151.97385 397.65393
262.84116 152.21658 400.26791
264.94196 152.53857 403.83835
267.83557 153.09814 410.28931
269.98691 153.42058 413.83997
273.99634 154.29729 424.11343
277.26874 154.9369 431.48477
281.11871 155.7352 440.76147
284.48105 156.37549 448.10083
287.06723 156.77846 452.54831
288.3028 156.78555 452.19427
290.37323 157.03047 454.70825
290.77567 156.80003 451.47467
290.87964 156.49033 447.28613
291.82114 156.41846 445.96484
292.18082 156.18806 442.733
292.23413 155.87833 438.54858
293.14853 155.80659 437.22458
294.05829 155.73492 435.89828
295.56158 155.82205 436.47162
297.07074 155.90933 437.03943
297.67273 155.75851 434.75397
298.87878 155.76657 434.36472
300.70471 155.93359 435.86664
301.60507 155.86243 434.52121
303.13055 155.95029 435.06512
304.97952 156.11775 436.54819
306.19934 156.12637 436.13565
306.77414 155.97601 433.83286
308.31543 156.06435 434.35629
309.20642 155.99365 432.99121
310.75427 156.08218 433.50461
311.97467 156.09126 433.07269
313.8678 156.25967 434.51361
315.43347 156.34862 435.009
315.98105 156.19865 432.68869
317.55066 156.28778 433.1748
319.47284 156.45676 434.58939
320.009 156.30693 432.26132
321.23914 156.31664 431.79831
322.82443 156.40617 432.26254
323.70111 156.33624 430.85938
325.29291 156.42596 431.31314
327.25317 156.59564 432.68903
329.9552 156.92519 435.91135
332.31116 157.17508 438.19452
336.53656 157.82469 445.09366
341.17838 158.55464 452.89551
344.74091 159.04517 457.90372
347.57867 159.37607 461.05005
351.20081 159.86716 466.02487
352.93564 159.95847 466.3822
353.90302 159.88976 464.89505
357.59027 160.38145 469.8288
358.56625 160.31284 468.32867
360.72101 160.4845 469.57205
362.48929 160.57611 469.89175
364.26306 160.66774 470.20435
364.4317 160.43869 466.8624
367.42151 160.77083 469.89728
369.20868 160.86246 470.18951
370.59036 160.87381 469.56616
372.38519 160.96535 469.84515
373.76904 160.97656 469.21106
373.05917 160.58614 464.04932
-37.852646 158.82314 431.91788
-36.58165 158.81262 432.49371
-35.717178 158.88483 433.97495
-33.23111 158.62582 431.81018
-31.162399 158.44966 430.54605
-30.300446 158.52174 432.01285
-28.641205 158.42834 431.64856
-26.987396 158.33496 431.27747
-26.120483 158.40695 432.73334
-25.636429 158.56152 435.10495
-23.985977 158.46817 434.71945
-22.341141 158.37486 434.32727
-20.701996 158.28163 433.92844
-19.445877 158.27101 434.44537
-17.815521 158.17792 434.03442
-16.190887 158.08488 433.61688
-14.941422 158.07443 434.1185
-13.692398 158.06403 434.61566
-12.079895 157.97125 434.18082
-11.195969 158.04341 435.59711
-9.9485321 158.03317 436.08127
-8.7016754 158.02303 436.56116
-6.7486115 157.84824 435.17297
-5.5082397 157.83826 435.64227
-3.5722809 157.66374 434.2395
-2.6838074 157.73627 435.63309
-1.1051483 157.64429 435.15286
0.12750244 157.63467 435.60318
1.3595276 157.62517 436.04938
2.9257355 157.53352 435.55267
3.8216705 157.60638 436.9292
5.3813171 157.51498 436.42236
6.6081543 157.50583 436.85101
7.5100708 157.57892 438.21805
8.738266 157.56996 438.63947
10.28476 157.479 438.11261
11.509048 157.47025 438.52499
12.732666 157.46159 438.93338
14.577744 157.28899 437.44409
15.48642 157.36258 438.79044
17.011276 157.27225 438.23749
18.530258 157.18205 437.67883
19.442307 157.25592 439.01514
20.656906 157.24789 439.3981
22.166138 157.15805 438.82526
23.084259 157.23218 440.15234
24.87706 157.06067 438.61661
26.083969 157.0531 438.9826
27.005569 157.12747 440.2998
28.496094 157.03824 439.703
29.701279 157.03096 440.05759
30.629005 157.10559 441.36581
32.384254 156.93491 439.79727
33.856827 156.84616 439.18094
35.054558 156.83931 439.5191
36.518181 156.75081 438.89322
37.976074 156.66243 438.26218
38.905785 156.73763 439.54971
40.357407 156.64946 438.91
41.547318 156.64313 439.22855
42.73674 156.63689 439.54343
43.925652 156.63074 439.85477
45.114113 156.62468 440.16254
46.793221 156.45543 438.53485
47.97551 156.44958 438.83426
49.397705 156.36221 438.16287
50.5765 156.35657 438.45459
51.754852 156.35101 438.74283
52.700218 156.42711 439.99677
53.880318 156.42172 440.27872
55.05999 156.41641 440.55725
56.464012 156.32965 439.86133
57.640289 156.32452 440.13235
58.816162 156.31947 440.39999
59.991661 156.31451 440.66425
61.166771 156.30965 440.92511
62.341507 156.30486 441.18259
63.725075 156.21867 440.46228
65.103104 156.1326 439.73746
66.067574 156.20953 440.95941
67.439728 156.12363 440.22687
68.408714 156.2007 441.44324
69.775024 156.11496 440.70303
70.942192 156.11075 440.93616
72.109032 156.10661 441.16605
73.275581 156.10255 441.39261
74.441818 156.09857 441.61594
75.607758 156.09465 441.83603
76.773415 156.09082 442.05289
78.116936 156.00568 441.28583
79.103905 156.08336 442.47681
80.441719 155.99838 441.70239
81.433304 156.07619 442.88794
82.765419 155.99136 442.10623
83.92691 155.98796 442.30331
84.925507 156.06595 443.48053
86.249146 155.98135 442.68796
87.409912 155.97815 442.87555
88.57045 155.97501 443.05997
89.730766 155.97194 443.24121
91.190384 155.80637 441.44858
92.050758 155.96599 443.59433
93.499649 155.80055 441.79379
94.796005 155.71649 440.97525
95.947571 155.71375 441.13971
97.235809 155.62982 440.31381
98.518707 155.54596 439.48416
99.664566 155.54343 439.63867
100.81026 155.54094 439.79013
102.08234 155.45728 438.94986
103.10112 155.53615 440.0838
104.36774 155.45261 439.23676
105.5102 155.45036 439.37567
106.65251 155.44818 439.51157
107.68097 155.52725 440.63458
108.82558 155.52516 440.76468
109.97003 155.52313 440.89175
111.22034 155.43997 440.02475
112.46539 155.35686 439.15421
113.70516 155.27382 438.28009
114.8414 155.27202 438.39435
116.07323 155.18909 437.51346
117.20667 155.18739 437.6214
118.33999 155.18576 437.72647
119.38521 155.26532 438.82135
120.60633 155.18262 437.92758
121.65649 155.2623 439.01697
122.71169 155.34201 440.10382
123.84966 155.34061 440.1944
124.98755 155.33925 440.28201
126.19794 155.25681 439.37259
127.33308 155.25555 439.45416
128.5356 155.17322 438.5383
129.66803 155.17207 438.61374
130.8627 155.08984 437.69147
131.99242 155.08879 437.76083
133.12207 155.08778 437.8273
134.25168 155.08682 437.89081
135.38121 155.08591 437.95142
136.56017 155.00394 437.01364
137.64012 155.08423 438.06384
138.72516 155.16458 439.11136
139.89883 155.08273 438.16452
140.98892 155.16318 439.20645
142.08409 155.24365 440.24564
143.21843 155.24306 440.28595
144.35275 155.24251 440.32333
145.45808 155.3231 441.35403
146.59489 155.32265 441.38565
147.75549 155.24112 440.41791
148.88969 155.24075 440.4436
150.00519 155.32153 441.46283
151.14191 155.32126 441.4827
152.27863 155.32101 441.49966
153.41531 155.32083 441.51367
154.54358 155.40179 442.52139
155.68867 155.32057 441.53287
156.82536 155.32051 441.53806
157.96202 155.3205 441.54037
159.10056 155.40164 442.53644
160.23979 155.40172 442.53287
161.38602 155.48294 443.52301
162.52785 155.48309 443.51355
163.68179 155.56441 444.49774
164.82622 155.56467 444.4823
165.93616 155.40274 442.47089
167.07549 155.40308 442.44965
168.23721 155.48457 443.42197
169.3542 155.4039 442.39841
170.46609 155.32326 441.37207
171.72327 155.64822 445.32416
172.96835 155.89215 448.27649
174.15846 155.97388 449.23322
175.35374 156.05566 450.18677
176.55421 156.1375 451.13712
177.63113 155.97601 449.09689
178.60689 155.65231 445.06271
179.70627 155.57204 444.01324
180.74998 155.41068 441.96564
181.78348 155.24934 439.91553
182.80676 155.08806 437.8631
183.76154 154.84567 434.81329
184.64009 154.52219 430.76663
185.62506 154.36099 428.7077
186.59984 154.19984 426.64655
187.56442 154.03873 424.58319
188.5188 153.87766 422.51773
189.38927 153.63545 419.45615
190.2444 153.39328 416.39291
191.16306 153.2323 414.32162
192.15297 153.15253 413.24173
193.22182 153.15393 413.15262
194.03107 152.9119 410.08188
194.91412 152.75105 408.00241
195.78702 152.59024 405.92111
196.83827 152.59183 405.82251
197.69594 152.43109 403.73712
198.74228 152.43275 403.63345
199.8907 152.51567 404.51852
200.93983 152.51744 404.40909
201.98909 152.51926 404.29688
203.03847 152.52112 404.18188
204.20024 152.60425 405.05447
205.36729 152.68744 405.92374
206.42221 152.68947 405.79977
207.59726 152.77278 406.66251
208.65503 152.77492 406.53262
209.58783 152.69588 405.41116
210.64334 152.69812 405.27603
211.69901 152.70042 405.13809
212.35622 152.45901 402.03384
213.26904 152.38014 400.90381
214.45291 152.46384 401.74585
215.36093 152.38507 400.61093
216.40714 152.38762 400.46024
217.30777 152.30894 399.32074
218.50008 152.39288 400.15039
219.39595 152.31432 399.00607
220.44032 152.31708 398.84445
221.32886 152.2386 397.69565
222.52969 152.3228 398.51273
223.41348 152.24443 397.35907
224.2923 152.16609 396.20334
225.66534 152.33183 397.99377
226.71101 152.33496 397.81506
227.92847 152.41951 398.6153
228.97717 152.42278 398.43033
230.02612 152.4261 398.24252
231.25464 152.51088 399.0322
232.30669 152.51434 398.8381
233.72794 152.68066 400.60001
235.15979 152.84709 402.35696
236.60226 153.01363 404.10898
237.47868 152.93599 402.92215
238.93466 153.10271 404.66565
239.80908 153.02521 403.47327
240.67862 152.94775 402.27893
241.54327 152.87036 401.08261
242.81343 152.95596 401.83505
243.67355 152.87869 400.63382
244.73915 152.88295 400.40482
245.59213 152.8058 399.19913
246.44028 152.7287 397.99155
247.50174 152.73318 397.75464
248.34277 152.65619 396.5426
249.40234 152.66081 396.30014
250.46223 152.6655 396.05447
251.52252 152.67027 395.80582
252.58319 152.67513 395.55405
253.87796 152.76164 396.26804
254.94199 152.76666 396.0094
256.00644 152.77177 395.74765
257.55435 152.94022 397.41663
258.38068 152.86386 396.18094
259.69568 152.95088 396.87469
260.767 152.95634 396.59894
262.59464 153.20694 399.21283
264.69296 153.5394 402.78296
266.81262 153.87206 406.3443
269.21341 154.28662 410.85889
272.69043 155.0284 419.20898
275.41992 155.52527 424.66046
279.25183 156.34946 433.93988
282.8663 157.09229 442.24176
285.9827 157.67188 448.60953
287.75888 157.8427 450.17398
290.10229 158.17735 453.64572
291.34436 158.18486 453.28232
292.30368 158.1106 451.95947
292.6864 157.87265 448.72488
293.34259 157.71661 446.44504
293.40643 157.39679 442.25821
293.15607 156.995 437.12164
293.76941 156.83897 434.84387
294.97107 156.84691 434.46695
296.17334 156.85493 434.08618
297.6806 156.94507 434.65051
298.88678 156.95332 434.26114
300.4032 157.04372 434.81516
301.61325 157.05219 434.41702
303.13885 157.14282 434.96048
