ply
format ascii 1.0
comment PCL generated
element vertex 1591
property float x
property float y
property float z
element camera 0
property float view_px
property float view_py
property float view_pz
property float x_axisx
property float x_axisy
property float x_axisz
property float y_axisx
property float y_axisy
property float y_axisz
property float z_axisx
property float z_axisy
property float z_axisz
property float focal
property float scalex
property float scaley
property float centerx
property float centery
property int viewportx
property int viewporty
property float k1
property float k2
end_header
187.43877 71.362404 438.41434
188.43607 71.579041 436.35391
189.70761 71.361008 438.25735
190.76848 71.468918 437.18311
191.90054 71.468155 437.09741
192.87509 71.684692 435.02686
194.08359 71.575195 435.92639
195.12943 71.683014 434.84152
196.34326 71.573456 435.73474
197.56232 71.463852 436.62454
198.78664 71.354233 437.51086
199.92198 71.353241 437.40421
201.25101 71.134872 439.27319
202.19304 71.351189 437.18176
203.22682 71.458794 436.07727
204.36009 71.457687 435.95883
205.60056 71.347855 436.82568
206.51741 71.564056 434.72504
207.76071 71.454163 435.58557
208.66501 71.670311 433.48035
209.91118 71.560341 434.33459
211.04272 71.559029 434.19843
212.29692 71.448967 435.04578
213.68149 71.230156 436.87561
214.94888 71.12001 437.71527
216.09138 71.11853 437.56567
217.36685 71.008301 438.39816
218.37692 71.115479 437.25726
219.24413 71.331345 435.12958
220.52272 71.220993 435.95251
221.52051 71.328056 434.80423
222.65898 71.326355 434.6369
223.79767 71.324615 434.46652
224.93657 71.32283 434.29303
226.0757 71.320999 434.11649
227.37099 71.210373 434.91855
228.51314 71.20845 434.73538
229.97775 70.988953 436.51093
231.28922 70.878159 437.30112
232.43982 70.876091 437.10724
234.09723 70.547638 439.849
235.25609 70.545456 439.64746
236.41521 70.543228 439.44272
237.39798 70.649757 438.25644
238.55505 70.647438 438.04572
239.16711 70.971489 434.89987
240.31702 70.969078 434.6842
241.28027 71.075439 433.48898
242.61768 70.964127 434.2431
243.57637 71.070389 433.04242
244.72488 71.067795 432.8143
246.07101 70.956291 433.55731
247.6225 70.735886 435.26968
248.37483 70.950806 433.08377
250.1424 70.621407 435.76016
251.51059 70.509644 436.48572
252.67406 70.506683 436.23523
253.83791 70.503654 435.98145
255.21753 70.391693 436.69473
256.3847 70.38855 436.43365
257.99347 70.167557 438.1077
259.16663 70.164276 437.83871
260.56598 70.052025 438.53433
261.74255 70.04863 438.25784
262.91949 70.045158 437.97794
263.86331 70.150574 436.72833
265.27472 70.038048 437.40771
266.21417 70.143356 436.15247
267.39029 70.139648 435.85931
268.56683 70.13588 435.56265
269.74387 70.13205 435.26254
270.92133 70.128151 434.95886
272.60291 69.906204 436.57486
274.04099 69.793167 437.22366
275.48477 69.680038 437.86752
276.41498 69.784882 436.58725
277.34048 69.889664 435.30484
278.26129 69.994415 434.02023
279.17737 70.099106 432.73346
280.35883 70.094711 432.40109
282.08624 69.872101 433.97696
283.27399 69.867546 433.63583
285.01819 69.644745 435.19977
286.77338 69.421852 436.75696
288.25647 69.307953 437.35446
289.17374 69.412231 436.04245
291.24005 69.079918 438.53339
292.15848 69.184067 437.21378
293.07227 69.28817 435.89203
294.57397 69.173912 436.46564
296.08154 69.059563 437.03384
297.2934 69.054321 436.64932
298.81003 68.939842 437.20712
300.33255 68.825264 437.7594
301.55151 68.819839 437.36136
302.77106 68.814369 436.95932
303.67651 68.918091 435.61041
304.89471 68.912529 435.20132
305.79346 69.016205 433.84702
307.01025 69.010559 433.43079
308.55286 68.895599 433.94971
310.42929 68.671249 435.40118
311.65582 68.665466 434.97
313.54932 68.440987 436.40765
315.11816 68.325775 436.90182
316.69293 68.210503 437.38998
317.93243 68.204567 436.93835
318.82874 68.307991 435.5499
320.75967 68.083237 436.95422
321.65448 68.186661 435.55826
323.59979 67.961838 436.9491
324.84744 67.955841 436.4743
326.80972 67.730957 437.85049
327.70404 67.834419 436.43845
329.3183 67.718979 436.87531
329.8432 67.931999 434.5321
331.82874 67.707115 435.88272
336.41772 66.715652 443.68161
340.30905 65.943077 449.61411
343.86234 65.279922 454.60675
349.33963 64.068954 464.17758
353.35181 63.296059 470.04727
355.867 62.961361 472.229
358.01202 62.736305 473.48331
360.16797 62.511307 474.72845
361.94305 62.396015 475.0506
363.32922 62.390469 474.45325
364.31845 62.494713 472.93979
364.90271 62.70879 470.51385
363.86691 63.361675 464.45224
366.44385 63.028008 466.56955
364.14471 64.01046 457.79669
362.20764 64.883636 449.94617
367.24826 63.892666 457.48038
368.1799 63.998695 455.95923
362.83109 65.750427 440.91116
-40.966629 67.577042 438.0322
-38.860016 67.794807 436.80399
-37.170105 67.905731 436.47409
-35.48526 68.016846 436.13742
-33.805542 68.128159 435.79391
-30.936035 68.560638 432.71085
-30.461884 68.351227 435.08682
-28.798035 68.462982 434.72314
-27.529953 68.467865 435.26727
-26.261978 68.472885 435.80695
-25.379196 68.371063 437.25891
-23.344238 68.590202 435.95532
-22.079544 68.595528 436.48062
-20.815155 68.600922 437.00159
-19.551117 68.6064 437.51816
-18.659103 68.505051 438.95242
-17.393143 68.510651 439.4613
-15.761215 68.623184 439.04147
-14.134979 68.735733 438.61508
-12.153488 68.955139 437.25592
-10.541519 69.067688 436.8157
-9.6469269 68.966568 438.22598
-8.0413055 69.079117 437.77509
-6.7919922 69.084846 438.24838
-5.5432281 69.090576 438.71738
-4.2949982 69.096306 439.18207
-2.7048645 69.208786 438.70914
-1.1205902 69.321228 438.23007
0.12059021 69.326904 438.68011
1.0265656 69.225807 440.06238
2.2691803 69.23143 440.5051
3.8404846 69.343735 440.00543
5.7325287 69.562675 438.56076
7.6134186 69.781548 437.10818
10.768631 70.427017 431.88428
13.891571 71.072304 426.64554
17.298401 71.824074 420.44937
19.413864 72.149078 418.01135
21.823776 72.580597 414.61981
24.520264 73.118591 410.27219
26.273117 73.336609 408.75089
28.014923 73.55455 407.22244
30.045959 73.878967 404.73914
31.167618 73.88356 405.09332
32.583786 73.994659 404.49438
33.994164 74.105682 403.89026
35.108925 74.110092 404.23215
36.510368 74.220978 403.61853
37.336891 74.118744 404.90527
38.168137 74.016479 406.19006
39.004089 73.914185 407.47293
39.568062 73.705353 409.70886
40.69017 73.709457 410.03281
42.08326 73.819992 409.39673
43.470634 73.930435 408.75571
44.852295 74.040817 408.1098
46.228233 74.151108 407.45901
47.598488 74.261337 406.80341
49.221489 74.477905 405.18286
50.321945 74.48156 405.47781
51.928383 74.697968 403.84644
53.523949 74.914276 402.20901
54.860649 75.024109 401.5285
55.94632 75.027489 401.80688
57.274376 75.137184 401.11786
58.35659 75.140442 401.38922
59.200813 75.037277 402.62283
60.049835 74.934082 403.85455
60.671249 74.724487 406.05115
61.072868 74.408531 409.21445
61.944107 74.305229 410.44217
62.595543 74.095566 412.63651
63.701004 74.098511 412.89166
65.244957 74.314026 411.20389
66.778168 74.529449 409.51062
68.300659 74.744797 407.81189
69.812424 74.960068 406.10776
71.104462 75.068985 405.37027
72.390976 75.177841 404.62866
73.468117 75.180351 404.85608
74.544937 75.182816 405.08041
75.820152 75.291489 404.32745
77.08989 75.400101 403.57037
78.354164 75.508667 402.80923
79.422035 75.51091 403.01993
80.489632 75.513123 403.22757
81.742706 75.621513 402.45544
82.440796 75.411163 404.61127
83.510162 75.413239 404.81049
84.401253 75.309052 405.98495
85.297249 75.204834 407.15744
86.198158 75.100571 408.32785
87.103981 74.996277 409.49625
87.511635 74.573357 413.60281
87.93969 74.150421 417.70999
88.550682 73.833664 420.83664
88.857002 73.304527 425.92557
89.188881 72.775391 431.01566
89.701111 72.352417 435.1246
90.233749 71.929443 439.23364
91.235725 71.824974 440.39374
92.095581 71.614304 442.53485
93.110023 71.509781 443.69058
94.12941 71.405197 444.84399
95.014404 71.194443 446.97949
95.909508 70.983665 449.11328
97.083115 70.985153 449.27487
98.256546 70.986618 449.43326
99.171677 70.775742 451.56046
100.72935 71.095551 448.75443
101.89967 71.096886 448.90317
103.06984 71.09819 449.04871
104.35861 71.205589 448.20392
105.64209 71.312943 447.35541
106.80664 71.314148 447.491
107.97105 71.315292 447.62357
109.2438 71.422546 446.76453
110.40536 71.42363 446.89063
111.67014 71.5308 446.02472
112.82887 71.53183 446.14435
113.98746 71.532814 446.26099
115.05031 71.427658 447.36429
116.21124 71.428589 447.47504
117.46256 71.535583 446.59253
118.70863 71.642555 445.70654
119.69337 71.431183 447.78903
121.10226 71.75029 444.91492
122.33521 71.85717 444.01868
123.48524 71.85791 444.11041
124.7103 71.964722 443.20755
126.00266 72.177597 441.3096
127.07477 72.072159 442.38361
128.28673 72.178879 441.47086
129.49348 72.285568 440.55481
130.57051 72.180054 441.62021
131.71228 72.180603 441.6904
132.79686 72.075027 442.7504
133.99565 72.18161 441.82199
135.13724 72.182083 441.8833
136.27878 72.182533 441.94162
137.46713 72.289032 441.00378
138.6503 72.395508 440.06268
139.78654 72.395874 440.112
140.96194 72.502304 439.1647
142.05891 72.396538 440.20166
143.19505 72.396835 440.24207
144.29965 72.291031 441.27344
145.43826 72.291275 441.30804
146.55051 72.185425 442.33374
147.69164 72.185623 442.36258
148.83273 72.185806 442.38843
149.99248 72.292038 441.41714
151.13098 72.292168 441.43707
152.26947 72.292267 441.4541
153.40793 72.292358 441.46808
154.55481 72.398499 440.48489
155.68484 72.292465 441.48737
156.82658 72.39856 440.49826
157.96246 72.398544 440.50055
159.09834 72.398529 440.49985
160.22983 72.504532 439.50198
161.36316 72.504471 439.49545
162.49649 72.504372 439.48602
163.61774 72.610321 438.4794
164.76321 72.504105 439.45837
165.89659 72.503937 439.44019
167.03 72.503754 439.41904
168.14107 72.609612 438.40088
169.27196 72.609375 438.37402
170.43036 72.503036 439.33807
171.50377 72.714905 437.31747
172.66481 72.608521 438.2757
173.76065 72.714279 437.24335
174.88914 72.713921 437.20187
175.93707 72.925713 435.17041
177.10341 72.819229 436.11676
178.22948 72.818802 436.06668
179.3076 72.924438 435.02048
180.48178 72.817879 435.9577
181.66116 72.711288 436.89175
182.79002 72.71077 436.82983
183.97722 72.604126 437.7576
185.04794 72.709641 436.69714
186.24042 72.602943 437.61877
187.43811 72.496216 438.53714
188.50392 72.601654 437.46814
189.70688 72.494873 438.38019
190.76773 72.600266 437.30569
191.82353 72.705627 436.22861
192.8743 72.810966 435.14899
194.00139 72.810181 435.0578
195.04463 72.915466 433.9729
196.34236 72.702408 435.85721
197.5614 72.595421 436.74731
198.60239 72.700623 435.65375
199.92099 72.487457 437.52734
201.1532 72.380371 438.40729
201.99329 72.697723 435.32629
203.12383 72.696693 435.21115
204.35898 72.589508 436.08191
205.49234 72.588417 435.96051
206.62585 72.587288 435.83618
207.8717 72.479996 436.69684
208.77852 72.691071 434.59076
210.02722 72.58371 435.44507
210.92149 72.794724 433.33447
212.29556 72.581154 435.16922
213.55502 72.473679 436.01321
214.69217 72.472313 435.86737
215.9597 72.364754 436.70432
217.09978 72.363304 436.55212
217.96931 72.574142 434.42661
219.24252 72.466461 435.25369
220.52107 72.358749 436.07697
221.37573 72.569489 433.9444
222.65726 72.461685 434.7612
223.79593 72.460007 434.59091
224.93478 72.458298 434.41751
226.22723 72.350357 435.22345
227.36909 72.348557 435.04346
228.5112 72.34671 434.86032
230.13687 72.02623 437.61774
231.12347 72.130493 436.44632
232.27145 72.12851 436.25296
233.92622 71.807861 438.99609
235.08246 71.805771 438.79507
236.41293 71.697418 439.56982
237.39569 71.801453 438.38342
238.5527 71.799232 438.17279
239.3465 72.00943 436.00375
240.49892 72.007111 435.78766
241.09085 72.323486 432.63852
242.61514 72.108582 434.36975
243.76588 72.106125 434.14444
244.91693 72.103622 433.91592
246.0683 72.101059 433.6842
247.22 72.09845 433.44916
248.37201 72.095779 433.21088
249.72943 71.986778 433.94232
251.09236 71.877716 434.66937
252.67105 71.662277 436.36386
253.83484 71.659378 436.11014
254.99899 71.65641 435.85315
256.38153 71.547073 436.5629
257.76959 71.437675 437.26807
258.49371 71.647186 435.06186
259.88519 71.537659 435.75974
261.28229 71.428062 436.45294
262.22302 71.53109 435.20731
263.39255 71.527725 434.92587
264.79868 71.417923 435.60696
265.97168 71.414421 435.31812
267.14511 71.410858 435.02573
268.319 71.407242 434.72986
269.73993 71.297165 435.3938
271.16656 71.186996 436.05289
272.59885 71.076767 436.707
274.03687 70.966446 437.35629
275.48053 70.856049 438.00055
276.15106 71.064896 435.76038
277.07391 71.167274 434.47852
277.99203 71.2696 433.19449
279.44037 71.158943 433.82364
280.62439 71.154694 433.49072
282.0816 71.043884 434.11035
283.26932 71.03949 433.76941
285.01343 70.822021 435.33411
286.20746 70.81749 434.98422
287.68518 70.706375 435.58374
289.16876 70.595177 436.17792
290.94653 70.377342 437.71832
291.8623 70.479088 436.39944
293.06705 70.474228 436.02829
294.2724 70.469307 435.65335
295.77725 70.357742 436.22281
296.98645 70.352692 435.83926
297.89206 70.454208 434.50522
300.32697 70.022575 437.89783
300.92703 70.230606 435.61017
302.14124 70.225349 435.21002
303.35611 70.220032 434.806
304.57159 70.214676 434.39795
304.82773 70.529327 431.16165
306.68173 70.310532 432.6293
307.89642 70.305054 432.21014
309.76752 70.086121 433.66422
311.31921 69.973824 434.17279
312.87683 69.861473 434.67542
314.77618 69.642319 436.10788
316.34827 69.529846 436.5975
317.24396 69.630905 435.21313
318.82251 69.518372 435.69244
320.40695 69.405807 436.16559
320.60098 69.720474 432.90863
322.53827 69.501083 434.30325
324.13232 69.388474 434.76068
325.37521 69.382706 434.28384
326.97833 69.270081 434.72971
328.58722 69.157471 435.16907
329.47192 69.258629 433.75247
331.82245 68.932236 436.02872
335.30035 68.28508 441.06244
339.92963 67.317047 448.84387
343.8559 66.562744 454.76025
348.57648 65.594437 462.49576
353.34528 64.626007 470.20682
355.86047 64.299309 472.38962
356.46033 64.507553 469.98032
360.5506 63.753025 475.80576
361.54517 63.854515 474.29953
362.1402 64.063171 471.87811
363.91556 63.950966 472.19119
364.49731 64.160019 469.76596
362.65448 65.011551 461.88535
364.00867 65.007019 461.28323
360.47095 66.287437 449.79434
361.38232 66.390518 448.29175
365.59183 65.637245 454.02252
369.0069 65.098305 457.92529
365.33698 66.380127 446.47769
-39.727432 69.149063 435.46518
-38.446594 69.152588 436.04572
-36.75914 69.260773 435.71414
-35.480438 69.264725 436.28473
-32.998596 69.582115 434.12061
-32.125961 69.482002 435.59012
-30.85231 69.486465 436.14514
-29.185684 69.595467 435.78217
-27.914825 69.600197 436.32724
-26.644089 69.605057 436.86789
-25.37352 69.610031 437.40408
-24.10318 69.615097 437.93585
-22.073715 69.828934 436.62482
-21.18631 69.729828 438.06586
-19.170807 69.943764 436.74054
-18.281418 69.844803 438.17386
-17.018066 69.850204 438.68143
-15.755142 69.855652 439.1846
-13.765213 70.069687 437.83212
-12.508514 70.07518 438.32443
-10.893906 70.184952 437.88474
-8.9293518 70.398941 436.50992
-7.3290405 70.508682 436.05649
-6.4354858 70.409981 437.45828
-5.1893768 70.415497 437.92606
-3.9438629 70.421005 438.38965
-3.0413818 70.322342 439.78262
-1.4544983 70.432007 439.30399
-0.21072388 70.437485 439.75485
0.69789124 70.338799 441.13812
1.6111755 70.240105 442.5191
3.8462677 70.557884 440.14392
6.0648956 70.875565 437.75897
7.6190643 70.984955 437.24509
11.095535 71.718796 431.07794
14.534454 72.452438 424.8942
16.671509 72.76963 422.46606
19.419052 73.294815 418.14102
22.761337 74.027939 411.91382
24.833435 74.344742 409.45322
26.583603 74.557411 407.93027
28.62561 74.873993 405.45294
30.050705 74.982483 404.86319
31.172287 74.986893 405.21725
32.588402 75.095253 404.61783
34.291138 75.307503 403.06262
35.403221 75.311737 403.40353
36.514801 75.315926 403.74088
37.910378 75.423996 403.12177
38.736343 75.324135 404.40512
39.567009 75.224243 405.68658
40.125687 75.020401 407.92145
41.516602 75.12825 407.28763
42.630318 75.132126 407.60568
43.74353 75.135941 407.92032
45.388756 75.347458 406.31491
46.232117 75.247284 407.58032
47.60231 75.35479 406.92426
48.966805 75.462219 406.26343
50.325615 75.569572 405.59787
51.931992 75.780693 403.96573
53.778076 76.095535 401.36511
55.112106 76.20266 400.68347
56.195122 76.205902 400.96109
57.520493 76.312881 400.27103
58.359871 76.212219 401.50668
59.441628 76.215286 401.77472
60.288002 76.114532 403.00595
61.139175 76.013748 404.23526
61.535561 75.705383 407.39804
62.40155 75.60453 408.62469
63.272346 75.503632 409.84943
64.36998 75.506439 410.1026
65.686661 75.61293 409.38251
67.431442 75.926819 406.71671
68.731857 76.033173 405.98685
70.238396 76.243195 404.28082
71.525177 76.349411 403.54193
72.393524 76.248154 404.74475
73.470619 76.250572 404.97202
74.748665 76.356628 404.22229
75.623856 76.255249 405.41751
77.092232 76.46489 403.68549
78.549965 76.674454 401.94839
79.424286 76.572945 403.13452
80.303474 76.47139 404.31873
81.55909 76.577133 403.54672
82.442902 76.475502 404.72595
83.512222 76.477493 404.92505
84.581284 76.479431 405.12122
85.299217 76.274055 407.27243
86.200089 76.172287 408.44305
87.105873 76.07048 409.61163
87.513512 75.657761 413.71921
88.106651 75.348656 416.84659
88.552498 74.935913 420.95477
89.018761 74.523163 425.06332
89.190659 73.903168 431.13638
89.702858 73.490402 435.2464
90.387695 73.181244 438.37354
91.237404 72.975662 440.51675
91.803078 72.562851 444.62573
92.822639 72.460831 445.78244
94.130989 72.565948 444.96786
95.015945 72.36026 447.10388
96.047783 72.258133 448.25299
97.352982 72.363144 447.42865
98.652847 72.468109 446.6004
99.560226 72.262299 448.72705
100.85718 72.367195 447.89221
102.1488 72.472046 447.05368
103.3138 72.473282 447.19852
104.35985 72.370926 448.32779
105.75949 72.579224 446.49112
107.03505 72.683914 445.63834
107.97218 72.477905 447.74698
109.35339 72.686096 445.89902
110.61826 72.79068 445.03577
111.77451 72.791687 445.1582
112.93063 72.792664 445.27756
114.08664 72.793594 445.39389
115.14687 72.690964 446.49719
116.21214 72.588303 447.59793
117.55394 72.796249 445.72458
118.70947 72.797066 445.82877
119.86491 72.797867 445.92987
121.10304 72.902161 445.03683
122.33595 73.006439 444.14026
123.56363 73.11068 443.24033
124.71098 73.111359 443.3288
126.00331 73.319069 441.4303
127.21533 73.423218 440.5202
128.28734 73.320297 441.59143
129.49406 73.424393 440.67511
130.57106 73.321411 441.74075
131.71281 73.321938 441.81094
132.79736 73.21891 442.87115
133.99612 73.322899 441.94247
135.1377 73.323349 442.00372
136.32864 73.427292 441.06863
137.46753 73.427689 441.12393
138.60637 73.42807 441.17621
139.7869 73.531937 440.23178
140.92308 73.532265 440.27811
142.05922 73.532562 440.32147
143.19533 73.532852 440.36191
144.33139 73.533112 440.39932
145.46742 73.533348 440.43387
146.60342 73.533562 440.46545
147.71561 73.430237 441.48853
148.85413 73.430405 441.51428
149.99261 73.430557 441.53714
151.1311 73.430679 441.55704
152.2831 73.534286 440.57953
153.41898 73.534378 440.59351
154.55486 73.534431 440.60458
155.69072 73.53447 440.61273
156.82658 73.534485 440.61795
157.96317 73.637985 439.62558
159.09645 73.637955 439.62494
160.22534 73.741425 438.62674
161.35609 73.741348 438.62024
162.48685 73.741257 438.61087
163.62971 73.637627 439.59311
164.74838 73.740997 438.58331
165.86195 73.844353 437.57068
166.9902 73.84417 437.54968
168.11848 73.843971 437.52573
169.2468 73.843742 437.4989
170.4026 73.73999 438.46332
171.47343 73.946747 436.44226
172.66451 73.739418 438.39496
173.7955 73.739105 438.35632
174.88879 73.842285 437.32086
175.97701 73.945435 436.28275
177.14587 73.841537 437.22925
178.18361 74.048172 435.19189
179.30714 74.047745 435.13898
180.43073 74.047287 435.08322
181.60751 73.943291 436.0177
182.78949 73.839264 436.94897
183.97667 73.735222 437.87701
185.04736 73.838188 436.81641
186.17641 73.837616 436.74564
187.30553 73.837021 436.672
188.43472 73.836388 436.59543
189.564 73.835739 436.51587
190.69334 73.835068 436.43338
191.82278 73.834366 436.34793
192.95233 73.833633 436.25961
194.08195 73.83287 436.16827
195.12775 73.935623 435.08295
196.34152 73.831276 435.97678
197.47144 73.830444 435.8765
198.60149 73.829575 435.77338
199.82584 73.725128 436.65738
200.95868 73.724197 436.54803
201.99228 73.826797 435.44601
203.2247 73.722267 436.32028
204.35791 73.721252 436.20197
205.49124 73.7202 436.08066
206.73434 73.615562 436.94492
207.75833 73.718018 435.82904
208.89209 73.716873 435.6987
209.90866 73.819267 434.5777
210.80032 74.025208 432.46698
212.0493 73.920403 433.31555
213.42863 73.711975 435.14728
214.56317 73.710678 435.00183
215.82808 73.605743 435.83945
217.0983 73.500778 436.67331
218.23853 73.499359 436.51807
219.37892 73.497902 436.35977
220.37901 73.600006 435.21375
221.23108 73.805679 433.08112
222.50998 73.700516 433.89862
223.646 73.698921 433.72873
224.93304 73.593666 434.53894
226.37881 73.384766 436.32791
227.6792 73.279404 437.12994
228.66786 73.381256 435.96414
229.97385 73.275818 436.75903
231.12152 73.273956 436.56894
232.10318 73.375702 435.39502
233.58646 73.166473 437.15936
235.08034 72.957199 438.91876
236.4108 72.851501 439.69394
237.21689 73.056709 437.52853
238.72963 72.84726 439.27512
239.34419 73.156067 436.12729
240.49658 73.153839 435.91132
241.64925 73.151581 435.69208
242.99173 73.045578 436.44604
243.95549 73.146896 435.24396
245.30376 73.040794 435.99039
246.26297 73.142014 434.78287
247.41721 73.139511 434.54739
248.57175 73.136948 434.30869
249.9317 73.030617 435.03998
251.29715 72.924225 435.76685
252.66815 72.817764 436.48932
253.83188 72.814972 436.23572
255.21136 72.708397 436.9498
256.37842 72.70549 436.68896
257.32529 72.806282 435.4549
258.49054 72.803268 435.18793
259.88196 72.696442 435.88617
260.8222 72.797081 434.64374
262.21964 72.690125 435.33398
263.62268 72.583099 436.01953
264.79517 72.579788 435.73425
265.96811 72.576424 435.44547
267.14148 72.572998 435.15323
268.55927 72.465706 435.82172
269.48959 72.565979 434.55832
270.66434 72.56237 434.25562
272.09134 72.454872 434.91156
273.52405 72.347298 435.56259
274.70544 72.343506 435.24789
275.88733 72.339638 434.92966
277.06973 72.335724 434.60776
277.98779 72.435623 433.32358
279.43607 72.327705 433.95319
280.62 72.323608 433.62042
282.07718 72.215546 434.24054
283.5401 72.107399 434.85544
284.7309 72.103104 434.51019
286.20276 71.994812 435.11545
287.68045 71.886444 435.71542
288.87814 71.881943 435.35742
290.36484 71.773438 435.94751
291.2753 71.872787 434.63013
291.88745 72.076096 432.36029
293.6748 71.863396 433.88766
295.17432 71.754616 434.45923
296.07663 71.853798 433.12976
297.88675 71.640862 434.63885
299.70804 71.427826 436.14075
300.61218 71.52684 434.79959
301.82373 71.521782 434.40057
303.03589 71.51667 433.99756
304.24866 71.51152 433.59058
304.82214 71.714508 431.2962
306.35352 71.605186 431.82388
307.89069 71.495804 432.34564
309.76172 71.282227 433.80057
311.31342 71.172722 434.30963
313.20413 70.959 435.74988
314.77026 70.84938 436.24603
316.00381 70.84388 435.80093
317.23798 70.838364 435.35168
318.81647 70.728622 435.83151
320.40088 70.618858 436.30515
321.64209 70.613281 435.84131
323.2356 70.503464 436.30353
324.48062 70.497871 435.83017
326.08319 70.388031 436.28076
327.33191 70.382446 435.79782
328.21878 70.481171 434.38434
328.73584 70.684242 432.04349
330.34567 70.574478 432.47476
334.18323 69.838806 438.43784
338.43146 68.998695 445.30347
342.34705 68.262802 451.22647
348.19183 67.005058 461.72861
352.57697 66.164581 468.52502
354.70325 65.950256 469.79367
356.45416 65.840378 470.13666
359.76648 65.313019 474.13379
360.36423 65.51651 471.71561
361.3457 65.615768 470.21021
362.71893 65.610779 469.61426
369.28738 64.248299 480.85263
366.67221 65.287971 471.1366
369.6731 64.865692 474.15616
366.98828 65.906006 464.46133
365.89102 66.528839 458.40955
362.28375 67.778854 446.93933
364.43079 67.566544 448.14297
359.05884 69.235283 433.09625
-38.488388 70.705414 432.89264
-37.624298 70.606956 434.37619
-36.754639 70.508713 435.85788
-35.072113 70.614349 435.5191
-33.795776 70.618332 436.08398
-32.519333 70.622498 436.64441
-31.242905 70.626801 437.20047
-29.966461 70.631271 437.75198
-27.9095 70.839417 436.46912
-26.638672 70.844101 437.00958
-25.368011 70.848892 437.54562
-23.332932 71.057281 436.24045
-21.688416 71.163986 435.84589
-21.180618 70.965546 438.20654
-19.16507 71.174103 436.8804
-18.275635 71.077545 438.31384
-17.012238 71.082764 438.82117
-15.749298 71.088013 439.32416
-13.759369 71.296661 437.97089
-12.50267 71.301956 438.46304
-10.529633 71.51059 437.09479
-9.6350098 71.414261 438.50528
-7.6763306 71.622856 437.12335
-6.7801208 71.526558 438.52621
-5.8791656 71.430283 439.92685
-4.2831879 71.537216 439.45911
-3.035614 71.542534 439.91919
-1.7886047 71.547836 440.37503
0.13220215 71.756256 438.95474
0.36903381 71.456833 442.21097
2.2806702 71.665176 440.77948
4.8396912 72.0765 437.46259
7.0503082 72.386185 435.07385
8.9205017 72.594269 433.61609
12.386276 73.309761 427.44312
14.220947 73.517624 425.96564
16.676636 73.92836 422.59406
19.424088 74.440445 418.26733
22.144608 74.952362 413.9281
24.838242 75.464149 409.57639
26.89389 75.772911 407.10593
28.630249 75.980133 405.57437
30.355568 76.187286 404.03574
31.474503 76.191528 404.38873
32.887909 76.297134 403.78806
34.587944 76.504044 402.23132
35.407562 76.406731 403.52298
36.519051 76.410751 403.8602
37.914581 76.516083 403.24063
38.458557 76.317307 405.47818
39.291801 76.219849 406.76056
40.683151 76.32502 406.12976
41.794678 76.328789 406.45038
42.634247 76.231201 407.72464
44.016258 76.336182 407.08127
45.658798 76.542381 405.47446
46.499512 76.444641 406.73923
47.867012 76.549408 406.08206
48.970406 76.552841 406.38086
50.584961 76.758743 404.75348
51.935448 76.863312 404.08206
53.280273 76.967804 403.40601
55.115425 77.274704 400.79843
56.198372 77.277817 401.07593
57.523674 77.382095 400.38547
58.603203 77.385101 400.65585
59.919884 77.489258 399.95703
60.526024 77.289742 402.15387
61.374542 77.191391 403.38275
61.768303 76.89064 406.54559
62.858849 76.893417 406.80319
63.724403 76.794968 408.02689
64.594795 76.69648 409.2485
65.908813 76.800278 408.52747
67.43412 77.00518 406.83109
68.520248 77.007698 407.07239
70.029305 77.212463 405.36633
71.318626 77.316017 404.62759
72.395981 77.318375 404.85791
73.67688 77.421814 404.11136
74.751022 77.42408 404.33496
75.62616 77.325172 405.5304
77.09449 77.529572 403.79773
78.35865 77.632805 403.03586
79.426422 77.634872 403.24637
80.682259 77.737999 402.47699
81.746902 77.739983 402.68097
82.62809 77.640831 403.85989
83.694794 77.642738 404.05841
84.761215 77.644592 404.25406
85.476547 77.444267 406.40521
86.374794 77.344986 407.57559
87.107689 77.144608 409.72409
87.850677 76.944199 411.87143
88.273521 76.541656 415.97974
88.879311 76.240173 419.10696
89.180428 75.736557 424.1976
89.349731 75.131905 430.27182
89.859329 74.72934 434.38235
90.541557 74.427811 437.50986
91.089378 74.025215 441.62024
91.951729 73.824677 443.76273
92.824181 73.624115 445.90359
93.848663 73.524559 447.05807
94.878075 73.424965 448.21024
96.185989 73.527382 447.38907
97.488571 73.629761 446.564
98.917458 73.833099 444.74899
99.819664 73.632362 446.8754
100.85846 73.532608 448.01324
102.27396 73.735832 446.18723
103.31501 73.636017 447.31912
104.36103 73.536163 448.44864
105.76062 73.739281 446.61139
106.92255 73.740372 446.74658
107.86221 73.539429 448.85608
109.35442 73.84343 446.01886
110.51335 73.844421 446.14453
111.77548 73.946365 445.27768
113.03236 74.048279 444.40723
114.18575 74.049164 444.52325
115.2434 73.949059 445.6265
116.30607 73.848923 446.7272
117.55476 73.950714 445.84381
118.7982 74.052475 444.95697
119.95105 74.053223 445.05786
121.18658 74.154922 444.16428
122.4169 74.256592 443.26721
123.56432 74.257263 443.35864
124.78674 74.358887 442.45496
126.00394 74.460472 441.54794
127.14597 74.461067 441.63
128.28792 74.461639 441.70905
129.42978 74.462173 441.78519
130.57158 74.4627 441.85834
131.71332 74.463196 441.9285
132.85498 74.463669 441.99567
134.05115 74.565071 441.06656
135.13812 74.464539 442.12122
136.32904 74.565903 441.18588
137.42104 74.465332 442.23486
138.60672 74.566635 441.29333
139.70375 74.466019 442.33673
140.88422 74.567284 441.38907
142.0229 74.567581 441.43246
143.16154 74.567841 441.47299
144.33163 74.669037 440.51614
145.49657 74.77021 439.55621
146.60362 74.669464 440.58228
147.73958 74.669647 440.6109
148.87552 74.6698 440.63666
150.03009 74.770889 439.66473
151.14731 74.670067 440.67929
152.29672 74.771111 439.70142
153.43002 74.771179 439.71542
154.57172 74.872192 438.7316
155.69659 74.771278 439.73456
156.82986 74.771286 439.73978
157.96315 74.771278 439.74207
159.09642 74.771255 439.74142
160.22971 74.77121 439.73782
161.356 74.872086 438.73648
162.49628 74.771042 439.72192
163.62959 74.770935 439.70956
164.73358 74.972702 437.70477
165.87901 74.871597 438.6814
167.00981 74.871429 438.66034
168.14064 74.871223 438.63638
169.2964 74.770065 439.60406
170.40236 74.870773 438.57962
171.47316 75.072426 436.55798
172.63158 74.971191 437.51685
173.72481 75.071838 436.4841
174.85071 75.071518 436.44278
175.97664 75.071182 436.39856
177.1026 75.070816 436.35138
178.1832 75.171387 435.30743
179.3067 75.170975 435.25458
180.3797 75.2715 434.2052
181.60703 75.069138 436.13358
182.73328 75.068649 436.07184
183.80133 75.169113 435.01398
184.92514 75.168594 434.94656
186.11243 75.067078 435.86908
187.23895 75.066513 435.79559
188.36555 75.065918 435.71921
189.56334 74.964325 436.63226
190.69267 74.963684 436.5498
191.89832 74.862045 437.45639
193.0304 74.861343 437.36786
194.16257 74.860619 437.27634
195.21089 74.960846 436.19052
196.2542 75.06105 435.1022
197.38153 75.060257 435.00223
198.41733 75.160408 433.90869
199.54231 75.159561 433.80304
200.76419 75.057693 434.68466
201.99132 74.955795 435.56277
203.1218 74.954865 435.44775
204.35689 74.852905 436.31909
205.59724 74.750908 437.18695
206.73326 74.749878 437.06241
207.9816 74.64782 437.92337
209.00571 74.747726 436.80423
210.02481 74.847603 435.68277
211.03894 74.947456 434.55884
212.17053 74.946274 434.4198
213.42735 74.844055 435.26477
214.56186 74.842804 435.11942
215.82672 74.740509 435.95731
217.09692 74.638161 436.79153
218.23709 74.63681 436.63632
219.23953 74.736443 435.4928
220.51801 74.633987 436.3168
221.51567 74.733551 435.16785
222.79968 74.631027 435.98489
223.94083 74.629486 435.81436
225.23297 74.526871 436.62408
226.37712 74.525253 436.44696
227.83337 74.321503 438.23181
228.66608 74.521896 436.08334
229.81088 74.520172 435.89679
230.79227 74.619461 434.72583
231.935 74.617645 434.53351
233.24681 74.514725 435.31848
234.56406 74.411743 436.09946
235.71268 74.409805 435.89673
236.8616 74.407814 435.69089
238.18994 74.304695 436.46042
238.79674 74.605881 433.31335
240.12564 74.502678 434.07651
241.2731 74.500519 433.85834
242.42084 74.498306 433.63699
243.56891 74.496048 433.41245
244.71725 74.493744 433.18463
246.0632 74.390274 433.92868
247.41464 74.286743 434.66849
248.3667 74.385414 433.45584
249.724 74.281776 434.18802
251.29443 74.07692 435.88879
252.24493 74.175453 434.66684
253.61623 74.071632 435.38632
254.99307 73.967743 436.10138
255.9395 74.066132 434.87054
256.8811 74.164474 433.63751
258.04108 74.161606 433.37177
259.42725 74.05748 434.07166
260.59064 74.054489 433.79865
261.98541 73.950241 434.48984
263.61935 73.74472 436.14349
265.02795 73.640327 436.82471
266.20343 73.637085 436.53546
267.37933 73.633789 436.24274
268.55573 73.630432 435.9465
269.48593 73.728271 434.68289
270.41144 73.826065 433.41721
271.83578 73.721291 434.07425
273.26581 73.616447 434.72641
274.95856 73.410248 436.33472
275.88336 73.50782 435.05548
277.0657 73.504051 434.73376
278.51337 73.398926 435.36737
279.9668 73.293724 435.99594
280.88586 73.391083 434.70438
282.34555 73.285751 435.32419
283.81104 73.180336 435.93881
285.00436 73.176193 435.59296
286.19827 73.171997 435.24341
287.67587 73.066376 435.84381
289.1593 72.960678 436.43896
290.6485 72.854904 437.02866
291.27057 73.053238 434.75903
292.1763 73.150154 433.43933
293.37366 73.145615 433.06717
294.57159 73.141029 432.69116
296.07162 73.034958 433.25937
297.57755 72.928818 433.82202
299.39612 72.721146 435.3255
300.91638 72.614853 435.87607
301.81848 72.711441 434.53171
303.03058 72.706512 434.12894
304.56061 72.600052 434.66504
304.81677 72.899559 431.42743
306.34802 72.793015 431.95551
308.21042 72.584892 433.41794
309.1004 72.68129 432.05499
310.97723 72.473045 433.5047
312.53214 72.366272 434.00928
313.75708 72.361038 433.57138
315.32114 72.254181 434.06485
316.89105 72.147293 434.55222
317.77942 72.243576 433.16644
320.04861 71.933395 435.50864
321.63623 71.826401 435.97757
323.22971 71.719376 436.44028
324.82904 71.612335 436.8967
326.79126 71.40361 438.27533
327.68567 71.499878 436.86301
328.5752 71.596207 435.44836
329.09494 71.794266 433.10608
330.70746 71.687271 433.53683
334.17737 71.071671 438.57779
338.05255 70.354263 444.52371
343.09229 69.33152 453.21356
348.18573 68.308617 461.87714
351.80896 67.692642 466.83823
355.08084 67.178398 470.86349
355.6756 67.376671 468.45557
358.9826 66.862511 472.45663
361.14166 66.653786 473.69824
358.9743 67.56514 464.88385
360.72861 67.458557 465.20715
366.08487 66.435593 473.72244
362.64404 67.653198 462.1933
366.02338 67.139702 466.13474
365.35297 67.644936 460.98508
360.14246 69.271011 445.87402
361.45361 69.267548 445.27768
361.1019 69.67186 441.06168
352.36273 72.114227 418.79938
-39.307709 71.749863 434.84421
-38.029129 71.753128 435.42325
-37.156616 71.657364 436.90628
-35.874924 71.661026 437.47781
-34.192093 71.764099 437.13416
-32.514542 71.867317 436.78375
-30.842285 71.970673 436.42654
-29.175461 72.074142 436.06268
-27.514038 72.177727 435.69205
-26.245758 72.182228 436.2312
-24.592697 72.285995 435.84836
-22.945221 72.389839 435.45886
-21.303314 72.493752 435.06271
-20.044067 72.498581 435.58087
-18.785172 72.503464 436.09467
-17.898361 72.409302 437.52713
-16.637604 72.414307 438.03323
-15.743668 72.320251 439.46017
-13.753723 72.523514 438.10608
-12.496994 72.528618 438.59799
-10.882385 72.632805 438.15729
-9.629364 72.637924 438.63962
-7.6706848 72.841141 437.25687
-6.7744904 72.747231 438.65988
-5.5257416 72.752365 439.12823
-4.2776031 72.757492 439.59235
-3.030014 72.762604 440.05222
-1.7830505 72.767715 440.50784
-0.19949341 72.871765 440.02307
0.37452698 72.678894 442.34372
2.6180115 72.980804 439.97336
4.5157776 73.183685 438.53229
7.0556183 73.584366 435.2034
9.2497101 73.885994 432.80405
12.391388 74.484261 427.56985
14.544678 74.78566 425.14896
17.945847 75.482536 418.94446
19.742371 75.684822 417.44601
22.460159 76.183632 413.10431
25.151047 76.682312 408.75018
26.898438 76.884277 407.22491
28.331848 76.987335 406.64044
30.059692 77.189148 405.10202
31.181183 77.193237 405.45569
32.892189 77.394913 403.90506
34.299751 77.497688 403.29877
35.121925 77.402817 404.59137
36.810326 77.604263 403.02368
37.918625 77.608063 403.35645
38.744484 77.513069 404.64005
39.575043 77.418022 405.92181
40.68705 77.421707 406.24567
41.798523 77.425323 406.56613
42.909485 77.428894 406.88318
44.019974 77.432419 407.19678
45.662437 77.633316 405.58926
46.503098 77.53801 406.85419
47.609512 77.541367 407.15692
48.973885 77.643356 406.49524
50.588364 77.843964 404.86719
51.685585 77.847145 405.15778
53.283524 78.0476 403.51901
54.870636 78.247986 401.87415
55.956123 78.250977 402.15222
57.526756 78.451218 400.49692
58.606216 78.454094 400.76724
59.685265 78.456924 401.03436
60.528938 78.361069 402.26529
61.377411 78.265182 403.49432
61.771156 77.972031 406.65781
63.088829 78.073303 405.94647
63.727142 77.878708 408.13916
64.597481 77.782684 409.36099
65.911453 77.883797 408.63956
67.436684 78.083435 406.9426
68.522766 78.085846 407.18375
70.031761 78.28537 405.47708
71.32103 78.386246 404.73798
72.398331 78.388504 404.96817
73.475319 78.390717 405.19531
74.55201 78.392883 405.41934
75.628372 78.395012 405.64038
77.096642 78.594177 403.90707
78.360741 78.694733 403.14493
79.6194 78.795258 402.37866
80.495934 78.698662 403.56271
81.934624 78.897606 401.81183
82.813194 78.800934 402.99045
83.696678 78.704239 404.16702
84.763062 78.706024 404.36255
85.653778 78.609253 405.53467
86.376572 78.413956 407.68475
87.279694 78.317131 408.85327
88.020073 78.121788 411.00058
88.605423 77.827934 414.12805
89.206009 77.534058 417.25519
89.18206 76.84626 424.31061
89.666084 76.453888 428.42111
90.170509 76.061523 432.5318
90.695343 75.669144 436.64261
91.240555 75.276749 440.7536
92.100304 75.081284 442.89612
92.825661 74.787323 446.02167
93.992004 74.788712 446.19147
95.018829 74.691628 447.34332
96.324127 74.791412 446.52148
97.6241 74.891144 445.6958
98.918747 74.99086 444.86618
99.691872 74.696747 447.97986
100.98618 74.796387 447.14404
102.15125 74.797539 447.29196
103.19482 74.700233 448.42441
104.48093 74.799759 447.57834
105.76172 74.899261 446.72858
106.9236 74.900299 446.86371
107.97429 74.802872 447.98471
109.35542 75.000687 446.13562
110.51431 75.00164 446.26123
111.67307 75.002548 446.38388
112.83171 75.003433 446.50342
114.08842 75.102707 445.62961
115.33988 75.20195 444.75226
116.39995 75.10434 445.85294
117.73654 75.301926 443.97803
118.97483 75.401077 443.09039
120.03715 75.303391 444.18222
121.27009 75.402481 443.28815
122.41757 75.403152 443.38254
123.64262 75.502197 442.48175
124.86246 75.601212 441.57767
126.00455 75.601799 441.6626
127.14655 75.602356 441.74466
128.28847 75.602905 441.82373
129.30066 75.406631 443.88583
130.44756 75.40712 443.95932
131.65408 75.505989 443.03641
132.79829 75.506439 443.1037
133.99701 75.60527 442.17441
135.13852 75.605667 442.23569
136.27998 75.606049 442.29398
137.4214 75.606415 442.3493
138.56276 75.60675 442.40167
139.70407 75.607063 442.45114
140.88451 75.70575 441.50323
141.98656 75.607635 442.54108
143.16179 75.706284 441.58707
144.33186 75.804901 440.62997
145.46785 75.805115 440.66452
146.60382 75.805298 440.69608
147.76353 75.903862 439.72986
148.87566 75.805634 440.75043
150.03021 75.904144 439.77826
151.14742 75.80587 440.79309
152.28326 75.805962 440.81003
153.43008 75.904419 439.82892
154.56335 75.904465 439.83997
155.69077 75.806122 440.8432
156.82658 75.806129 440.84842
157.9624 75.806122 440.85074
159.09637 75.90448 439.85489
160.22523 76.002815 438.8562
161.35593 76.002747 438.84976
162.4771 76.101044 437.84521
163.60526 76.100937 437.83298
164.73343 76.100815 437.81775
165.86163 76.10067 437.79968
166.98984 76.10051 437.77866
168.14043 76.001938 438.74966
169.29617 75.903343 439.71759
170.40211 76.001503 438.69296
171.50294 76.099648 437.6655
172.6313 76.09938 437.62991
173.75969 76.099098 437.59143
174.88812 76.098785 437.55005
175.93597 76.295242 435.51703
177.14511 76.098106 437.45853
178.22824 76.196136 436.41425
179.30629 76.294144 435.36722
180.42984 76.293732 435.31146
181.60657 76.194901 436.24655
182.67709 76.292847 435.19122
183.8591 76.19397 436.12021
184.98544 76.193481 436.05258
186.11188 76.192963 435.98206
187.23839 76.192413 435.90869
188.43349 76.093437 436.82513
189.6338 75.994446 437.73825
190.69202 76.092239 436.66321
191.89764 75.993195 437.57007
193.02969 75.992523 437.4816
194.24319 75.893433 438.38187
195.12622 76.187943 435.31247
196.33992 76.088791 436.20694
197.29166 76.284866 434.12448
198.32486 76.382492 433.03088
199.54147 76.283264 433.91626
200.66653 76.282433 433.80771
201.79173 76.281563 433.69623
203.12085 76.083832 435.56158
204.25143 76.082909 435.4436
205.4892 75.983536 436.31201
206.73222 75.884125 437.17688
207.98053 75.784676 438.03818
209.11937 75.783638 437.90732
210.14102 75.880997 436.78531
211.15767 75.978333 435.66083
212.16934 76.075645 434.53403
213.42613 75.976044 435.3793
214.43298 76.073303 434.24707
215.69524 75.973633 435.08566
216.96281 75.873917 435.92047
217.96504 75.971085 434.77979
219.23813 75.871307 435.60791
220.51656 75.771484 436.43213
221.65726 75.770088 436.26782
222.79816 75.768654 436.1004
224.08749 75.668716 436.914
225.38217 75.568733 437.72366
226.68222 75.468704 438.52942
227.67575 75.565598 437.36557
228.82288 75.56398 437.18185
229.97025 75.562317 436.995
230.6268 75.856094 433.86029
231.76691 75.85437 433.66846
233.24493 75.655609 435.43488
234.5621 75.555283 436.21619
235.8847 75.45491 436.99338
237.03616 75.453003 436.78711
238.00873 75.549568 435.59888
238.97638 75.646103 434.40829
240.30783 75.545555 435.17133
241.2709 75.642014 433.97537
242.41861 75.639893 433.75409
243.7587 75.5392 434.50604
244.90961 75.536987 434.27783
246.06082 75.534729 434.04636
247.21234 75.532433 433.81165
248.7691 75.332954 435.52237
249.92647 75.330551 435.28
251.0842 75.328094 435.03442
252.45248 75.227013 435.75815
253.4007 75.323044 434.53323
254.34412 75.419022 433.30615
255.71866 75.31778 434.0188
256.65765 75.413673 432.78622
257.815 75.410927 432.52124
259.42426 75.210892 434.19125
260.58759 75.208023 433.91833
261.75134 75.205109 433.642
263.38263 75.004868 435.29694
264.78854 74.903183 435.97919
265.96136 74.900085 435.69067
267.13461 74.896927 435.39871
268.30832 74.893723 435.1033
269.48245 74.890457 434.80429
270.4079 74.985809 433.53845
271.32861 75.081131 432.27042
273.26215 74.781631 434.84848
274.69781 74.679443 435.49612
275.36035 74.873299 433.25681
277.06183 74.672272 434.85654
277.9798 74.767319 433.57208
279.42792 74.664871 434.20255
280.61172 74.661087 433.87009
282.06876 74.558487 434.49109
283.25626 74.554596 434.15054
284.7222 74.451866 434.7619
285.6329 74.546616 433.4585
287.38837 74.344971 435.01495
288.58331 74.340836 434.65805
289.77884 74.336632 434.29742
290.68396 74.431198 432.98138
292.17163 74.328079 433.56479
293.07269 74.422546 432.24283
295.16458 74.121628 434.7153
296.36835 74.117149 434.33398
297.87677 74.013763 434.89624
300.00464 73.71257 437.34619
301.22076 73.707901 436.94977
301.81342 73.90097 434.65955
303.34012 73.797348 435.20096
303.92084 73.990372 432.90717
304.49161 74.183411 430.61298
306.0202 74.079651 431.14246
307.22946 74.074783 430.72568
309.09506 73.871979 432.18393
311.30234 73.570129 434.57303
312.52667 73.565117 434.13943
314.0874 73.46109 434.63846
314.97714 73.555008 433.25989
315.86224 73.648933 431.87912
317.43008 73.54483 432.36383
319.69656 73.24263 434.70804
320.93246 73.237473 434.24661
323.224 72.935165 436.57349
324.82333 72.830917 437.03043
326.07153 72.825729 436.55215
327.6799 72.721466 436.99738
328.20715 72.914482 434.65594
329.08929 73.008453 433.24008
330.70184 72.904259 433.6713
333.06073 72.601822 435.9433
337.67383 71.704529 443.73975
342.33524 70.807098 451.5123
347.42328 69.810379 460.18115
351.80307 69.011871 466.98492
355.07495 68.510818 471.01175
356.05609 68.604904 469.52048
361.69952 67.508713 479.01758
361.13602 67.999771 473.84857
358.96887 68.887932 465.03174
357.94467 69.478714 458.96829
355.68964 70.367462 450.18024
351.77747 71.653503 437.76816
356.70471 70.756378 445.37894
354.75037 71.546715 437.53217
354.80457 71.841034 434.23291
361.44958 70.547234 445.42172
360.26685 71.139832 439.39639
352.35938 73.32132 418.93539
-39.303925 72.997955 434.9809
-38.025146 73.001083 435.55981
-37.15242 72.907768 437.043
-35.466904 73.007919 436.7045
-33.786606 73.108231 436.35928
-33.306503 72.918839 438.74371
-31.2332 73.116043 437.47513
-29.563568 73.216759 437.11191
-28.289703 73.220993 437.65759
-26.628387 73.321907 437.2821
-24.58757 73.519485 435.98203
-23.322342 73.523987 436.51102
-20.918411 73.818222 434.27539
-20.415787 73.629761 436.63464
-18.779861 73.731003 436.22708
-17.521286 73.735756 436.73627
-16.632187 73.644043 438.16553
-15.371857 73.648895 438.66708
-13.384583 73.846756 437.31119
-12.130508 73.851639 437.80194
-10.876953 73.856552 438.28833
-9.2681732 73.957939 437.84076
-7.6652679 74.059311 437.3869
-6.4186249 74.064224 437.85837
-4.8247986 74.165573 437.39294
-3.581955 74.170471 437.85489
-1.9972382 74.271774 437.37805
-1.098053 74.180252 438.76614
0.14300537 74.18512 439.21539
0.71438599 73.997208 441.53543
2.6232758 74.194786 440.1015
4.5209656 74.392288 438.65976
7.7139282 74.975098 433.44913
9.5786896 75.172424 431.98813
12.717606 75.754974 426.75122
15.186905 76.14473 423.38541
17.950577 76.630692 419.06476
19.747009 76.827621 417.56561
22.775497 77.409607 412.27682
25.155487 77.798897 408.86679
26.902817 77.995537 407.34079
28.639053 78.192093 405.80777
30.063919 78.292313 405.2168
31.483025 78.392479 404.62048
33.191322 78.588806 403.06833
34.303802 78.592621 403.41226
35.415718 78.596375 403.75272
36.527115 78.600082 404.08963
37.922523 78.699951 403.46918
38.748329 78.607361 404.75293
39.57885 78.514755 406.03479
40.414093 78.422104 407.3147
41.802208 78.521759 406.67886
42.641655 78.429016 407.95343
44.023544 78.528549 407.3092
45.665932 78.724152 405.70108
46.770157 78.727402 406.00632
47.612915 78.634491 407.26868
49.235611 78.82988 405.64542
50.591629 78.929092 404.97794
51.941978 79.028229 404.30576
53.286659 79.127304 403.62897
54.873695 79.322411 401.98349
55.959137 79.325272 402.26144
57.286926 79.424164 401.57083
58.368935 79.426926 401.84167
59.450531 79.429634 402.10934
60.06179 79.240204 404.30826
60.915428 79.146782 405.53867
62.003639 79.149368 405.79868
62.864296 79.055878 407.02457
63.954353 79.05838 407.27881
65.044052 79.060829 407.52988
66.133377 79.063232 407.7778
67.43914 79.161606 407.05115
68.525177 79.16391 407.29224
69.822502 79.262177 406.5575
71.114296 79.360382 405.81863
72.194145 79.362549 406.04932
73.477531 79.460655 405.30258
74.755424 79.558701 404.55176
75.630486 79.46476 405.7475
76.902603 79.562714 404.98953
78.36277 79.756592 403.25104
79.239532 79.662521 404.43829
80.309525 79.664383 404.64612
81.564995 79.762146 403.87308
82.631874 79.763931 404.0744
83.698479 79.765656 404.2728
84.764824 79.767357 404.46826
85.65551 79.67308 405.64053
86.551102 79.578781 406.81082
87.281364 79.388519 408.95975
88.02169 79.198235 411.10754
88.607018 78.91201 414.23572
89.045067 78.529861 418.34552
89.50351 78.147697 422.45578
89.824989 77.669617 427.54922
90.32682 77.287445 431.66043
90.849045 76.905266 435.77185
91.391663 76.523071 439.88333
92.101746 76.236771 443.01041
92.971565 76.046341 445.15179
94.277214 76.143555 444.33588
95.159508 75.953079 446.47287
96.325439 75.954346 446.63626
97.625366 76.051445 445.8103
98.788353 76.052643 445.96707
99.564026 75.766182 449.08173
100.86086 75.86319 448.246
102.15237 75.960167 447.40649
103.19593 75.865372 448.53915
104.36324 75.866425 448.68103
105.76276 76.059174 446.84265
107.03822 76.156006 445.98892
107.97527 75.96524 448.099
109.35637 76.157883 446.24933
110.51523 76.158783 446.37494
111.77731 76.255493 445.50748
112.93334 76.25634 445.62671
114.28566 76.448853 443.76184
115.43632 76.449631 443.87445
116.58686 76.450386 443.9841
117.82779 76.546967 443.09946
118.88762 76.451828 444.19427
120.1232 76.548355 443.3031
121.27076 76.548996 443.40045
122.41821 76.549637 443.49481
123.7209 76.741913 441.60141
124.86305 76.742493 441.68936
126.00511 76.743057 441.77435
127.07713 76.647751 442.84927
128.15419 76.552429 443.9216
129.23631 76.457092 444.99127
130.38577 76.457565 445.06485
131.59485 76.553848 444.14182
132.79874 76.650101 443.21552
133.99742 76.746338 442.28595
135.08691 76.650894 443.34122
136.28035 76.747086 442.40546
137.37486 76.651596 443.45508
138.51877 76.651917 443.50754
139.70436 76.748047 442.56253
140.84561 76.748329 442.60898
141.98682 76.748589 442.6525
143.16203 76.84465 441.69824
144.3006 76.844872 441.73578
145.46805 76.940895 440.77536
146.60399 76.941071 440.80695
147.7399 76.941238 440.8356
148.85457 76.845566 441.85645
150.01166 76.941505 440.88409
151.13141 76.845795 441.89917
152.26982 76.845886 441.91611
153.43015 77.037582 439.93948
154.55499 76.941811 440.94592
155.6908 76.941841 440.95404
156.82988 77.037674 439.96384
157.9631 77.037666 439.96613
159.09634 77.037643 439.96548
160.22517 77.133423 438.96649
161.35585 77.133347 438.96005
162.47701 77.229088 437.95532
163.60515 77.228989 437.94305
164.71864 77.324692 436.93253
165.82701 77.42038 435.91922
166.95007 77.420219 435.89835
168.09552 77.324219 436.86972
169.22119 77.324028 436.84293
170.37439 77.227989 437.80829
171.47264 77.323578 436.7807
172.5658 77.419159 435.75034
173.72421 77.323059 436.70682
174.85007 77.322769 436.6655
175.97595 77.322464 436.62128
