ply
format ascii 1.0
comment PCL generated
element vertex 1592
property float x
property float y
property float z
element camera 0
property float view_px
property float view_py
property float view_pz
property float x_axisx
property float x_axisy
property float x_axisz
property float y_axisx
property float y_axisy
property float y_axisz
property float z_axisx
property float z_axisy
property float z_axisz
property float focal
property float scalex
property float scaley
property float centerx
property float centery
property int viewportx
property int viewporty
property float k1
property float k2
end_header
231.11963 74.417336 436.68848
232.26752 74.415512 436.4953
233.41565 74.413651 436.29895
234.22119 74.613892 434.13947
235.36467 74.611961 433.93765
237.03818 74.306732 436.66995
238.18994 74.304695 436.46042
239.70551 74.100426 438.20401
241.04733 73.997192 438.96475
242.2077 73.995003 438.74414
243.17886 74.093872 437.54364
244.72147 73.889374 439.26938
245.88533 73.887039 439.03848
247.04953 73.884659 438.80429
248.21405 73.882233 438.56686
249.58136 73.77861 439.3002
249.92902 74.180634 435.16153
251.29443 74.07692 435.88879
252.66536 73.973152 436.61163
253.82904 73.970474 436.35818
254.99307 73.967743 436.10138
256.59348 73.762619 437.78262
257.54285 73.860947 436.54785
258.93381 73.756874 437.24982
260.10458 73.753922 436.97836
261.50415 73.649704 437.67184
263.14026 73.444237 439.32825
264.32007 73.441086 439.04468
265.50031 73.437897 438.75757
266.91974 73.33342 439.4328
268.58618 73.12764 441.06842
269.53162 73.225479 439.80444
270.71881 73.222046 439.50198
271.65735 73.319794 438.23297
273.09473 73.214981 438.8866
274.28339 73.211365 438.57355
275.98654 73.005142 440.17908
277.18143 73.001404 439.85739
278.63904 72.896294 440.49182
279.57269 72.993721 439.20322
280.50168 73.09111 437.91238
281.15588 73.289764 435.66187
282.61823 73.184418 436.28094
283.81104 73.180336 435.93881
285.28229 73.074852 436.54819
286.75931 72.969284 437.15234
288.24216 72.863647 437.75122
289.44507 72.859299 437.39188
290.93689 72.753525 437.9808
291.85257 72.850449 436.66171
293.05719 72.84594 436.29092
293.96619 72.942795 434.96658
295.76712 72.735336 436.48669
296.67468 72.832092 435.15549
297.88168 72.827377 434.76923
299.39612 72.721146 435.3255
301.22577 72.51339 436.82156
301.81848 72.711441 434.53171
304.28928 72.300575 437.90396
306.14716 72.092575 439.37939
308.01624 71.884491 440.84723
309.25131 71.879349 440.42523
310.48703 71.874176 439.99915
311.39551 71.970505 438.62976
312.29932 72.066833 437.258
313.19843 72.163147 435.88403
314.42871 72.157883 435.44427
315.65961 72.152596 435.00034
316.89105 72.147293 434.55222
319.15442 71.837143 436.90063
321.08783 71.62854 438.30634
322.68338 71.5215 438.77231
324.28482 71.414444 439.23199
325.89215 71.307365 439.68539
326.07724 71.606941 436.41821
327.32599 71.601563 435.93549
328.5752 71.596207 435.44836
330.18994 71.489166 435.88242
332.54572 71.178711 438.15878
337.51013 70.156174 446.8877
341.78226 69.336929 453.74619
346.09738 68.517563 460.58289
350.45551 67.698082 467.39758
354.09473 67.082047 472.35208
355.46448 67.076622 471.78134
356.83447 67.071304 471.20581
358.9826 66.862511 472.45663
359.9668 66.959206 470.95483
359.36859 67.463326 465.79718
358.74384 67.96769 460.6463
359.29126 68.166794 458.23538
359.02341 68.569794 454.00482
361.16388 68.361931 455.23102
363.31485 68.154236 456.44781
363.01453 68.557938 452.21777
365.58316 68.248802 454.32803
364.01123 68.958694 447.38837
364.07465 69.261383 444.07175
-39.71936 71.650612 435.75015
-38.847092 71.554642 437.23752
-37.562927 71.558121 437.81461
-35.067627 71.859482 435.65878
-33.791107 71.863319 436.22345
-32.912857 71.768105 437.69562
-31.237946 71.871468 437.3396
-29.568451 71.974945 436.97687
-27.904358 72.078537 436.60736
-26.245758 72.182228 436.2312
-24.592697 72.285995 435.84836
-22.945221 72.389839 435.45886
-21.303314 72.493752 435.06271
-20.798065 72.300308 437.42264
-19.159515 72.404343 437.01663
-17.526688 72.508408 436.6041
-16.26857 72.513412 437.1091
-15.010925 72.51844 437.6098
-13.753723 72.523514 438.10608
-12.135956 72.627686 437.67075
-11.240784 72.533737 439.0856
-9.629364 72.637924 438.63962
-8.0237732 72.742104 438.18719
-6.4240417 72.84626 437.72852
-5.1779633 72.851379 438.19592
-3.9324646 72.856491 438.65903
-2.6875305 72.861603 439.11792
-1.4432068 72.866699 439.5726
0.13769531 72.970749 439.08685
1.3781586 72.975784 439.53223
3.2818146 73.178711 438.09714
4.5157776 73.183685 438.53229
5.7491455 73.188629 438.96326
6.6578827 73.09462 440.33105
8.2139587 73.19841 439.81305
8.8080292 73.005447 442.11719
10.676285 73.208054 440.64655
11.906525 73.212807 441.05722
13.446945 73.316391 440.51855
14.673294 73.321053 440.92035
16.510132 73.523361 439.4241
18.032928 73.626755 438.86838
19.249542 73.631226 439.25583
20.465591 73.635666 439.63931
21.976089 73.738861 439.06854
23.480713 73.841995 438.49231
24.399933 73.747459 439.81461
25.898163 73.850456 439.22913
26.821472 73.755829 440.54535
28.031387 73.759949 440.90497
29.240723 73.763992 441.26089
30.172852 73.669243 442.56882
31.931854 73.870674 441.00467
33.408386 73.973274 440.3912
34.879181 74.075813 439.77249
35.811729 73.98085 441.06631
37.27623 74.083244 440.43884
37.690933 73.790771 443.6474
38.896011 73.794373 443.97354
40.100578 73.797913 444.29608
41.557846 73.900085 443.65259
42.508232 73.804825 444.93027
44.207321 74.005531 443.31439
45.404739 74.008827 443.62115
46.844482 74.110718 442.95926
48.038391 74.113899 443.25824
49.707001 74.314293 441.62097
50.424866 74.120102 443.84558
52.082207 74.320358 442.19879
53.039398 74.224693 443.45065
54.682922 74.424812 441.79379
55.866463 74.427643 442.06995
57.271599 74.529022 441.37262
58.232361 74.433167 442.61194
59.848343 74.633003 440.93542
60.810936 74.537048 442.16849
62.201576 74.638191 441.45468
63.5867 74.739273 440.7363
64.759819 74.74173 440.98697
65.932594 74.744141 441.23431
66.903778 74.647964 442.45285
68.078468 74.650276 442.69406
69.05674 74.554016 443.90756
70.620377 74.753311 442.19043
71.791527 74.755486 442.4212
73.150711 74.85614 441.67154
74.318665 74.858215 441.89526
75.486328 74.860252 442.11572
76.653702 74.862244 442.33292
77.820786 74.864189 442.54691
79.163025 74.9646 441.77811
80.49984 75.064957 441.00516
81.83123 75.16526 440.22809
82.821846 75.068535 441.40872
84.147575 75.168747 440.62439
85.142838 75.071953 441.79959
85.983086 74.876648 443.95462
87.305511 74.97673 443.16037
88.622566 75.076782 442.36206
89.782036 75.078323 442.54318
90.941277 75.079819 442.72122
92.100304 75.081284 442.89612
93.259132 75.082703 443.06787
94.559662 75.182541 442.25159
95.576195 75.085449 443.40198
96.871201 75.185219 442.57867
97.892487 75.088043 443.72369
99.181992 75.187744 442.8934
100.20807 75.090515 444.0329
101.49208 75.190147 443.19574
102.77077 75.289734 442.35495
103.92283 75.290848 442.49808
104.95597 75.193497 443.62619
106.11029 75.19455 443.76358
107.26447 75.19558 443.89783
108.1964 74.999725 446.00687
109.4639 75.099113 445.14642
110.51431 75.00164 446.26123
111.98309 75.297806 443.41458
113.03325 75.200272 444.52335
114.28484 75.29953 443.64905
115.43552 75.300354 443.76172
116.49302 75.202744 444.86215
117.55555 75.105103 445.96005
118.8869 75.302673 444.08163
120.03715 75.303391 444.18222
121.18729 75.304077 444.27985
122.57803 75.59996 441.39871
123.79796 75.699005 440.49753
125.01265 75.798012 439.59305
126.22213 75.897003 438.68512
127.28647 75.799164 439.75928
128.35587 75.701302 440.83084
129.43031 75.603424 441.89975
130.57208 75.603912 441.9729
131.65408 75.505989 443.03641
132.74117 75.408051 444.09723
133.94244 75.506866 443.16806
135.03452 75.408882 444.22327
136.23055 75.50766 443.28787
137.4214 75.606415 442.3493
138.60706 75.705139 441.4075
139.7458 75.705452 441.45688
140.88451 75.70575 441.50323
141.98656 75.607635 442.54108
143.12775 75.607895 442.58163
144.23741 75.509743 443.61392
145.38109 75.509949 443.64871
146.52475 75.510147 443.68048
147.69217 75.608704 442.71445
148.81197 75.510475 443.7352
149.97421 75.608994 442.76318
151.11522 75.6091 442.78311
152.26973 75.707581 441.80508
153.39717 75.609268 442.81418
154.52972 75.510933 443.82043
155.67323 75.510971 443.82858
156.82002 75.60936 442.83871
157.96097 75.609352 442.84103
159.10193 75.609329 442.84033
160.23405 75.806046 440.84647
161.36989 75.805977 440.84
162.50572 75.805893 440.83054
163.64157 75.805786 440.81821
164.76277 75.904053 439.80783
165.91331 75.805511 440.7847
167.04922 75.805351 440.76352
168.2075 75.706779 441.73434
169.37096 75.608185 442.70212
170.51205 75.607956 442.67203
171.6532 75.607712 442.63895
172.79437 75.607437 442.603
173.93559 75.607155 442.56406
175.00136 75.803619 440.53333
176.13753 75.803299 440.48868
177.27374 75.802933 440.44119
178.36456 75.900955 439.39658
179.49832 75.900566 439.3432
180.58154 75.99855 438.29306
181.71284 75.998108 438.23401
182.84421 75.997665 438.17197
184.03389 75.898781 439.10052
185.16795 75.898285 439.03244
186.36546 75.799362 439.95456
187.56821 75.700409 440.87347
188.70761 75.699829 440.79626
189.9182 75.600838 441.70865
190.98668 75.698624 440.63287
192.12634 75.697983 440.54672
193.18729 75.795715 439.46564
194.40593 75.696617 440.36551
195.54587 75.695892 440.27048
196.68591 75.695145 440.17245
197.737 75.792793 439.08023
198.87468 75.792007 438.97641
200.01248 75.791183 438.86966
201.15039 75.790337 438.75986
202.28844 75.789459 438.64709
203.5285 75.69014 439.52124
204.56488 75.787628 438.41254
205.70329 75.786682 438.29074
206.95146 75.687263 439.15506
208.09273 75.686249 439.02698
209.34889 75.586761 439.88434
210.37569 75.684128 438.76172
211.51738 75.683022 438.62451
212.65926 75.681877 438.48434
213.80127 75.68071 438.34106
214.81584 75.777954 437.20782
216.08582 75.678284 438.04541
217.22835 75.677017 437.89294
218.23572 75.774178 436.75159
219.51396 75.674385 437.57898
220.65704 75.673019 437.4173
222.08646 75.474693 439.22223
223.08945 75.571716 438.06927
224.2357 75.570236 437.89804
225.53296 75.470261 438.70731
226.68222 75.468704 438.52942
227.67575 75.565598 437.36557
228.98141 75.465492 438.16428
230.29245 75.365341 438.95901
231.11784 75.560616 436.80505
232.26569 75.558876 436.61191
233.58261 75.458603 437.3963
234.21927 75.752289 434.25568
235.53671 75.651932 435.03375
237.03616 75.453003 436.78711
238.18788 75.45105 436.57773
239.70338 75.252014 438.3219
241.41382 74.954391 441.03879
242.3924 75.050819 439.8399
243.36612 75.147217 438.6387
244.71915 75.046494 439.38812
245.68829 75.142807 438.18146
246.65259 75.239075 436.9725
247.81189 75.236763 436.73621
249.3764 75.03727 438.44534
250.1315 75.231979 436.25378
251.49944 75.130951 436.9809
252.87289 75.029861 437.70349
254.03909 75.027283 437.44955
255.20567 75.024666 437.19232
256.59061 74.923401 437.90265
257.76053 74.92067 437.63809
258.93085 74.917885 437.37015
260.10156 74.915054 437.09879
261.50104 74.813538 437.7926
263.13712 74.613342 439.44971
264.08331 74.708969 438.19891
265.49701 74.607269 438.87927
266.91638 74.505493 439.5549
268.10007 74.502319 439.26035
269.28418 74.499069 438.96231
270.7153 74.397118 439.62473
271.65378 74.492432 438.35556
273.09106 74.390343 439.00961
274.27966 74.386871 438.69669
275.72577 74.284653 439.34155
276.65839 74.379761 438.06012
278.11069 74.277405 438.69632
279.03906 74.372429 437.40903
280.23022 74.368668 437.07806
281.15182 74.463608 435.78561
282.61407 74.360992 436.40512
283.53152 74.455833 435.10684
285.27798 74.254333 436.67294
286.47443 74.25029 436.32275
287.95459 74.147408 436.92291
289.15479 74.14325 436.56445
290.64398 74.040222 437.15466
291.55695 74.134766 435.83621
292.75891 74.130432 435.4664
293.96143 74.126053 435.09277
296.06122 73.825111 437.56277
296.97131 73.919449 436.23065
297.87677 74.013763 434.89624
299.69788 73.81144 436.39957
300.91138 73.806778 436.004
301.81342 73.90097 434.65955
303.96942 73.599548 437.08902
306.14191 73.298012 439.50922
307.69098 73.194206 440.03558
309.24597 73.090347 440.55606
310.80685 72.986427 441.07062
311.71793 73.08036 439.70016
312.62433 73.174286 438.32742
313.52612 73.268188 436.95245
314.75897 73.263123 436.5119
315.65405 73.357018 435.13144
316.5444 73.45092 433.74875
319.49249 72.950722 437.9668
321.08212 72.846512 438.43945
323.0267 72.643234 439.83777
324.63077 72.538963 440.29694
326.24072 72.434669 440.74982
326.07153 72.825729 436.55215
327.32025 72.820557 436.06955
328.56949 72.815384 435.58273
330.1842 72.711143 436.01724
332.17236 72.507797 437.36996
337.13403 71.511414 446.103
341.03046 70.812286 452.04257
345.71582 69.914764 459.80536
350.07129 69.116272 466.62369
353.70782 68.516022 471.58121
355.07495 68.510818 471.01175
357.21494 68.307335 472.27158
358.58795 68.302307 471.69034
355.26184 69.487907 460.12711
354.23749 70.078552 454.0683
353.57825 70.570213 448.93121
354.49078 70.665161 447.44635
354.19116 71.058029 443.22888
359.1344 70.160858 450.83255
363.3103 69.462257 456.59479
363.83072 69.657158 454.17679
365.57904 69.554497 454.47501
364.83856 70.047745 449.34158
367.41724 69.747025 451.439
-39.303925 72.997955 434.9809
-38.025146 73.001083 435.55981
-37.15242 72.907768 437.043
-35.063263 73.104553 435.79471
-33.786606 73.108231 436.35928
-32.908188 73.015457 437.83154
-31.2332 73.116043 437.47513
-29.563568 73.216759 437.11191
-27.899399 73.317581 436.742
-26.240738 73.418488 436.36539
-24.58757 73.519485 435.98203
-22.940033 73.620544 435.59207
-21.677734 73.625122 436.11554
-20.415787 73.629761 436.63464
-19.15419 73.634468 437.14935
-17.521286 73.735756 436.73627
-16.263168 73.740555 437.24112
-14.639145 73.841888 436.81616
-13.384583 73.846756 437.31119
-11.76947 73.94812 436.87439
-10.51857 73.953018 437.35974
-8.5567169 74.150856 435.98157
-7.3121948 74.155762 436.4563
-6.0682068 74.16066 436.92676
-4.8247986 74.165573 437.39294
-3.581955 74.170471 437.85489
-2.3397064 74.175369 438.31262
-1.098053 74.180252 438.76614
0.48019409 74.281509 438.2789
1.3834534 74.189957 439.66055
2.9551697 74.291153 439.16312
4.5209656 74.392288 438.65976
6.0808868 74.493378 438.15033
7.3109131 74.498077 438.57617
8.8616486 74.599075 438.05588
9.7691345 74.507385 439.41559
10.997314 74.511986 439.82922
12.224869 74.516541 440.23886
13.451782 74.521057 440.6445
14.678101 74.525528 441.04611
16.514847 74.722488 439.54913
18.037567 74.823105 438.99301
19.254135 74.8274 439.38028
20.470139 74.831665 439.76358
21.685532 74.835869 440.14301
23.192719 74.936249 439.56714
24.114517 74.844131 440.89035
25.615295 74.944382 440.30521
26.825729 74.94838 440.66846
28.035568 74.952316 441.02798
29.244873 74.956207 441.3837
30.453598 74.960037 441.73566
32.209923 75.156136 440.17004
33.683762 75.255989 439.55545
35.151863 75.355782 438.93558
36.081757 75.263229 440.22882
37.279953 75.266754 440.56006
37.95565 75.078003 442.80862
39.158051 75.081436 443.13397
40.104156 74.988716 444.4176
41.561356 75.08815 443.77371
42.762268 75.091431 444.0882
44.458672 75.286819 442.47104
45.653442 75.289978 442.77698
47.090515 75.389145 442.11404
48.281761 75.392189 442.41223
49.710129 75.491226 441.74033
50.662918 75.398117 442.99805
52.085228 75.49704 442.31784
53.272133 75.499863 442.60141
54.685814 75.598663 441.91238
55.869301 75.601379 442.18842
57.274384 75.700058 441.49072
58.235092 75.606651 442.73019
59.634201 75.705223 442.02451
60.813545 75.707733 442.28632
61.992531 75.710197 442.54465
63.380165 75.808594 441.82654
64.555832 75.810959 442.07767
65.731155 75.813263 442.32541
66.90612 75.815521 442.56989
68.080772 75.817749 442.81097
69.255089 75.819916 443.0488
70.429092 75.822044 443.28323
71.793694 75.920074 442.53757
73.152824 76.018066 441.78754
74.320717 76.02005 442.01123
75.48835 76.022003 442.23154
76.83625 76.119843 441.46982
77.644714 75.92981 443.64194
78.989494 76.027573 442.87323
80.501678 76.221207 441.12018
81.662758 76.222931 441.32349
82.655907 76.128693 442.50476
84.149269 76.322189 440.73895
85.144508 76.227882 441.91428
86.144661 76.133537 443.08734
87.307106 76.135078 443.27518
88.624123 76.232483 442.47653
89.783539 76.233948 442.65765
90.942749 76.235382 442.83557
92.101746 76.236771 443.01041
93.260536 76.238129 443.1821
94.561043 76.335342 442.36542
95.716866 76.336624 442.53049
97.009262 76.433762 441.70651
98.027939 76.339096 442.85138
99.314835 76.436157 442.02045
100.3383 76.341438 443.15979
101.49323 76.34256 443.30939
102.64798 76.343658 443.45587
103.80258 76.344719 443.5993
104.95703 76.345749 443.73962
105.99513 76.2509 444.86548
107.15184 76.251869 445.00003
108.19736 76.15696 446.12064
109.46484 76.253738 445.25986
110.51523 76.158783 446.37494
111.88065 76.351349 444.51746
113.03411 76.352188 444.63644
114.38387 76.544701 442.77127
115.43632 76.449631 443.87445
116.58686 76.450386 443.9841
117.64679 76.35527 445.082
118.88762 76.451828 444.19427
120.03784 76.452507 444.29483
121.18796 76.453156 444.39243
122.57867 76.74131 441.5105
123.79857 76.837753 440.60907
125.01324 76.934174 439.70425
126.15016 76.934723 439.78885
127.287 76.935257 439.87048
128.28899 76.744095 441.93539
129.36598 76.648758 443.0047
130.5103 76.649231 443.07794
131.65454 76.649673 443.14822
132.74159 76.554276 444.20929
133.94286 76.650513 443.27985
135.03491 76.555069 444.33524
136.23091 76.65126 443.39963
137.42174 76.747421 442.46078
138.65169 76.9394 440.52429
139.82959 77.035522 439.57898
140.92397 76.939972 440.61972
142.02344 76.844406 441.65778
143.12798 76.748825 442.69305
144.2691 76.749054 442.73068
145.38129 76.653427 443.76028
146.55128 76.749435 442.79706
147.69232 76.749588 442.82584
148.83334 76.749741 442.85162
149.993 76.845688 441.87933
151.11531 76.749969 442.89444
152.25629 76.750061 442.91141
153.39723 76.750122 442.92551
154.52975 76.65435 443.93201
155.67326 76.654381 443.94019
156.82004 76.750214 442.95001
157.96167 76.846024 441.95691
159.10188 76.750183 442.95169
160.23399 76.941772 440.95728
161.36282 77.037537 439.95541
162.49609 77.037445 439.94601
163.64145 76.941528 440.92902
164.74797 77.133049 438.92313
165.87871 77.132919 438.90497
167.02925 77.036934 439.87915
168.1626 77.036751 439.85516
169.34581 76.844917 441.81836
170.51183 76.748871 442.78339
171.65295 76.748642 442.75037
172.7941 76.748383 442.71439
173.90012 76.843933 441.68069
175.00104 76.939468 440.64423
176.13719 76.939163 440.59961
177.27338 76.93882 440.55209
178.36418 77.034302 439.50723
179.49792 77.03392 439.45395
180.58113 77.129364 438.40359
181.7124 77.128952 438.34451
182.84375 77.12851 438.28256
184.03342 77.032227 439.2113
185.22827 76.935913 440.13684
186.42834 76.839584 441.05908
187.63362 76.743225 441.97809
188.77557 76.742676 441.90073
189.9176 76.742111 441.82037
190.98605 76.837357 440.74435
192.12569 76.836746 440.65826
193.26541 76.836121 440.56915
194.4866 76.739609 441.46921
195.54515 76.83477 440.38208
196.68517 76.834061 440.28406
197.73622 76.929184 439.19165
198.87389 76.928429 439.08786
199.91745 77.023499 437.99017
201.05278 77.022697 437.88068
202.28755 76.926018 438.75861
203.5276 76.8293 439.63309
204.56393 76.924271 438.52417
205.70233 76.92337 438.40244
206.95047 76.826569 439.26703
207.97951 76.921463 438.14993
209.23308 76.8246 439.00793
210.3746 76.823578 438.87384
211.51628 76.822525 438.73676
212.65811 76.821442 438.59656
213.67505 76.916214 437.46582
214.81464 76.91507 437.31995
215.95438 76.913895 437.17093
216.96155 77.008583 436.03244
218.09909 77.007347 435.87775
219.37471 76.910187 436.70578
220.51518 76.908897 436.54453
221.94199 76.715775 438.3504
223.08798 76.714401 438.18228
224.38242 76.617096 438.99536
225.53143 76.615646 438.82071
226.83401 76.518265 439.62637
227.83011 76.612656 438.46198
229.13831 76.515182 439.26062
230.29077 76.513596 439.073
231.2798 76.607895 437.90033
232.26392 76.702156 436.72546
233.41196 76.700462 436.52924
234.21744 76.890594 434.36887
235.36084 76.888824 434.16724
236.68106 76.791077 434.94205
238.00674 76.693275 435.71277
239.51961 76.499474 437.45804
241.22742 76.209656 440.1763
242.39029 76.207657 439.95538
243.55344 76.205612 439.7312
245.10107 76.011566 441.45718
245.88069 76.201385 439.2731
246.84753 76.295181 438.06351
248.00938 76.292961 437.82678
249.37396 76.194702 438.56131
250.12903 76.384384 436.36942
251.49692 76.286026 437.09686
252.87032 76.187614 437.81985
254.03648 76.18515 437.56607
255.4184 76.086632 438.28067
256.3699 76.180092 437.04837
257.75775 76.081451 437.75513
258.70483 76.174828 436.51724
259.87292 76.172119 436.24661
261.04138 76.169373 435.97256
262.90311 75.878403 438.5997
263.84668 75.971588 437.34943
264.78543 76.064728 436.09689
266.4357 75.869614 437.74118
267.85544 75.770508 438.41367
268.79294 75.863495 437.1514
270.71191 75.572067 439.74432
271.65033 75.664963 438.47495
272.83578 75.661697 438.16638
273.76736 75.754486 436.892
274.95117 75.751129 436.577
275.87592 75.843834 435.29755
277.32031 75.744232 435.93631
278.50565 75.740707 435.61053
279.69153 75.737122 435.28116
280.87787 75.73349 434.94812
282.06479 75.729797 434.61145
283.25223 75.726051 434.27112
284.71811 75.626068 434.8829
285.90924 75.622215 434.53436
287.38409 75.522095 435.13644
288.86475 75.421906 435.73318
290.06287 75.417877 435.37192
291.26154 75.41378 435.0069
292.46082 75.409637 434.63806
293.95691 75.309204 435.21567
295.45883 75.208702 435.78775
296.66516 75.204391 435.40576
297.87207 75.200027 435.0199
299.38635 75.09935 435.577
301.21588 74.902298 437.07458
302.12054 74.99408 435.72919
303.96448 74.796906 437.21445
305.81958 74.59964 438.69223
307.68591 74.402298 440.16248
308.59567 74.493912 438.80014
310.15125 74.392792 439.31699
311.38483 74.387993 438.88809
312.61905 74.383163 438.45502
313.18768 74.571068 436.14206
314.08209 74.662605 434.76563
314.97183 74.754135 433.38702
316.19797 74.749245 432.94125
319.14331 74.262207 437.16187
320.73029 74.160812 437.63596
322.32312 74.059387 438.10382
323.92188 73.957932 438.56549
325.52649 73.856461 439.02081
325.35199 74.237366 434.82428
326.95508 74.135925 435.27206
328.20166 74.130966 434.78641
330.17868 73.933029 436.14844
332.16687 73.735054 437.50201
336.75812 72.861366 445.31409
339.90598 72.373703 449.41125
344.58331 71.499771 457.18005
348.55243 70.818848 463.0834
351.41644 70.427567 466.20813
352.38403 70.519211 464.72711
356.05054 69.934814 469.66483
357.0267 70.026619 468.17093
351.34052 71.760941 451.11874
351.07822 72.143021 446.89771
349.60394 72.815193 439.94312
350.48996 72.907806 438.46979
350.96835 73.097229 436.08389
358.32001 71.643753 449.15512
362.89825 70.866859 455.8299
365.46759 70.573395 457.94675
365.98798 70.763458 455.52374
366.49728 70.953796 453.10098
370.34161 70.370918 457.90396
-38.476974 74.434097 433.30087
-37.612335 74.343018 434.785
-35.929489 74.440231 434.44931
-34.251816 74.537613 434.10687
-32.980331 74.541107 434.66891
-32.107132 74.450745 436.13901
-30.041687 74.642578 434.86618
-28.772949 74.646484 435.41385
-26.723709 74.838501 434.12534
-25.072968 74.9366 433.74487
-23.812698 74.940819 434.27585
-22.552734 74.945114 434.80246
-20.913406 75.043442 434.40433
-20.033707 74.953934 435.8425
-18.400406 75.052368 435.43338
-17.14447 75.056915 435.94131
-15.888977 75.061508 436.44492
-13.901245 75.253952 435.09268
-13.015656 75.164703 436.51221
-11.403214 75.26326 436.07391
-9.7965851 75.361832 435.62918
-8.1957855 75.460388 435.17813
-6.9538879 75.465088 435.65161
-5.7126007 75.469772 436.12094
-4.1240692 75.568314 435.65302
-3.2316742 75.479156 437.04669
-2.3345642 75.390022 438.43811
-0.75311279 75.48851 437.95563
0.48527527 75.493164 438.40378
1.388504 75.404007 439.78552
3.2920685 75.596191 438.349
4.8551788 75.694534 437.84418
6.0858002 75.699074 438.27393
7.6397552 75.797333 437.75815
9.1878204 75.895538 437.23648
9.773941 75.712502 439.53867
11.002045 75.716904 439.95215
12.229568 75.721283 440.36154
13.456436 75.725601 440.76703
14.682693 75.729889 441.16846
16.519379 75.921494 439.67081
18.042038 76.019341 439.11423
19.258575 76.023468 439.50128
20.772141 76.121201 438.93439
21.984848 76.125214 439.31287
23.489349 76.222824 438.73578
24.408478 76.13311 440.05826
25.90657 76.230606 439.47189
27.114319 76.234421 439.83423
28.321503 76.23819 440.19278
29.528122 76.241898 440.54758
30.734177 76.24556 440.89862
31.93969 76.249161 441.24594
33.687523 76.439865 439.67374
34.886726 76.443352 440.01215
36.085396 76.446785 440.34686
37.283546 76.450172 440.67789
38.220192 76.359955 441.96609
39.16153 76.269707 443.25208
40.10759 76.179413 444.53583
41.56472 76.276123 443.8916
42.765594 76.279259 444.2059
44.461906 76.46936 442.58813
45.656624 76.472374 442.89395
47.093628 76.568832 442.23062
48.524979 76.665222 441.5625
49.713127 76.668076 441.85641
50.900833 76.670868 442.14679
52.32048 76.76709 441.46558
53.274963 76.676315 442.71716
54.688591 76.772423 442.02774
55.647438 76.681557 443.27368
56.833061 76.684097 443.54678
58.018318 76.686607 443.81641
59.419968 76.782494 443.11093
60.38765 76.691467 444.34549
61.994987 76.880676 442.65915
63.382561 76.976395 441.9407
64.558189 76.978645 442.19168
65.937294 77.074249 441.46487
67.109642 77.076416 441.70865
68.281654 77.078522 441.94913
69.453339 77.080582 442.18631
70.818192 77.175995 441.4436
72.177582 77.271362 440.6965
73.343163 77.2733 440.92279
74.508438 77.275177 441.14587
75.673424 77.277023 441.36569
76.838135 77.278839 441.58221
77.824554 77.187225 442.77518
78.991287 77.188957 442.98575
80.503426 77.377373 441.23209
81.664474 77.379021 441.4353
82.825249 77.380615 441.63541
83.985802 77.382195 441.83221
85.146103 77.383728 442.02588
85.986275 77.198532 444.18185
87.15126 77.199997 444.37003
88.47081 77.294769 443.5715
89.784981 77.389496 442.76901
90.944153 77.390854 442.9469
92.103111 77.392181 443.12167
93.406349 77.486801 442.30817
94.562332 77.488045 442.47632
95.718124 77.489273 442.64133
97.010483 77.583778 441.81702
98.16333 77.58493 441.97549
99.315987 77.58606 442.13086
100.33944 77.493851 443.27032
101.6208 77.588226 442.43228
102.77296 77.589256 442.57843
103.80363 77.496956 443.70972
105.0768 77.59124 442.86148
106.1123 77.498894 443.98724
107.26642 77.499817 444.1214
108.1983 77.314133 446.23135
109.46574 77.408295 445.3703
110.62201 77.409134 445.49561
111.88148 77.50325 444.62756
113.03493 77.504044 444.74652
114.38464 77.691376 442.88083
115.62834 77.7854 442.00214
116.68066 77.692825 443.10254
117.82849 77.693527 443.20886
118.97623 77.694191 443.31216
120.12386 77.694839 443.41245
121.35419 77.788727 442.51761
122.73973 78.069153 439.63449
123.8768 78.069717 439.72501
125.08889 78.163544 438.81967
126.22322 78.164063 438.90408
127.35748 78.164566 438.98547
128.28947 77.885239 442.04404
129.49611 77.978973 441.12653
130.63527 77.979416 441.19943
131.77437 77.979828 441.26938
132.85626 77.886971 442.33032
134.05237 77.980621 441.40036
135.08728 77.794449 443.45004
136.2807 77.888062 442.51398
137.46893 77.981644 441.57471
138.60768 77.981941 441.62698
139.78813 78.075485 440.68149
140.92422 78.075752 440.72769
142.02368 77.982735 441.76596
143.16226 77.982956 441.80643
144.26932 77.889908 442.83908
145.4104 77.890099 442.87375
146.55145 77.890274 442.90543
147.71626 77.983688 441.93881
148.83347 77.890564 442.95999
149.99312 77.98394 441.98737
151.13152 77.984039 442.00726
152.26988 77.984116 442.02426
153.40826 77.984177 442.03827
154.53821 77.890968 443.04495
155.67912 77.890999 443.0531
156.82332 77.984268 442.06271
157.96237 78.077515 441.06934
159.10001 77.98423 442.06433
160.22954 78.1707 440.06949
161.35579 78.263893 439.06741
162.48645 78.263809 439.05804
163.62924 78.170464 440.04132
164.73317 78.356865 438.03497
165.86133 78.356735 438.01691
167.0291 78.170067 439.98682
168.16241 78.169899 439.96277
169.32069 78.076462 440.93118
170.48412 77.982994 441.89648
171.65271 77.889511 442.85876
172.76123 77.982529 441.8277
173.89984 77.982269 441.78888
175.00075 78.075256 440.7522
176.13687 78.074951 440.70764
177.27304 78.074638 440.6601
178.36383 78.167572 439.61499
179.54555 78.073952 440.55621
180.6313 78.16684 439.50549
181.76512 78.166458 439.44632
182.899 78.166039 439.38422
184.09122 78.072342 440.31311
185.28862 77.978622 441.23874
186.49124 77.884872 442.1611
187.69905 77.791107 443.0802
188.77502 77.883865 442.0094
189.91702 77.883324 441.92908
190.98546 77.976044 440.85287
192.04884 78.068726 439.77408
193.26477 77.974861 440.6777
194.48593 77.880951 441.57797
195.62839 77.88031 441.48276
196.77097 77.879631 441.38458
197.82455 77.972214 440.29175
198.87314 78.064789 439.19638
199.91667 78.157333 438.09845
201.05197 78.156578 437.98898
202.28671 78.0625 438.86722
203.52673 77.968391 439.74197
204.56306 78.060844 438.63287
205.80847 77.96669 439.50104
206.94952 77.965797 439.37604
207.97855 78.058182 438.25876
209.11732 78.057236 438.12805
210.37357 77.962959 438.983
211.51521 77.96196 438.84592
212.65701 77.960938 438.70578
213.79898 77.959869 438.56265
214.9411 77.958786 438.41644
215.95322 78.050995 437.28012
217.09311 78.04985 437.12811
218.23317 78.048676 436.97308
219.51134 77.954147 437.80109
220.65436 77.952911 437.63956
221.94063 77.858315 438.4603
222.94098 77.95034 437.30734
224.23279 77.855667 438.12115
225.52998 77.760956 438.93106
226.67917 77.759552 438.7533
227.98451 77.664764 439.55582
229.13672 77.663292 439.37137
230.28915 77.661774 439.18381
231.27817 77.753586 438.01105
232.4285 77.751999 437.8176
233.57909 77.750374 437.62106
234.3871 77.935455 435.45978
235.53305 77.933762 435.25781
236.67923 77.932037 435.05264
238.00485 77.836891 435.82367
239.33594 77.741699 436.59061
241.04111 77.459686 439.31021
242.38824 77.364395 440.06778
243.55136 77.362442 439.84369
244.90686 77.267052 440.59329
245.68387 77.451813 438.40939
246.64809 77.543152 437.2001
248.00711 77.447632 437.93933
249.16925 77.445465 437.69943
249.92168 77.630104 435.50763
251.49452 77.44101 437.20975
252.86786 77.345276 437.93307
254.03397 77.342926 437.67935
255.20044 77.34053 437.4223
256.14932 77.431549 436.1904
257.7551 77.242157 437.86902
258.70215 77.333069 436.63098
259.87015 77.330482 436.36044
261.03857 77.32785 436.08652
262.66928 77.138214 437.74612
263.61017 77.228951 436.49631
265.25473 77.039185 438.1459
266.43262 77.036339 437.85632
267.85233 76.939934 438.52927
269.03372 76.936966 438.23212
270.70868 76.746933 439.86063
271.64703 76.837379 438.59113
272.83246 76.834259 438.28271
273.76398 76.924622 437.00818
274.94772 76.921402 436.69333
275.87241 77.011681 435.41376
277.05457 77.008362 435.09244
278.23721 77.00499 434.76752
279.68781 76.908005 435.39801
280.6041 76.9981 434.10684
281.78833 76.994583 433.77103
283.24835 76.897408 434.3884
284.71417 76.800163 435.00061
285.90527 76.796471 434.65225
287.38007 76.699097 435.25473
288.86066 76.601669 435.85187
290.05869 76.597794 435.49078
290.96631 76.687531 434.17374
292.45651 76.589912 434.7572
293.95255 76.492233 435.33521
295.45441 76.394493 435.90775
296.66071 76.390366 435.52594
297.86755 76.386192 435.1402
299.07501 76.381973 434.75058
300.90186 76.190292 436.24973
302.11581 76.185966 435.85052
303.64508 76.087875 436.39197
305.49747 75.895988 437.87131
307.68097 75.610275 440.28589
308.5907 75.699493 438.92349
310.14621 75.601166 439.44077
311.37979 75.596558 439.01205
312.94449 75.498138 439.51843
312.84949 75.868652 435.3277
314.07697 75.863998 434.8894
314.6283 76.046951 432.5744
316.53387 75.85463 434.00046
318.45068 75.662247 435.41849
320.37863 75.469818 436.8284
321.96881 75.371185 437.29776
323.56488 75.272537 437.76083
324.8125 75.267754 437.28726
325.34674 75.450745 434.95062
326.94977 75.352097 435.39883
328.55865 75.253441 435.84073
330.53836 75.060867 437.20245
332.16156 74.962219 437.63043
336.75275 74.112076 445.44513
339.52765 73.731537 448.62079
343.82666 72.975143 455.47131
346.65564 72.594513 458.61621
347.60168 72.683762 457.14862
347.39191 73.055061 452.92245
350.25122 72.674561 456.04135
352.35431 72.482086 457.31372
344.67841 74.640007 435.69376
347.91931 74.165833 439.7189
345.62997 75.008118 430.94574
346.48944 75.098389 429.48392
347.34363 75.188805 428.02008
357.91071 73.022141 448.3822
360.85602 72.642441 451.42734
369.15591 71.040039 466.25064
371.76514 70.754639 468.3457
374.8056 70.375351 471.3335
377.86688 69.996277 474.30676
-37.238602 75.951233 430.70938
-36.790695 75.771149 433.09793
-35.113037 75.865601 432.75949
-33.440552 75.960205 432.41425
-32.174271 75.963531 432.97382
-31.306229 75.875595 434.44162
-29.246048 76.062027 433.16586
-27.982529 76.06575 433.71106
-26.328857 76.16098 433.33572
-24.293045 76.347679 432.03638
-23.423035 76.260315 433.4834
-22.547928 76.17305 434.92816
-21.288223 76.177216 435.45029
-20.028793 76.181473 435.96786
-18.769791 76.185776 436.48114
-17.511169 76.190132 436.99002
-15.883987 76.285858 436.56952
-13.896255 76.472916 435.21658
-12.646988 76.477356 435.7092
-11.03717 76.57312 435.26935
-9.4332275 76.668869 434.82321
-8.1907959 76.673355 435.30078
-7.3019714 76.586578 436.70526
-6.0579987 76.59108 437.17532
-4.4668732 76.686829 436.70804
-3.5718079 76.600082 438.10272
-2.3295898 76.604576 438.56009
-1.0879974 76.609055 439.01324
0.15299988 76.61351 439.46219
1.0588837 76.526764 440.84491
2.9650116 76.71357 439.40866
4.5307159 76.809135 438.90436
5.7639618 76.813492 439.33484
6.9965515 76.817818 439.7612
8.5498352 76.913254 439.24097
9.4598694 76.82637 440.60175
10.690582 76.830582 441.01596
12.234085 76.925903 440.48083
13.460907 76.930038 440.88614
14.687119 76.934128 441.28745
16.218216 77.029282 440.73691
17.440582 77.033295 441.12939
18.96254 77.128326 440.56854
20.478683 77.223312 440.00201
21.988968 77.318222 439.42999
23.493408 77.413086 438.85248
24.412491 77.325775 440.17508
25.910522 77.420517 439.58832
26.83371 77.33313 440.90485
28.325348 77.427757 440.30893
29.531906 77.431305 440.66357
30.7379 77.434799 441.01447
31.943352 77.438248 441.36163
33.419685 77.532639 440.74692
34.621429 77.535973 441.08597
35.556458 77.448288 442.38086
37.023361 77.542496 441.7529
37.962555 77.454712 443.04196
38.906479 77.366898 444.32874
39.855095 77.279053 445.61331
41.567947 77.463997 444.0062
43.019318 77.557922 443.35657
44.712959 77.742722 441.73752
46.150383 77.836517 441.07736
47.339371 77.83934 441.3782
48.527908 77.842102 441.67548
49.953552 77.93573 441.00217
50.903648 77.847488 442.25955
52.323235 77.941002 441.578
53.507439 77.943565 441.86072
54.691223 77.946075 442.14001
55.650047 77.857666 443.38602
57.057602 77.950974 442.6882
58.240196 77.953354 442.95715
59.20562 77.864822 444.19467
60.60424 77.957962 443.48489
61.997322 78.051056 442.77054
63.175835 78.053253 443.02536
64.560425 78.14624 442.30261
65.939491 78.239182 441.57541
67.111786 78.241226 441.81912
68.283745 78.243233 442.05957
69.455391 78.245209 442.2966
70.820198 78.337952 441.55356
72.370453 78.521469 439.8287
73.533409 78.5233 440.05441
74.88179 78.615898 439.29855
76.04158 78.617645 439.51727
77.020493 78.528549 440.71222
77.826302 78.348625 442.88467
79.168404 78.441063 442.11487
80.332253 78.442665 442.32169
81.325584 78.353447 443.5065
82.659172 78.445763 442.72574
83.98735 78.53804 441.94086
84.9851 78.448715 443.11697
86.147697 78.450142 443.30783
87.467438 78.542305 442.51218
88.936562 78.725189 440.72882
90.090767 78.726501 440.90897
91.244751 78.727791 441.086
92.251472 78.638275 442.24484
93.407623 78.639503 442.41602
94.563568 78.640686 442.58411
95.579987 78.551086 443.73517
96.874878 78.642975 442.91095
98.030273 78.644073 443.06964
99.317093 78.735886 442.23819
100.46955 78.736923 442.39041
101.62184 78.73793 442.53955
102.77397 78.738914 442.68561
103.80461 78.649124 443.81714
104.95899 78.650055 443.95737
106.11322 78.650955 444.09457
107.26732 78.65184 444.22864
108.42126 78.652679 444.35974
109.57506 78.653503 444.48779
110.72874 78.654305 444.61273
111.98561 78.745804 443.74417
113.13646 78.746552 443.86276
114.48358 78.928711 441.99634
115.62906 78.929413 442.1084
116.68135 78.839371 443.20895
117.82916 78.840019 443.31528
118.97688 78.840652 443.41855
120.03912 78.750542 444.51105
121.35478 78.932556 442.62369
122.66008 79.114532 440.73245
123.87736 79.20578 439.83029
125.01432 79.206299 439.91782
126.1512 79.206795 440.00235
127.28801 79.207275 440.08389
128.35733 79.11702 441.1561
129.49655 79.117455 441.23196
130.6357 79.117874 441.30481
131.77478 79.118271 441.37473
132.85666 79.027954 442.43591
133.99817 79.028305 442.50006
135.03561 78.847244 444.55032
136.23158 78.938278 443.61414
137.42236 79.029266 442.6748
138.60797 79.120255 441.73227
139.74666 79.120522 441.78152
140.92448 79.211472 440.8327
142.02391 79.121002 441.87119
143.12842 79.030518 442.90692
144.23804 78.940018 443.93988
145.41058 79.030899 442.97913
146.55161 79.031052 443.01083
147.7164 79.121895 442.04398
148.85483 79.122025 442.06973
150.01189 79.212822 441.09686
151.13159 79.122223 442.11243
152.28349 79.21299 441.13364
153.41928 79.213058 441.14755
154.53824 79.031708 443.15033
155.68498 79.122421 442.16263
156.82332 79.122437 442.16785
157.96164 79.122421 442.17014
159.09998 79.122406 442.16946
160.23389 79.213058 441.17001
161.36269 79.303688 440.16769
162.49591 79.303612 440.15829
163.62914 79.303528 440.14594
164.74773 79.394104 439.13495
165.87842 79.393982 439.11682
167.02893 79.303154 440.09143
168.16225 79.302986 440.06747
169.3205 79.212128 441.03607
170.48392 79.121231 442.00171
171.62244 79.121017 441.96878
172.72836 79.211487 440.93753
173.8644 79.211243 440.89883
174.96272 79.301682 439.86203
176.09627 79.301399 439.81754
177.22986 79.301102 439.77017
178.36349 79.300781 439.71979
179.49719 79.300446 439.66653
180.63092 79.300102 439.61029
181.76474 79.299728 439.55121
182.89859 79.299339 439.48911
184.03252 79.298935 439.4241
185.1665 79.298508 439.35611
186.42737 79.116646 441.27292
187.63258 79.025475 442.19241
188.77451 79.024979 442.11508
189.91649 79.024475 442.03476
190.98489 79.114655 440.9584
192.04826 79.204819 439.87936
193.18538 79.204254 439.79053
194.40395 79.112946 440.69128
195.54382 79.112335 440.59634
196.68379 79.111694 440.49838
197.7348 79.201759 439.40555
198.78078 79.291809 438.31015
199.82175 79.381828 437.21234
200.95444 79.381111 437.10315
202.1866 79.289642 437.98196
203.42401 79.198151 438.85721
204.56223 79.19735 438.73859
205.80759 79.105804 439.60696
206.83902 79.195694 438.49225
207.86543 79.285561 437.375
209.11638 79.193939 438.23389
210.37259 79.10228 439.08911
211.39432 79.192062 437.96347
212.41104 79.281845 436.83539
213.67287 79.190094 437.68091
214.68478 79.279816 436.54745
215.8219 79.278763 436.39893
216.95918 79.277687 436.24731
218.23199 79.185822 437.07938
219.37222 79.184677 436.92136
220.65311 79.092743 437.74619
221.93935 79.000778 438.5672
222.93967 79.090302 437.41409
224.23145 78.998276 438.22818
225.37781 78.996971 438.05399
226.52438 78.995644 437.87668
227.67117 78.994278 437.69632
229.13522 78.811317 439.4791
230.12653 78.900658 438.3089
231.2766 78.899185 438.11871
232.4269 78.89769 437.92535
233.57745 78.896149 437.72885
234.38544 79.076164 435.56717
235.53133 79.074554 435.36526
236.67749 79.072922 435.16016
237.82391 79.071243 434.9519
239.15236 78.978714 435.7196
240.85489 78.704506 438.44049
242.01251 78.702698 438.22073
243.35989 78.610016 438.9754
244.52069 78.608131 438.74863
245.29248 78.787857 436.56534
246.2515 78.876724 435.35699
247.40547 78.874725 435.12201
248.76221 78.78183 435.85889
249.91943 78.779747 435.61682
251.49222 78.595901 437.31949
252.86552 78.502853 438.04318
254.03159 78.50061 437.78955
254.98264 78.589203 436.5603
256.14682 78.586884 436.30057
257.31143 78.584518 436.03751
258.25323 78.672989 434.80051
259.64175 78.579643 435.50122
261.26422 78.39534 437.16669
262.6665 78.30188 437.85751
263.84091 78.299263 437.57565
265.01572 78.2966 437.29031
266.19098 78.293884 437.00153
267.36667 78.291122 436.70926
268.78674 78.197372 437.37906
270.21246 78.103577 438.04398
271.39474 78.100647 437.73993
272.32574 78.188629 436.46884
273.76068 78.09465 437.12115
274.94443 78.091568 436.80646
275.60947 78.270401 434.56528
277.31329 78.085281 436.1662
278.49854 78.082054 435.84079
279.68427 78.078781 435.5116
280.87054 78.075455 435.17889
281.78467 78.163086 433.8847
282.96942 78.159668 433.54541
284.43256 78.065178 434.15872
285.90146 77.970627 434.76682
287.37616 77.875999 435.36969
289.1424 77.690269 436.9212
290.34302 77.686554 436.55951
291.54419 77.682808 436.19397
293.03958 77.587936 436.77618
294.24457 77.584076 436.40222
295.4502 77.580177 436.02441
296.65637 77.576233 435.6427
297.86319 77.572235 435.25717
299.37735 77.477089 435.81516
301.20676 77.290756 437.31409
302.42328 77.286606 436.91418
303.95511 77.191284 437.45517
305.17557 77.187042 437.04648
307.35632 76.909302 439.46286
308.26343 76.99614 438.10129
309.81622 76.900597 438.61993
311.37494 76.805016 439.1326
312.93958 76.709381 439.6394
312.84457 77.069748 435.44778
314.40784 76.974075 435.94724
314.96176 77.152039 433.63092
316.18787 77.147552 433.18552
318.10193 76.960571 434.60522
319.68088 76.864784 435.08316
320.91675 76.860245 434.62228
323.20813 76.581863 436.95215
324.8074 76.486008 437.41043
325.34161 76.664017 435.07343
326.94467 76.568169 435.52209
328.91586 76.380997 436.89203
330.1683 76.376457 436.4003
331.78888 76.280609 436.82977
336.37732 75.454041 444.64813
339.52246 74.992737 448.74942
344.19702 74.165947 456.52454
348.54169 73.43042 463.35434
350.64386 73.243088 464.64139
348.15405 74.152466 454.89166
348.70123 74.330925 452.50241
350.79367 74.143875 453.78
341.93271 76.51651 429.4119
343.57794 76.421265 429.78873
346.81635 75.960396 433.81207
349.28229 75.682449 435.99515
350.55756 75.67894 435.43393
360.741 73.663628 454.88312
363.70514 73.294449 457.92114
367.51089 72.742485 462.75961
370.93546 72.282127 466.67276
371.06165 72.553741 463.32962
374.09915 72.185257 466.31512
-36.823639 77.275017 429.92664
-36.37822 77.099983 432.31442
-35.109329 77.102829 432.88376
-33.436722 77.194672 432.53818
-31.769348 77.286667 432.18576
-30.90387 77.201141 433.65259
-29.241852 77.293388 433.28906
-27.585266 77.385742 432.91882
-26.714737 77.300591 434.37473
-25.451477 77.304337 434.91098
-24.188416 77.308182 435.44275
-23.307922 77.223335 436.88989
-22.42244 77.13858 438.33484
-20.401077 77.32016 437.01169
-19.139359 77.32428 437.52585
-17.506409 77.417183 437.11148
-15.879196 77.510117 436.69055
-13.525116 77.780502 434.41064
-12.278503 77.784729 434.90207
-10.671371 77.877686 434.46078
-9.4284058 77.881943 434.9425
-7.830307 77.974907 434.48956
-7.2971802 77.801834 436.82449
-6.0532074 77.806137 437.2944
-4.4620819 77.899094 436.82663
-3.5670319 77.814728 438.22144
-2.6672974 77.730377 439.61398
-1.0832672 77.823288 439.13159
0.49484253 77.916168 438.6431
1.398056 77.831795 440.02496
2.969635 77.924622 439.52625
4.5353088 78.017395 439.02151
6.0950775 78.110138 438.5108
7.3249817 78.114258 438.93613
8.8755951 78.206909 438.41449
9.4642944 78.033844 440.71823
11.011002 78.126427 440.18762
12.238419 78.130417 440.59674
13.465195 78.134361 441.00186
14.69136 78.138275 441.40298
15.916901 78.142143 441.80014
17.14183 78.145973 442.19333
18.666382 78.238258 441.63284
20.185089 78.33049 441.06677
21.402924 78.334167 441.44659
23.204941 78.514755 439.91809
24.416336 78.518326 440.2886
25.914291 78.610321 439.70145
27.121948 78.6138 440.06345
28.892792 78.794113 438.51102
29.814789 78.709045 439.82013
31.018112 78.712372 440.17017
32.220901 78.715652 440.51639
33.423134 78.718887 440.85895
34.356026 78.633659 442.15692
35.559799 78.636795 442.49286
37.026665 78.728287 441.8645
37.965797 78.642929 443.15369
39.168045 78.645927 443.47858
40.369774 78.648872 443.79987
42.077354 78.828506 442.1908
43.523438 78.919701 441.53949
44.963875 79.010841 440.88318
46.398621 79.101913 440.22202
47.584953 79.104591 440.52206
48.770836 79.107224 440.8186
49.718719 79.021461 442.07901
50.906319 79.024002 442.3692
52.093498 79.026489 442.65588
53.51001 79.117264 441.96985
54.693741 79.119644 442.24905
55.877106 79.122009 442.52469
57.060028 79.124306 442.79703
58.242577 79.126564 443.06589
59.207954 79.040489 444.30356
60.606522 79.130951 443.59341
61.99955 79.221359 442.87875
63.178024 79.22345 443.13345
64.562569 79.313759 442.41037
65.941582 79.404022 441.68283
67.113838 79.405968 441.92645
68.285744 79.407867 442.16681
69.457352 79.409744 442.40378
70.822113 79.499817 441.6604
72.181404 79.589851 440.91266
73.53521 79.679832 440.16071
74.883568 79.769775 439.40448
76.043304 79.771431 439.62314
77.022194 79.684822 440.81815
78.005959 79.598175 442.01099
79.170029 79.599731 442.22095
80.161011 79.513031 443.40866
81.156883 79.426292 444.59415
82.493011 79.515968 443.81348
83.82373 79.605598 443.02875
84.824013 79.518768 444.20547
86.149101 79.608322 443.41354
87.626152 79.786057 441.63397
88.783112 79.787331 441.81763
89.939842 79.788574 441.99817
91.24601 79.877991 441.1907
92.252701 79.790985 442.34973
93.264336 79.703941 443.50644
94.564728 79.793259 442.68887
95.581116 79.706161 443.84012
96.739235 79.70723 444.00229
97.897163 79.708267 444.16132
99.186523 79.797462 443.3299
100.34153 79.798447 443.48239
101.62283 79.887573 442.6438
102.77493 79.888504 442.78986
103.80554 79.801231 443.92148
105.07865 79.890274 443.07269
106.23029 79.891129 443.20953
107.38177 79.891953 443.34329
108.42209 79.804588 444.46393
109.46739 79.717201 445.58209
110.72951 79.806122 444.71686
111.88303 79.806847 444.83871
113.13719 79.895706 443.96658
114.48428 80.072708 442.09958
115.72536 80.161514 441.22012
116.77506 80.07399 442.32068
117.92029 80.0746 442.42673
118.97748 79.987045 443.52194
120.03971 79.899475 444.61462
121.35535 80.076324 442.72675
122.66061 80.253136 440.83508
123.80022 80.253647 440.92572
125.01482 80.34227 440.02011
126.15168 80.342743 440.10461
127.28847 80.343185 440.18616
128.35777 80.255478 441.25861
129.49698 80.25589 441.33438
130.57384 80.168137 442.4014
131.71545 80.16851 442.4715
132.85701 80.168869 442.53857
133.9985 80.169205 442.60269
135.08795 80.08139 443.6586
136.28133 80.169823 442.72211
137.42265 80.170105 442.77737
138.60825 80.258514 441.83453
139.74692 80.258766 441.88376
140.92471 80.347122 440.93478
142.02412 80.259216 441.97342
143.16267 80.259415 442.01385
144.2697 80.171463 443.047
145.41074 80.171631 443.0816
146.57811 80.259911 442.11755
147.71654 80.260048 442.14621
148.85493 80.260162 442.17194
150.01198 80.348404 441.19882
151.13168 80.260361 442.2146
152.27002 80.260422 442.23157
153.40836 80.260483 442.24561
154.53827 80.172394 443.25275
155.685 80.260544 442.2648
156.8266 80.348679 441.27393
157.96162 80.260544 442.27231
159.09808 80.348648 441.27551
160.23384 80.348602 441.27197
161.3696 80.348557 441.26547
162.50537 80.34848 441.2561
163.64114 80.348404 441.24368
164.76227 80.436424 440.23242
165.8783 80.524437 439.21832
167.02879 80.436172 440.19321
168.13972 80.524155 439.17337
169.32031 80.347725 441.13809
170.4837 80.259415 442.10391
171.65227 80.171082 443.06665
172.72813 80.347137 441.03955
173.89932 80.258766 441.99634
174.96245 80.434784 439.96384
176.09598 80.434525 439.9194
177.18668 80.522369 438.87683
178.31773 80.522079 438.8266
179.49686 80.433632 439.7684
180.63057 80.433296 439.71222
181.71123 80.521088 438.65842
182.8425 80.520721 438.59647
184.0321 80.432205 439.526
185.10526 80.519936 438.46381
186.36353 80.343231 440.38129
187.56616 80.254654 441.30121
188.70549 80.254189 441.22409
189.91597 80.165573 442.13754
190.91071 80.341362 440.06754
191.9715 80.428986 438.98853
193.18481 80.340309 439.89291
194.32199 80.339752 439.80112
195.45927 80.339172 439.70642
196.59666 80.338577 439.60873
197.64508 80.426117 438.51593
198.68848 80.513634 437.42059
199.82104 80.51297 437.31442
201.05048 80.424141 438.19666
202.28519 80.335281 439.07544
203.52515 80.246384 439.95071
204.66589 80.245636 439.83188
205.91382 80.156693 440.70035
207.0574 80.155899 440.57513
207.97676 80.331413 438.46741
209.11548 80.330566 438.33676
210.37167 80.241524 439.19229
211.39337 80.328804 438.06641
212.53253 80.327881 437.92673
213.67188 80.326942 437.784
214.93898 80.237793 438.62613
216.08121 80.236786 438.47696
217.22362 80.235764 438.32477
218.36621 80.234711 438.16949
219.50897 80.233627 438.0112
220.51144 80.320709 436.86362
