ply
format ascii 1.0
comment PCL generated
element vertex 1590
property float x
property float y
property float z
element camera 0
property float view_px
property float view_py
property float view_pz
property float x_axisx
property float x_axisy
property float x_axisz
property float y_axisx
property float y_axisy
property float y_axisz
property float z_axisx
property float z_axisy
property float z_axisz
property float focal
property float scalex
property float scaley
property float centerx
property float centery
property int viewportx
property int viewporty
property float k1
property float k2
end_header
163.76454 17.973145 440.44128
164.91135 18.196983 439.45081
166.07031 18.196373 439.43164
167.22929 18.195671 439.40939
168.38831 18.194878 439.38409
169.54736 18.194 439.35565
170.73401 17.968628 440.29834
171.86559 18.19194 439.28967
173.05746 17.966408 440.22595
174.18399 18.189545 439.21127
175.41893 17.739426 441.11496
176.5834 17.737991 441.06784
177.74796 17.736465 441.01761
178.91255 17.73484 440.96429
180.07722 17.733124 440.90787
181.14059 18.180138 438.90198
182.30026 18.178238 438.8396
183.51585 17.951828 439.74701
184.61986 18.174164 438.70557
185.90173 17.723129 440.57901
187.06691 17.72084 440.50391
188.29829 17.494019 441.39792
189.46623 17.491531 441.31638
190.63426 17.488953 441.23166
191.72858 17.710739 440.17212
193.04709 17.259026 442.02435
194.13905 17.480614 440.95877
195.38911 17.253166 441.83252
196.56032 17.250076 441.7319
197.64494 17.471375 440.65747
198.72455 17.692589 439.58035
199.98288 17.464699 440.44086
200.86876 18.134758 437.41809
202.12735 17.90667 438.27222
203.19211 18.127525 437.18393
204.354 18.123741 437.06213
205.62082 17.895317 437.90601
206.78563 17.891312 437.77759
208.17039 17.43808 439.58246
209.56564 16.984703 441.38297
210.85635 16.755753 442.2114
212.03476 16.751266 442.06866
213.33359 16.522072 442.88971
214.39218 16.741959 441.77353
215.32047 17.186394 439.68829
216.36658 17.406113 438.56723
217.53827 17.401085 438.40933
218.71017 17.395958 438.24814
219.74661 17.615387 437.11868
221.05466 17.385345 437.91595
222.22726 17.379852 437.74503
223.40009 17.374268 437.57074
224.42712 17.593254 436.42981
225.89508 17.13797 438.17545
227.07123 17.131996 437.99091
228.40143 16.901138 438.76532
229.73706 16.670143 439.53552
230.91919 16.663757 439.34027
231.77853 17.106857 437.21976
233.12016 16.875458 437.97913
234.30055 16.868721 437.7742
235.48123 16.861862 437.56592
236.66223 16.854866 437.35431
237.84352 16.847755 437.13922
239.02512 16.840508 436.92084
240.20706 16.83313 436.69904
241.02478 17.275467 434.55948
242.57187 16.817993 436.24515
243.56735 17.035172 435.05698
245.50818 16.127396 438.64462
246.69955 16.119316 438.40408
248.28177 15.661072 440.06934
249.28122 15.877724 438.8667
250.67673 15.644173 439.5687
251.46872 16.08564 437.40723
252.66194 16.076889 437.14923
253.64732 16.293091 435.93591
254.41707 16.734337 433.76895
255.81708 16.500107 434.45273
257.00668 16.490837 434.18182
257.7594 16.931831 432.0083
259.38708 16.471954 433.62915
260.80173 16.237076 434.29575
262.22202 16.002037 434.95743
264.10608 15.316269 437.50827
265.31122 15.306114 437.21262
266.75107 15.070518 437.85895
268.4335 14.609406 439.4454
269.40829 14.824158 438.19232
270.37833 15.038826 436.93683
271.83304 14.802597 437.56506
273.29346 14.5662 438.18817
274.75958 14.329636 438.80615
276.23138 14.092888 439.41895
277.19855 14.306984 438.14606
278.93433 13.844444 439.68927
280.16022 13.832779 439.34824
280.86053 14.272156 437.12726
281.8165 14.485924 435.84268
283.30432 14.248375 436.42889
283.71414 14.913307 433.26651
284.92935 14.901237 432.90994
286.42123 14.663383 433.48373
287.64005 14.651115 433.11862
288.85931 14.638763 432.74957
290.36316 14.400558 433.30847
291.87268 14.162209 433.86185
293.09866 14.14959 433.47937
294.61707 13.911034 434.02234
295.84662 13.898262 433.63107
297.37384 13.659523 434.16354
298.60693 13.646645 433.7634
300.44543 13.181778 435.21121
302.29492 12.716782 436.65149
303.53986 12.703712 436.23575
305.09564 12.464584 436.7392
306.03104 12.677567 435.39191
307.5929 12.438408 435.88535
308.8421 12.425354 435.45224
311.37546 11.50769 438.6937
312.63596 11.494621 438.24857
314.54926 11.02916 439.63495
315.1579 11.468697 437.34576
317.08237 11.003319 438.71988
317.68097 11.443161 436.42618
318.60608 11.656906 435.04614
320.20499 11.418137 435.48981
321.12518 11.63224 434.10336
322.04016 11.846588 432.71469
323.99225 11.381889 434.05377
325.60492 11.143761 434.47571
327.22287 10.905838 434.89136
328.84613 10.668144 435.30075
330.47461 10.430695 435.70389
333.19019 9.5138931 438.81503
337.37994 7.6909637 445.52838
341.97772 5.6415024 453.12296
346.99139 3.365509 461.59537
350.944 1.7694626 467.34036
354.18542 0.62696838 471.26682
355.94672 0.39150238 471.58481
356.95441 0.60995483 470.10187
357.19257 1.2824402 466.8248
360.1051 0.36871338 469.81436
362.26379 -0.0909729 471.00308
363.65265 -0.096473694 470.39777
366.21744 -0.78141022 472.46252
368.40186 -1.2387924 473.62589
369.80035 -1.2417984 473.00226
371.99786 -1.6973648 474.1503
375.01001 -2.6054382 477.06311
376.41959 -2.6054306 476.42023
379.05157 -3.2845688 478.42645
380.0545 -3.0554733 476.88904
382.70334 -3.7321548 478.87799
383.28595 -3.2737579 476.45239
384.69275 -3.2675018 475.78711
-44.429901 9.1310043 434.52924
-42.735748 9.3528137 434.24124
-40.63826 9.7998047 433.0618
-40.166214 9.3513718 435.42117
-38.477493 9.5762558 435.11768
-37.191528 9.577919 435.69739
-35.904221 9.5804596 436.27328
-34.615692 9.5838547 436.84534
-32.935043 9.8120804 436.52087
-32.035461 9.5928726 437.97787
-30.35817 9.8225327 437.64325
-29.068451 9.8287506 438.19846
-27.397537 10.059624 437.85242
-25.731247 10.291046 437.50006
-24.44487 10.298973 438.04083
-22.412857 10.755394 436.77634
-21.130875 10.764244 437.30673
-19.481277 10.99749 436.93024
-18.201263 11.007187 437.45117
-15.835083 11.68898 435.2533
-14.562622 11.699341 435.7627
-12.93335 11.933876 435.36096
-12.01738 11.720985 436.76898
-11.09613 11.508392 438.17496
-10.169601 11.296097 439.57874
-8.1994629 11.755409 438.24692
-7.2704468 11.543564 439.64328
-5.313797 12.003143 438.29797
-3.3679047 12.462776 436.94452
-1.7683105 12.698776 436.49802
-0.84002686 12.487564 437.87747
0.42355347 12.500137 438.33765
2.0144348 12.736397 437.87567
3.9246979 13.196251 436.48865
4.857132 12.985458 437.85324
6.114151 12.99826 438.29486
8.0049133 13.458092 436.88879
9.2559204 13.470917 437.32022
9.8830414 13.036896 439.59454
11.447662 13.273216 439.09506
12.700073 13.286072 439.51505
13.952103 13.298943 439.93085
15.504898 13.53511 439.4155
16.753372 13.547882 439.8223
18.593292 14.007156 438.36752
19.542297 13.796555 439.69406
21.077438 14.032379 439.15741
22.894928 14.49128 437.68381
24.130539 14.503685 438.06708
25.365692 14.516014 438.44638
26.880539 14.751373 437.88803
28.112106 14.763519 438.25861
29.343185 14.775574 438.62524
30.846069 15.010567 438.05194
32.343239 15.245415 437.47321
33.567612 15.257126 437.8266
34.791489 15.26873 438.17618
35.491302 14.834366 440.39987
36.460297 14.62291 441.68289
37.69059 14.634254 442.0231
39.428352 15.091209 440.47705
40.652473 15.102272 440.80817
41.876129 15.113228 441.13544
43.345428 15.346832 440.51569
44.809036 15.580269 439.89081
45.785202 15.368065 441.15005
47.004395 15.378487 441.46161
48.694473 15.834183 439.87753
49.441437 15.398949 442.07358
50.889755 15.631645 441.42673
52.33242 15.864166 440.7749
53.093712 15.428658 442.96378
54.310295 15.438309 443.25311
55.74646 15.670387 442.58911
57.17701 15.902298 441.9202
58.387115 15.911491 442.19748
60.021271 16.365585 440.56802
61.225372 16.374466 440.83694
62.429092 16.383224 441.10229
63.428009 16.169395 442.31732
65.037209 16.622787 440.66843
66.23719 16.631119 440.92261
67.633438 16.861725 440.21832
68.830101 16.869781 440.4649
70.217842 17.100075 439.75201
71.222366 16.885506 440.9476
72.417976 16.89315 441.18378
73.613258 16.900681 441.41647
74.989273 17.130386 440.68768
76.181313 17.13765 440.91296
77.548904 17.367043 440.17587
78.737717 17.374023 440.39386
80.096931 17.603119 439.64853
81.282555 17.60984 439.85925
82.6334 17.838631 439.1058
83.815849 17.845078 439.30939
85.158379 18.073586 438.54782
86.337677 18.079773 438.74426
87.516724 18.085846 438.93735
88.542885 17.869637 440.09018
89.874001 18.097603 439.31363
91.052269 18.10331 439.4968
92.085426 17.88678 440.6409
93.265785 17.892265 440.81784
94.725281 18.341797 439.06155
95.625801 17.902878 441.16187
96.805458 17.907997 441.32901
97.852966 17.690964 442.45889
99.034775 17.695869 442.61981
100.34314 17.922691 441.81073
101.52195 17.927368 441.96478
102.70056 17.931931 442.11557
103.99802 18.158371 441.29541
105.0572 17.94072 442.40747
106.23524 17.944946 442.54858
107.5244 18.171043 441.71777
108.69951 18.175056 441.85211
109.7683 17.956993 442.95255
111.15279 18.404686 441.14169
112.22383 18.186447 442.23593
113.39828 18.190025 442.35751
114.57259 18.193489 442.47592
115.84001 18.418793 441.62048
117.01146 18.422058 441.73224
118.35901 18.869034 439.89865
119.43948 18.650177 440.97495
120.69093 18.875031 440.10544
121.77629 18.656006 441.17587
122.86668 18.43689 442.24356
123.9621 18.21769 443.30853
125.20793 18.442131 442.42599
126.3784 18.444595 442.51254
127.6163 18.668846 441.62311
128.78398 18.671112 441.70319
130.01398 18.895142 440.80701
131.17891 18.89724 440.88062
132.2865 18.677391 441.92456
133.50853 18.901131 441.01852
134.67322 18.902924 441.08286
135.78828 18.682816 442.11786
137.00237 18.906258 441.20212
138.12244 18.685966 442.23117
139.28943 18.687408 442.28314
140.4171 18.466965 443.30624
141.58653 18.468208 443.35217
142.7218 18.247597 444.36935
143.95682 18.692276 442.45996
145.12355 18.69326 442.49643
146.31665 18.915955 441.55505
147.48073 18.916771 441.58521
148.66605 19.139282 440.63745
149.80881 18.918121 441.63632
150.95667 18.696877 442.63217
152.10965 18.475533 443.62506
153.28975 18.697693 442.66483
154.45625 18.69796 442.67654
155.63448 19.141731 440.73495
156.79584 19.141838 440.74039
157.9579 19.36364 439.7677
159.11668 19.363564 439.767
160.27548 19.363403 439.76321
161.44128 19.141373 440.73141
162.60266 19.141022 440.72153
163.75192 19.362396 439.73346
164.91078 19.361877 439.71741
166.06964 19.361267 439.6983
167.22855 19.360588 439.67606
168.38747 19.359802 439.65079
169.54643 19.358948 439.62238
170.73299 19.136192 440.56564
171.92471 18.913338 441.50568
173.08894 18.912193 441.46793
174.21796 19.132782 440.45255
175.49321 18.466026 443.33179
176.62233 18.686424 442.31027
177.78934 18.684929 442.25998
178.95642 18.683334 442.20657
180.07545 18.903465 441.17621
181.18942 19.123528 440.14291
182.29832 19.343506 439.10681
183.51381 19.119713 440.01492
184.73453 18.895828 440.91959
185.96048 18.671829 441.82086
187.06458 18.891449 440.77258
188.36197 18.445396 442.64011
189.53238 18.442955 442.55847
190.70288 18.440422 442.47366
191.8735 18.437782 442.38574
193.04425 18.435051 442.29465
194.2151 18.432228 442.20041
195.38608 18.429306 442.103
196.47305 18.648186 441.03101
197.64171 18.645058 440.92755
198.72122 18.863762 439.84991
199.79573 19.082359 438.76965
200.86523 19.300873 437.68674
202.02673 19.297379 437.57138
203.08879 19.515717 436.48288
204.35017 19.29007 437.33118
205.51213 19.286255 437.20633
206.78157 19.060371 438.04749
208.1662 18.612389 439.85367
209.44887 18.386253 440.68695
210.73688 18.159988 441.51645
212.03021 17.933601 442.34207
213.20871 17.929085 442.19626
214.51018 17.702454 443.01443
215.44095 18.141785 440.92789
216.48953 18.358986 439.80609
217.7942 18.131996 440.6142
218.83807 18.348999 439.4866
219.87698 18.56591 438.35641
221.18748 18.33857 439.15402
222.36253 18.333176 438.98285
223.39441 18.549767 437.84402
224.71335 18.322037 438.63065
225.88913 18.316284 438.44968
227.21634 18.088257 439.22858
228.54898 17.860092 440.00336
229.73071 17.853958 439.81158
230.75378 18.069893 438.65454
231.77194 18.285744 437.49493
232.94934 18.279259 437.29407
234.12703 18.272652 437.08984
235.13571 18.488182 435.92203
236.31137 18.481346 435.71155
237.8363 18.029823 437.41617
239.01776 18.022697 437.198
240.01991 18.23777 436.01813
241.56392 17.785744 437.70923
242.93378 17.555885 438.43762
243.7469 17.992935 436.29123
245.50009 17.318031 438.92477
246.69135 17.310089 438.68454
248.27338 16.85717 440.35126
249.47055 16.848915 440.103
250.46765 17.062988 438.89706
251.45996 17.276962 437.68875
252.65305 17.268349 437.43103
253.43008 17.704628 435.26489
254.61876 17.695786 435.00131
256.02121 17.464272 435.68542
257.21329 17.455139 435.41418
258.62436 17.223289 436.08945
259.81982 17.21389 435.81042
260.79187 17.426971 434.57895
262.21204 17.194664 435.24164
263.63782 16.962189 435.89941
264.60596 17.174927 434.65836
266.27206 16.719444 436.25391
267.71222 16.486473 436.89749
268.91855 16.476074 436.59119
270.36743 16.242783 437.2254
271.5773 16.232117 436.91095
273.52957 15.552841 439.42163
274.74823 15.541847 439.09766
276.21985 15.307892 439.71133
277.44208 15.296631 439.37906
278.66476 15.285255 439.04297
279.6275 15.496719 437.76358
281.1116 15.262177 438.35922
282.33572 15.250473 438.01154
283.56036 15.238655 437.66006
284.24371 15.672829 435.43188
285.46408 15.660858 435.07413
286.68491 15.648819 434.71243
288.18503 15.413528 435.28104
288.84668 15.847565 433.04425
290.3504 15.612091 433.60419
291.85986 15.376495 434.15854
293.08575 15.364006 433.77646
294.31213 15.351456 433.39041
295.8335 15.115562 433.92953
297.36066 14.879547 434.46304
298.89349 14.643456 434.99075
300.4321 14.407242 435.51282
301.67133 14.394371 435.10324
303.83417 13.711189 437.46426
305.39252 13.474762 437.96783
306.01758 13.908676 435.69632
308.21069 13.225204 438.03519
309.14691 13.435707 436.67938
310.72009 13.199188 437.16193
312.29889 12.962654 437.63846
313.88333 12.726143 438.10889
314.81567 12.936913 436.73825
316.07452 12.924156 436.28192
316.66537 13.358894 433.99017
318.25623 13.122696 434.44202
319.51318 13.110321 433.97406
320.42828 13.321869 432.58929
322.37238 12.862244 433.93726
323.97986 12.626541 434.36636
325.59271 12.390991 434.78925
327.56354 11.93177 436.11441
329.1897 11.696587 436.5238
330.10516 11.909492 435.11383
332.4577 11.226982 437.32355
336.27905 9.6488266 443.14017
340.86908 7.6227722 450.74417
345.87506 5.3727493 459.22675
349.82001 3.7948608 464.97977
354.17542 1.9931488 471.61313
355.93723 1.7600632 471.93198
356.56638 2.1997375 469.55075
357.94788 2.1918793 468.96301
360.8663 1.2882538 471.95313
362.25684 1.2816696 471.35217
364.42578 0.82754517 472.53348
366.60428 0.37417603 473.70584
368.39722 0.14572144 473.97839
370.19418 -0.081886292 474.24454
371.99503 -0.30856323 474.50412
374.20245 -0.75845337 475.64468
376.01331 -0.98314667 475.89026
378.23572 -1.4308929 477.01443
380.46667 -1.8774948 478.12994
382.29276 -2.0987244 478.35425
384.12183 -2.3186722 478.57233
385.53516 -2.3131256 477.90424
-43.607437 10.851303 433.08289
-42.736282 10.628036 434.56219
-40.230988 11.291878 432.4953
-39.760605 10.849129 434.85492
-37.672058 11.293365 433.66104
-37.587204 10.630943 436.90787
-36.296478 10.633888 437.48499
-35.398224 10.416145 438.95041
-33.711563 10.642143 438.62753
-32.029251 10.868828 438.29846
-30.351318 11.096153 437.9631
-28.294769 11.545547 436.72464
-27.009064 11.552597 437.27344
-25.344894 11.781616 436.91913
-23.685486 12.011116 436.55853
-21.658371 12.462463 435.29034
-21.121017 12.028725 437.62292
-19.471024 12.259506 437.24548
-17.82605 12.490639 436.86172
-16.186172 12.722099 436.47162
-14.551437 12.953842 436.07523
-12.565231 13.407097 434.76489
-12.005661 12.975601 437.08096
-11.084122 12.765671 438.48721
-10.157349 12.556007 439.89133
-8.5331879 12.788956 439.46967
-7.6013031 12.579773 440.86725
-5.6419067 13.034142 439.52136
-3.3551483 13.709648 437.2525
-1.7554626 13.943024 436.80496
-1.1598969 13.513336 439.10141
0.43663025 13.746902 438.6445
2.0275726 13.980499 438.18149
3.6128998 14.214111 437.71237
4.8703308 14.226807 438.15768
6.7666779 14.681343 436.75604
7.7010956 14.473198 438.11349
8.9547729 14.485962 438.54544
10.208023 14.498726 438.97327
11.460876 14.511505 439.39691
13.019745 14.745041 438.89053
14.269089 14.757759 439.30508
15.819183 14.991173 438.78784
17.363525 15.224487 438.26489
18.902176 15.457718 437.73608
19.848495 15.249565 439.06204
21.38092 15.48262 438.52353
22.907593 15.715561 437.9794
24.428543 15.948387 437.42957
25.37822 15.740013 438.74118
26.612808 15.752136 439.11606
27.846893 15.764153 439.48709
29.630295 16.217003 437.98236
30.313622 15.787926 440.21722
32.085533 16.240471 438.70163
33.312424 16.25206 439.05542
34.538826 16.263542 439.40536
35.502953 16.054581 440.69107
36.731018 16.065872 441.03397
37.702042 15.856758 442.31418
39.69355 16.528618 439.82474
40.66362 16.319275 441.09729
41.887154 16.330078 441.42419
43.356316 16.560936 440.80347
44.576286 16.571449 441.12222
45.795815 16.581856 441.43716
47.25312 16.812241 440.80252
48.469124 16.822357 441.10938
49.917725 17.052437 440.46527
51.360672 17.282341 439.81616
52.570129 17.292023 440.11072
53.328735 16.861557 442.29984
54.987778 17.311012 440.68878
56.195976 17.320313 440.97238
57.403748 17.32946 441.25238
58.61113 17.338501 441.52872
60.2425 17.787239 439.89719
61.443871 17.795959 440.16522
62.644859 17.804558 440.42969
63.641045 17.593163 441.6445
65.247475 18.041191 439.99362
66.245522 17.829552 441.2019
67.445 17.837624 441.45227
68.838135 18.065338 440.7431
69.842896 17.853363 441.94247
71.230133 18.080788 441.22531
72.425606 18.08831 441.46124
73.804405 18.315445 440.7355
74.996635 18.322701 440.96402
76.366997 18.549515 440.23001
77.731857 18.776176 439.49161
78.917946 18.783028 439.70889
80.103737 18.789742 439.92279
81.289223 18.796333 440.13333
82.474426 18.802811 440.34045
83.659332 18.809158 440.54425
85.004311 19.034973 439.78235
86.343826 19.260635 439.0163
87.367577 19.047035 440.17233
88.548805 19.052872 440.36237
89.879784 19.278137 439.58508
91.05793 19.283737 439.76804
91.946152 18.850174 441.87735
93.271233 19.075081 441.08929
94.590897 19.299835 440.29724
95.630997 19.08548 441.43301
96.810547 19.090515 441.59991
97.989868 19.095428 441.76364
99.168976 19.100235 441.92404
100.34788 19.104927 442.08121
101.65077 19.328957 441.26736
102.82668 19.33342 441.41769
104.00241 19.337769 441.56479
105.17795 19.34201 441.70868
106.35329 19.346153 441.84937
107.52847 19.350182 441.98679
108.70346 19.354118 442.121
109.98444 19.577309 441.28217
111.26009 19.800369 440.43961
112.32845 19.584618 441.53409
113.59865 19.807472 440.6846
114.67185 19.59153 441.77325
115.9366 19.814171 440.91684
117.10536 19.81736 441.02826
118.27399 19.820465 441.13647
119.44249 19.823456 441.24161
120.61086 19.826347 441.34357
121.7791 19.829155 441.44232
122.94722 19.831856 441.53799
123.96473 19.395912 443.57596
125.21045 19.617714 442.69278
126.38082 19.620132 442.77921
127.61862 19.841728 441.88919
128.78621 19.843971 441.96912
130.01611 20.065369 441.0723
131.18094 20.067413 441.14587
132.28845 19.850113 442.19031
133.45569 19.851967 442.25778
134.62286 19.853752 442.32211
135.78995 19.855423 442.38339
137.00394 20.076256 441.46701
138.12393 19.858521 442.49655
139.29082 19.85994 442.54849
140.45766 19.861259 442.59729
141.62444 19.86248 442.6431
142.79117 19.863632 442.68567
143.9894 20.0839 441.75006
145.15346 20.084869 441.78638
146.31749 20.085754 441.81958
147.48149 20.08654 441.84979
148.64545 20.087257 441.8768
149.80939 20.087868 441.90082
150.95717 19.869186 442.89728
152.12363 19.869637 442.9151
153.29007 19.869995 442.92987
154.4565 19.870262 442.94153
155.63461 20.308861 440.99878
156.79588 20.30896 441.00424
157.95787 20.528183 440.03091
159.11472 20.747314 439.05457
160.27969 20.308731 441.0022
161.44798 20.089279 441.97098
162.59271 20.527374 440.00974
163.7636 20.307739 440.97238
164.92491 20.307251 440.95627
166.05173 20.745079 438.98605
167.20798 20.744392 438.96396
168.38664 20.524422 439.91415
169.52054 20.74279 438.91046
170.70444 20.522644 439.85437
171.89351 20.302399 440.7951
173.08775 20.082054 441.73257
174.25194 20.080856 441.69174
175.49184 19.641113 443.59769
176.66127 19.639725 443.55048
177.83076 19.638245 443.50012
178.95479 19.855919 442.47208
180.12184 19.854271 442.41559
181.18761 20.291023 440.40732
182.29642 20.508461 439.3707
183.56763 20.068024 441.25354
184.73242 20.06601 441.18481
185.95828 19.844658 442.08667
187.12582 19.842453 442.01154
188.35957 19.620895 442.90668
189.52988 19.6185 442.8251
190.7003 19.616013 442.74039
191.87082 19.613426 442.65259
193.11786 19.391457 443.53424
194.2912 19.388672 443.43991
195.38309 19.605125 442.37012
196.55409 19.60215 442.26968
197.63853 19.818405 441.19431
198.62869 20.253914 439.14462
199.79236 20.250679 439.0354
200.86177 20.466667 437.95203
201.92618 20.682587 436.86597
203.08514 20.679054 436.74786
204.24426 20.675446 436.6265
205.40355 20.671707 436.50211
206.88487 20.009735 439.28366
208.16209 19.786385 440.12146
209.44464 19.562912 440.95547
210.84755 19.119911 442.75452
212.14336 18.896172 443.5806
213.32431 18.891747 443.43457
214.62825 18.667755 444.25323
215.56151 19.10199 442.16531
216.61256 19.316719 441.04263
217.65869 19.531326 439.91751
218.69986 19.745857 438.78976
219.73608 19.960289 437.65955
221.04388 19.735626 438.45834
222.07539 19.949875 437.32227
223.24541 19.944473 437.14883
224.41565 19.938988 436.97202
225.73473 19.713806 437.75623
227.21039 19.268929 439.50015
228.38913 19.263046 439.31232
229.56815 19.257042 439.12112
230.58853 19.470512 437.96411
231.4425 19.903503 435.84253
232.61459 19.897171 435.6427
233.78696 19.890717 435.43954
234.62108 20.323463 433.31149
236.13258 19.877441 435.02325
237.65474 19.431252 436.72974
238.65646 19.643967 435.55292
240.01257 19.417152 436.29144
241.73865 18.75071 438.94235
242.92613 18.743301 438.7132
243.73914 19.175301 436.56586
245.49214 18.508324 439.20145
246.68326 18.500504 438.96146
248.06995 18.272736 439.67383
249.06657 18.484474 438.4711
250.25879 18.476273 438.22067
251.45134 18.467941 437.96671
252.64429 18.459465 437.70929
253.42125 18.890686 435.54224
254.39899 19.101929 434.32642
256.01205 18.653229 435.9639
257.41998 18.424278 436.64423
258.8335 18.195168 437.31976
259.81024 18.405891 436.09036
261.2298 18.176476 436.75751
262.655 17.946869 437.41989
263.85681 17.93718 437.12909
264.82745 18.147438 435.88712
266.26178 17.917397 436.53662
267.70175 17.687172 437.18121
268.66852 17.897095 435.92953
270.11462 17.666573 436.5654
271.8111 17.215683 438.1405
273.51849 16.764572 439.70911
274.48709 16.973991 438.44254
276.2085 16.522514 440.00015
276.92032 16.952011 437.78528
278.13763 16.940849 437.45093
279.35544 16.929573 437.11276
280.83676 16.697792 437.71017
282.05817 16.686279 437.36359
283.54828 16.454224 437.95099
283.96069 17.10379 434.78485
285.45184 16.871521 435.36456
286.94867 16.63913 435.93875
287.89386 16.84761 434.63815
288.8342 17.056068 433.33517
290.62177 16.60276 434.82922
291.56049 16.811089 433.51917
293.07294 16.578133 434.06979
294.88303 16.124405 435.54544
296.11508 16.111862 435.15414
297.94189 15.65786 436.61676
299.47998 15.424438 437.14383
300.72131 15.411674 436.73788
302.57327 14.957306 438.18063
304.12851 14.72361 438.69031
305.68945 14.489861 439.19403
306.3172 14.918648 436.92072
307.88165 14.684868 437.41531
308.81531 14.892868 436.06021
310.70673 14.438118 437.4657
311.96198 14.425262 437.02316
313.87 13.970428 438.41473
315.13123 13.957634 437.96198
316.06134 14.165962 436.58783
317.32056 14.153351 436.12769
318.58005 14.140854 435.6633
319.16095 14.570755 433.36618
320.41559 14.558571 432.89539
322.01514 14.325356 433.33273
323.27274 14.313499 432.85254
325.23047 13.859344 434.18869
327.55151 13.184067 436.42575
328.82257 13.172737 435.92786
330.4516 12.940361 436.33295
332.08582 12.708252 436.73163
336.26791 10.926926 443.4592
341.224 8.702858 451.9733
345.86426 6.7001495 459.55869
350.18066 4.9189529 466.21829
354.16522 3.359314 471.95538
355.17456 3.5715485 470.47592
356.55728 3.5628662 469.89276
357.93933 3.5547791 469.30515
360.08954 3.1043015 470.50562
363.79767 1.7683792 475.27744
365.58823 1.5406265 475.56161
366.59839 1.7566605 474.05362
367.99719 1.7519836 473.43527
368.99719 1.9696732 471.92236
369.99066 2.1882553 470.40765
372.99161 1.3000107 473.33148
374.79559 1.0774155 473.58118
377.82739 0.19117737 476.48148
380.05688 -0.25081635 477.5993
381.4682 -0.24852753 476.94196
382.87738 -0.24499512 476.28088
384.70282 -0.46173096 476.49692
-43.60849 12.123726 433.39935
-43.145691 11.684677 435.76514
-40.230042 12.560097 432.81079
-39.354553 12.341934 434.28366
-38.070831 12.343575 434.86597
-37.583588 11.908264 437.22546
-35.895798 12.130478 436.91095
-35.393051 11.696793 439.26862
-32.923706 12.358261 437.1571
-30.857635 12.801476 435.92987
-29.572739 12.807587 436.48657
-27.52095 13.251976 435.24445
-26.23996 13.259216 435.79083
-24.958405 13.266991 436.33313
-23.301193 13.494049 435.97058
-21.648819 13.721558 435.60162
-20.741165 13.511925 437.03232
-18.726212 13.958939 435.74887
-17.815384 13.750092 437.1723
-16.175201 13.979027 436.78131
-14.180908 14.426903 435.47675
-12.910416 14.437683 435.98035
-11.993896 14.23011 437.38904
-10.720764 14.241417 437.88528
-9.796402 14.03437 439.28867
-8.5207825 14.046127 439.7774
-7.245285 14.058075 440.2619
-5.6292267 14.288681 439.82776
-3.0042877 15.174812 436.64127
-1.4071808 15.40551 436.19177
-0.48126221 15.199409 437.57077
1.4402008 15.648666 436.19263
2.6957245 15.661133 436.64496
3.9508667 15.67366 437.0932
5.5279541 15.904572 436.61606
6.7797852 15.917175 437.05496
8.0312195 15.929802 437.48972
9.5965729 16.160683 436.99649
10.532837 15.955086 438.34689
12.092117 16.185913 437.8436
13.645645 16.416672 437.33444
14.889694 16.429214 437.74686
16.735596 16.877968 436.29858
17.674927 16.67231 437.63028
18.914948 16.6847 438.02969
20.15448 16.697052 438.42505
21.393555 16.709343 438.81635
22.920151 16.939537 438.27118
24.726349 17.387566 436.78708
25.390594 16.963715 439.03217
26.905212 17.193588 438.4718
28.414063 17.423309 437.90594
29.367462 17.217194 439.20752
30.597847 17.228851 439.56952
32.636597 17.893822 437.11356
33.591125 17.687424 438.40427
34.814804 17.698738 438.75305
36.037994 17.70993 439.09799
37.260689 17.721008 439.43915
38.48291 17.731987 439.77643
39.958557 17.960495 439.16751
40.925911 17.753578 440.43961
42.146698 17.764183 440.76553
43.36702 17.774681 441.08768
44.586876 17.785049 441.40604
45.806259 17.795288 441.7207
47.263428 18.022926 441.08508
48.71492 18.250397 440.44443
50.160751 18.477692 439.79877
51.140114 18.269905 441.04507
52.579849 18.496902 440.39081
53.338364 18.071472 442.58084
54.774635 18.298187 441.91864
55.985298 18.30735 442.20255
57.63031 18.751106 440.57971
58.620163 18.542625 441.80737
60.251358 18.986023 440.17435
61.452606 18.994621 440.44205
62.653458 19.003075 440.70624
63.853912 19.011383 440.96695
65.255783 19.236816 440.26907
66.452904 19.244873 440.52209
67.846252 19.470001 439.81555
69.040047 19.47776 440.0611
70.042084 19.268211 441.26035
71.426582 19.492905 440.54178
72.619339 19.500282 440.77695
73.811768 19.507538 441.00861
75.365929 19.948898 439.31848
76.730965 20.172981 438.58264
78.0905 20.396889 437.84247
79.098022 20.186516 439.01923
80.281097 20.193092 439.23245
81.463867 20.199547 439.44232
82.646355 20.205879 439.6488
83.665642 19.995079 440.81442
85.170799 20.435196 439.08884
86.192116 20.224159 440.24823
87.373505 20.230034 440.44131
88.554611 20.235756 440.6312
89.585487 20.024437 441.78223
90.916077 20.246887 441.00085
91.951607 20.035347 442.14615
93.134315 20.040634 442.32312
94.316772 20.045792 442.49686
95.636093 20.267769 441.70071
96.68103 20.055809 442.83438
97.862823 20.060638 442.99826
99.044403 20.065369 443.15884
100.22577 20.069977 443.31619
101.53111 20.291328 442.50198
102.7095 20.295723 442.6525
104.00671 20.516823 441.83087
105.18214 20.520988 441.97458
106.35738 20.525047 442.11508
107.53245 20.528999 442.25241
108.81606 20.749649 441.41632
109.9882 20.75338 441.54697
111.16019 20.757011 441.67441
112.433 20.977325 440.82761
113.60209 20.980743 440.94846
114.77104 20.984077 441.06604
116.12637 21.420799 439.23697
117.28989 21.423912 439.34778
118.45326 21.426933 439.45544
119.53098 21.213135 440.53244
120.77963 21.432693 439.66135
121.86224 21.218712 440.73251
122.87206 20.787949 442.77408
124.04255 20.790512 442.8667
125.2856 21.009674 441.98267
126.3131 20.578667 444.01624
127.55337 20.79763 443.12576
128.78839 21.016502 442.23175
130.01819 21.235275 441.33426
131.18294 21.237282 441.40771
132.3476 21.239189 441.47815
133.51218 21.241013 441.54538
134.72879 21.459412 440.63467
135.89066 21.461044 440.69562
137.05244 21.462593 440.75345
138.21417 21.464066 440.80817
139.33401 21.248787 441.83521
140.49818 21.250084 441.88385
141.66231 21.251274 441.9295
142.82637 21.252396 441.97195
144.02194 21.47007 441.03558
145.18336 21.471008 441.07181
146.31833 21.255241 442.08084
147.48224 21.256012 442.11099
148.6461 21.256691 442.13806
149.80995 21.257309 442.16199
150.97379 21.25782 442.18289
152.13759 21.258263 442.20065
153.29037 21.041985 443.19156
154.47356 21.475502 441.25079
155.63475 21.475685 441.25931
156.79265 21.259163 442.241
157.95784 21.692406 440.29092
159.11459 21.908966 439.31393
160.27507 21.692177 440.28647
161.4337 21.69194 440.27963
162.58278 21.908249 439.29352
163.73886 21.907829 439.28061
164.89497 21.907349 439.26456
166.06836 21.690147 440.22159
167.22708 21.689484 440.19943
168.40825 21.472092 441.15024
169.54463 21.687897 440.1459
170.70345 21.686981 440.11453
171.86232 21.685982 440.08002
173.05391 21.468262 441.01819
174.21544 21.467072 440.97751
175.45267 21.032516 442.88477
176.61945 21.031166 442.83768
177.70035 21.463036 440.83688
178.90764 21.24485 441.75903
180.02393 21.4599 440.72769
181.08447 21.891533 438.71857
182.2413 21.889755 438.65649
183.50984 21.454536 440.54068
184.67198 21.452576 440.47214
185.8342 21.450516 440.40054
186.99651 21.448364 440.32581
188.22502 21.229454 441.22192
189.39009 21.227112 441.14081
190.55527 21.224693 441.05652
191.72055 21.222176 440.96915
193.03874 20.786133 442.82516
194.2094 20.783417 442.73111
195.29863 20.997337 441.66107
196.46696 20.994431 441.56097
197.54874 21.208176 440.48529
198.71475 21.205093 440.37909
199.78908 21.418655 439.29788
200.76398 21.8489 437.24234
202.11667 21.41201 439.07025
203.18112 21.62532 437.98053
204.34271 21.62175 437.85913
205.50447 21.618095 437.7345
206.88097 21.18074 439.54736
208.0482 21.176865 439.41586
209.32806 20.956047 440.25095
210.61325 20.73513 441.08215
212.02136 20.297264 442.87863
213.31982 20.07608 443.70187
214.37813 20.288475 442.58435
215.55679 20.283928 442.43234
216.60776 20.49614 441.3093
217.52328 20.925156 439.21622
218.69485 20.920296 439.05557
219.73097 21.132248 437.92487
220.76218 21.344101 436.79172
222.07005 21.122017 437.58798
223.09656 21.333672 436.44907
224.41006 21.111336 437.23807
225.72902 20.888855 438.02304
227.20453 20.449272 439.76828
228.38316 20.443489 439.58066
229.71838 20.220596 440.35327
230.74123 20.43158 439.1954
231.75919 20.642464 438.0351
232.77223 20.853271 436.87228
233.94708 20.846924 436.66891
234.95294 21.057518 435.50082
236.29762 20.833855 436.25214
237.29892 21.044235 435.07828
238.82642 20.60318 436.78192
240.18497 20.379082 437.52072
241.54904 20.154808 438.25522
243.10339 19.713226 439.94376
243.91891 20.140152 437.79498
245.29436 19.915443 438.51718
246.48276 19.907776 438.27798
247.86667 19.682762 438.9917
248.8606 19.892082 437.78909
250.25043 19.666763 438.49484
251.2399 19.875847 437.28641
252.63568 19.650238 437.98401
253.41255 20.076416 435.81604
254.60092 20.067879 435.55295
256.21646 19.624474 437.19138
257.84277 19.180878 438.82388
259.04279 19.171867 438.54779
260.24316 19.162712 438.26819
261.44403 19.153427 437.98495
262.87164 18.926559 438.64758
263.84695 19.134476 437.40762
264.81747 19.3423 436.16534
266.25165 19.11499 436.81583
267.69147 18.887535 437.46127
268.41867 19.312561 435.26312
270.10406 18.867233 436.84616
271.55573 18.639297 437.47794
273.01306 18.411201 438.10455
274.2262 18.400574 437.78262
275.69232 18.17215 438.39972
276.14371 18.814354 435.24326
277.61078 18.585693 435.85278
278.82324 18.574615 435.51648
280.03616 18.563438 435.1763
282.04639 17.898743 437.6499
283.53638 17.669456 438.23825
284.2196 18.093529 436.0083
285.98669 17.646126 437.52509
287.21259 17.634323 437.16263
288.16028 17.840324 435.86096
289.38452 17.828354 435.49149
290.60931 17.816299 435.1181
291.26135 18.24015 432.87491
292.77106 18.009972 433.42731
294.2865 17.779671 433.97412
295.51324 17.767319 433.5849
297.33472 17.318703 435.05087
298.86737 17.088081 435.58063
301.01062 16.421028 437.96045
302.86511 15.971954 439.40402
304.11523 15.95919 438.98761
305.67615 15.728142 439.49243
306.30396 16.151825 437.21823
307.23718 16.35733 435.86697
308.802 16.126259 436.35849
310.05164 16.11351 435.92236
311.62518 15.882408 436.40283
313.53055 15.432892 437.797
314.78922 15.420181 437.34558
316.37964 15.189102 437.8078
317.6416 15.176514 437.34705
318.23035 15.601044 435.05026
319.48755 15.58873 434.58304
320.745 15.576546 434.1116
321.31323 16.001663 431.81018
323.60773 15.334038 434.06808
325.21826 15.103706 434.49396
327.53943 14.436226 436.73328
329.16602 14.206192 437.14453
330.79791 13.976357 437.5495
331.71387 14.184204 436.13464
336.61987 11.986198 444.67999
341.21289 10.006859 452.29517
345.8533 8.0275345 459.88654
350.54114 6.048233 467.45404
354.52866 4.5066681 473.19479
356.29407 4.2784119 473.51422
357.30612 4.4883499 472.02878
357.93057 4.9177399 469.64322
361.2345 3.8155441 473.53568
364.17706 2.9327698 476.51663
365.58124 2.9262161 475.90585
366.9845 2.9203796 475.29074
368.38672 2.915329 474.6713
368.59503 3.5679245 471.37439
369.98694 3.5645523 470.75009
372.18311 3.124176 471.89905
374.79376 2.4657822 473.92667
378.23465 1.3704605 477.71576
379.23578 1.5899887 476.17822
381.05634 1.3727264 476.40698
382.04822 1.5945587 474.86423
382.61407 2.0365906 472.43875
-43.608994 13.396469 433.7121
-42.326416 13.395729 434.3067
-39.821823 14.044914 432.23499
-39.756378 13.397156 435.48489
-38.067673 13.615501 435.17853
-36.781815 13.618378 435.75708
-35.494797 13.622025 436.33185
-34.206665 13.626434 436.90265
-31.744614 14.280342 434.78574
-30.46257 14.286064 435.34518
-29.179718 14.292412 435.90063
-27.513092 14.515572 435.55396
-26.231613 14.52301 436.10022
-24.571777 14.747169 435.74203
-22.916748 14.971779 435.3775
-21.266647 15.196777 435.00665
-19.991364 15.206009 435.53302
-18.715805 15.215637 436.05521
-17.804626 15.009483 437.47903
-15.802231 15.451973 436.1803
-14.169632 15.678604 435.78101
-12.542252 15.905472 435.37537
-11.274155 15.916534 435.87338
-10.357422 15.711815 437.27823
-9.0868073 15.723328 437.76886
-7.4702759 15.950981 437.34222
-6.54599 15.746902 438.73743
-4.2536011 16.406624 436.47021
-1.9773254 17.066322 434.19287
-0.723526 17.078438 434.65643
0.52999878 17.090652 435.11584
1.4530945 16.887177 436.48993
2.7086487 16.899567 436.94193
3.6389771 16.696281 438.31055
4.8964691 16.708801 438.75513
6.4731598 16.937042 438.27286
8.3611603 17.380936 436.86093
9.6095276 17.39344 437.29031
10.857513 17.405952 437.71548
12.723114 17.849625 436.284
13.964935 17.862045 436.69925
15.510071 18.089981 436.18234
17.049454 18.317825 435.65967
17.986145 18.114616 436.99072
19.519318 18.342308 436.45828
20.460312 18.139038 437.78302
21.696671 18.151161 438.17313
23.508499 18.593964 436.69302
24.738617 18.605896 437.07352
25.685532 18.40242 438.3848
27.477478 18.844803 436.88715
28.426056 18.641182 438.19131
29.65419 18.652763 438.55606
31.154076 18.879478 437.97903
32.648209 19.106033 437.39661
33.602676 18.9021 438.6875
34.826225 18.913246 439.03598
35.78756 18.709152 440.32144
37.271873 18.935204 439.72137
38.493973 18.94603 440.05829
39.715576 18.956711 440.39148
41.43927 19.397377 438.83334
42.406044 19.192764 440.10196
43.623619 19.203087 440.42307
44.840721 19.213257 440.74051
46.057373 19.223335 441.05411
47.51178 19.448204 440.41687
49.196106 19.887794 438.8269
50.170578 19.682533 440.0759
51.380226 19.692055 440.37341
52.589417 19.701439 440.66733
53.347832 19.281044 442.85825
54.783966 19.50502 442.19513
56.43441 19.943596 440.57565
57.63932 19.952446 440.85443
59.058586 20.175911 440.17688
60.684402 20.613937 438.54123
61.670753 20.407639 439.76144
62.868858 20.415916 440.02484
63.862221 20.209404 441.23975
65.465706 20.646767 439.58539
66.660095 20.654648 439.83765
68.050705 20.877037 439.12967
69.241776 20.884651 439.37442
70.432495 20.892136 439.61572
71.245277 20.470352 441.77011
72.812897 20.906731 440.08798
74.002602 20.913834 440.31894
75.372993 21.135345 439.5867
76.559464 21.142197 439.8103
77.921448 21.363411 439.06979
78.931442 21.155502 440.24744
80.287636 21.376442 439.49924
81.470299 21.382797 439.7088
82.652657 21.389008 439.91513
83.997627 21.609535 439.15503
85.176857 21.615524 439.35413
86.198051 21.406952 440.51395
87.379318 21.412704 440.70685
88.407753 21.203957 441.86124
89.591072 21.209473 442.048
90.921539 21.429253 441.26581
91.956978 21.220192 442.4115
93.139557 21.225372 442.58832
94.461555 21.444771 441.79514
95.641098 21.449722 441.965
96.820419 21.454552 442.13162
97.999512 21.45929 442.29495
99.178406 21.463905 442.45505
100.48383 21.682693 441.64337
101.78389 21.901352 440.82779
102.95702 21.905632 440.97751
104.24895 22.124054 440.15448
105.41912 22.128105 440.29745
106.47525 21.917847 441.40735
107.64764 21.921715 441.54419
108.81984 21.925476 441.67792
109.99189 21.929138 441.80838
111.26733 22.146904 440.96436
112.33549 21.936165 442.05978
113.60547 22.153709 441.20892
114.87015 22.371147 440.35431
116.03629 22.374306 440.46838
117.29295 22.59153 439.60672
118.36813 22.380333 440.68713
119.44832 22.169052 441.76486
120.78241 22.600105 439.92007
121.78455 22.17453 441.96521
122.95248 22.177132 442.06064
124.1203 22.179634 442.15295
125.28801 22.182045 442.24216
126.38552 21.970261 443.30252
127.62313 22.1866 442.41116
128.72559 21.974632 443.46567
129.95786 22.190781 442.56772
131.12508 22.192757 442.64127
132.29222 22.194641 442.7117
133.51396 22.4105 441.8038
134.73047 22.626266 440.89252
135.89224 22.627876 440.95337
137.10091 22.84346 440.03546
138.21558 22.630821 441.06586
139.37715 22.632172 441.11746
140.53868 22.63343 441.16599
141.66347 22.420547 442.18753
142.82745 22.421646 442.22998
144.02293 22.636711 441.29303
145.15529 22.423584 442.3056
146.31914 22.424423 442.33878
147.50681 22.639236 441.39233
148.64676 22.42585 442.39594
149.82921 22.640488 441.44324
151.00652 22.855042 440.48734
152.16508 22.855461 440.50507
153.32365 22.855812 440.51965
154.49062 23.070099 439.55447
155.63489 22.642204 441.51651
156.79599 22.642288 441.522
157.95781 22.856346 440.54758
159.11633 22.856277 440.54688
160.27487 22.856125 440.54309
161.42642 23.069923 439.55951
162.57285 23.283669 438.57281
163.72629 23.283257 438.55997
164.89444 23.068733 439.52069
166.05048 23.068176 439.50165
167.22638 22.853462 440.45621
168.40746 22.638695 441.4075
169.56873 22.637871 441.37921
170.70248 22.851028 440.37134
171.89139 22.635979 441.31329
173.0201 22.848976 440.29941
174.21422 22.633766 441.23502
175.41353 22.418472 442.16733
176.57765 22.417152 442.12039
177.6559 22.84388 440.11865
178.86053 22.628319 441.0415
179.97417 22.840813 440.0098
181.08273 23.053238 438.97525
182.29272 22.837402 439.88864
183.50792 22.62149 440.79858
184.72835 22.405464 441.70523
185.89305 22.40345 441.63345
186.93079 22.829544 439.60919
188.22273 22.399147 441.48071
189.31905 22.610985 440.42523
190.48155 22.608612 440.34125
191.71799 22.392021 441.22821
192.95969 22.175339 442.11157
194.04871 22.386826 441.04419
195.29578 22.16993 441.92093
196.29581 22.59539 439.87454
197.5457 22.378319 440.74475
198.71161 22.375298 440.63864
199.78584 22.586342 439.55695
200.85507 22.79731 438.4726
202.01627 22.794006 438.3576
202.9785 23.218987 436.29602
204.23697 23.001328 437.14664
205.39606 22.997742 437.02246
206.87712 22.351425 439.80771
208.04427 22.34761 439.67639
209.43643 21.915253 441.48239
210.60909 21.911224 441.34406
212.01707 21.478607 443.14185
213.07509 21.688606 442.0271
214.37361 21.470009 442.84778
215.55217 21.465538 442.69592
216.60304 21.675255 441.57248
217.64896 21.884895 440.44641
218.823 21.880119 440.28558
219.72595 22.303879 438.18683
220.89526 22.29892 438.02014
222.0648 22.293861 437.85022
223.09119 22.503029 436.71091
224.25862 22.497742 436.53488
225.57486 22.277969 437.32098
226.8965 22.05806 438.10303
228.22357 21.838005 438.88098
229.55608 21.617821 439.65479
230.73512 21.611923 439.46069
231.91444 21.605896 439.26328
232.92999 21.814209 438.0997
234.10728 21.807968 437.89606
235.11563 22.016075 436.72714
236.46277 21.795105 437.47882
237.81537 21.573982 438.22617
239.17348 21.352722 438.96918
240.17787 21.560371 437.78772
241.90619 20.909706 440.4422
242.91122 21.117134 439.25388
243.72403 21.539024 437.10468
245.47668 20.887848 439.74432
246.47496 21.094933 438.54727
247.66357 21.08728 438.30484
248.85254 21.079491 438.05896
250.04189 21.071587 437.8096
251.2316 21.063538 437.55676
252.62723 20.840675 438.25522
253.61214 21.047081 437.04056
254.80298 21.038651 436.77722
256.20758 20.815338 437.46341
257.61777 20.591873 438.14484
259.0336 20.36821 438.82162
260.0127 20.574036 437.59094
260.98703 20.779762 436.35794
262.4093 20.555687 437.02271
263.3793 20.761177 435.78378
264.57605 20.751709 435.49124
265.77325 20.742111 435.19507
267.20773 20.517426 435.8428
268.40845 20.507538 435.53876
270.33569 19.852592 438.0694
271.54517 19.8424 437.75595
273.24957 19.402023 439.32831
274.46521 19.391525 439.00601
275.68134 19.380913 438.67996
276.38776 19.800377 436.46472
277.59961 19.789574 436.13251
278.55161 19.993797 434.85529
280.28772 19.552452 436.39728
282.30035 18.895706 438.87225
283.79282 18.669144 439.46085
284.74942 18.872902 438.16754
286.24817 18.64608 438.74689
287.47656 18.634392 438.38403
288.42682 18.837936 437.08133
289.37228 19.041428 435.77631
290.59695 19.029526 435.40326
291.53552 19.232925 434.09274
292.46936 19.436295 432.77994
293.98212 19.208755 433.32861
295.79504 18.765648 434.80264
297.02481 18.753342 434.40897
299.15427 18.094421 436.79935
300.99762 17.650848 438.25201
302.547 17.422714 438.7695
303.79449 17.410072 438.35446
305.04239 17.397423 437.93524
305.97787 17.600403 436.58701
307.53961 17.37207 437.08453
308.47064 17.575104 435.72983
309.71765 17.562454 435.29507
311.28857 17.334091 435.77744
312.86511 17.105698 436.25378
314.11853 17.093124 435.80466
316.03516 16.648918 437.18826
317.6286 16.420563 437.64633
318.89093 16.408127 437.18173
319.81415 16.611732 435.79733
320.73236 16.815506 434.41077
321.64545 17.019463 433.02194
323.59534 16.575645 434.36856
324.50613 16.779968 432.97232
327.52734 15.688263 437.03693
328.79886 15.67688 436.5397
330.42831 15.449631 436.94666
331.70251 15.438728 436.43991
335.8822 13.69902 443.17929
340.47 11.743111 450.80261
345.47379 9.5709991 459.30634
350.15918 7.6150742 466.88089
354.89191 5.6592102 474.43134
356.66043 5.4333801 474.75055
357.67566 5.6405029 473.26361
359.06677 5.6319275 472.67303
361.61035 4.9750671 474.77045
363.39511 4.7513275 475.06396
365.96362 4.0955963 477.14117
366.97794 4.3057785 475.63092
367.98596 4.5167236 474.11868
368.59009 4.9447937 471.71283
369.98282 4.94104 471.0885
371.77704 4.721817 471.34933
374.38599 4.0707626 473.38007
377.00909 3.4206848 475.39954
379.23553 2.987999 476.52206
380.64389 2.9891434 475.86673
382.46619 2.7750854 476.09085
383.03589 3.2112808 473.66266
-43.609024 14.669487 434.02127
-42.734863 14.455513 435.5029
-40.22673 15.097343 433.4306
-39.349518 14.885193 434.90497
-37.261108 15.315025 433.70624
-36.777512 14.890839 436.06592
-35.489761 14.894814 436.64066
-33.807327 15.113197 436.31732
-32.129242 15.33223 435.98773
-30.843964 15.338211 436.54825
-29.172211 15.558434 436.20715
-27.505096 15.779182 435.85977
-26.223053 15.786827 436.40576
-24.185013 16.222137 435.14584
-22.532242 16.44426 434.77939
-20.511887 16.880341 433.50339
-19.611359 16.676094 434.93158
-18.33812 16.685776 435.45245
-17.064713 16.695793 435.96918
-15.791168 16.706108 436.48169
-14.15831 16.930191 436.08145
-11.81752 17.581352 433.85577
-10.554504 17.592377 434.35144
-9.6428375 17.390236 435.75446
-8.3773193 17.401695 436.24271
-7.1119843 17.41333 436.72675
-6.190155 17.211807 438.12122
-4.2410889 17.65036 436.76645
-2.3028564 18.088928 435.4035
-0.71089172 18.314247 434.9501
0.20993042 18.113197 436.32767
1.4658661 18.12545 436.78348
2.7214661 18.137764 437.23511
3.6518555 17.936989 438.604
4.9093781 17.949425 439.04816
7.1252136 18.601143 436.71826
8.0570984 18.40049 438.07553
9.936676 18.838966 436.65521
10.870346 18.638336 438.0051
12.426865 18.863693 437.49893
13.67128 18.876022 437.91467
15.218964 19.10125 437.39764
16.459808 19.113472 437.80438
18.297134 19.551414 436.34625
19.827621 19.776352 435.81192
20.765915 19.575516 437.13608
22.290161 19.80027 436.59207
23.80864 20.024902 436.04245
25.036041 20.036652 436.42178
26.26297 20.048325 436.79715
27.48941 20.059921 437.16852
28.715317 20.071411 437.53607
30.490372 20.508118 436.02429
31.437866 20.306747 437.32092
32.659668 20.317924 437.67599
33.880989 20.329002 438.02719
34.837486 20.127419 439.31525
36.06044 20.138306 439.65948
37.542 20.36158 439.05774
39.01783 20.584702 438.45071
40.487961 20.807655 437.83847
42.203598 21.242874 436.27679
43.411057 21.253059 436.59857
44.618073 21.263138 436.91656
45.581207 21.060715 438.17728
46.549088 20.8582 439.43567
47.998116 21.080276 438.7962
48.970314 20.877556 440.04852
50.18026 20.887039 440.34943
51.620125 21.108665 439.69702
52.826591 21.117889 439.98993
53.807457 20.914734 441.23022
55.23822 21.135925 440.565
56.663353 21.356949 439.89496
57.865524 21.365616 440.17288
59.282028 21.586319 439.49387
60.69294 21.806862 438.81012
61.679169 21.603004 440.03067
62.877151 21.61116 440.29373
63.870384 21.407082 441.509
65.473724 21.839134 439.85315
66.468811 21.634827 441.06195
67.86187 21.8545 440.3537
69.055397 21.861984 440.59879
70.248589 21.869354 440.84033
71.25264 21.664619 442.03732
73.006302 22.307671 439.39435
74.193275 22.314621 439.62463
75.560936 22.533401 438.89105
76.923096 22.752029 438.15314
77.928123 22.546692 439.3335
78.938011 22.341248 440.51151
80.294075 22.559486 439.76248
81.30854 22.353844 440.93466
82.658836 22.571815 440.17801
83.840805 22.577805 440.38071
85.18277 22.795494 439.61609
86.361595 22.801239 439.81171
87.540154 22.806854 440.00406
88.565895 22.600578 441.15842
89.746521 22.605988 441.34454
90.926895 22.611282 441.52737
91.962227 22.404709 442.67346
93.144699 22.409798 442.8501
94.326935 22.414764 443.02347
95.783051 22.843079 441.25821
96.959686 22.847816 441.42432
98.004196 22.640732 442.55554
99.441605 23.068657 440.77798
100.61502 23.073059 440.93402
101.78822 23.077354 441.08679
103.08282 23.293221 440.2666
104.25307 23.29731 440.41263
105.42313 23.301277 440.55548
106.59302 23.305168 440.6951
107.65145 23.097313 441.80252
108.82356 23.101006 441.93607
110.20775 23.527824 440.12329
111.37437 23.531296 440.24991
112.54085 23.534683 440.37335
113.70718 23.537964 440.49365
114.96918 23.752731 439.63815
116.13264 23.755829 439.75183
117.29596 23.758812 439.86246
118.37105 23.55014 440.9433
119.53667 23.552948 441.04788
120.70219 23.555679 441.14926
121.78719 23.346756 442.22162
122.87723 23.137756 443.29126
124.04752 23.140213 443.3837
125.29037 23.354111 442.49835
126.52798 23.567917 441.60947
127.62531 23.358559 442.66724
128.79263 23.360672 442.74692
130.02223 23.574181 441.84821
131.127 23.364601 442.89706
132.35129 23.577934 441.99179
133.57036 23.791183 441.0831
134.73212 23.792831 441.14703
135.94333 24.005905 440.23169
137.10237 24.00737 440.28934
138.21696 23.797295 441.32016
139.33664 23.587128 442.34824
140.50064 23.588371 442.39679
141.6646 23.589523 442.44229
142.82849 23.590584 442.48474
143.99236 23.591576 442.52405
145.15616 23.592476 442.5603
146.34634 23.804779 441.61639
147.50751 23.805511 441.64642
148.66864 23.806175 441.67334
149.84845 24.018227 440.72
151.0231 24.230179 439.76352
