ply
format ascii 1.0
comment PCL generated
element vertex 623
property float x
property float y
property float z
element camera 1
property float view_px
property float view_py
property float view_pz
property float x_axisx
property float x_axisy
property float x_axisz
property float y_axisx
property float y_axisy
property float y_axisz
property float z_axisx
property float z_axisy
property float z_axisz
property float focal
property float scalex
property float scaley
property float centerx
property float centery
property int viewportx
property int viewporty
property float k1
property float k2
end_header
-0.013130297 -0.067839868 0.0042936504
-0.012456358 -0.070208564 0.0044421256
-0.012714369 -0.078829095 0.0043855608
-0.011504319 -0.079251982 0.0045196712
-0.0095166732 -0.073754221 0.0044001341
-0.0090878494 -0.080492377 0.0050049126
-0.0073383842 -0.075829968 0.0050173402
-0.0060974495 -0.07560838 0.0051724315
-0.003594839 -0.074293345 0.0042708814
-0.015520195 -0.067623712 0.0042360127
-0.015454478 -0.072517164 0.0045696795
-0.013249462 -0.067351438 0.0050759017
-0.013551374 -0.07514853 0.0055274963
-0.011811019 -0.072047219 0.0060947835
-0.0092111407 -0.062431067 0.0062935054
-0.0088414 -0.06741567 0.007050693
-0.007683421 -0.066955522 0.0076452494
-0.0063101253 -0.064152941 0.0071982145
-0.0056555192 -0.068997338 0.0070631206
-0.0044548609 -0.067936629 0.0062379837
-0.0032728631 -0.066548221 0.0063137114
-0.0024862252 -0.075829871 0.0058362186
-0.0011519829 -0.070270956 0.0055370331
0 -0.068292946 0.0043565929
-0.017202903 -0.06881161 0.0043966174
-0.017412459 -0.074624829 0.0050844848
-0.014130573 -0.065218031 0.0059261322
-0.013495937 -0.067479685 0.0068614781
-0.012053872 -0.065748401 0.0082972646
-0.010108785 -0.06065271 0.0090526044
-0.0094684698 -0.063123137 0.0091889203
-0.0085287523 -0.063965641 0.0089901984
-0.0073714163 -0.063183568 0.0093682408
-0.0065544792 -0.065544799 0.0090026259
-0.0053190459 -0.063828558 0.0093521476
-0.0041226982 -0.061840475 0.0078384876
-0.0032317431 -0.06463486 0.0074222684
-0.0020792736 -0.062378205 0.0067104995
-0.0010774549 -0.064647295 0.0061540008
0 -0.072618075 0.0059629679
0.0011393839 -0.068363033 0.0057747662
0.0021756333 -0.065269001 0.0044416785
0.0032910777 -0.065821551 0.0041811764
-0.018006541 -0.06639912 0.0048559308
-0.018540168 -0.072924666 0.0051623583
-0.014942448 -0.062971741 0.0069079697
-0.014216441 -0.064520769 0.007766217
-0.012740386 -0.062640235 0.0094512403
-0.011091154 -0.059488919 0.011003464
-0.010834909 -0.063925967 0.012365878
-0.0096705686 -0.063395955 0.012483567
-0.0083721504 -0.061744608 0.011579424
-0.007567042 -0.063779354 0.012179583
-0.0063516684 -0.062458072 0.011140138
-0.0052072811 -0.061445922 0.011550903
-0.004304193 -0.063486852 0.011000693
-0.0031527518 -0.062004119 0.0096708536
-0.002100419 -0.061962362 0.0085110962
-0.0010693414 -0.063091144 0.0077620745
0 -0.059219088 0.0069854558
0.0011604289 -0.0684653 0.0061834753
0.0025008377 -0.07377471 0.0059924424
0.0032707402 -0.064324558 0.0047234595
0.0043415916 -0.064038478 0.0041347742
-0.019427013 -0.062598154 0.004019767
-0.018429643 -0.062877603 0.0049197674
-0.019131131 -0.069350354 0.005277127
-0.015706526 -0.060731899 0.0067103505
-0.014945258 -0.061916072 0.0075919926
-0.013998847 -0.062456399 0.0095261633
-0.012603075 -0.060914867 0.011836588
-0.011909291 -0.062794447 0.014752686
-0.010733215 -0.062252652 0.016132772
-0.0092141367 -0.059379999 0.016426742
-0.0088467067 -0.064138629 0.016026944
-0.0072238473 -0.059854735 0.016642243
-0.0063043437 -0.060941994 0.015774518
-0.005406457 -0.062714905 0.015327275
-0.0042362204 -0.061425194 0.014212042
-0.0032043876 -0.061951499 0.01179868
-0.0021915659 -0.063555412 0.010914743
-0.0010655605 -0.061802514 0.0088868141
0 -0.0623242 0.0082094371
0.0010842673 -0.062887505 0.0079289973
0.0020600164 -0.05974048 0.0063568652
0.003542911 -0.068496287 0.006118387
0.0043308358 -0.062797122 0.0047163367
-0.019529365 -0.061842989 0.0045567155
-0.020728718 -0.069502167 0.0056012571
-0.0171044 -0.060934424 0.0067056119
-0.01612919 -0.061290924 0.0077835321
-0.015104236 -0.061495814 0.0094756186
-0.013440611 -0.05893191 0.012138873
-0.012769701 -0.060656082 0.014255345
-0.011548405 -0.059841733 0.015625983
-0.010208953 -0.058191035 0.017890841
-0.0096366983 -0.061032422 0.018279582
-0.0082728378 -0.058943968 0.018036902
-0.0073624346 -0.059951253 0.020196855
-0.0065698498 -0.062413573 0.019200802
-0.0052752639 -0.060138009 0.016241193
-0.0040834243 -0.058188796 0.015561134
-0.003311093 -0.062910765 0.014645398
-0.0020994963 -0.059835643 0.01179868
-0.0010277847 -0.058583725 0.010727257
0 -0.062100459 0.0094352067
0.001032614 -0.058858994 0.0087035298
0.0021684333 -0.061800346 0.0077382922
0.0033393432 -0.06344752 0.0066177249
0.0044139712 -0.06289909 0.0062342286
0.0055915564 -0.06374374 0.0044642985
-0.020844899 -0.061437596 0.0044299662
-0.021382114 -0.066522136 0.0064861476
-0.019044559 -0.062735014 0.0071408451
-0.017326571 -0.060642995 0.0082649291
-0.015892182 -0.05933081 0.0094512403
-0.014257793 -0.057031173 0.011707276
-0.014359342 -0.061855629 0.015494466
-0.01278426 -0.05965988 0.016023934
-0.011212429 -0.057081457 0.018710345
-0.010795039 -0.060452219 0.02059567
-0.0094699655 -0.058924232 0.020868689
-0.0081187272 -0.056831088 0.021278054
-0.0075771501 -0.060617201 0.021576375
-0.0062199882 -0.058053225 0.021397084
-0.0050277128 -0.056310385 0.020942152
-0.0043616374 -0.061062921 0.020665586
-0.0032575303 -0.060807232 0.018972218
-0.0020672525 -0.057883073 0.01481235
-0.0010887687 -0.060971048 0.012692779
0 -0.057068802 0.011247635
0.0011046504 -0.06186042 0.010472924
0.0021653194 -0.060628943 0.0088281929
0.0032205747 -0.060117394 0.00841856
0.0044674296 -0.062544011 0.0070255101
0.0058332095 -0.065331943 0.0057311058
0.0063504092 -0.059270486 0.0040270984
-0.021502025 -0.062242705 0.0042865574
-0.02018364 -0.061672233 0.0067905784
-0.01789061 -0.057881381 0.00796628
-0.017216567 -0.059181951 0.0091280937
-0.015759043 -0.05778316 0.010652483
-0.014824693 -0.05823987 0.013333946
-0.013784193 -0.05831774 0.015970677
-0.012395168 -0.056811187 0.016513944
-0.011569614 -0.05784807 0.019200802
-0.010953911 -0.060246512 0.020786196
-0.0092324037 -0.056420248 0.021255404
-0.0089955311 -0.061844278 0.021488845
-0.0074782595 -0.058757752 0.022099555
-0.0062565333 -0.057351559 0.021912485
-0.0055250269 -0.060775299 0.021526486
-0.0042152526 -0.057959724 0.021492362
-0.0031555267 -0.057851326 0.021085262
-0.0022049581 -0.060636349 0.019104362
-0.0010532575 -0.057929162 0.016324699
0 -0.059151981 0.013974756
0.0011134229 -0.061238259 0.012129605
0.0021131402 -0.058111355 0.010964185
0.0032747674 -0.060037404 0.0094494224
0.0043858341 -0.060305219 0.0087792873
0.0053927451 -0.0593202 0.0064600408
0.0067744078 -0.062098738 0.0046946406
-0.021131888 -0.060059052 0.0046245754
-0.018961415 -0.056884252 0.0074901283
-0.018766932 -0.059612609 0.0085121095
-0.016604992 -0.056041844 0.010808975
-0.016334048 -0.058802571 0.012614906
-0.014946323 -0.057650104 0.015566081
-0.012974598 -0.053894486 0.017526001
-0.012639946 -0.056879763 0.018321186
-0.012053217 -0.059170343 0.020786196
-0.010242331 -0.055308592 0.021478295
-0.0098651079 -0.059190653 0.021912485
-0.0084359488 -0.056942653 0.023553461
-0.0073788348 -0.056922439 0.02397418
-0.0063285925 -0.056957334 0.02397418
-0.005257993 -0.056786329 0.02338627
-0.004318417 -0.058298633 0.021914929
-0.0032561035 -0.058609866 0.021899402
-0.0020671978 -0.055814341 0.02088517
-0.0010398324 -0.056150947 0.019312531
0 -0.05843854 0.01598075
0.0010450894 -0.056434836 0.013974756
0.0021393471 -0.057762377 0.011194319
0.0033313336 -0.059964009 0.010376334
0.0041683228 -0.056272358 0.009161979
0.0055323127 -0.059748981 0.0080246925
0.0067400578 -0.060660522 0.0056354105
0.0073712217 -0.056863714 0.0045494735
-0.020613385 -0.057500493 0.0051608682
-0.019992646 -0.058867235 0.00796628
-0.018383972 -0.057314735 0.0089484155
-0.017525617 -0.058053602 0.011402518
-0.015970631 -0.056429558 0.015164256
-0.014373577 -0.054414257 0.01661393
-0.013789398 -0.056218311 0.020201325
-0.013099425 -0.057855792 0.021157175
-0.011313406 -0.054510046 0.021876574
-0.010523667 -0.055775434 0.023325264
-0.0091362707 -0.053802487 0.025099844
-0.0081839235 -0.054218493 0.026893824
-0.0072251461 -0.054704674 0.027303547
-0.0062001199 -0.054767724 0.02721253
-0.0051645231 -0.054743946 0.025116324
-0.0040662112 -0.053877298 0.024434775
-0.0030945141 -0.054669753 0.023016036
-0.0020745262 -0.05497494 0.02167353
-0.0010801899 -0.057250068 0.02088517
0 -0.054805811 0.016524583
0.0010778325 -0.057125121 0.015226007
0.0022116189 -0.058607899 0.011109143
0.0031012236 -0.054788284 0.010334432
0.0043372437 -0.057468478 0.0093465447
0.0054758028 -0.05804351 0.0087974668
0.0063992115 -0.056526367 0.0064333975
0.0079722824 -0.060361568 0.0046946406
-0.020925282 -0.057269193 0.0056848526
-0.018968303 -0.054797322 0.0081554651
-0.018087946 -0.055327836 0.0093964934
-0.01732922 -0.056319959 0.012449026
-0.015110187 -0.052381981 0.015640974
-0.015085486 -0.056031805 0.016786218
-0.013981614 -0.055926457 0.020206243
-0.012352983 -0.05352959 0.02096653
-0.011630216 -0.054979201 0.022478402
-0.010191571 -0.052996174 0.023969114
-0.0090978686 -0.052565467 0.026524574
-0.008356804 -0.054319225 0.027461171
-0.0070501538 -0.052372571 0.027500033
-0.0060889381 -0.052770801 0.027528405
-0.0051834206 -0.053907577 0.026790977
-0.0041137175 -0.053478327 0.025283515
-0.003040731 -0.052706007 0.024769872
-0.0021656526 -0.056306962 0.023085117
-0.0010783012 -0.056071665 0.021971077
0 -0.056074981 0.020148993
0.0010715894 -0.05572265 0.016097963
0.0020670928 -0.053744413 0.013200551
0.0032593124 -0.05649475 0.011095196
0.0042656027 -0.055452831 0.010376334
0.0051658866 -0.053725224 0.0088318884
0.0066446876 -0.057587292 0.0069550574
0.0079587726 -0.059122309 0.0052026212
0.008645053 -0.056192845 0.0043517947
-0.022667674 -0.057802569 0.0040406585
-0.020631127 -0.055378288 0.0063501894
-0.018592527 -0.052678831 0.0085259676
-0.018322762 -0.054968286 0.0096540749
-0.016597833 -0.052905593 0.012784421
-0.01594547 -0.054214597 0.016181558
-0.015147806 -0.055181295 0.018155605
-0.013447691 -0.052756324 0.020667195
-0.012796549 -0.054385338 0.02127856
-0.011315978 -0.052464992 0.023589611
-0.010020046 -0.05110224 0.024483353
-0.009289599 -0.052641064 0.026795268
-0.008286397 -0.052825782 0.027779132
-0.0071679573 -0.05222369 0.028182
-0.0062222267 -0.052888926 0.027649879
-0.0052267942 -0.053313304 0.026812166
-0.0040634884 -0.051809479 0.025399595
-0.0030781659 -0.052328821 0.02462405
-0.0020976269 -0.053489488 0.023303717
-0.0010652149 -0.054325957 0.0220249
0 -0.054816607 0.02153337
0.001009326 -0.051475625 0.018421769
0.0021705723 -0.055349592 0.014968455
0.0032347597 -0.054990917 0.0114775
0.0041624387 -0.053071093 0.010613412
0.0054052141 -0.055133186 0.009678185
0.0067048511 -0.056991234 0.0078330934
0.007583675 -0.055252489 0.0058791637
0.0092370491 -0.058886185 0.0049093962
-0.02208369 -0.055209227 0.0045602918
-0.020854557 -0.05488041 0.0065126121
-0.020008344 -0.055578738 0.0087492168
-0.018105442 -0.0532513 0.011147916
-0.017186273 -0.053707104 0.01284188
-0.016079202 -0.053597342 0.016348183
-0.014931557 -0.05332699 0.018236965
-0.014237231 -0.054758582 0.021246582
-0.012646667 -0.052694444 0.022082388
-0.011050044 -0.050227474 0.02466163
-0.010465312 -0.05232656 0.025492013
-0.0093344031 -0.051857799 0.027181506
-0.0082667088 -0.051666934 0.028223842
-0.0075000664 -0.053571902 0.028605372
-0.0063145445 -0.052621204 0.028106242
-0.0051621702 -0.051621705 0.027115792
-0.0041332389 -0.051665489 0.025752515
-0.00308003 -0.051333833 0.024760753
-0.0020394691 -0.050986726 0.024395257
-0.0010841812 -0.054209061 0.023068845
0 -0.051900972 0.021687448
0.0010665745 -0.053328723 0.019235998
0.0020892033 -0.052230082 0.01598075
0.0031569898 -0.052616499 0.012642235
0.0042738453 -0.053423066 0.011168808
0.0054631578 -0.054631583 0.010303587
0.0064067431 -0.053389527 0.0084418058
0.0077473721 -0.055338375 0.0058791637
0.0089558428 -0.055974022 0.0049669445
-0.022175033 -0.054328829 0.0045481622
-0.020827588 -0.053713247 0.00625512
-0.019078463 -0.051935818 0.0084500313
-0.01769359 -0.050999168 0.0098911822
-0.016983468 -0.052011866 0.012857169
-0.015734816 -0.051400397 0.016319335
-0.015339185 -0.053687144 0.017924249
-0.013828709 -0.052123595 0.021377981
-0.012543801 -0.051220521 0.023324758
-0.011366196 -0.050631236 0.025693566
-0.010115152 -0.049564246 0.027290076
-0.0092446692 -0.050332088 0.027911752
-0.0081399744 -0.049857344 0.028725088
-0.0071054394 -0.049738076 0.029087454
-0.0061251149 -0.050021768 0.028970271
-0.0051552709 -0.050521653 0.027828157
-0.0042061545 -0.051525388 0.027229637
-0.0031285381 -0.051099457 0.025491178
-0.0020675675 -0.050655402 0.024864852
-0.0010422061 -0.051068094 0.024540603
0 -0.05184228 0.02205798
0.001065568 -0.052212827 0.019211829
0.0020762829 -0.050868925 0.015954584
0.0032759688 -0.053507488 0.013992399
0.0043213847 -0.052936964 0.011130929
0.0052200258 -0.051156253 0.010198772
0.0065176245 -0.053227264 0.0086811781
0.0077450732 -0.054215513 0.0065207779
0.0086414926 -0.052929141 0.0053397119
0.010132868 -0.055167835 0.0041543841
-0.022647237 -0.054353368 0.0046350062
-0.020947548 -0.052920118 0.006341964
-0.018938273 -0.050502062 0.0082274079
-0.018847464 -0.053216364 0.0096635818
-0.016557818 -0.049673453 0.01270175
-0.016373847 -0.052396309 0.016221374
-0.014730485 -0.050504521 0.017745972
-0.013513466 -0.049895875 0.020983964
-0.012462583 -0.049850333 0.022981495
-0.011389562 -0.049699906 0.025201231
-0.010236797 -0.049136624 0.027290076
-0.0092877401 -0.049534615 0.027864486
-0.0081114154 -0.048668493 0.028589249
-0.0070766299 -0.04852546 0.029081404
-0.0060793641 -0.048634913 0.028682023
-0.0051919217 -0.049842451 0.027804315
-0.0041020741 -0.049224891 0.027272284
-0.0031447292 -0.050315667 0.025509655
-0.0020254438 -0.04861065 0.024871558
-0.0010439099 -0.050107673 0.024475873
0 -0.051828168 0.022054553
0.0010386428 -0.049854856 0.019385755
0.0021780059 -0.052272141 0.016032696
0.0031821425 -0.05091428 0.014453441
0.0040289438 -0.048347324 0.011316836
0.0054216585 -0.052047923 0.010342509
0.006669939 -0.053359512 0.0086712837
0.0076202694 -0.052253272 0.0068270564
0.0089162141 -0.053497281 0.0060529411
0.0097812712 -0.052166779 0.0040353537
-0.020542201 -0.050814919 0.0061661899
-0.019818254 -0.051747665 0.0080765188
-0.018128846 -0.050120927 0.0098193288
-0.017091284 -0.050205648 0.012841552
-0.016109031 -0.05047496 0.016299844
-0.014672092 -0.04925631 0.017927319
-0.013964354 -0.050486509 0.021070838
-0.012785839 -0.05007787 0.022934794
-0.011145178 -0.047620311 0.024097055
-0.010488008 -0.049293641 0.024886668
-0.0092910025 -0.048519682 0.025913417
-0.0083855242 -0.049264956 0.027357578
-0.0073185996 -0.049139168 0.027849704
-0.0062159337 -0.048691481 0.026683569
-0.0052246274 -0.0491115 0.025737017
-0.0041710977 -0.0490104 0.025505155
-0.0031022299 -0.048601605 0.024760306
-0.002040813 -0.047959104 0.023423314
-0.0010691051 -0.050247941 0.022989422
0 -0.048005234 0.021711618
0.0010594763 -0.049795385 0.019417137
0.0021150573 -0.049703848 0.016165197
0.0030880596 -0.0483796 0.014653534
0.004234076 -0.049750391 0.0121288
0.0053499746 -0.050289765 0.010233074
0.0064786091 -0.050749104 0.0089427531
0.0078950347 -0.053009517 0.0068086982
0.0086378846 -0.050747573 0.0060155392
-0.021456322 -0.051946886 0.0052838922
-0.018666014 -0.047702037 0.0070045888
-0.017972501 -0.048631474 0.0083253682
-0.017475814 -0.050242968 0.012331575
-0.015397219 -0.04721814 0.015427411
-0.014860216 -0.048826423 0.01748541
-0.014135215 -0.050016921 0.020582289
-0.012419666 -0.047608722 0.021649599
-0.011315562 -0.047319621 0.023220092
-0.01032993 -0.04751768 0.024534732
-0.0091345115 -0.046687506 0.024806827
-0.0084431628 -0.048548188 0.02566725
-0.007368607 -0.048422273 0.025870353
-0.0062595089 -0.04798957 0.025813252
-0.0052573201 -0.048367348 0.025036991
-0.0041684173 -0.047936797 0.024914205
-0.003023888 -0.046366286 0.024307877
-0.0021500709 -0.049451631 0.022866428
-0.0010529351 -0.048435017 0.022488952
0 -0.048195526 0.021277368
0.0010581446 -0.048674654 0.018984228
0.0020994297 -0.048286881 0.016103566
0.0032363234 -0.049623627 0.014804989
0.0042098495 -0.048413269 0.012027889
0.0052445997 -0.048250318 0.010214269
0.0066363732 -0.050878864 0.0084553063
0.0078353984 -0.051489763 0.0064176917
0.0087256357 -0.050172403 0.0056887269
-0.020695286 -0.049015153 0.0047904253
-0.019242192 -0.048105482 0.0066583753
-0.018453017 -0.048846222 0.007745266
-0.016635014 -0.046785977 0.011906952
-0.016455131 -0.049365398 0.014678687
-0.015335756 -0.049293507 0.017296046
-0.01354949 -0.046902083 0.019874483
-0.012760384 -0.047851443 0.02081871
-0.011827107 -0.048383623 0.021691918
-0.010002092 -0.045009416 0.023199707
-0.0092384825 -0.046192419 0.023510337
-0.0081959376 -0.046102151 0.023810834
-0.0071980706 -0.046273313 0.024585366
-0.0062401812 -0.046801362 0.024395257
-0.0049997792 -0.044998016 0.02330032
-0.0040324111 -0.045364626 0.023346007
-0.0032192366 -0.04828855 0.022893339
-0.0021117742 -0.047514919 0.02157408
-0.0010412333 -0.046855498 0.021203041
0 -0.047839981 0.020352811
0.0010443236 -0.046994559 0.01839897
0.0021355264 -0.048049346 0.015529662
0.0031856082 -0.047784124 0.014523596
0.0041029383 -0.046158057 0.010853499
0.0053557376 -0.048201643 0.010080129
0.0064935545 -0.048701663 0.0072432756
0.0077383602 -0.049746603 0.005616188
0.0090910885 -0.051137377 0.0048179924
-0.020876957 -0.048346635 0.0046171546
-0.020135727 -0.049220666 0.0065053105
-0.017813638 -0.046105888 0.0070502162
-0.016983571 -0.046704818 0.010595411
-0.016350623 -0.047961827 0.013162255
-0.014525011 -0.045650031 0.01668492
-0.013742213 -0.046512105 0.018407822
-0.0131143 -0.048085768 0.020358473
-0.011331175 -0.045324698 0.021321684
-0.010774953 -0.047409795 0.022365808
-0.0095638698 -0.046756696 0.022896141
-0.0082806014 -0.045543306 0.023020059
-0.0071113887 -0.044700157 0.023450673
-0.0060240878 -0.044176642 0.02341485
-0.0051423628 -0.045252796 0.022868872
-0.0042885533 -0.047174085 0.02281791
-0.0031637552 -0.046401739 0.022031188
-0.0021290826 -0.046839815 0.020926058
-0.0010754003 -0.047317609 0.019555897
0 -0.044957604 0.01913026
0.0010384283 -0.045690842 0.017902315
0.0021985406 -0.048367895 0.014805436
0.0030717514 -0.045052353 0.013556659
0.0043256446 -0.04758209 0.010016501
0.0055266009 -0.048634086 0.0090627968
0.0065426091 -0.047979135 0.0063326359
0.0078053894 -0.049062449 0.0050704777
0.0088162888 -0.048489586 0.0047684312
-0.021323241 -0.048257861 0.0041823387
-0.020015756 -0.04781542 0.0058994293
-0.018072763 -0.045713458 0.0061736703
-0.017055005 -0.045835327 0.00939852
-0.015342649 -0.04398226 0.011566162
-0.015115053 -0.046424806 0.013420343
-0.013986161 -0.046261918 0.016933709
-0.012365905 -0.044311158 0.018310398
-0.011595541 -0.045328021 0.020208061
-0.010526932 -0.045265809 0.021077603
-0.0095157064 -0.045463935 0.02187416
-0.0087022781 -0.046774741 0.021142989
-0.0074879737 -0.045997553 0.021713793
-0.0064159748 -0.045981154 0.021699756
-0.00529833 -0.045565639 0.021448642
-0.0042201099 -0.045366183 0.021406531
-0.003198616 -0.045846827 0.020557821
-0.0020893994 -0.044922087 0.01935032
-0.001034221 -0.044471502 0.019055098
0 -0.04605405 0.018536121
0.0010561676 -0.045415208 0.016410321
0.0020159213 -0.043342303 0.014547437
0.0032037084 -0.045919821 0.012029409
0.0042744284 -0.045950107 0.010065019
0.0053304592 -0.045841951 0.0082337558
0.0065985611 -0.047289688 0.006269455
0.0078159729 -0.048012402 0.0044708252
0.0087255538 -0.046899851 0.0044524372
-0.019655699 -0.045863301 0.0046401024
-0.018972568 -0.046873406 0.0056514442
-0.016747298 -0.043961655 0.0071095526
-0.016253857 -0.045510799 0.010427326
-0.015128352 -0.045385055 0.011968434
-0.013436699 -0.043410875 0.013554215
-0.013148177 -0.046018623 0.016433388
-0.011603252 -0.044303328 0.016933709
-0.01054182 -0.044275645 0.018416911
-0.0097855702 -0.045665998 0.020074189
-0.0083218645 -0.043689787 0.019492328
-0.0073460578 -0.04407635 0.020596594
-0.0065548173 -0.045883723 0.020788014
-0.005248786 -0.044089805 0.019791782
-0.0041894433 -0.043989155 0.019723296
-0.0031919973 -0.044687964 0.019105971
-0.002095527 -0.044006068 0.018324167
-0.0010537768 -0.044258628 0.017742306
0 -0.044999935 0.016410321
0.0010169671 -0.042712621 0.015012294
0.0021152962 -0.044421222 0.01295796
0.0032311103 -0.045235544 0.010679722
0.0041913837 -0.044009533 0.0085255206
0.005523474 -0.046397183 0.0056966841
0.006699251 -0.046894759 0.0041417181
-0.020306455 -0.046253596 0.004330039
-0.018528236 -0.044685747 0.0048885643
-0.017548729 -0.044968616 0.0059048831
-0.016054355 -0.043881904 0.0070897341
-0.014342096 -0.042001855 0.0096921921
-0.014002088 -0.044160433 0.011438847
-0.013131176 -0.044864856 0.012996554
-0.011323426 -0.042205498 0.015176147
-0.010782835 -0.044209626 0.015431345
-0.0096816523 -0.04410531 0.017022967
-0.0083599016 -0.042844497 0.016316891
-0.0074545019 -0.043662082 0.017127246
-0.0063636289 -0.043484803 0.018026352
-0.0052019134 -0.042655695 0.017098039
-0.0042385571 -0.043445211 0.01760909
-0.0032330311 -0.044184763 0.016575307
-0.0020822352 -0.042685825 0.015881687
-0.0010679379 -0.043785457 0.015186638
0 -0.042415269 0.014918953
0.0010776431 -0.04418337 0.013130248
0.0021299117 -0.043663189 0.01063329
0.003194636 -0.043660026 0.0069256723
0.0044549736 -0.04566348 0.0055523217
-0.018078411 -0.042537436 0.004244715
-0.01788971 -0.044724271 0.0044367313
-0.015641836 -0.041711561 0.0059048831
-0.014785419 -0.042244054 0.00730744
-0.014084426 -0.043336693 0.0094658136
-0.012502776 -0.041675918 0.011345863
-0.011759909 -0.042763308 0.01203233
-0.010824354 -0.043297417 0.012784958
-0.0094335005 -0.041926667 0.014273047
-0.0086468598 -0.043234296 0.01411584
-0.007470808 -0.042690329 0.014914811
-0.0064154551 -0.0427697 0.015079021
-0.0053503378 -0.042802703 0.014978796
-0.0042330669 -0.042330667 0.014998645
-0.0032129099 -0.042838797 0.014702171
-0.0021602961 -0.043205917 0.014479607
-0.0010531587 -0.042126343 0.013793021
0 -0.043512248 0.012203723
0.0010494576 -0.041978303 0.011055768
0.0020547262 -0.041094523 0.0073415339
0.0033567008 -0.04475601 0.0056202412
-0.016691795 -0.043398667 0.0043509901
-0.015126978 -0.042139437 0.0049687028
-0.013574534 -0.040723603 0.00730744
-0.012941131 -0.042058676 0.0092797875
-0.012082428 -0.042837698 0.010018945
-0.010547922 -0.041136898 0.010795116
-0.009555392 -0.041406699 0.011653155
-0.0086780973 -0.042305723 0.011712313
-0.0073528546 -0.040965904 0.011699528
-0.006497486 -0.042233657 0.012582809
-0.0053604445 -0.04181147 0.01239273
-0.0041748732 -0.040705014 0.012439966
-0.0033078194 -0.043001652 0.012212813
-0.0020799891 -0.040559787 0.011556476
-0.0010596063 -0.041324645 0.011158943
0 -0.04167033 0.010207087
0.0010566326 -0.04120867 0.0071381629
0.0022518549 -0.04391117 0.0040165186
-0.013996575 -0.040913068 0.0059717298
-0.013279871 -0.042052928 0.0073083639
-0.011558002 -0.039927643 0.0078358352
-0.010671802 -0.040552847 0.0089680851
-0.0097187934 -0.041034907 0.0096333027
-0.0083616627 -0.039717901 0.0095447302
-0.0076184398 -0.041357245 0.0097234845
-0.0064516929 -0.040860724 0.010354698
-0.0052403277 -0.03982649 0.01028043
-0.0043215472 -0.0410547 0.010458827
-0.0032324898 -0.040944871 0.0092261136
-0.0021230974 -0.040338852 0.0091980994
-0.0010862644 -0.041278046 0.0073895156
0 -0.040964462 0.0064462125
-0.012241667 -0.04117652 0.0052606761
-0.010925569 -0.040424608 0.0063838959
-0.009321698 -0.038322538 0.0074349046
-0.0087283179 -0.040368471 0.007358253
-0.0075156717 -0.039725695 0.0070258975
-0.0063111307 -0.038918644 0.0077045262
-0.0054197339 -0.040106036 0.0076385736
-0.0042734947 -0.03952983 0.0076511204
-0.0032310551 -0.03984968 0.0066800117
-0.0022446578 -0.041526172 0.0064573288
-0.0011188178 -0.04139626 0.0051300228
-0.010985108 -0.039546389 0.004247129
-0.010294819 -0.041179277 0.0057515502
-0.0087312637 -0.039290685 0.0056748986
-0.0077137435 -0.03967068 0.0056748986
-0.0068597975 -0.041158784 0.0061472654
-0.0056092087 -0.040386304 0.0062075257
-0.0044109761 -0.039698783 0.0061472654
-0.0034484046 -0.041380852 0.0044992864
0 0 0 1 0 0 0 1 0 0 0 1 0 0 0 0 0 623 1 0 0
