ply
format ascii 1.0
comment PCL generated
element vertex 607
property float x
property float y
property float z
element camera 1
property float view_px
property float view_py
property float view_pz
property float x_axisx
property float x_axisy
property float x_axisz
property float y_axisx
property float y_axisy
property float y_axisz
property float z_axisx
property float z_axisy
property float z_axisz
property float focal
property float scalex
property float scaley
property float centerx
property float centery
property int viewportx
property int viewporty
property float k1
property float k2
end_header
-0.012754567 -0.097785018 0.0041616261
-0.011723848 -0.098054007 0.0047917366
-0.011603271 -0.10675009 0.0048451424
-0.010763275 -0.1100246 0.0046959221
-0.0094575686 -0.10876204 0.0044389367
-0.009080939 -0.11934948 0.0045636594
-0.0072844969 -0.11169562 0.0052854419
-0.0059972289 -0.11034901 0.0048008561
-0.0048497268 -0.11154372 0.004255712
-0.01496652 -0.10476565 0.004116267
-0.013680772 -0.10374586 0.005523771
-0.014440157 -0.11945949 0.0057755709
-0.012444688 -0.11324666 0.0055470169
-0.0098350504 -0.099443302 0.0056144297
-0.0090813087 -0.10329989 0.0054751933
-0.0077434252 -0.10066453 0.0059579909
-0.0064562741 -0.097920157 0.0066589117
-0.0058138091 -0.10581133 0.0066503584
-0.0045077698 -0.10255177 0.0060452521
-0.0033503971 -0.10162871 0.0054936409
-0.002518781 -0.11460453 0.0046213269
-0.0011419161 -0.10391437 0.0040233135
0 -0.10223743 0.0041632056
0.0011046967 -0.10052739 0.0041566491
-0.016086876 -0.10341564 0.0044894814
-0.014494559 -0.10034695 0.004835397
-0.013910758 -0.1043307 0.005900234
-0.012342256 -0.10098211 0.0061573386
-0.010202794 -0.091825157 0.0069907606
-0.0098226769 -0.098226778 0.0064772367
-0.0082749268 -0.093092933 0.0062522888
-0.0071796789 -0.09231016 0.0063784122
-0.0066649611 -0.099974424 0.007581532
-0.005411257 -0.097402632 0.0081248283
-0.0041285367 -0.092892081 0.0064991415
-0.003410914 -0.10232743 0.0064429343
-0.0021808189 -0.09813685 0.0064605474
-0.001075904 -0.096831359 0.0055513978
0 -0.11373945 0.0048756301
0.0011110021 -0.099990189 0.0044304132
0.0022022342 -0.099100545 0.0043312013
0.0033457759 -0.10037328 0.0042406023
-0.018643493 -0.11061805 0.0045665503
-0.014266619 -0.090694927 0.0049332678
-0.014640709 -0.10023254 0.0058340728
-0.013107848 -0.097216539 0.0069907606
-0.011289872 -0.091345325 0.0097949505
-0.010758625 -0.095751762 0.010279655
-0.0096886652 -0.095810138 0.010038853
-0.0082450574 -0.091726266 0.0097949505
-0.0075592585 -0.096110567 0.0097028315
-0.0062503684 -0.092713796 0.011031389
-0.0053162365 -0.094629012 0.010717839
-0.0044287988 -0.098540768 0.0090464354
-0.0031411485 -0.093187407 0.0090788007
-0.0020637754 -0.091838002 0.008703351
-0.0010893337 -0.096950687 0.0063438416
0 -0.092490658 0.0063752532
0.0011929579 -0.10617324 0.0060563087
0.0023869658 -0.10621997 0.0057293177
0.0032250697 -0.095677063 0.0051060617
0.004417371 -0.098286502 0.0043954551
-0.019497056 -0.1072338 0.0042644143
-0.016083306 -0.094355389 0.005197227
-0.015009048 -0.094342589 0.0062217712
-0.013993032 -0.094722062 0.0081107318
-0.011964715 -0.087741248 0.011378735
-0.011779087 -0.094232693 0.011501402
-0.010639276 -0.093625627 0.011606425
-0.0091311475 -0.089282334 0.012218714
-0.0088643348 -0.097507685 0.011993974
-0.0073598465 -0.092523783 0.012207866
-0.0060736001 -0.089079469 0.013422161
-0.0055310279 -0.097346097 0.012094051
-0.0041731694 -0.091809727 0.011339784
-0.0030391882 -0.08914952 0.011571467
-0.0021784867 -0.095853411 0.0098481476
-0.0010358951 -0.091158763 0.0091406107
0 -0.094512977 0.0088155866
0.0011043196 -0.097180121 0.007281512
0.0020823716 -0.091624349 0.0062774718
0.0034645533 -0.1016269 0.0062287748
0.0043796841 -0.096353047 0.0051231682
0.0053318432 -0.093840443 0.0040242374
-0.020737536 -0.1061274 0.0046784878
-0.017116206 -0.093069367 0.0053235292
-0.016152423 -0.093684055 0.006536752
-0.015223624 -0.094603948 0.0081107318
-0.013031052 -0.087207809 0.011621565
-0.012916482 -0.093644492 0.01296109
-0.011835024 -0.093604282 0.013621032
-0.0099961655 -0.086966641 0.014766723
-0.0096125174 -0.092921004 0.016538978
-0.0084023988 -0.091376089 0.016411215
-0.0071539278 -0.088913105 0.016733021
-0.0065768529 -0.095364369 0.018139035
-0.0051722755 -0.08999759 0.016506821
-0.003991127 -0.086807013 0.014415741
-0.0032543726 -0.09437681 0.012392044
-0.0021187312 -0.092164807 0.011578202
-0.0010366145 -0.090185463 0.0095093846
0 -0.095986284 0.0090750456
0.0010421557 -0.090667546 0.008292675
0.0022095339 -0.096114725 0.0077204406
0.0034842361 -0.10104284 0.0069098473
0.0042578061 -0.092607282 0.0058294237
0.0054963804 -0.095637023 0.004829675
-0.020047536 -0.095782675 0.0049609542
-0.018939812 -0.095813163 0.0053345859
-0.017129801 -0.092072681 0.0063473284
-0.016275138 -0.093310788 0.0073021948
-0.014525832 -0.089230105 0.011559576
-0.014392522 -0.095212065 0.012709618
-0.013181283 -0.094465859 0.013869375
-0.010983071 -0.085867651 0.015483886
-0.010634231 -0.091454394 0.016697526
-0.0093997065 -0.089819424 0.021547794
-0.0083633475 -0.089905985 0.022453398
-0.0074659572 -0.091724619 0.023065478
-0.0062655252 -0.089805864 0.0235852
-0.0051308367 -0.088250391 0.022738695
-0.00440617 -0.094732657 0.021406621
-0.0031358765 -0.089895122 0.019476086
-0.002088231 -0.089793935 0.016464412
-0.0010893713 -0.093685925 0.013554722
0 -0.086426735 0.011335999
0.0010791774 -0.09280926 0.0092732012
0.0021641776 -0.093059637 0.0081248283
0.0030811529 -0.088326387 0.0080677271
0.0047519114 -0.10216609 0.0070707202
0.0054816352 -0.094284125 0.0057614446
0.0063052233 -0.090374865 0.0045381188
0.0075356355 -0.092580661 0.0041566491
-0.020765621 -0.092898831 0.0042923689
-0.021168927 -0.09996438 0.0057952702
-0.017991111 -0.089955553 0.0066359341
-0.01760198 -0.093510523 0.0071493387
-0.015075575 -0.08542826 0.011708051
-0.014986395 -0.09098883 0.012463599
-0.013933335 -0.091102578 0.013931364
-0.012065524 -0.085464135 0.01674512
-0.012152806 -0.093908049 0.020577788
-0.010892479 -0.09258607 0.022491693
-0.0091114901 -0.086052962 0.024408787
-0.0089734867 -0.095343299 0.025025874
-0.0074434737 -0.090385042 0.02477935
-0.0062927012 -0.089146599 0.025061339
-0.0055500399 -0.094350688 0.024576604
-0.0042232969 -0.08974506 0.023734182
-0.003092211 -0.087612644 0.022985965
-0.0022016661 -0.093570806 0.021076083
-0.0010492512 -0.089186348 0.018250227
0 -0.092405885 0.013460726
0.0010816377 -0.091939203 0.012123466
0.0020428959 -0.086823076 0.0092150867
0.0032679166 -0.092590973 0.008492589
0.0044609066 -0.094794266 0.0073081851
0.0053499499 -0.090949148 0.0059481263
0.0065299389 -0.092507467 0.0050573051
0.0076296544 -0.092645809 0.0043249428
-0.020748917 -0.091732055 0.0055378377
-0.019724499 -0.092047669 0.0069876313
-0.018734027 -0.092568129 0.0076213181
-0.016572857 -0.087007508 0.011153996
-0.015816685 -0.088573433 0.012286454
-0.015530835 -0.093185015 0.013621032
-0.013227033 -0.085466988 0.016380399
-0.013193963 -0.09235774 0.020173192
-0.011756711 -0.08977852 0.022498429
-0.010287104 -0.086411677 0.024245501
-0.0096836369 -0.090380616 0.025456905
-0.0082353428 -0.086471096 0.026289076
-0.0070458688 -0.084550425 0.025857687
-0.0061383606 -0.085937046 0.026090205
-0.0052085528 -0.087503694 0.025391638
-0.0042302059 -0.088834323 0.024576604
-0.0032863971 -0.092019118 0.024350256
-0.0021169693 -0.088912711 0.023290664
-0.0010277621 -0.086332016 0.022468358
0 -0.089816041 0.016869873
0.0010256139 -0.086151563 0.014353573
0.0021645883 -0.090912715 0.011695832
0.0032496986 -0.090991557 0.0098228157
0.004183901 -0.087861925 0.0080431998
0.0055928244 -0.093959458 0.0074112117
0.0066843187 -0.093580462 0.0054960251
0.0074042184 -0.088850625 0.0047435462
-0.02150345 -0.089239329 0.0041283965
-0.020852191 -0.091091156 0.0058074296
-0.020306589 -0.093635947 0.0075524747
-0.017846929 -0.087135002 0.0096103847
-0.017178671 -0.089114361 0.011564225
-0.015989257 -0.088473894 0.012643248
-0.014303927 -0.08480186 0.014662266
-0.01394734 -0.089048401 0.019431025
-0.013156872 -0.091001704 0.02137354
-0.011303691 -0.08529149 0.02371791
-0.010332237 -0.085757568 0.025201052
-0.0091501996 -0.084385179 0.026899517
-0.0081902742 -0.084974095 0.027957797
-0.0072173737 -0.085577436 0.027102113
-0.006169368 -0.085342929 0.027244627
-0.0050995201 -0.084652036 0.026853114
-0.0041198456 -0.085486799 0.025251836
-0.0031044562 -0.085889958 0.024776489
-0.0020853109 -0.086540401 0.024793535
-0.0010990847 -0.091224037 0.023780137
0 -0.084098414 0.019803077
0.0010689941 -0.088726513 0.015789062
0.0021577904 -0.089548305 0.013412327
0.0030904859 -0.085503444 0.011069536
0.0042848592 -0.088910826 0.009447366
0.005548758 -0.09210939 0.0083011091
0.0062513924 -0.0864776 0.0068169534
0.0077806567 -0.09225636 0.0055550039
0.0085536819 -0.088744447 0.0042560399
-0.021781348 -0.089303531 0.004902184
-0.021038208 -0.090796478 0.006306082
-0.01901044 -0.086603127 0.0075844526
-0.017622387 -0.085002109 0.010285079
-0.017465061 -0.089508437 0.011816263
-0.015288898 -0.083579309 0.012824535
-0.014842548 -0.086934932 0.016182035
-0.013633686 -0.085997105 0.020355791
-0.012674012 -0.086605757 0.02257511
-0.011463633 -0.085456178 0.024322182
-0.010288975 -0.0843696 0.02689907
-0.0091649359 -0.083502755 0.027779669
-0.0082913125 -0.084985957 0.02833119
-0.0071348203 -0.083579324 0.028185755
-0.0060674199 -0.082921416 0.028103232
-0.0051044319 -0.08371269 0.027662754
-0.0041151932 -0.084361464 0.026102334
-0.0029871855 -0.081649743 0.02577439
-0.0021723574 -0.089066654 0.025274366
-0.0010856509 -0.089023381 0.023996949
0 -0.088284016 0.0221259
0.0010745405 -0.088112324 0.017511755
0.0020674667 -0.084766142 0.014555335
0.0032660135 -0.089271039 0.012182921
0.0043708398 -0.089602225 0.010165155
0.0052394192 -0.085926481 0.009501785
0.0065791602 -0.089915194 0.0076006651
0.0077815782 -0.091155633 0.0057988465
0.0086085554 -0.088237695 0.0054907501
-0.022631234 -0.091656491 0.0052731633
-0.020543734 -0.087581173 0.0067020059
-0.018297534 -0.082338907 0.0092101693
-0.018804429 -0.089597568 0.010384768
-0.016544877 -0.083758436 0.012039185
-0.016331952 -0.088192537 0.014071286
-0.015058011 -0.087121345 0.01826489
-0.013127846 -0.081796572 0.021769047
-0.012889524 -0.087004282 0.023031861
-0.011295093 -0.083172955 0.024519056
-0.0101315 -0.082065143 0.027070016
-0.0093060015 -0.08375401 0.027635545
-0.0082308371 -0.083337218 0.028388828
-0.0070885341 -0.082024463 0.028388828
-0.0063009262 -0.085062504 0.028454065
-0.0051260511 -0.083042026 0.027830303
-0.0040751351 -0.082521483 0.026102334
-0.0030931686 -0.083515555 0.025718808
-0.0020794745 -0.084218711 0.025074929
-0.0010457826 -0.084708385 0.023983896
0 -0.086519085 0.021961868
0.0010427347 -0.08446151 0.018774986
0.0021118654 -0.085530549 0.01465413
0.0032647424 -0.088148043 0.012617469
0.0040921071 -0.082865164 0.011297822
0.0054350006 -0.088047005 0.0099845529
0.0065192748 -0.088010207 0.0079888403
0.0076829055 -0.08890219 0.0059481263
0.0088412538 -0.08951769 0.0045956969
-0.024039686 -0.09157975 0.0041882396
-0.022348331 -0.089393325 0.0054342449
-0.020246113 -0.085246786 0.0071784556
-0.019679399 -0.087463997 0.010001749
-0.018272208 -0.085986853 0.01165241
-0.017242091 -0.086210452 0.012193143
-0.015807459 -0.084306441 0.015496045
-0.014261324 -0.081493273 0.018900484
-0.013963914 -0.085931778 0.021769047
-0.012651192 -0.08434128 0.024362266
-0.011281486 -0.082047172 0.026288837
-0.010380274 -0.083042189 0.027655125
-0.009231952 -0.082061797 0.027886033
-0.008313247 -0.083132468 0.028879344
-0.0073401197 -0.083887085 0.028454065
-0.0061081173 -0.081441566 0.028823763
-0.0051775551 -0.082840882 0.028185755
-0.00420888 -0.084177598 0.027434349
-0.003065248 -0.081739947 0.02597639
-0.0020417357 -0.081669427 0.024954528
-0.0010708626 -0.085669003 0.023272216
0 -0.081053361 0.021961868
0.0010843157 -0.086745255 0.017759711
0.002216564 -0.088662557 0.014548123
0.0031413008 -0.083768018 0.013241053
0.0043801148 -0.087602295 0.012123555
0.0054872516 -0.087796025 0.01004523
0.0064151734 -0.085535645 0.0077777803
0.0078234635 -0.089411005 0.0065963566
0.0089736972 -0.089736968 0.0055550039
-0.023033703 -0.086650595 0.004154861
-0.021499809 -0.084924251 0.0055696368
-0.021679502 -0.090141088 0.0075844526
-0.018919656 -0.083036266 0.010001749
-0.017743433 -0.082454778 0.011653066
-0.017267536 -0.085258454 0.012298554
-0.015251881 -0.080326572 0.015556097
-0.015044021 -0.084891267 0.018324941
-0.014063078 -0.085460238 0.021804571
-0.012368071 -0.081423134 0.022924364
-0.011202022 -0.080450878 0.025253832
-0.010479721 -0.082789801 0.027034491
-0.0088450564 -0.077639945 0.027924091
-0.0083550196 -0.082505815 0.028559834
-0.0071568978 -0.080770701 0.028409034
-0.0060414141 -0.079545289 0.028716236
-0.0052422383 -0.082827367 0.028236926
-0.0040316801 -0.079625681 0.027681321
-0.0030327963 -0.079863638 0.026273936
-0.0020812356 -0.082208805 0.025652289
-0.0010286034 -0.081259668 0.02416122
0 -0.085480042 0.023017019
0.001040986 -0.082237899 0.019002289
0.0020667592 -0.081636988 0.015001833
0.0032755996 -0.086257458 0.014040381
0.0042893724 -0.084715106 0.012735128
0.0050687729 -0.080086611 0.011142224
0.0066475654 -0.087526277 0.0082781017
0.0077882656 -0.087896138 0.0059252381
0.0088526262 -0.087419681 0.0045879781
-0.022239218 -0.086732946 0.0054505467
-0.020440251 -0.083912604 0.0082674026
-0.018862927 -0.081739359 0.0099648833
-0.018739879 -0.085982971 0.011636376
-0.016844152 -0.082115233 0.011999279
-0.016109545 -0.083769634 0.015126079
-0.01453362 -0.080973029 0.018324941
-0.013230649 -0.079383895 0.021354765
-0.0130243 -0.084657952 0.022818267
-0.011160586 -0.079138704 0.024565339
-0.010281845 -0.080198392 0.026757956
-0.0094615137 -0.081999786 0.027286887
-0.0083513064 -0.081425235 0.027812928
-0.0070534647 -0.07859575 0.028122663
-0.0062180492 -0.080834642 0.028249979
-0.0050430419 -0.078671455 0.02801469
-0.0040781102 -0.079523146 0.027165443
-0.0031376446 -0.081578761 0.026656449
-0.0020685738 -0.080674373 0.026205033
-0.0010115539 -0.078901201 0.024231672
0 -0.081100151 0.02317223
0.0010249598 -0.079946868 0.018526912
0.0021354833 -0.083283849 0.015193015
0.0031830682 -0.082759775 0.013994366
0.004094867 -0.079849899 0.0130274
0.0054071913 -0.084352188 0.012152165
0.0067189257 -0.087346032 0.0085431933
0.0075904648 -0.084579468 0.006218642
0.0089568552 -0.087329336 0.0055788755
-0.02190032 -0.084316231 0.0052292049
-0.020257721 -0.082097083 0.0076236725
-0.019665262 -0.084123626 0.0098082721
-0.018350963 -0.083119065 0.010508418
-0.017031016 -0.081961766 0.011971503
-0.016116161 -0.08272963 0.013886869
-0.014434839 -0.079391614 0.018305779
-0.014163414 -0.083890989 0.020961463
-0.012718676 -0.081611499 0.022067398
-0.011352121 -0.079464845 0.022988886
-0.010540442 -0.081161402 0.024908334
-0.0092121754 -0.078815281 0.025979906
-0.0080898842 -0.077865139 0.026838124
-0.0072528832 -0.079781719 0.026838124
-0.0062920772 -0.080748327 0.027074844
-0.0051384969 -0.079132855 0.02673015
-0.0042483783 -0.081781283 0.026412189
-0.0030007993 -0.077020518 0.026214391
-0.0020429548 -0.07865376 0.023904085
-0.0010623222 -0.081798807 0.023205191
0 -0.079115756 0.022062689
0.0010505265 -0.080890544 0.017761648
0.002161748 -0.083227299 0.015123695
0.0030539681 -0.078385182 0.013994366
0.004295798 -0.082694106 0.013160706
0.0053151185 -0.081852823 0.011718839
0.0064321728 -0.082546219 0.0085584521
0.0078043826 -0.085848212 0.0060945451
0.0088087404 -0.08478412 0.0045879781
-0.021678252 -0.082377367 0.0044409633
-0.021375559 -0.085502237 0.0054728687
-0.01944487 -0.08210057 0.0087251067
-0.01750982 -0.07827919 0.009858042
-0.01727446 -0.082053691 0.010605901
-0.015417797 -0.078116842 0.012322664
-0.014915889 -0.080971971 0.015337586
-0.013662455 -0.079872817 0.018360466
-0.012412693 -0.078613728 0.020926297
-0.011777608 -0.081372567 0.021937966
-0.010426129 -0.079238586 0.023025304
-0.0091301827 -0.077099323 0.023917556
-0.00845249 -0.080298655 0.024306685
-0.0073782355 -0.080106556 0.025409818
-0.0063158241 -0.080000438 0.02541554
-0.0053289509 -0.08100006 0.025093973
-0.0040811775 -0.077542372 0.024989516
-0.0030339917 -0.076861121 0.024387866
-0.0021577135 -0.08199311 0.023819208
-0.0010270498 -0.078055792 0.02322036
0 -0.081415914 0.021992087
0.0010546654 -0.080154575 0.018190354
0.002062707 -0.078382865 0.015673429
0.0032652745 -0.082720287 0.014200389
0.0043032905 -0.081762522 0.013772756
0.005221731 -0.079370312 0.010847002
0.0066669425 -0.084447943 0.0084692836
0.007784504 -0.084517471 0.0058647394
0.0086024608 -0.081723377 0.0041129589
-0.022097545 -0.082865797 0.0040461123
-0.021005372 -0.082915939 0.0054526627
-0.01920261 -0.080010876 0.0084846914
-0.018519441 -0.081703417 0.0097069442
-0.016579989 -0.077718705 0.010441154
-0.015977304 -0.079886526 0.012314588
-0.015094578 -0.080863819 0.014730275
-0.013407809 -0.077352747 0.017157704
-0.012724583 -0.079528645 0.019795686
-0.01208677 -0.082409807 0.020777971
-0.01039553 -0.077966474 0.021933079
-0.0094751474 -0.078959569 0.022988886
-0.0080440938 -0.075413384 0.022901684
-0.0070514842 -0.075551622 0.023480713
-0.0061270632 -0.076588288 0.02356109
-0.004996988 -0.07495483 0.023445189
-0.0041875523 -0.07851661 0.023433983
-0.0032615487 -0.081538722 0.023280919
-0.0021468305 -0.080506153 0.023127615
-0.001035249 -0.07764367 0.021976918
0 -0.080381274 0.020063162
0.0010183484 -0.076376133 0.017374814
0.0021244166 -0.079665624 0.014798015
0.0032085108 -0.080212779 0.013439834
0.0041118027 -0.077096306 0.012353182
0.0054449402 -0.081674106 0.010282904
0.0066926326 -0.083657905 0.0083789229
0.0076068449 -0.081501909 0.0055932701
-0.020769006 -0.080889814 0.0045498908
-0.020075947 -0.082534455 0.0055308044
-0.01840861 -0.080131598 0.0088136792
-0.017135756 -0.079252876 0.0097237229
-0.016093237 -0.079393305 0.011752099
-0.014542646 -0.076868273 0.013887554
-0.013929573 -0.079291418 0.015556097
-0.01258431 -0.077603251 0.018324941
-0.011322806 -0.076171607 0.020350218
-0.01078622 -0.079818033 0.020865053
-0.0095414519 -0.078451946 0.021405786
-0.0085009094 -0.078633413 0.021578401
-0.0075481599 -0.079794839 0.022760481
-0.0063625528 -0.078471489 0.022890717
-0.0052444478 -0.077617832 0.022805452
-0.0043549137 -0.080565907 0.022612989
-0.0031545553 -0.077812366 0.022066683
-0.0020939549 -0.077476338 0.02192238
-0.0010751074 -0.079557948 0.021394759
0 -0.075258821 0.017558306
0.001051304 -0.077796504 0.016400397
0.0021258523 -0.078656539 0.013965636
0.0030369204 -0.074910708 0.012911171
0.0044568377 -0.0824515 0.011667699
0.0055292277 -0.08183258 0.0096684992
0.0064157895 -0.079128072 0.0072295368
-0.019737519 -0.080046616 0.0042347908
-0.018377041 -0.078913182 0.007183373
-0.017393664 -0.079358593 0.0084711909
-0.015480858 -0.075340182 0.010180384
-0.01510807 -0.078777798 0.012920171
-0.01372532 -0.077072956 0.01461038
-0.012492045 -0.075993277 0.016337842
-0.011742058 -0.077924572 0.01813361
-0.010707058 -0.07816153 0.018950731
-0.0094717471 -0.076826401 0.020253748
-0.0085968049 -0.078445852 0.020495564
-0.0073726657 -0.076886378 0.020667344
-0.0062307883 -0.075807929 0.02122584
-0.0053436463 -0.078017242 0.021014124
-0.0041334764 -0.075435951 0.021058291
-0.003116908 -0.075844765 0.020518363
-0.0021530704 -0.078587078 0.020250469
-0.0010323363 -0.075360551 0.017439485
0 -0.077782311 0.016281575
0.0010732459 -0.078346953 0.01461035
0.0020636939 -0.075324833 0.013530284
0.0031804303 -0.077390477 0.011901349
0.0044252286 -0.080760427 0.010760278
0.0053820335 -0.078577697 0.0089311898
0.0066741481 -0.081202142 0.0070042312
-0.019211741 -0.081367373 0.0052783191
-0.017143197 -0.077144384 0.0068794191
-0.016397092 -0.078706034 0.0094084442
-0.015331324 -0.078846805 0.01069507
-0.013603458 -0.075342223 0.013011247
-0.012999237 -0.07799542 0.014293015
-0.011982785 -0.078432769 0.015805215
-0.010240808 -0.073733814 0.016850382
-0.0096152145 -0.076921716 0.018216252
-0.0083288979 -0.074960083 0.018363506
-0.0072473753 -0.07454443 0.018757194
-0.006429377 -0.07715252 0.019652814
-0.0053153876 -0.07654158 0.019096613
-0.0041321698 -0.074379049 0.018795878
-0.003194968 -0.07667923 0.017842114
-0.002095805 -0.075448975 0.016961336
-0.0010516926 -0.075721867 0.015815705
0 -0.077156611 0.014151394
0.0010163463 -0.073176928 0.013465762
0.0021564155 -0.077630952 0.012187451
0.0032005487 -0.076813169 0.010763049
0.0042766696 -0.076980047 0.0092008412
0.0055431123 -0.079820819 0.0062013566
0.0066889571 -0.080267482 0.0059785545
-0.01734354 -0.076961949 0.0057261586
-0.016414985 -0.07769759 0.0071848035
-0.014644099 -0.074266501 0.0093200207
-0.014016548 -0.076551914 0.010575205
-0.012976778 -0.076779269 0.012858897
-0.011474361 -0.074061781 0.013514191
-0.010701986 -0.075984098 0.014250755
-0.0096015492 -0.07574556 0.014761299
-0.0084290253 -0.074807592 0.01559791
-0.0073786736 -0.074840829 0.015512794
-0.0062563913 -0.074033961 0.016732037
-0.0052354448 -0.074343316 0.015654117
-0.0042252112 -0.0749975 0.015654117
-0.0031378171 -0.074261673 0.015862763
-0.0020627321 -0.073226988 0.014626563
-0.0010523284 -0.074715309 0.013578176
0 -0.074344687 0.012713969
0.0010651762 -0.075627513 0.011708558
0.0021427006 -0.076065868 0.010664463
0.0032395774 -0.076669998 0.0087249875
0.0044588647 -0.079144843 0.006752193
0.0056010433 -0.079534814 0.0052261651
0.0065304912 -0.077277474 0.004445672
-0.015942115 -0.074396536 0.0044787824
-0.014834395 -0.074171968 0.0069978833
-0.014122426 -0.076043829 0.0090905726
-0.012378591 -0.072208449 0.010213673
-0.011752687 -0.07478983 0.011991143
-0.010868077 -0.076076537 0.012517273
-0.0093986662 -0.073100738 0.012968481
-0.0086228689 -0.0754501 0.013499737
-0.0074087307 -0.074087307 0.013507217
-0.0062875315 -0.073354535 0.014434993
-0.005326869 -0.074576169 0.013311327
-0.0043026926 -0.075297117 0.013002962
-0.0031568161 -0.07365904 0.01332733
-0.0021693229 -0.075926304 0.013265699
-0.0010467117 -0.073269822 0.012911171
0 -0.075506784 0.011569113
0.0010728991 -0.075102933 0.010333657
0.0021559892 -0.075459622 0.0083658099
0.0033070892 -0.077165417 0.0058474541
0.0045722416 -0.080014229 0.0052233934
-0.015524158 -0.076511927 0.0044076443
-0.013673982 -0.07257729 0.0067376196
-0.012834271 -0.073797062 0.0090199113
-0.011967751 -0.075070441 0.010181516
-0.010544076 -0.072754122 0.01043576
-0.0097891996 -0.075050533 0.010450214
-0.0084573291 -0.072944462 0.011309922
-0.0073672757 -0.072620288 0.01175338
-0.0066030878 -0.075935513 0.012086451
-0.0053801858 -0.07424657 0.011606902
-0.0042220699 -0.072830707 0.011849225
-0.0031887915 -0.073342204 0.011599213
-0.0020915233 -0.072157554 0.010933965
-0.0010484752 -0.072344787 0.010796845
0 -0.075317748 0.0085146725
0.0010909574 -0.075276062 0.0064841509
0.0022388578 -0.077240594 0.0052730739
-0.013196522 -0.074780293 0.0066439807
-0.011573482 -0.071545161 0.007183373
-0.010797853 -0.073425405 0.0074242055
-0.0095303999 -0.07200747 0.0084116459
-0.0084632505 -0.071937628 0.0090343654
-0.0075491494 -0.073334597 0.0097357035
-0.0064035151 -0.072573178 0.010034472
-0.0053713038 -0.073049739 0.0097357035
-0.0043979054 -0.074764393 0.010222137
-0.0031664942 -0.071773872 0.0084086955
-0.0021443306 -0.072907239 0.0082536936
-0.0011249542 -0.076496892 0.0059502423
0 -0.074526854 0.0053580105
-0.0121985 -0.074299961 0.0043940544
-0.011012098 -0.073781058 0.0043378472
-0.0096538924 -0.071867868 0.005551517
-0.008832288 -0.073970415 0.0054111481
-0.0075038415 -0.071822487 0.0058415532
-0.0065425201 -0.073058143 0.0055214465
-0.0055839741 -0.074825257 0.0049690008
-0.004367237 -0.073151216 0.005025208
-0.0033061667 -0.073837727 0.0049784184
-0.0022634398 -0.075825237 0.0049784184
0 0 0 1 0 0 0 1 0 0 0 1 0 0 0 0 0 607 1 0 0
