ply
format ascii 1.0
comment PCL generated
element vertex 614
property float x
property float y
property float z
element camera 1
property float view_px
property float view_py
property float view_pz
property float x_axisx
property float x_axisy
property float x_axisz
property float y_axisx
property float y_axisy
property float y_axisz
property float z_axisx
property float z_axisy
property float z_axisz
property float focal
property float scalex
property float scaley
property float centerx
property float centery
property int viewportx
property int viewporty
property float k1
property float k2
end_header
-0.0089207273 -0.057984728 0.0044633448
-0.0076032812 -0.056481518 0.0044953227
-0.0064263055 -0.055694651 0.0045314729
-0.0057142782 -0.059428498 0.0043522716
-0.0044010412 -0.057213534 0.0044562817
-0.0032157777 -0.055740148 0.0048204362
-0.0021846388 -0.056800608 0.0044045448
-0.001077636 -0.056037076 0.0040568709
-0.011543219 -0.05887042 0.0045334697
-0.011891601 -0.067385741 0.0052871406
-0.009104006 -0.058038041 0.0058108866
-0.0080514634 -0.058660664 0.0061680675
-0.0077775111 -0.066108845 0.00598979
-0.0058600334 -0.059772346 0.0057122409
-0.0043954188 -0.056041591 0.0057184696
-0.0038389978 -0.065262966 0.0056664944
-0.0023238417 -0.059257966 0.0053210557
-0.0011122123 -0.056722827 0.0049640536
0 -0.056429949 0.0041537881
0.0010513637 -0.053619545 0.0041537881
-0.015520578 -0.06466908 0.0041979253
-0.012131164 -0.055141658 0.0054470301
-0.011638743 -0.058193717 0.0068630874
-0.0099713597 -0.055396445 0.0080192387
-0.008549815 -0.053436346 0.0080755353
-0.0077770147 -0.05555011 0.0091485381
-0.0065359673 -0.054466397 0.0080285966
-0.0051639848 -0.051639851 0.0077418387
-0.0046041845 -0.057552308 0.0076545179
-0.0032987483 -0.054979142 0.0068697929
-0.0021593878 -0.053984698 0.0062559843
-0.0012854193 -0.064270966 0.0058108866
0 -0.054659989 0.0047766566
0.0011017276 -0.055086378 0.0045902729
0.0021507964 -0.053769909 0.0040109754
-0.016437003 -0.053694211 0.0042147636
-0.017512109 -0.06129238 0.0046416223
-0.015296117 -0.057654597 0.0051264167
-0.012303509 -0.050239328 0.0067883432
-0.011906588 -0.053038437 0.0080570579
-0.01095314 -0.053670388 0.0097426772
-0.0091243191 -0.049676847 0.011296034
-0.0088041462 -0.053925395 0.011638552
-0.0073964517 -0.051775161 0.011484355
-0.006126204 -0.050030667 0.011454344
-0.0055979639 -0.054860044 0.010673761
-0.0043344572 -0.053097095 0.010723382
-0.0031525048 -0.05149091 0.0096865594
-0.0022336412 -0.054724209 0.007660985
-0.0011083577 -0.054309525 0.0068452358
0 -0.055866648 0.0054698884
0.0012363032 -0.06057886 0.0051743686
0.002141163 -0.052458487 0.0044648051
-0.017637992 -0.052913975 0.0040593445
-0.018661629 -0.059717216 0.0048184395
-0.015669035 -0.053722408 0.0059078634
-0.013683378 -0.05052324 0.0076400042
-0.013097258 -0.052389033 0.0094193518
-0.011814282 -0.051553231 0.010539204
-0.010268268 -0.049287688 0.011927336
-0.0098057836 -0.052297514 0.012819856
-0.0085152676 -0.051091604 0.013144881
-0.007339763 -0.050329801 0.013101816
-0.006443298 -0.051546384 0.012980342
-0.0052660792 -0.050554361 0.011824667
-0.0042209714 -0.050651655 0.011848718
-0.0032972889 -0.052756622 0.011472821
-0.0020824729 -0.049979348 0.0094636977
-0.0010673999 -0.051235192 0.0091737211
0 -0.051639281 0.0063316524
0.0010632225 -0.051034678 0.0061899126
0.0023967994 -0.057523184 0.0048386157
0.0034714614 -0.055543382 0.0044014156
-0.018641083 -0.051537111 0.0040384531
-0.018933732 -0.055617835 0.0049935579
-0.016421299 -0.051453404 0.0060281456
-0.014415356 -0.048394412 0.0078211725
-0.013872291 -0.050153669 0.0096443892
-0.012711021 -0.049784832 0.010746896
-0.011593996 -0.049537983 0.012753576
-0.01077618 -0.050648045 0.013203323
-0.0097443555 -0.050887194 0.01364693
-0.0084441341 -0.049609289 0.014230639
-0.007559346 -0.050755609 0.013941735
-0.0063550826 -0.049781483 0.013925314
-0.0051885974 -0.048772819 0.013309389
-0.0042025871 -0.049380396 0.013333559
-0.0031690854 -0.049649004 0.012677103
-0.0020999177 -0.049348067 0.011720061
-0.0010908458 -0.051269751 0.011460394
0 -0.048093468 0.0091978908
0.0011067123 -0.052015476 0.007334888
0.0021777956 -0.051178198 0.005132705
0.0032635548 -0.051129024 0.0046193898
0.0045535695 -0.053504441 0.0041946471
-0.019345028 -0.052345373 0.0046537817
-0.018177945 -0.052261595 0.0054825246
-0.015319129 -0.046978664 0.0067618489
-0.01491785 -0.049015794 0.0096851885
-0.014446114 -0.051117018 0.011693239
-0.01224819 -0.046951398 0.012819856
-0.011800476 -0.049347449 0.013632208
-0.010738089 -0.049395211 0.014529943
-0.0091481376 -0.04675715 0.015286267
-0.008658288 -0.04978516 0.015527993
-0.0074500092 -0.048957203 0.015635133
-0.0061911866 -0.047465764 0.015735745
-0.0055962182 -0.051485211 0.015524
-0.0042973175 -0.04941915 0.015566647
-0.0031892566 -0.048901938 0.014218867
-0.0022249422 -0.051173672 0.012838632
-0.0010266451 -0.047225673 0.012232572
0 -0.049541414 0.010642022
0.0010903712 -0.050157074 0.0089772046
0.0021176024 -0.048704855 0.0069049597
0.003308286 -0.050727054 0.0058511794
0.0043341462 -0.049842682 0.0055502653
0.0055674468 -0.051220514 0.004314214
-0.020196673 -0.050491687 0.0047736764
-0.019195048 -0.050810423 0.0054825246
-0.016523609 -0.046472654 0.007080406
-0.016521435 -0.049564306 0.0098279417
-0.015315409 -0.049228102 0.01283884
-0.013606964 -0.047101028 0.013935506
-0.012705875 -0.047647033 0.015264392
-0.011822443 -0.048364542 0.015915424
-0.010043887 -0.045197498 0.017031431
-0.0095830513 -0.047915261 0.017471284
-0.0085061146 -0.047846898 0.019054443
-0.0072884015 -0.046854012 0.01918292
-0.0065015522 -0.048761643 0.018928766
-0.0053278669 -0.047950808 0.017157584
-0.004161105 -0.046812434 0.017145693
-0.0032844937 -0.049267408 0.016211152
-0.0021030488 -0.0473186 0.015112549
-0.0010306295 -0.046378329 0.014464527
0 -0.04839623 0.012632072
0.0010349315 -0.046571922 0.01139462
0.0021940588 -0.049366329 0.0085563064
0.0032943096 -0.049414646 0.0070822537
0.0041761314 -0.04698148 0.0063515902
0.0055050887 -0.049545802 0.0049080849
-0.020638842 -0.04779521 0.0043668449
-0.020762416 -0.050752573 0.0053718984
-0.018197624 -0.047099732 0.0067927539
-0.017202564 -0.047307048 0.0098279417
-0.016251594 -0.047671344 0.012878746
-0.014422399 -0.04532754 0.014133066
-0.013647711 -0.046192251 0.016770214
-0.012903471 -0.047312725 0.017493278
-0.011300517 -0.045202069 0.019322306
-0.010748899 -0.047295153 0.02029705
-0.0094744321 -0.046319444 0.020701885
-0.0084129479 -0.046271212 0.020697653
-0.0076102549 -0.047835886 0.020740867
-0.0064029791 -0.046955179 0.020726085
-0.0051126666 -0.044991467 0.020485312
-0.0043079476 -0.047387421 0.019946575
-0.0031715734 -0.046516411 0.018522114
-0.0021099299 -0.046418458 0.016955256
-0.0010624297 -0.04674691 0.015681356
0 -0.045122944 0.01494047
0.0010764912 -0.047365613 0.01274395
0.0022515133 -0.049533289 0.011060059
0.0031364814 -0.046001725 0.0085563064
0.0044444343 -0.048888776 0.0075556338
0.0056214482 -0.049468745 0.0060989261
0.0065269736 -0.047864471 0.0042217374
-0.021789242 -0.049312491 0.0052819848
-0.01956878 -0.046747647 0.0068471134
-0.018033633 -0.045614481 0.0093537569
-0.016978433 -0.045629539 0.011906415
-0.015145447 -0.043416947 0.01371938
-0.014939465 -0.0458855 0.01615265
-0.013916841 -0.04603263 0.018158883
-0.012124477 -0.043446042 0.019271314
-0.01161554 -0.045406204 0.019824535
-0.010721481 -0.046102371 0.02139464
-0.0096226251 -0.045974765 0.021924406
-0.0088797566 -0.047728691 0.021713138
-0.0075651999 -0.046471942 0.022129655
-0.0064061545 -0.045910776 0.02215153
-0.0053568296 -0.046068735 0.022064716
-0.0042931004 -0.04615083 0.021171927
-0.0032071639 -0.045969348 0.020185143
-0.0021298972 -0.045792788 0.019485325
-0.0010244602 -0.044051785 0.018689603
0 -0.046366882 0.016881675
0.0010828432 -0.046562254 0.015112758
0.0019985822 -0.042969517 0.012685597
0.0032560879 -0.046670593 0.010869682
0.0043214723 -0.046455827 0.0093764365
0.0053343996 -0.04587584 0.0076448619
0.0065734643 -0.047109827 0.0057221651
-0.020469094 -0.045247469 0.0053969026
-0.019149721 -0.044682685 0.007937938
-0.01861928 -0.046000574 0.011021584
-0.016556304 -0.043460302 0.012861222
-0.015873894 -0.044446904 0.014220059
-0.015258169 -0.045774505 0.016803801
-0.013293294 -0.042947568 0.01880762
-0.0132311 -0.046308849 0.019625932
-0.012073356 -0.04609827 0.021407038
-0.010543033 -0.044280741 0.022368997
-0.0094985608 -0.044326622 0.024318695
-0.0081618009 -0.042849455 0.023832649
-0.0070778178 -0.042466909 0.023801565
-0.0061848196 -0.043293741 0.023649156
-0.0050677829 -0.042569377 0.023369789
-0.0040970296 -0.04301881 0.022475719
-0.0032043676 -0.044861149 0.021769106
-0.0021496194 -0.045142006 0.02156508
-0.001065966 -0.044770572 0.019817084
0 -0.045091625 0.017943352
0.0010250933 -0.043053914 0.015975416
0.0021764229 -0.045704879 0.013247102
0.0032505759 -0.045508064 0.01139462
0.0041494216 -0.043568928 0.0097507238
0.0055789575 -0.046863243 0.0077255666
0.0066999788 -0.046899855 0.0055156946
0.0074789049 -0.044873431 0.004111886
-0.022089737 -0.045283966 0.0040980577
-0.020407565 -0.044037379 0.0056660175
-0.020130843 -0.045853589 0.0093414187
-0.018035771 -0.043498039 0.011788517
-0.017090032 -0.043793209 0.013336778
-0.016077995 -0.043946519 0.014868826
-0.014166416 -0.041487362 0.018046498
-0.013947706 -0.043988921 0.019768327
-0.013257046 -0.045294911 0.020908982
-0.011289408 -0.042078707 0.022597611
-0.010348659 -0.042429507 0.024452567
-0.0092177363 -0.041991916 0.026514411
-0.0082871262 -0.042471524 0.026318938
-0.0071471347 -0.041861791 0.026616365
-0.0061925929 -0.042316053 0.026599944
-0.0051615792 -0.042324953 0.024272561
-0.0040667825 -0.041684523 0.023520112
-0.0030900042 -0.042230058 0.022530913
-0.0021141407 -0.043339886 0.021769106
-0.0010915943 -0.044755369 0.020375788
0 -0.041353334 0.019448817
0.0010795235 -0.044260465 0.017389894
0.002144712 -0.043966599 0.0146617
0.0031526012 -0.043085553 0.012453914
0.0043259002 -0.044340476 0.010510206
0.0054690908 -0.044846546 0.0084344149
0.006354895 -0.04342512 0.0061841607
0.0077771526 -0.045551896 0.0052054524
0.0090740668 -0.046504594 0.0045227408
-0.021588659 -0.043177318 0.0041898489
-0.021330414 -0.044906132 0.0060363412
-0.01888557 -0.041967932 0.0093414187
-0.017438458 -0.041031662 0.011561185
-0.017540509 -0.043851271 0.013109684
-0.015172554 -0.040460143 0.015583724
-0.014580832 -0.041659519 0.018382788
-0.01385029 -0.042616278 0.019993663
-0.012462749 -0.041542497 0.022206366
-0.01140832 -0.041484799 0.023362666
-0.010196582 -0.04078633 0.026126742
-0.0093423314 -0.041521475 0.027333677
-0.0083158938 -0.041579466 0.02715674
-0.007164638 -0.040940788 0.027584255
-0.006238916 -0.041592773 0.027864069
-0.0052578188 -0.042062551 0.026782691
-0.0041122125 -0.041122124 0.025951773
-0.0030645684 -0.040860914 0.024008721
-0.0020967114 -0.041934226 0.023213953
-0.0010419342 -0.041677367 0.022379696
0 -0.043432157 0.021738321
0.0010610461 -0.042441845 0.019384176
0.0020087368 -0.040174734 0.016513497
0.0032043552 -0.042724736 0.013543725
0.0042772349 -0.042772345 0.011874437
0.0051355716 -0.041084573 0.0097990632
0.0065985457 -0.043990303 0.0078972578
0.0077060619 -0.044034638 0.0060130358
0.0088395188 -0.044197593 0.0050702691
-0.022158837 -0.043209732 0.0047050714
-0.020748209 -0.042588428 0.0063373744
-0.018785413 -0.040701732 0.0096873343
-0.018660055 -0.042808361 0.011561185
-0.016827786 -0.041017726 0.013109684
-0.015933119 -0.041426107 0.014868826
-0.0148179 -0.041278437 0.01824522
-0.013567437 -0.040702313 0.02025792
-0.012823936 -0.041677792 0.02243039
-0.011127498 -0.039452039 0.024004102
-0.010179054 -0.039698314 0.026399285
-0.0093233194 -0.040401049 0.027751803
-0.0084033571 -0.040966369 0.028079033
-0.0073762159 -0.041096058 0.028341353
-0.0062844953 -0.04084922 0.028339356
-0.0051101269 -0.039858989 0.02687797
-0.0040127235 -0.039124053 0.02580893
-0.0031255791 -0.040632527 0.023925513
-0.0020123837 -0.039241482 0.023183256
-0.0010587567 -0.041291509 0.022379696
0 -0.041824173 0.021372944
0.0010251357 -0.039980292 0.019384176
0.002199057 -0.042881612 0.016938835
0.0031383231 -0.040798202 0.014183968
0.0040804478 -0.039784364 0.012692273
0.0053188768 -0.041487239 0.01000759
0.0065153264 -0.042349622 0.008245945
0.0075614071 -0.04212784 0.0065397322
0.0090970034 -0.044347893 0.0055709481
-0.022217458 -0.042213172 0.0046603084
-0.020601073 -0.041202147 0.0063373744
-0.019504847 -0.0411769 0.0093414187
-0.017977841 -0.040185764 0.011106372
-0.017038502 -0.040466443 0.013289392
-0.016180765 -0.040991269 0.015628755
-0.014541154 -0.039468847 0.018083423
-0.013771003 -0.040253703 0.01998648
-0.012749084 -0.0403721 0.022325546
-0.011121473 -0.038419638 0.0245471
-0.010294351 -0.039118536 0.026872009
-0.00932281 -0.039362978 0.027951002
-0.0080344211 -0.038163502 0.028354138
-0.0072263018 -0.039228495 0.028751284
-0.0061851176 -0.039172415 0.028751284
-0.0050609666 -0.038463347 0.028267086
-0.0041071572 -0.039017994 0.026948541
-0.0031436239 -0.039819237 0.025618136
-0.0020037582 -0.038071405 0.023920715
-0.0010717566 -0.040726751 0.023019493
0 -0.039490491 0.022014946
0.0010737597 -0.04080287 0.019948035
0.0020920183 -0.039748348 0.017042637
0.0031053824 -0.039334845 0.014464021
0.0042450661 -0.040328126 0.01253745
0.0054121022 -0.041131977 0.010053247
0.0061574411 -0.038997129 0.0084344149
0.0078368131 -0.042542703 0.0070281029
0.0088297063 -0.041941106 0.0054345131
-0.021720499 -0.040182926 0.0043868124
-0.020912368 -0.040724084 0.0059953928
-0.018964563 -0.038982715 0.0084696114
-0.018284168 -0.039794955 0.010296494
-0.017585073 -0.040665481 0.012278289
-0.015989756 -0.039441399 0.014447093
-0.015162126 -0.040071335 0.017417192
-0.013973002 -0.039769318 0.019662738
-0.012374799 -0.03815563 0.022240222
-0.011162776 -0.037547525 0.0242351
-0.010215406 -0.037797008 0.026457608
-0.0092452141 -0.038008105 0.027559549
-0.0083689475 -0.038706385 0.028327912
-0.0071204682 -0.037636761 0.028205693
-0.0060692639 -0.037427131 0.028634787
-0.0052303136 -0.038704321 0.028196514
-0.0041246256 -0.038152788 0.02740863
-0.0030538286 -0.037663888 0.025647938
-0.0020993047 -0.038837135 0.023969263
-0.0010481441 -0.038781334 0.023211926
0 -0.038905013 0.022500873
0.0010727949 -0.039693415 0.020727336
0.0021029476 -0.038904533 0.018306762
0.0032693052 -0.040321432 0.016400576
0.0042244382 -0.039076056 0.013107598
0.0052054217 -0.038520124 0.011536509
0.006572668 -0.040531456 0.0090339482
0.0077294218 -0.040855519 0.007256031
0.0087220045 -0.040339272 0.005636692
-0.022140281 -0.039852504 0.0043420494
-0.020462971 -0.038771942 0.0059953928
-0.019051842 -0.038103685 0.0081620216
-0.018886561 -0.039995067 0.009336859
-0.017187087 -0.038670946 0.011573017
-0.015940569 -0.038257364 0.013485223
-0.015382227 -0.039554294 0.016716808
-0.01353112 -0.037470791 0.018595487
-0.012736714 -0.038210142 0.021496445
-0.011402363 -0.037316825 0.023084313
-0.010089616 -0.036322616 0.024526328
-0.0094669713 -0.037867885 0.026846558
-0.0082008298 -0.036903732 0.027084589
-0.0071382299 -0.036710896 0.027849644
-0.0063704886 -0.038222931 0.028064758
-0.0051243166 -0.036895078 0.026948541
-0.0040825638 -0.036743071 0.025966555
-0.0031718472 -0.038062166 0.024201572
-0.0020324914 -0.036584839 0.023586452
-0.00103496 -0.037258558 0.023134202
0 -0.038238127 0.022379696
0.0010280975 -0.037011508 0.021087557
0.0021269862 -0.038285751 0.019004196
0.0032126568 -0.038551878 0.016778737
0.0042127627 -0.037914861 0.013032019
0.0052727899 -0.037964087 0.01038298
0.0065358994 -0.039215393 0.0081554949
0.0076767644 -0.0394805 0.0067979693
0.0090625407 -0.040781431 0.005200237
-0.022192465 -0.038836814 0.0045801103
-0.020877877 -0.038459245 0.0060259402
-0.020084959 -0.039054088 0.0080669224
-0.017862091 -0.036774892 0.0094385445
-0.017307401 -0.037859939 0.011264622
-0.016306462 -0.038048409 0.013202399
-0.014233155 -0.035582889 0.016573071
-0.014108673 -0.037984885 0.018409431
-0.013133687 -0.038306586 0.020319998
-0.011279302 -0.035888687 0.022049934
-0.010085156 -0.035298046 0.023700327
-0.0092810392 -0.036092933 0.024379104
-0.0081632808 -0.035714351 0.025314718
-0.007297528 -0.036487639 0.026030421
-0.0061911386 -0.036114976 0.02687645
-0.005030388 -0.035212718 0.025620997
-0.0041998411 -0.03674861 0.024487168
-0.003055739 -0.035650287 0.02359587
-0.0020783744 -0.036371551 0.023549199
-0.0010618542 -0.037164893 0.022796422
0 -0.035929792 0.022322357
0.0010328796 -0.036150787 0.020936102
0.0020973261 -0.036703207 0.019034654
0.0030670371 -0.035782099 0.016857833
0.0042241374 -0.036961202 0.013105273
0.0053765993 -0.037636194 0.01009351
0.0063245166 -0.036893014 0.0072742105
0.0077379728 -0.038689863 0.0057570934
0.0088497885 -0.038717825 0.0042758584
-0.021359712 -0.038222641 0.0052033961
-0.019462144 -0.036761831 0.0069222152
-0.018352982 -0.036705963 0.0089309812
-0.017690891 -0.037593141 0.010114759
-0.015876446 -0.035986613 0.012134135
-0.015037818 -0.036520414 0.014447093
-0.013981435 -0.036566827 0.016675174
-0.012521429 -0.035477385 0.017830282
-0.01180615 -0.036491737 0.019405752
-0.010339376 -0.035153877 0.021669447
-0.0091802506 -0.034680951 0.022941262
-0.0082218833 -0.034943007 0.023551643
-0.00733566 -0.035630349 0.024128884
-0.0062963455 -0.035679292 0.024349213
-0.0052389321 -0.035624739 0.024141669
-0.0040942999 -0.03480155 0.023628294
-0.0030323341 -0.034366455 0.023549199
-0.0021280313 -0.036176533 0.023440033
-0.0010698582 -0.03637518 0.022512257
0 -0.035982806 0.021783382
0.001054487 -0.035852555 0.020538598
0.0021049443 -0.035784055 0.01882866
0.0032078547 -0.036355689 0.016569704
0.0043171439 -0.036695726 0.012768775
0.0051268451 -0.034862548 0.010020256
0.0066546476 -0.037709672 0.0068252385
0.0077698207 -0.037739128 0.0055727065
0.008937696 -0.037985209 0.0040105581
-0.018844411 -0.034548085 0.0059269369
-0.018504389 -0.035920281 0.0079202354
-0.016749259 -0.034545347 0.0092689097
-0.016147548 -0.035524607 0.011072248
-0.01517358 -0.035766296 0.012861222
-0.013882481 -0.035240144 0.014518678
-0.01285058 -0.035339095 0.016406268
-0.011717726 -0.035153177 0.016735107
-0.010385871 -0.034273375 0.019051135
-0.0094473502 -0.034640286 0.02162835
-0.0081798472 -0.033741869 0.02273652
-0.0070237243 -0.033111844 0.023536414
-0.0059983395 -0.032990865 0.023560584
-0.0049978751 -0.032985974 0.023462147
-0.0041790088 -0.03447682 0.023452818
-0.0032765202 -0.036041722 0.022852689
-0.0020873945 -0.034442008 0.022511929
-0.0010305808 -0.03400917 0.021220118
0 -0.034669045 0.020578146
0.0010268739 -0.033886839 0.019635856
0.0021542397 -0.035544954 0.017592102
0.0032351376 -0.035586514 0.013864636
0.0041688001 -0.034392599 0.012554407
0.0054672803 -0.036084048 0.0087041855
0.0067191026 -0.036955062 0.0058973134
0.0075090136 -0.035399634 0.0051309764
-0.020344477 -0.036167961 0.0049456954
-0.018427592 -0.034687232 0.0061075389
-0.017398836 -0.034797672 0.0082276762
-0.016525259 -0.035253886 0.009934932
-0.01473867 -0.033688389 0.011926681
-0.013848162 -0.034087785 0.012755573
-0.012955238 -0.034547303 0.014284968
-0.011429359 -0.033249047 0.015936375
-0.01066565 -0.034130082 0.016540349
-0.0097752046 -0.034756284 0.01931417
-0.0086384835 -0.034553934 0.020080805
-0.0075420095 -0.034477755 0.021446079
-0.0065425094 -0.034893386 0.022586197
-0.0054015289 -0.034569789 0.022024065
-0.0042761252 -0.034209002 0.021869123
-0.0031437094 -0.033532903 0.021562397
-0.0020732284 -0.033171654 0.020869493
-0.0010392375 -0.033255599 0.01987797
0 -0.032907546 0.019463778
0.0010618481 -0.03397914 0.017513663
0.0021233116 -0.033972986 0.016201645
0.0030332119 -0.032354262 0.013246834
0.0042272592 -0.033818074 0.0099112391
0.0054416419 -0.03482651 0.0068312585
0.0063736779 -0.03399295 0.0051846504
-0.018549938 -0.033826359 0.0046373308
-0.017336143 -0.033588778 0.0058657825
-0.01602456 -0.033117425 0.0088729262
-0.015045213 -0.033314399 0.010739297
-0.014114696 -0.033658121 0.011953294
-0.012571298 -0.032475851 0.012953281
-0.012057288 -0.033979628 0.014324933
-0.010765583 -0.033373311 0.015455812
-0.0095851189 -0.033015411 0.016506076
-0.0087884795 -0.03405536 0.017016917
-0.0073673325 -0.032626759 0.01916948
-0.0063194875 -0.032650687 0.019938856
-0.0054126158 -0.03355822 0.019892782
-0.0042329491 -0.032805357 0.019983083
-0.0031435951 -0.03248382 0.019817114
-0.0021459772 -0.033262648 0.019202411
-0.0010427237 -0.032324433 0.017659485
0 -0.033206526 0.017582566
0.0010502011 -0.032556236 0.017264098
0.0020923584 -0.032431554 0.013905853
0.0032610444 -0.03369746 0.012476921
0.0043559889 -0.033758916 0.0072742105
0.0054050172 -0.03351111 0.006008029
0.0066181929 -0.034193996 0.0040178001
-0.016803795 -0.031507116 0.0048426986
-0.016409485 -0.032818969 0.0070316195
-0.015067628 -0.032287773 0.0088835061
-0.013309149 -0.030713422 0.010101795
-0.012814358 -0.032035895 0.011437267
-0.011623642 -0.031700846 0.012230992
-0.010359141 -0.031077424 0.013052523
-0.0098019475 -0.032673158 0.014183909
-0.0083850222 -0.031443834 0.015407532
-0.0073891552 -0.031667806 0.016376466
-0.0065716594 -0.032858297 0.016833276
-0.0053911456 -0.032346874 0.016833276
-0.0042561269 -0.031920951 0.017631263
-0.0031392658 -0.031392656 0.017633677
-0.002117198 -0.031757969 0.017561883
-0.0010502787 -0.03150836 0.016378939
0 -0.032748874 0.014563709
0.0010229165 -0.030687496 0.013905853
0.0021421276 -0.032131914 0.012980521
0.0031617021 -0.031617023 0.0093345344
0.0043733525 -0.032800145 0.005295366
0.0056234021 -0.033740416 0.0044726431
-0.016582958 -0.032060388 0.0055882931
-0.014400724 -0.029830072 0.0079733431
-0.013944533 -0.031107035 0.0093089044
-0.013313471 -0.032174222 0.010374963
-0.011550875 -0.030452309 0.011214942
-0.010784187 -0.031274147 0.0117158
-0.0096357511 -0.031048534 0.012123823
-0.0086200461 -0.031247666 0.013377011
-0.0075803488 -0.031404305 0.013969123
-0.0064615835 -0.031230988 0.014378518
-0.0052194302 -0.030272696 0.014280498
-0.004312125 -0.031262908 0.014232934
-0.0031934795 -0.030870304 0.014232934
-0.0020831649 -0.030205892 0.014304489
-0.0010704797 -0.031043911 0.013002902
0 -0.029883517 0.012014657
0.0010698716 -0.031026276 0.010959983
0.002091679 -0.030329347 0.0090305209
0.0032181095 -0.031108392 0.0052966475
0.0044274265 -0.032098845 0.0041212738
-0.015399009 -0.030798018 0.0059749782
-0.013867177 -0.029867766 0.0077929795
-0.012676705 -0.029578978 0.0087682903
-0.011922791 -0.030348923 0.0090319812
-0.010789138 -0.030209588 0.01030457
-0.0093610715 -0.029123334 0.010819376
-0.0086663319 -0.030332163 0.011214375
-0.0074561043 -0.029824417 0.011029512
-0.0064320751 -0.03001635 0.011308372
-0.005406775 -0.03027794 0.011204243
-0.0041902689 -0.029331883 0.011215329
-0.0031852869 -0.029729346 0.011139631
-0.0021508078 -0.030111307 0.010835946
-0.0010537596 -0.029505268 0.010062069
0 -0.030212168 0.0086366534
0.0010555843 -0.029556362 0.0063331127
0.002181099 -0.030535387 0.0049385428
-0.013959661 -0.028993145 0.0043965876
-0.013178729 -0.029652141 0.0059663951
-0.011844555 -0.029073 0.007025212
-0.010531289 -0.028434481 0.0085855424
-0.0097688399 -0.029306522 0.0089428127
-0.0085257273 -0.028774332 0.0091322958
-0.0073794583 -0.028463624 0.0095219612
-0.0064298906 -0.028934509 0.0098652244
-0.0052839052 -0.02853309 0.0094541013
-0.0042683664 -0.028811475 0.008731246
-0.0032694195 -0.029424777 0.0085485578
-0.0021128487 -0.028523458 0.0084325671
-0.0010543049 -0.028466232 0.0060237944
0 -0.029580006 0.0054985285
0.0010956132 -0.029581558 0.0040858686
-0.010778771 -0.028024806 0.0044332147
-0.0096335784 -0.027830338 0.0078254342
-0.008362635 -0.027178563 0.0084682405
-0.007582535 -0.028163701 0.0087453425
-0.0064148884 -0.02779785 0.0083996654
-0.0054134582 -0.028149983 0.0085202157
-0.0043355124 -0.02818083 0.0081899166
-0.0031865395 -0.027616676 0.0079552829
-0.002122324 -0.027590213 0.0058315694
-0.0011218973 -0.029169327 0.0046108663
-0.0076906476 -0.027466601 0.0047734976
-0.006497324 -0.027072184 0.0050106645
-0.0056936294 -0.028468149 0.0047734976
0 0 0 1 0 0 0 1 0 0 0 1 0 0 0 0 0 614 1 0 0
