ply
format ascii 1.0
comment PCL generated
element vertex 600
property float x
property float y
property float z
element camera 1
property float view_px
property float view_py
property float view_pz
property float x_axisx
property float x_axisy
property float x_axisz
property float y_axisx
property float y_axisy
property float y_axisz
property float z_axisx
property float z_axisy
property float z_axisz
property float focal
property float scalex
property float scaley
property float centerx
property float centery
property int viewportx
property int viewporty
property float k1
property float k2
end_header
-0.012664606 -0.089918703 0.0040046871
-0.010463712 -0.082547061 0.0044592619
-0.0088299951 -0.078366205 0.0044600964
-0.0064332415 -0.076126695 0.0041970611
-0.0047405455 -0.084144674 0.0040324032
-0.0034823611 -0.082415879 0.0040309131
-0.012876415 -0.075112417 0.0045451224
-0.012761192 -0.081207588 0.0050074458
-0.011428294 -0.079998054 0.0053049922
-0.0090565719 -0.070440009 0.0053769052
-0.0086718705 -0.075878866 0.0061791837
-0.0075134044 -0.075134039 0.005831778
-0.0061430363 -0.071668759 0.0061718225
-0.0055190553 -0.077266775 0.0053769052
-0.0042157262 -0.073775202 0.0055445433
-0.0031153739 -0.072692052 0.0053569376
-0.0022102853 -0.077359989 0.0048325062
-0.017225806 -0.084898613 0.0040608943
-0.013591222 -0.072138026 0.004833281
-0.013165813 -0.075703427 0.0053624511
-0.012214864 -0.076620504 0.0070253611
-0.010337436 -0.071328305 0.0091049671
-0.0098897628 -0.075821519 0.0092843473
-0.0084698247 -0.073052235 0.0092698932
-0.0072104093 -0.071074031 0.0091840327
-0.0066492301 -0.076466151 0.0095287859
-0.0052747391 -0.072791405 0.0091386139
-0.0041290578 -0.071226247 0.0083528459
-0.0033110075 -0.076153174 0.0085247755
-0.002072776 -0.071510769 0.0073149204
-0.0010270238 -0.07086464 0.0055159628
0 -0.0776437 0.0048259795
0.0010651196 -0.07349325 0.0049474835
0.0025403765 -0.08764299 0.0042959154
-0.018078567 -0.076833911 0.0042389333
-0.017562985 -0.079618871 0.004920572
-0.014220201 -0.069069549 0.0054925382
-0.01388118 -0.072609253 0.0070664585
-0.013046545 -0.073930427 0.0094098151
-0.01114912 -0.068921834 0.011267394
-0.011002777 -0.074818887 0.012312442
-0.0096261371 -0.072730817 0.012413412
-0.0083146794 -0.070674777 0.01258567
-0.0075272713 -0.073122062 0.012343705
-0.0062917168 -0.071306132 0.012940645
-0.0053241188 -0.07240802 0.012641877
-0.0044435896 -0.075541019 0.012121409
-0.0031939051 -0.072395183 0.01157847
-0.0021416857 -0.072817311 0.0097203553
-0.0010756616 -0.073144987 0.009054929
0 -0.071293488 0.0071775317
0.0010902089 -0.074134208 0.0061468184
0.0023243073 -0.079026446 0.0053882301
0.0033562062 -0.076074012 0.0040793121
-0.018602576 -0.07331603 0.0043787658
-0.019687761 -0.0824425 0.0053372383
-0.015348105 -0.068554871 0.0070828497
-0.014816711 -0.070908546 0.0093787611
-0.013760285 -0.070918396 0.010196894
-0.011959066 -0.066771455 0.012343705
-0.011863235 -0.072257891 0.014574945
-0.010504689 -0.070381425 0.015030026
-0.0091587789 -0.068182029 0.015790015
-0.0085052019 -0.071231067 0.016255975
-0.0074402858 -0.071214162 0.015808612
-0.0062051835 -0.069291219 0.016366273
-0.0053804228 -0.072097667 0.015862197
-0.0041560433 -0.069613725 0.014858156
-0.003155706 -0.070477434 0.014212608
-0.0021915159 -0.073415786 0.012414575
-0.0010531304 -0.07055974 0.012358576
0 -0.072445631 0.0099950433
0.0010847629 -0.07267911 0.0089993477
0.0020666714 -0.069233492 0.0076026022
0.003369129 -0.07524389 0.0059278309
0.0049632941 -0.083135173 0.005469054
-0.019289436 -0.070727929 0.0043696463
-0.020291045 -0.078777 0.0051847398
-0.016410047 -0.067691445 0.0069549978
-0.016212832 -0.071336463 0.009485662
-0.015087013 -0.071124487 0.010662019
-0.013215525 -0.067094199 0.013363212
-0.012913564 -0.071024604 0.016326636
-0.011461845 -0.068771072 0.016985744
-0.010478262 -0.069156528 0.017706841
-0.0096312715 -0.070629328 0.018493295
-0.0083628362 -0.068993397 0.01863718
-0.0072950777 -0.068782158 0.018696547
-0.0064018751 -0.070420623 0.019152075
-0.0051771603 -0.068338521 0.018674821
-0.0040660417 -0.067089684 0.017291099
-0.003243072 -0.071347587 0.016853124
-0.0021073343 -0.069542028 0.015964478
-0.0010323193 -0.068133071 0.014348239
0 -0.070245691 0.012369543
0.0010433891 -0.068863675 0.010529131
0.0022203173 -0.07327047 0.0096235573
0.0032982996 -0.07256259 0.0066328049
0.0041276445 -0.068106137 0.0061937273
0.0059189037 -0.07812953 0.0050651431
0.0065177348 -0.071695082 0.0049903095
0.0073995036 -0.069766745 0.004098922
-0.02038048 -0.073596179 0.0054962039
-0.018574562 -0.07102038 0.0071839392
-0.017004503 -0.069080792 0.0080481172
-0.016296877 -0.070619799 0.010236174
-0.013971341 -0.064866938 0.012412488
-0.01419049 -0.070952453 0.015015572
-0.012969243 -0.070250072 0.017195255
-0.011383686 -0.067267239 0.018259048
-0.010905419 -0.070885219 0.019041777
-0.0098858438 -0.071397759 0.020301878
-0.0081495419 -0.066215023 0.020818383
-0.0076257102 -0.070810169 0.021363139
-0.0064351191 -0.069713794 0.021501899
-0.0052992874 -0.068890736 0.020867318
-0.0045342031 -0.073680803 0.020187944
-0.0031752135 -0.068796292 0.020238847
-0.0021014337 -0.068296589 0.01762712
-0.0011019447 -0.071626402 0.016486555
0 -0.066994689 0.015709877
0.0010976715 -0.071348645 0.012649924
0.0022196379 -0.072138228 0.011368155
0.0030932422 -0.067020252 0.0097356737
0.0044068554 -0.071611397 0.0084910095
0.0055327918 -0.071926296 0.0064488649
0.006539471 -0.07084427 0.0053178668
0.0075658942 -0.070254736 0.0041799247
-0.021387329 -0.072041534 0.0046589971
-0.019936983 -0.070887059 0.0070220828
-0.018028585 -0.067872323 0.0074305832
-0.01760703 -0.070428118 0.0098601282
-0.015009949 -0.064042449 0.011185259
-0.014735015 -0.067360073 0.013999552
-0.013693809 -0.06741567 0.017149597
-0.012063641 -0.064339422 0.018992156
-0.011805919 -0.068688981 0.020596921
-0.010573832 -0.067672528 0.02068904
-0.009548963 -0.067903742 0.02375716
-0.0087845819 -0.070276655 0.023498029
-0.0073944046 -0.067605987 0.024874836
-0.0062234444 -0.066383407 0.025121063
-0.0053471252 -0.068443209 0.022818118
-0.0043230932 -0.069169492 0.022463471
-0.003150993 -0.067221187 0.021818608
-0.0021666833 -0.069333866 0.02058959
-0.0010598096 -0.067827813 0.018625081
0 -0.070413664 0.016418129
0.0010678776 -0.068344168 0.015454262
0.0020767308 -0.066455387 0.013209194
0.0033162644 -0.070746973 0.011351585
0.0042961207 -0.068737932 0.0098142326
0.0053408039 -0.068362296 0.0075020194
0.006726623 -0.071750648 0.0068306327
0.0077964254 -0.071281604 0.0052593648
0.008406057 -0.067248456 0.0046049356
-0.021537347 -0.071413308 0.0054649115
-0.019422621 -0.067979172 0.007527709
-0.018373163 -0.068088785 0.0082214773
-0.016221369 -0.063871637 0.01077494
-0.015921339 -0.066869624 0.012479931
-0.015098887 -0.067944989 0.01471442
-0.013208399 -0.064009935 0.018434495
-0.012699031 -0.066669919 0.020600647
-0.011868772 -0.0679757 0.021782637
-0.010277453 -0.064747959 0.023806781
-0.0094800359 -0.066360258 0.02517584
-0.0081419274 -0.064117678 0.025070161
-0.007136316 -0.064226851 0.025927693
-0.0062244083 -0.065356292 0.025946796
-0.0051088831 -0.064371936 0.025384873
-0.0040284344 -0.063447841 0.02462697
-0.0031626932 -0.066416562 0.023175448
-0.0021288528 -0.067058869 0.021338493
-0.001049137 -0.066095635 0.020525545
0 -0.06784898 0.017468095
0.0010240802 -0.064517051 0.016092211
0.0021655946 -0.068216234 0.014195889
0.0033142958 -0.069600217 0.011812985
0.0041833464 -0.065887712 0.010105461
0.005602757 -0.070594743 0.0088240802
0.0068173986 -0.071582682 0.007017225
0.0075760125 -0.068184115 0.0058984756
0.0090524741 -0.071288235 0.0052595139
0.009685982 -0.067801878 0.0044750571
-0.021989539 -0.068167582 0.0044887364
-0.020483134 -0.066839702 0.0055452883
-0.019975033 -0.068802901 0.0078419447
-0.017744595 -0.064715587 0.0090665519
-0.017082997 -0.066196613 0.011116683
-0.015799146 -0.065303139 0.013168991
-0.014219403 -0.062971644 0.016505569
-0.014133369 -0.067405298 0.01881668
-0.012688694 -0.065558255 0.020969778
-0.011696388 -0.065925099 0.023960233
-0.010275345 -0.063707143 0.02519089
-0.0091729863 -0.063191682 0.026304692
-0.0082086492 -0.063617036 0.02622357
-0.0072453124 -0.064172767 0.026638448
-0.0061418298 -0.06346558 0.027022064
-0.0050885384 -0.063097879 0.026901424
-0.0040844395 -0.063308813 0.02582559
-0.0030545376 -0.063127115 0.025213122
-0.0020771225 -0.064390793 0.022563189
-0.0010769536 -0.06677112 0.021985888
0 -0.064055346 0.020866126
0.0010799663 -0.066957913 0.017663091
0.0021481032 -0.066591196 0.015497535
0.0031496191 -0.065092131 0.012967348
0.0042933975 -0.066547662 0.010742664
0.0054946337 -0.068133458 0.0092818141
0.0064874203 -0.067036681 0.008510083
0.0078302519 -0.069353662 0.0061608553
0.0087474743 -0.067792922 0.0052013993
0.0097525669 -0.067184351 0.0046675503
-0.022392724 -0.068297811 0.0047222376
-0.021028506 -0.067512564 0.0059213638
-0.019270368 -0.065305136 0.0080930591
-0.017693913 -0.063489921 0.0092639625
-0.017361168 -0.066189453 0.011119634
-0.015209625 -0.061852474 0.013366699
-0.014849695 -0.064702243 0.016693175
-0.013963228 -0.065519765 0.019212484
-0.012469317 -0.063385695 0.023598999
-0.011460837 -0.063555546 0.02450496
-0.010124333 -0.061758436 0.025598645
-0.0090348693 -0.061236341 0.026548982
-0.0083419075 -0.063607045 0.026638448
-0.0071628112 -0.062418781 0.027086347
-0.0061065261 -0.062083017 0.027338624
-0.0051718196 -0.063096203 0.02720353
-0.0041402215 -0.063138373 0.026744872
-0.0030260286 -0.061529249 0.025983393
-0.0020313677 -0.061956715 0.024367303
-0.0010616254 -0.06475915 0.022563189
0 -0.064774059 0.021270066
0.0010903783 -0.066513076 0.018362254
0.0021040628 -0.064173914 0.01651603
0.0033059553 -0.06722109 0.015268683
0.0043772259 -0.066752695 0.011942029
0.0050835181 -0.062018923 0.0095846653
0.0064743063 -0.065822117 0.0089450181
0.0078133624 -0.068087868 0.0071054995
0.0087734181 -0.066897318 0.0055846572
0.0097990744 -0.066415951 0.0048874915
-0.022135982 -0.066407949 0.0046797693
-0.020811951 -0.065721951 0.0069390833
-0.019144105 -0.063813686 0.0081500113
-0.018439924 -0.065082088 0.0093035996
-0.017329978 -0.064987421 0.011173636
-0.016087499 -0.064349994 0.014200956
-0.015120103 -0.064800441 0.017191112
-0.013245208 -0.061131731 0.01955992
-0.013116931 -0.065584652 0.021213084
-0.011245595 -0.061339613 0.02455616
-0.010142543 -0.060855258 0.02647382
-0.0091304462 -0.060869642 0.027272642
-0.0082726432 -0.062044825 0.027192265
-0.0073773246 -0.06323421 0.027980894
-0.0063739582 -0.063739583 0.027964801
-0.0052409619 -0.06289155 0.027964801
-0.0041084681 -0.061627019 0.026929945
-0.0031002301 -0.062004603 0.026358873
-0.0020171644 -0.060514927 0.024404824
-0.0010287921 -0.061727528 0.022920519
0 -0.064687289 0.021405399
0.0010407318 -0.062443905 0.018525213
0.0021354733 -0.064064197 0.016639858
0.0032516418 -0.06503284 0.015315086
0.004062159 -0.060932383 0.011829108
0.0053672832 -0.064407401 0.0095931292
0.0066514327 -0.066514328 0.0092818141
0.0075132232 -0.064399056 0.0083096325
0.0090183001 -0.06763725 0.0058743954
0.0099985646 -0.066657104 0.0051153898
-0.021748783 -0.064158909 0.0047975183
-0.020798899 -0.064586058 0.0071477592
-0.019565426 -0.064131126 0.0087236464
-0.017745806 -0.061588388 0.010134488
-0.016854066 -0.062149372 0.011463583
-0.016419768 -0.064584419 0.014639795
-0.01430184 -0.060272042 0.017505109
-0.013822976 -0.062735043 0.019599766
-0.012817807 -0.063020885 0.024145156
-0.011083195 -0.059446231 0.025795341
-0.010325939 -0.060923044 0.027111351
-0.0093345931 -0.061193444 0.027390987
-0.0083234189 -0.061385214 0.027980894
-0.0072833258 -0.061388031 0.028350472
-0.0061370623 -0.060347784 0.028338045
-0.0050866446 -0.060022406 0.028338045
-0.0041186488 -0.060750071 0.027086347
-0.0030834426 -0.060641043 0.027075797
-0.0020485418 -0.060431983 0.025123179
-0.001037672 -0.06122265 0.023647994
0 -0.060382899 0.022323936
0.0010674112 -0.062977254 0.019271553
0.0021340786 -0.062955327 0.017374963
0.0031744677 -0.062431198 0.015594691
0.0042622103 -0.062867604 0.013150334
0.0054156813 -0.063905038 0.010105461
0.0061490056 -0.060465224 0.0094575584
0.0077278996 -0.065135151 0.0082573593
0.0087480089 -0.064516567 0.0056703687
0.009859453 -0.064634196 0.0049352646
0.010927778 -0.064473897 0.0040555894
-0.021934951 -0.063611366 0.0047807395
-0.021391569 -0.065300576 0.0055805147
-0.019394457 -0.062493257 0.0084782839
-0.017754199 -0.060573153 0.010198325
-0.017134083 -0.062111057 0.011419922
-0.015373652 -0.059444793 0.014365613
-0.014642992 -0.060663827 0.016933799
-0.014093721 -0.062879682 0.019290239
-0.012999002 -0.062828511 0.0244416
-0.011429548 -0.060264893 0.025538266
-0.010369448 -0.060142804 0.026950419
-0.009238028 -0.059533961 0.027790785
-0.0083317067 -0.060404878 0.028151095
-0.0071279742 -0.059060358 0.028728396
-0.0060831448 -0.058803733 0.028595626
-0.0051521244 -0.059764646 0.028400868
-0.0041749133 -0.060536243 0.027926475
-0.0030725987 -0.05940358 0.026835591
-0.0020738954 -0.060142972 0.025755078
-0.001029897 -0.059734028 0.023914188
0 -0.0620302 0.022656828
0.0010621813 -0.061606515 0.019516617
0.0020134309 -0.058389504 0.017401665
0.0031565961 -0.061027527 0.015791178
0.004246599 -0.061575685 0.012885839
0.0050860522 -0.058998208 0.010546446
0.0065548662 -0.063363709 0.009264648
0.0078894682 -0.065369882 0.0077703893
0.0087550022 -0.063473761 0.0066661537
0.010333191 -0.06659168 0.0054650307
0.010788715 -0.062574551 0.0041258931
-0.022719217 -0.06474977 0.0045578778
-0.021407105 -0.064221315 0.0052826107
-0.019212397 -0.060839258 0.0077304542
-0.018598121 -0.062358405 0.0089430511
-0.016998239 -0.060556225 0.010754496
-0.016128287 -0.061287485 0.014047831
-0.015301031 -0.062297054 0.01520431
-0.01332531 -0.058426362 0.018276036
-0.012970269 -0.061608776 0.021985114
-0.011365866 -0.058895852 0.024739891
-0.0099603226 -0.056773841 0.026198804
-0.0093015693 -0.058909941 0.026924819
-0.0083066355 -0.059184778 0.027108341
-0.0072230105 -0.058815945 0.027470559
-0.0062641916 -0.059509818 0.028095603
-0.005163596 -0.058864992 0.027747035
-0.0040892195 -0.058271375 0.026666969
-0.0031479287 -0.059810646 0.026324779
-0.002017762 -0.057506219 0.024726689
-0.0010460152 -0.059622861 0.023641706
0 -0.060225192 0.022589445
0.0010446267 -0.059543725 0.019744068
0.0020946672 -0.059698012 0.01756537
0.0031924774 -0.060657069 0.015599132
0.0040706275 -0.058006443 0.014338344
0.0054294867 -0.061896149 0.011061907
0.0065082838 -0.061828695 0.009264648
0.0076032579 -0.061912242 0.0078204572
0.0089019677 -0.063426517 0.0066331625
0.0098545039 -0.06241186 0.0051936805
0.010934932 -0.062329113 0.0040555894
-0.022348301 -0.062575243 0.0045344532
-0.020983575 -0.061846323 0.0053980649
-0.019998699 -0.062218182 0.0075947046
-0.018152229 -0.059795581 0.0088634193
-0.017273473 -0.060457151 0.010567427
-0.016069597 -0.059993159 0.013071001
-0.01402122 -0.056084879 0.015010178
-0.01424008 -0.061341882 0.01725629
-0.012913914 -0.060264934 0.020604521
-0.011497288 -0.058531649 0.023082823
-0.01024267 -0.057358954 0.024889052
-0.00936836 -0.05829202 0.025758654
-0.0080718752 -0.056503128 0.026330888
-0.0073117306 -0.058493845 0.02684015
-0.0060931901 -0.056869775 0.026886225
-0.005119795 -0.057341706 0.02683416
-0.0042297593 -0.05921663 0.0259417
-0.0031160484 -0.058166236 0.025102943
-0.0020272771 -0.056763761 0.024142861
-0.0010674522 -0.059777323 0.023237854
0 -0.057126291 0.021008343
0.0010608097 -0.059405345 0.019608259
0.0021194261 -0.059343927 0.017766923
0.0031162293 -0.058169618 0.015721709
0.0043314458 -0.060640238 0.014598638
0.0053293211 -0.059688397 0.011061907
0.0063409898 -0.059182569 0.0087614655
0.0078628575 -0.06290286 0.0073889494
0.0089055318 -0.062338721 0.0062706769
0.010099703 -0.062842593 0.0048035085
-0.021395406 -0.061934069 0.0044798851
-0.0199023 -0.060812585 0.0068983436
-0.018062979 -0.05843905 0.0076002479
-0.017118061 -0.058843333 0.0090584755
-0.015809752 -0.05796909 0.011214107
-0.015141642 -0.059485022 0.013812661
-0.013879949 -0.058722865 0.015170515
-0.012153887 -0.055705316 0.017931044
-0.011498541 -0.057492707 0.020524383
-0.010603656 -0.058320109 0.02269873
-0.009183486 -0.056121305 0.02411887
-0.008419117 -0.057881434 0.024710774
-0.0072351568 -0.056847662 0.025607705
-0.0061952872 -0.056790136 0.025830507
-0.0051444904 -0.056589395 0.025571555
-0.0040983097 -0.056351759 0.024500102
-0.003031031 -0.055568904 0.024204463
-0.0021646067 -0.059526682 0.023251444
-0.0010482437 -0.057653401 0.021669418
0 -0.058633689 0.01997757
0.0011037578 -0.060706679 0.019286573
0.0020854741 -0.057350539 0.017504066
0.003193401 -0.058545686 0.015658379
0.004241589 -0.058321845 0.014506608
0.0051188194 -0.056307014 0.011214167
0.0067316438 -0.061706737 0.0086474121
0.0079390975 -0.062378623 0.0072549284
0.0087824557 -0.060379386 0.0054500997
-0.019408016 -0.058224048 0.0052028
-0.018745378 -0.059544146 0.0068367124
-0.016756665 -0.056553748 0.0075713098
-0.016323177 -0.058763444 0.010982484
-0.014828801 -0.057196807 0.013765633
-0.013462962 -0.055923074 0.015037298
-0.012757366 -0.05740815 0.016867131
-0.011999396 -0.05890613 0.01816842
-0.010376439 -0.056032773 0.021161884
-0.0096367495 -0.057820503 0.022783071
-0.0081662536 -0.055122212 0.023986638
-0.0069736694 -0.05379688 0.024304569
-0.0061353669 -0.055218305 0.024304569
-0.0050054258 -0.054058604 0.023819447
-0.0041678394 -0.056265831 0.0228028
-0.0031926564 -0.057467818 0.023095816
-0.0020895554 -0.056417998 0.021060556
-0.0010538514 -0.056907982 0.019867748
0 -0.057355199 0.019634604
0.0010391072 -0.056111794 0.018451631
0.0020955983 -0.056581151 0.016827285
0.0031875807 -0.057376456 0.015550375
0.0040943632 -0.055273905 0.014506608
0.005324156 -0.057500888 0.0093884468
0.0065827225 -0.059244502 0.0073234737
0.0076173665 -0.058762543 0.0060916245
0.0092585674 -0.062495332 0.0045550168
-0.018609844 -0.058018923 0.0052087307
-0.017678307 -0.058559392 0.0069869757
-0.016015029 -0.056586429 0.010058045
-0.014596856 -0.055259526 0.011824608
-0.013841234 -0.056429647 0.013698727
-0.012883361 -0.056901511 0.015045255
-0.011431053 -0.05507689 0.016481161
-0.010700119 -0.056710627 0.017984301
-0.0095768226 -0.056396842 0.019226164
-0.0082375901 -0.054574035 0.02043727
-0.0077548265 -0.058715113 0.02164191
-0.0064971251 -0.057391271 0.021993905
-0.0053561265 -0.05677494 0.020474285
-0.0043050875 -0.057042409 0.019450098
-0.0031153678 -0.055038165 0.019764632
-0.0020595354 -0.054577686 0.019744068
-0.0010572805 -0.056035865 0.019053787
0 -0.053495497 0.017999589
0.001068161 -0.056612533 0.017599761
0.0021497216 -0.05696762 0.015983611
0.0030740232 -0.05430774 0.014492571
0.0042951745 -0.056911062 0.011937797
0.0053914855 -0.057149746 0.0081740618
0.0065417304 -0.057785284 0.0067972839
0.0079058614 -0.059858665 0.005135715
-0.017476158 -0.056797512 0.0048547983
-0.015665796 -0.054308094 0.0069580972
-0.015098176 -0.056078941 0.010548979
-0.014174887 -0.056699548 0.012046576
-0.012618435 -0.054679882 0.01350677
-0.011796437 -0.055764977 0.014923364
-0.010690269 -0.0555894 0.01516214
-0.0093318168 -0.053917166 0.01644367
-0.0086822938 -0.056434907 0.017387927
-0.0073599392 -0.054673836 0.017984301
-0.0062489156 -0.054157268 0.018516868
-0.0053563425 -0.055705961 0.018313527
-0.0042266636 -0.054946627 0.018480718
-0.0031426752 -0.054473039 0.018925309
-0.002113289 -0.05494551 0.017889887
-0.0010698359 -0.055631466 0.017599761
0 -0.055641066 0.016990215
0.0010542959 -0.054823387 0.015900761
0.0020640695 -0.053665806 0.014902234
0.0032010847 -0.055485465 0.01257053
0.0042687464 -0.055493701 0.0091133118
0.0053509008 -0.05564937 0.0073004663
0.0067535159 -0.058530472 0.0051589608
-0.017051363 -0.054351222 0.0042022467
-0.016155815 -0.054929767 0.0059818625
-0.015090258 -0.054971654 0.0085799992
-0.01371097 -0.053789191 0.010848522
-0.012725449 -0.054083161 0.012488395
-0.011816132 -0.054783884 0.013679534
-0.010279451 -0.052425206 0.013976425
-0.0095388591 -0.054053541 0.014589489
-0.0086129569 -0.054907598 0.015643716
-0.0073398324 -0.053475924 0.016292453
-0.0063931406 -0.054341696 0.01644367
-0.005355922 -0.054630406 0.01647839
-0.004181793 -0.05331786 0.016621947
-0.0031854047 -0.054151881 0.01638487
-0.0021383942 -0.054529049 0.015920341
-0.0010573517 -0.053924937 0.015735894
0 -0.054532807 0.014999151
0.0010275927 -0.052407227 0.014746577
0.0021612574 -0.055112068 0.012869298
0.00323603 -0.055012509 0.0096892118
0.0042335666 -0.053977974 0.0073234737
0.0055564172 -0.056675456 0.0052923858
-0.01660795 -0.055359837 0.0044798851
-0.015061079 -0.053789571 0.0069588423
-0.014138176 -0.054377604 0.0095837414
-0.012943492 -0.053931221 0.010947108
-0.011480495 -0.052184075 0.012213767
-0.01095162 -0.054758102 0.013632894
-0.0096240276 -0.053466827 0.013879389
-0.0083097797 -0.051936124 0.014228314
-0.0075843362 -0.054173831 0.014247119
-0.0064002094 -0.053335078 0.014481127
-0.0052565499 -0.052565504 0.014389187
-0.0043350728 -0.054188412 0.014633387
-0.0032012782 -0.053354636 0.014631331
-0.0020959796 -0.052399494 0.014592737
-0.0010914418 -0.054572091 0.014586031
0 -0.052690558 0.014112025
0.0010699022 -0.053495109 0.01217097
0.0021067495 -0.052668735 0.0098828673
0.0032230592 -0.053717654 0.0076347291
0.00443599 -0.055449873 0.0061023831
-0.015658433 -0.054804515 0.0047309399
-0.013875892 -0.05230144 0.0074655414
-0.012309317 -0.050263043 0.0084862709
-0.011883961 -0.052937642 0.010180801
-0.01062339 -0.052054614 0.011559308
-0.0093966052 -0.051159296 0.01207903
-0.0085669421 -0.052472521 0.012577176
-0.0074968445 -0.052477911 0.012923419
-0.006339706 -0.051774267 0.013639599
-0.0054593761 -0.053501885 0.013994426
-0.0043451088 -0.053227577 0.013932616
-0.0032265831 -0.052700859 0.013879389
-0.0021433416 -0.052511871 0.012457639
-0.0010592131 -0.051901437 0.012439787
0 -0.051762208 0.01213485
0.0010570341 -0.051794674 0.0091837645
0.0021395893 -0.052419934 0.0072367489
0.0033867231 -0.055316478 0.0060389936
0.0044550137 -0.054573912 0.0047069192
-0.013956338 -0.051531095 0.0046231449
-0.013057319 -0.052229278 0.0063514411
-0.011832922 -0.051634569 0.0083871484
-0.010503096 -0.05041486 0.0093188882
-0.0097562121 -0.052033134 0.0092912018
-0.0084983185 -0.050989911 0.0093645155
-0.0074528977 -0.051105585 0.010259271
-0.0065043168 -0.052034535 0.0095704198
-0.0053496198 -0.051356353 0.010166615
-0.0043013659 -0.051616393 0.0095019341
-0.0032742233 -0.052387573 0.0094777644
-0.0021269098 -0.051045831 0.0091994405
-0.0010615274 -0.050953314 0.0092179179
0 -0.051656716 0.0090657175
0.0010835038 -0.052008182 0.0060805082
0.0022369723 -0.053687334 0.0043879747
-0.013456292 -0.052703813 0.0046447217
-0.012024834 -0.051378835 0.0065591335
-0.010838537 -0.050941125 0.0075750053
-0.0097301882 -0.050813206 0.0077619255
-0.0085744308 -0.050374784 0.008266151
-0.0076131751 -0.051117033 0.008633405
-0.0064302883 -0.050370593 0.0086169839
-0.0053772242 -0.050545912 0.0089983046
-0.0043343566 -0.05092869 0.008651644
-0.0031910678 -0.049993396 0.0084862709
-0.0021707709 -0.051013116 0.0074762404
-0.0011303301 -0.053125516 0.0059517324
-0.01217815 -0.050926808 0.004198432
-0.011237689 -0.051693376 0.0049695373
-0.0097667705 -0.04991905 0.0058921874
-0.0090250662 -0.051894132 0.0060269237
-0.0078794919 -0.051779516 0.0074681044
-0.0065727751 -0.050391275 0.0061189532
-0.0056755673 -0.052215222 0.0074904263
-0.0045056897 -0.051815435 0.0060805082
-0.0033817026 -0.051852778 0.0057013333
-0.0022537764 -0.051836856 0.0047682524
0 0 0 1 0 0 0 1 0 0 0 1 0 0 0 0 0 600 1 0 0
