ply
format ascii 1.0
comment PCL generated
element vertex 596
property float x
property float y
property float z
element camera 1
property float view_px
property float view_py
property float view_pz
property float x_axisx
property float x_axisy
property float x_axisz
property float y_axisx
property float y_axisy
property float y_axisz
property float z_axisx
property float z_axisy
property float z_axisz
property float focal
property float scalex
property float scaley
property float centerx
property float centery
property int viewportx
property int viewporty
property float k1
property float k2
end_header
-0.0086635565 0.050898392 0.0041822791
-0.0074067605 0.049731106 0.0044607222
-0.0064855125 0.050803181 0.0045702755
-0.005589467 0.052540991 0.0047520697
-0.0043476792 0.05108523 0.0047649145
-0.0033227799 0.052056886 0.0045702755
-0.0022200653 0.052171536 0.0046219826
-0.0010732837 0.050444335 0.0047495663
-0.012014659 0.052427605 0.0040358305
-0.010696769 0.051344492 0.0048308969
-0.0099730175 0.053189427 0.0047987401
-0.008608724 0.051652346 0.0054191947
-0.0075681512 0.051895894 0.0054143369
-0.0065864017 0.052691214 0.0054769516
-0.0053717159 0.051568471 0.0053530037
-0.0043342989 0.052011587 0.0053575337
-0.0033259846 0.053215753 0.0052072704
-0.0021880558 0.052513335 0.0048325956
-0.0010735751 0.051531602 0.0048591197
0 0.052528512 0.0048301518
0.0010563814 0.050706305 0.0047307014
0.0021954416 0.052690595 0.0049617887
0.0032827593 0.052524149 0.0040290654
0.0043129898 0.051755875 0.0041591823
0.0054537426 0.05235593 0.0041214228
-0.013144894 0.053674981 0.0040612519
-0.011909915 0.053053256 0.0048308969
-0.011023931 0.054017261 0.0055035949
-0.0099166725 0.05399077 0.0056090653
-0.0086448807 0.05294989 0.0063751638
-0.0077183866 0.054028705 0.0066864491
-0.0065027373 0.053105686 0.007483542
-0.0054070279 0.052988872 0.0074222684
-0.0044821263 0.054906044 0.0073686838
-0.0032545442 0.053157553 0.0061966777
-0.0021636772 0.053010091 0.005515635
-0.0010964952 0.05372826 0.0053854883
0 0.052542172 0.0050478578
0.0010954662 0.053677846 0.0049089193
0.0022210525 0.054415785 0.0050377846
0.0031517786 0.051479049 0.0047307014
0.0056318543 0.055192173 0.004060328
-0.014364588 0.055248417 0.0048671961
-0.012883256 0.053680237 0.0066159368
-0.0120154 0.054615457 0.0075293481
-0.011031461 0.055157311 0.0088767111
-0.009517868 0.05287705 0.010227472
-0.0090603754 0.056627344 0.011471927
-0.0073755658 0.052682616 0.014027029
-0.0064383228 0.053652693 0.011457533
-0.0056289285 0.056289285 0.011418849
-0.004240206 0.053002577 0.010933965
-0.0032346756 0.053911265 0.010148615
-0.0022238852 0.05559713 0.0091361701
-0.0010835157 0.054175787 0.0088353753
0 0.055634119 0.0069664419
0.0011082016 0.05541008 0.0054014027
0.0021347022 0.053367555 0.0054216087
0.0033163549 0.055272583 0.0051446557
0.0043844422 0.054805528 0.0049325824
0.0052169226 0.05216923 0.0041214228
-0.01659192 0.056412525 0.0049761534
-0.01548717 0.056417547 0.0066159368
-0.014016689 0.054988548 0.0073305368
-0.013341408 0.056700986 0.0088116527
-0.012138039 0.056276366 0.011326671
-0.010017628 0.051089905 0.014526933
-0.0094746398 0.053689625 0.01546964
-0.0082912352 0.05285662 0.016149551
-0.0072153709 0.052569132 0.016481817
-0.0063978583 0.054381795 0.016014814
-0.0051381891 0.052409533 0.0163185
-0.0041065523 0.052358542 0.015306324
-0.0031634488 0.05377863 0.014564544
-0.0020886753 0.05326122 0.013955951
-0.0010730175 0.054723892 0.011249155
0 0.056423776 0.010432094
0.0010695698 0.054548062 0.0094160438
0.0021660964 0.055235457 0.0070815086
0.0033115142 0.056295745 0.0065117478
0.0042730016 0.054480769 0.0054216087
0.005596335 0.057082616 0.0052872598
0.0066779982 0.056762986 0.0042090416
-0.016432591 0.056966312 0.006442517
-0.015143015 0.056245487 0.0073632896
-0.014143461 0.056573845 0.0096492767
-0.012461049 0.053997878 0.013843864
-0.011172772 0.052816745 0.015539169
-0.010492603 0.054561537 0.016649455
-0.0094493348 0.05459616 0.017834455
-0.0080912858 0.052593358 0.019454658
-0.0072858781 0.054123666 0.019769937
-0.0060893008 0.052773941 0.018045783
-0.0051265862 0.053316496 0.018045783
-0.0041625719 0.054113436 0.01746583
-0.0030886196 0.053536072 0.016714036
-0.0020516135 0.053341951 0.015962094
-0.0010526029 0.054735351 0.013960809
0 0.052726328 0.011691123
0.001087855 0.056568455 0.011031598
0.0022062857 0.057363428 0.0091466904
0.0032469775 0.056280944 0.0080266595
0.0043318709 0.056314319 0.0065117478
0.0054981261 0.057180513 0.0056324899
0.0063835001 0.055323668 0.0052872598
-0.017614525 0.058348112 0.0048208237
-0.016044023 0.056688879 0.0067296624
-0.01507386 0.057065327 0.0087277591
-0.013606397 0.055472236 0.011180609
-0.012374378 0.054653499 0.016723722
-0.01160121 0.055896737 0.017656893
-0.01032123 0.054702517 0.019512534
-0.0091895722 0.054116372 0.020904928
-0.0085354159 0.056547131 0.021153808
-0.0071726856 0.054307476 0.021294236
-0.0061199754 0.054059781 0.021414042
-0.0051808427 0.054916933 0.021498084
-0.0040981262 0.054300167 0.021497995
-0.0030600601 0.054061063 0.02094993
-0.0021095851 0.055904001 0.017551631
-0.0010188966 0.054001518 0.017337173
0 0.054427776 0.016494125
0.0010694304 0.056679811 0.014478981
0.0021080135 0.055862356 0.01136899
0.0032939848 0.058193728 0.010127991
0.0043790713 0.058022693 0.0087504089
0.0053253006 0.056448188 0.007322073
0.0066211489 0.058486816 0.0056623518
0.0076888278 0.058215406 0.0042090416
-0.019049181 0.06050916 0.0053546727
-0.017189469 0.058014464 0.0067275763
-0.015815033 0.056934118 0.0086031258
-0.014745099 0.056873955 0.014105856
-0.012896083 0.053568348 0.017117828
-0.012497884 0.05624048 0.018492937
-0.01133627 0.055650782 0.019619137
-0.010114264 0.054617029 0.021298736
-0.0093436884 0.056062136 0.021766126
-0.0081053544 0.054711144 0.022141784
-0.0071589118 0.055225894 0.023148447
-0.006305391 0.056748521 0.023199856
-0.0051226462 0.055324581 0.023797274
-0.0040559331 0.054755099 0.023199856
-0.0031032867 0.055859163 0.023238212
-0.0020564417 0.055523928 0.022105068
-0.0010046032 0.054248575 0.020020127
0 0.05703868 0.018007159
0.0010043615 0.054235529 0.01653856
0.002102366 0.056763884 0.012844056
0.0032934465 0.059282042 0.011071473
0.0042185956 0.056951042 0.0095838904
0.0054576905 0.058943059 0.0086724758
0.0066595771 0.059936199 0.006659776
0.0074828751 0.057725038 0.005202353
-0.019667668 0.060095657 0.004591912
-0.018575985 0.060098778 0.0063456893
-0.017251335 0.059301462 0.0081178546
-0.015907543 0.058327656 0.010370255
-0.014157836 0.055620071 0.016774714
-0.013436488 0.056846682 0.01820451
-0.012474146 0.057173166 0.020251244
-0.011187015 0.055935081 0.021311879
-0.010457515 0.057516336 0.022386998
-0.0093612205 0.057207461 0.023777336
-0.0081673898 0.056150805 0.0240601
-0.0073932791 0.058090053 0.024643332
-0.0061757173 0.056610744 0.024958462
-0.0049660006 0.054626007 0.025527388
-0.0042698579 0.058710545 0.025080591
-0.0030623814 0.056143664 0.025237858
-0.0020556333 0.056529917 0.024526715
-0.0010505996 0.057782978 0.023785919
0 0.055341188 0.022380829
0.0010390014 0.057145081 0.019076288
0.0021276379 0.058510043 0.016706407
0.0030304873 0.055558935 0.012972027
0.0043781023 0.060198911 0.01120159
0.0054516373 0.059968013 0.010131985
0.0063366243 0.058085725 0.0078713
0.0077048731 0.060538288 0.0058156848
0.0086061014 0.059166949 0.0044825375
-0.021031709 0.061988197 0.0040929019
-0.019665333 0.061181039 0.0050864816
-0.018301977 0.060288865 0.0064960718
-0.01666332 0.058321618 0.0093472004
-0.015170756 0.056637488 0.015513182
-0.01474446 0.058977839 0.018205971
-0.013468797 0.058019437 0.019594252
-0.012137442 0.056641396 0.02144888
-0.011382415 0.057946838 0.021870047
-0.010319337 0.057788294 0.023822427
-0.0093129389 0.057947174 0.024613976
-0.0083544301 0.058481012 0.024725109
-0.0071063256 0.056850605 0.025159508
-0.0059598708 0.055625461 0.025473326
-0.0052103684 0.058356125 0.026290178
-0.0041188947 0.057664525 0.025673002
-0.0030522819 0.056975927 0.025702327
-0.002059161 0.057656504 0.025326282
-0.0010236721 0.057325635 0.024404675
0 0.057860114 0.02343449
0.0010329112 0.057843026 0.021535099
0.0020416491 0.05716617 0.018259764
0.0031937638 0.059616923 0.015844971
0.0042092288 0.058929201 0.012565702
0.0053410954 0.059820272 0.011302978
0.0065634297 0.061258677 0.0087596476
0.0076240636 0.060992509 0.0065683424
0.0087248897 0.061074231 0.0045041144
-0.020655537 0.061966605 0.0041323006
-0.01955976 0.061939236 0.0057981014
-0.018205427 0.061041724 0.0078803599
-0.016114211 0.057406876 0.013343126
-0.015742814 0.05982269 0.016690105
-0.014559459 0.059277795 0.018144727
-0.013238248 0.058044627 0.019606829
-0.012493831 0.059345696 0.021082789
-0.011489329 0.059535611 0.022141784
-0.0099609261 0.05677728 0.024089426
-0.0094574559 0.059897222 0.024446994
-0.0079633426 0.056738812 0.024519086
-0.0070979516 0.057797603 0.025759041
-0.0063822535 0.060631409 0.026469052
-0.0051641995 0.058871873 0.026726037
-0.0041046725 0.05849158 0.026407093
-0.0031350711 0.059566349 0.026408494
-0.0020427532 0.058218461 0.026107103
-0.0010151684 0.057864595 0.024735957
0 0.058535736 0.024404675
0.00099941285 0.056966532 0.02275756
0.0020749881 0.059137158 0.020020366
0.0031003014 0.058905724 0.016666263
0.004004953 0.057070576 0.013492435
0.0054050405 0.06161746 0.012373388
0.0066448161 0.063125752 0.008892417
0.0074845366 0.060945511 0.0072494745
0.0087633943 0.062439185 0.0047608614
-0.020545205 0.062716946 0.0040669143
-0.020093279 0.064745016 0.0058065653
-0.017760349 0.060594138 0.0089954436
-0.016684506 0.06048134 0.014439285
-0.015689338 0.060665444 0.017172813
-0.014246163 0.059019823 0.019161493
-0.013410794 0.059832774 0.02045092
-0.01260959 0.060946353 0.021441877
-0.010884115 0.057388976 0.023481518
-0.010423742 0.060457706 0.024446994
-0.009390601 0.060517207 0.024857879
-0.0082665486 0.059932478 0.026017129
-0.0070025367 0.05802102 0.026491582
-0.0058952528 0.05698745 0.02698341
-0.0049671824 0.057619318 0.027257591
-0.0042246347 0.061257202 0.027202427
-0.0031517083 0.060933031 0.027202427
-0.0020362411 0.059050992 0.026417583
-0.0010382849 0.060220525 0.025535941
0 0.058362216 0.024392337
0.0010326729 0.059895031 0.023741633
0.0021150501 0.061336454 0.020990402
0.0030130404 0.058252119 0.017306209
0.0041927742 0.060795229 0.015246451
0.0051955688 0.0602686 0.01237011
0.0063901441 0.061771397 0.0102126
0.0077251745 0.064008594 0.0079692304
0.0086198561 0.062493958 0.0053882003
-0.021105725 0.065538831 0.0041598678
-0.019065363 0.062492024 0.0061477721
-0.017691504 0.061399926 0.0087018609
-0.016780773 0.061879098 0.013107777
-0.015032691 0.059128582 0.016600013
-0.014728067 0.062068284 0.018744111
-0.013519648 0.061358403 0.020506889
-0.012117404 0.059577238 0.02110669
-0.011505721 0.061712507 0.023753762
-0.01051228 0.062022459 0.024662197
-0.0088276435 0.057870112 0.02606225
-0.0080691464 0.059509959 0.026338547
-0.0073466552 0.061921809 0.027031958
-0.0061215013 0.060194764 0.027506739
-0.0051593282 0.060880072 0.027361095
-0.0039470987 0.058219709 0.027073234
-0.0030233627 0.059459466 0.027073234
-0.002150245 0.063432232 0.026534528
-0.0010358623 0.061115876 0.025904924
0 0.062002268 0.02468428
0.0010426184 0.061514489 0.023919642
0.0020185015 0.059545793 0.022178829
0.0031822489 0.062584229 0.018307656
0.0041396404 0.061059691 0.016065955
0.0050302469 0.059356917 0.013690233
0.0065879873 0.064781874 0.011692703
0.0077228327 0.065092452 0.0084563792
0.0086273868 0.063626975 0.0066093504
-0.018639885 0.062132951 0.0062280595
-0.018250445 0.064413331 0.0083975196
-0.016468108 0.0617554 0.013085753
-0.015839832 0.063359328 0.016445041
-0.014788526 0.063379399 0.018546402
-0.013178609 0.060824353 0.0199866
-0.012800852 0.064004257 0.020947129
-0.011544638 0.062970757 0.023620784
-0.0098670516 0.059202313 0.024451464
-0.0092796534 0.061864361 0.025912642
-0.0081549594 0.061162192 0.026759535
-0.0070886468 0.060759831 0.028090417
-0.0062089926 0.062089927 0.028272212
-0.0050061075 0.060073294 0.027506739
-0.0041091917 0.061637875 0.026947647
-0.0030253383 0.060506769 0.026770562
-0.0020248827 0.06074648 0.026410043
-0.001014923 0.06089538 0.025993168
0 0.06145636 0.024460763
0.0010105211 0.060631264 0.023466527
0.0020743289 0.062229868 0.022045702
0.0031259176 0.062518351 0.018219441
0.0040657767 0.060986653 0.01600197
0.0052171452 0.062605746 0.013272822
0.0063627437 0.063627437 0.01113221
0.0073963166 0.063397005 0.0083634555
0.0087863076 0.065897308 0.0064527094
-0.020581188 0.066076443 0.0043555796
-0.019415617 0.065797374 0.0066976845
-0.017793225 0.063846275 0.0085629821
-0.016791617 0.064018041 0.013107777
-0.015739111 0.064005718 0.016229719
-0.014385827 0.062681101 0.017784685
-0.013857494 0.065023631 0.019704789
-0.012685501 0.064484634 0.021042496
-0.011127437 0.061706699 0.023856759
-0.010106858 0.061651837 0.024662197
-0.0092849042 0.062931016 0.02638492
-0.0082001593 0.062526219 0.027178437
-0.0073914742 0.064411417 0.028670102
-0.0062587736 0.063630864 0.028811306
-0.0052977926 0.064633071 0.028666735
-0.0041611977 0.063458264 0.027298003
-0.003065269 0.062327135 0.027172863
-0.0019865208 0.060588885 0.026506543
-0.0010801912 0.065891661 0.026166737
0 0.061192658 0.024373561
0.001033837 0.063064061 0.023727179
0.0021056302 0.064221717 0.021003276
0.0030497175 0.062010922 0.018477768
0.0042578802 0.064932667 0.016065955
0.0052221487 0.063710213 0.013007641
0.0061784908 0.06281466 0.011225134
0.0078344559 0.068271689 0.0090318024
0.0085704401 0.065349601 0.0068215728
-0.021226477 0.069265343 0.0042518973
-0.019025853 0.065533496 0.006983906
-0.017769158 0.064805165 0.0086264908
-0.017063729 0.066121951 0.010933191
-0.015427018 0.063765012 0.014664829
-0.014739585 0.065275304 0.017393887
-0.013596281 0.064843811 0.018744111
-0.012672792 0.065476097 0.020480484
-0.011156391 0.062881477 0.023765445
-0.010191013 0.063184284 0.02475512
-0.0092548532 0.063755661 0.026634693
-0.0084264921 0.065305315 0.027650058
-0.0069825747 0.061845664 0.02890268
-0.0060174749 0.062180575 0.029313892
-0.0050216592 0.062268581 0.02890268
-0.0040644356 0.062998749 0.027693689
-0.0030952094 0.063967668 0.027506739
-0.002040487 0.063255101 0.0267995
-0.0010119978 0.062743865 0.026407093
0 0.066435106 0.024361402
0.001047368 0.064936817 0.022689193
0.0020355461 0.063101932 0.020292789
0.0031523306 0.065148167 0.017679334
0.0042451946 0.065800518 0.015193164
0.0049933409 0.061917432 0.013320386
0.0064284969 0.066427805 0.010479569
0.0075890222 0.067217052 0.0078763664
0.0086101172 0.066728413 0.0060761869
-0.021046925 0.069787174 0.0046046972
-0.018711006 0.065488525 0.0070654452
-0.018493885 0.068536162 0.0081101656
-0.016663374 0.06561204 0.010861605
-0.015971899 0.06708198 0.013527513
-0.014910108 0.067095488 0.016417414
-0.013198225 0.063960627 0.017784685
-0.0128876 0.0676599 0.018956244
-0.011138233 0.0637917 0.02256304
-0.010078744 0.06349609 0.024521768
-0.0092215193 0.064550638 0.02606225
-0.0081245834 0.063981093 0.026928306
-0.007030081 0.063270733 0.028233737
-0.0061102193 0.0641573 0.028670102
-0.0050182394 0.063229822 0.02769962
-0.0041045654 0.064646907 0.027063519
-0.0030479524 0.064007007 0.026588768
-0.0020273011 0.063859984 0.026151031
-0.0010185387 0.064167939 0.024361402
0 0.067203887 0.022772908
0.00099516835 0.062695608 0.02074489
0.0021087353 0.066425167 0.018592954
0.003116074 0.065437555 0.015989006
0.0040322891 0.063508555 0.01354
0.0053308257 0.067168407 0.01183024
0.0063935244 0.067132011 0.0095645785
0.0073795617 0.066416055 0.0081276
0.00891806 0.070229724 0.0055321157
-0.020450292 0.068885192 0.0044089854
-0.019589435 0.069651328 0.0067189336
-0.018081764 0.06807252 0.0076426268
-0.017035242 0.068140969 0.010396183
-0.016128182 0.068813577 0.011284947
-0.014376981 0.065723345 0.01459077
-0.013974663 0.068798341 0.016818285
-0.012836396 0.068460777 0.01768294
-0.011080298 0.064467184 0.019967765
-0.010177772 0.065137751 0.023214817
-0.0092163263 0.065538324 0.02442348
-0.0081999386 0.065599509 0.026509106
-0.0072448058 0.066238225 0.026977867
-0.0060096029 0.064102434 0.026947647
-0.0051318915 0.065688215 0.026977867
-0.0040928624 0.065485798 0.026434481
-0.0030184146 0.06439285 0.024253905
-0.0020096579 0.064309053 0.023127615
-0.0010444561 0.066845194 0.02225405
0 0.066144072 0.020864457
0.0010649274 0.068155356 0.019835085
0.002124296 0.067977473 0.016383529
0.0030736856 0.065571964 0.01359725
0.0041501792 0.066402867 0.01284793
0.0052523022 0.067229472 0.01115486
0.0062920763 0.067115478 0.0088049769
0.0076371343 0.069825225 0.0071249902
0.0088573014 0.070858411 0.0050295293
-0.021009989 0.07187628 0.0043083429
-0.019179145 0.069258027 0.0065506995
-0.01779764 0.068049796 0.0070752203
-0.017221006 0.069960333 0.0091849864
-0.015723996 0.068137318 0.010480821
-0.014815971 0.068788439 0.011321217
-0.013941026 0.069705129 0.014548004
-0.012438633 0.067375936 0.015766621
-0.011584875 0.068456084 0.017428905
-0.0099066319 0.064393111 0.018855125
-0.009113064 0.065816574 0.023102343
-0.0082694096 0.067188948 0.023632646
-0.0070582996 0.065541357 0.025658995
-0.006111233 0.066205025 0.026479721
-0.0050368956 0.065479644 0.026434481
-0.0040707923 0.066150375 0.024365872
-0.0030390762 0.065846652 0.023028463
-0.0020008036 0.065026119 0.020940691
-0.0010803981 0.070225872 0.020150304
0 0.068496935 0.019630492
0.0010780509 0.070073307 0.017595977
0.0020874706 0.067842796 0.015256464
0.0032122268 0.06959825 0.012835234
0.004282156 0.069585033 0.010964483
0.0050486312 0.065632209 0.010421097
0.0065243053 0.07067997 0.0083343685
0.007657303 0.071103528 0.0067011714
0.0086371945 0.070177205 0.0045964718
-0.018917277 0.069363356 0.0062500834
-0.018427175 0.071540795 0.006469816
-0.016314825 0.067298651 0.0087167323
-0.016190289 0.071237266 0.0099170804
-0.014987684 0.070656225 0.01055184
-0.013654062 0.069320619 0.011532605
-0.012989336 0.071441345 0.013672382
-0.011963293 0.071779758 0.014687926
-0.010053646 0.066354066 0.015769303
-0.0090038748 0.066028416 0.017872691
-0.0080490913 0.066405006 0.01914832
-0.0071304385 0.067229845 0.021965146
-0.0061539141 0.067693055 0.022804052
-0.0050986549 0.067302249 0.020764917
-0.00403524 0.066581458 0.019028634
-0.0030080853 0.066177875 0.018070191
-0.0020910907 0.069005989 0.017094612
-0.0010448931 0.068962939 0.015882254
0 0.070317164 0.014382392
0.0010227535 0.067501731 0.012922466
0.0020838713 0.068767749 0.011708975
0.0032196096 0.070831411 0.010442644
0.0041139284 0.067879818 0.0088049769
0.0053098081 0.070089467 0.0084706843
0.0065913657 0.07250502 0.0069597363
0.0075182458 0.070886314 0.005045712
-0.019961864 0.074302495 0.0055297017
-0.018159267 0.071568877 0.0062795579
-0.017339882 0.072610758 0.0070210397
-0.016007967 0.071502253 0.0088668466
-0.014435545 0.069084391 0.0096078217
-0.013987669 0.072090298 0.010717034
-0.013128355 0.073299982 0.011018962
-0.011369265 0.069249161 0.012316227
-0.010881037 0.072902955 0.013090283
-0.0095316023 0.070957489 0.014341444
-0.0079573318 0.066642657 0.015560061
-0.0069798189 0.066806838 0.016405642
-0.0059612915 0.066567756 0.018574834
-0.0050611151 0.067818947 0.01631391
-0.004022303 0.067373581 0.013166159
-0.0032307559 0.072153553 0.013121814
-0.0021304165 0.071368955 0.012178302
-0.0010751408 0.072034433 0.011099219
0 0.06874679 0.011042416
0.0010599861 0.071019068 0.010792255
0.0021693853 0.072674409 0.0095989406
0.0030703726 0.068571657 0.0081154704
0.0043217749 0.072389729 0.0073040724
0.0054579945 0.073137134 0.0070974231
0.0063300161 0.070685185 0.0054358244
0.0076120137 0.072857849 0.00407058
-0.019346185 0.073085591 0.0047917664
-0.018456101 0.073824406 0.0053521693
-0.017079061 0.072586015 0.0063927174
-0.015423817 0.0699213 0.0070064068
-0.015062967 0.073162988 0.0074872673
-0.013803073 0.072200693 0.0091059804
-0.012543257 0.071078464 0.0098688006
-0.011832595 0.073146954 0.010212123
-0.011032824 0.075023204 0.010247886
-0.0098289689 0.074263319 0.010359436
-0.0092738988 0.078828141 0.0091508329
-0.0077637215 0.075419009 0.010307789
-0.0066404552 0.075258493 0.01026386
-0.0056426944 0.076740645 0.010193348
-0.0045878543 0.07799352 0.0097137094
-0.0032317755 0.073253579 0.0097366869
-0.0022179084 0.075408883 0.0087635517
-0.0010754211 0.073128641 0.0089297295
0 0.074637219 0.0088968873
0.0010795689 0.07341069 0.0090109408
0.0020636597 0.070164435 0.0082965195
0.0032445791 0.073543794 0.0071947873
0.0043878071 0.074592724 0.0064943135
0.0053397468 0.072620563 0.0054639578
0.0065434435 0.074159026 0.0048246384
-0.018937308 0.076863192 0.0046604276
-0.016611811 0.071638435 0.0060447156
-0.015973151 0.073476486 0.0064948797
-0.014949096 0.073677689 0.0064843297
-0.013454592 0.071412832 0.0076980293
-0.0129604 0.074522302 0.0078278482
-0.011679674 0.073263414 0.0080672503
-0.010253938 0.070752174 0.0079300106
-0.0097735208 0.074930333 0.0078904927
-0.0086385198 0.074507236 0.0068033338
-0.0076061506 0.074974917 0.0064403415
-0.0067595402 0.077734709 0.0063765347
-0.0055400082 0.076452114 0.0059188902
-0.0042869621 0.07395009 0.0062890649
-0.0033376857 0.076766774 0.0068173707
-0.0021582204 0.074458599 0.0069504678
-0.0010498572 0.072440147 0.0070400536
0 0.07544627 0.0070019066
0.00103808 0.07162752 0.0069801509
0.0021510099 0.074209839 0.0066990852
0.003273153 0.075282522 0.0055184364
0.0042237523 0.072859727 0.0050295293
0.0055901781 0.077144459 0.004096061
-0.017085912 0.074750863 0.0052906275
-0.016175302 0.075484738 0.0059194267
-0.014789014 0.073945068 0.0063775778
-0.013955416 0.075144552 0.0065141916
-0.013217183 0.077100232 0.0063775778
-0.011489169 0.07311289 0.0066611469
-0.010878885 0.076152198 0.0065141916
-0.0096829338 0.075311705 0.0062822104
-0.0085243843 0.074588366 0.0058852434
-0.0076643201 0.076643199 0.0048902631
-0.0064806729 0.075607851 0.0055777133
-0.0053334753 0.074668661 0.0047633052
-0.0043560257 0.076230451 0.0048896372
-0.0032380789 0.075555176 0.0054612756
-0.0020900411 0.073151432 0.0059402287
-0.0011007081 0.077049568 0.006303668
0 0.073354132 0.0062929988
0.0010931402 0.07651981 0.0059866905
0.002170284 0.075959936 0.0051896274
0.0031870869 0.074365363 0.0045991242
-0.016004611 0.075755149 0.004258424
-0.015447999 0.078343429 0.0048713386
-0.014210009 0.077608511 0.0051436722
-0.012574944 0.074401751 0.0048713386
-0.011847354 0.076469287 0.0052424371
-0.01080942 0.076746881 0.0049586892
-0.0093368506 0.073657379 0.0044683814
-0.0089831809 0.079725727 0.0043435693
-0.0064310804 0.076101117 0.0042702854
-0.0032550665 0.077036574 0.0043185055
-0.0021882083 0.077681385 0.0042330623
-0.0010736415 0.076228544 0.0046702623
0 0.078624375 0.0044811368
0.0010974761 0.077920802 0.0045709908
-0.013915355 0.077069663 0.0040879846
-0.011902939 0.077910148 0.004050523
0 0 0 1 0 0 0 1 0 0 0 1 0 0 0 0 0 596 1 0 0
