ply
format ascii 1.0
comment PCL generated
element vertex 664
property float x
property float y
property float z
element camera 1
property float view_px
property float view_py
property float view_pz
property float x_axisx
property float x_axisy
property float x_axisz
property float y_axisx
property float y_axisy
property float y_axisz
property float z_axisx
property float z_axisy
property float z_axisz
property float focal
property float scalex
property float scaley
property float centerx
property float centery
property int viewportx
property int viewporty
property float k1
property float k2
end_header
-0.0096858824 -0.0075334641 0.0042422116
-0.0089105116 -0.0077966978 0.0041550398
-0.0077347653 -0.0077347653 0.0045204461
-0.0065229014 -0.0076100519 0.0047864914
-0.0057069114 -0.0079896767 0.0047367215
-0.0044512907 -0.007789759 0.0048612654
-0.0033154965 -0.0077361586 0.0045790672
-0.0022698678 -0.0079445373 0.0041025281
-0.012330049 -0.0067254812 0.0044434369
-0.010802726 -0.0064816358 0.0050442219
-0.0099665998 -0.0066443998 0.0051536858
-0.0088713747 -0.0066535305 0.0054924786
-0.0073531689 -0.0063027162 0.0062097907
-0.0065893712 -0.0065893712 0.006557554
-0.0053456277 -0.0064147529 0.006557554
-0.0043014959 -0.0064522438 0.0057885647
-0.0033540404 -0.0067080809 0.0049822927
-0.0021454634 -0.0064363899 0.0047872365
-0.0010731686 -0.0064390115 0.0040259957
-0.014915069 -0.0053268098 0.0042909384
-0.01459396 -0.0056130611 0.0050393939
-0.01325227 -0.0055217794 0.0057905316
-0.011715022 -0.00532501 0.0079252422
-0.011295588 -0.0056477939 0.008643508
-0.0098270494 -0.0054594721 0.010207921
-0.0087151378 -0.0054469607 0.010541975
-0.0079226792 -0.0056590564 0.011422932
-0.0065698456 -0.005474871 0.010747641
-0.005444576 -0.005444576 0.010056883
-0.0044469913 -0.005558739 0.009875387
-0.0032714815 -0.005452469 0.0084592402
-0.0021352943 -0.0053382358 0.0074914992
-0.0011032639 -0.0055163195 0.0057885647
0 -0.0053919568 0.0057454705
-0.016272809 -0.0043394156 0.0040143728
-0.015810382 -0.0045172521 0.0050917268
-0.014203802 -0.0043704007 0.0057549775
-0.012753136 -0.0042510456 0.0082971752
-0.012208798 -0.004439563 0.0096036196
-0.010822296 -0.0043289186 0.011260211
-0.0092682885 -0.0041192393 0.012791812
-0.0084837321 -0.0042418661 0.013452619
-0.0073083933 -0.0041762246 0.013616621
-0.0062616654 -0.0041744434 0.013285071
-0.0054538739 -0.0043630996 0.012676716
-0.0042366493 -0.0042366493 0.012579948
-0.0031113422 -0.0041484563 0.01224485
-0.0022021793 -0.0044043586 0.011068523
-0.0010771379 -0.0043085515 0.0090564787
0 -0.0044741663 0.0082434416
0.0010696992 -0.0042787967 0.006914407
0.0021304765 -0.0042609531 0.0054415464
-0.01664515 -0.0033290298 0.0049935877
-0.015643518 -0.0033521825 0.0064014196
-0.013868995 -0.0032005373 0.0081607699
-0.013112512 -0.0032781281 0.0095684826
-0.011757846 -0.0032066852 0.012000233
-0.010128868 -0.0030386604 0.012837231
-0.0096316813 -0.0032105607 0.013953269
-0.0084692873 -0.0031759827 0.014081448
-0.0073226364 -0.0031382728 0.01445967
-0.0065628574 -0.0032814287 0.014240146
-0.0053472971 -0.0032083783 0.01335445
-0.0042352788 -0.0031764591 0.013277084
-0.0031801867 -0.0031801867 0.012685746
-0.0020435755 -0.0030653633 0.012238383
-0.0010354555 -0.0031063664 0.011249721
0 -0.0032892975 0.010091782
0.0010863685 -0.0032591054 0.008985877
0.0022128369 -0.0033192553 0.0071975887
0.0034148686 -0.0034148686 0.0066029131
0.0042152805 -0.0031614602 0.004101932
-0.017859641 -0.0022324552 0.0048593283
-0.016683796 -0.0022245063 0.006533891
-0.014956995 -0.0021367136 0.0079761744
-0.013866833 -0.002133359 0.010206014
-0.012771168 -0.002128528 0.012672156
-0.011086219 -0.0020156763 0.014524519
-0.01072883 -0.002145766 0.014361382
-0.0095034502 -0.002111878 0.014824212
-0.0082797036 -0.0020699259 0.015442044
-0.0072894627 -0.0020827036 0.015605837
-0.0062245876 -0.0020748626 0.01614809
-0.0051818471 -0.0020727389 0.015718907
-0.004243149 -0.0021215745 0.014997154
-0.0032051136 -0.0021367425 0.014098734
-0.0020695822 -0.0020695822 0.013347983
-0.001070349 -0.002140698 0.012552172
0 -0.0020663156 0.012125909
0.001082605 -0.00216521 0.010152936
0.0022104324 -0.0022104324 0.008397311
0.0031963335 -0.0021308891 0.0072305501
0.0044236258 -0.0022118129 0.0065577924
-0.018575368 -0.0010926687 0.0041605532
-0.017601481 -0.0011000925 0.0058451891
-0.016064268 -0.0010709511 0.0080751777
-0.015114966 -0.0010796404 0.0093820393
-0.013784568 -0.0010603514 0.012503773
-0.012236652 -0.001019721 0.01455301
-0.011623373 -0.0010566703 0.015173525
-0.010586902 -0.0010586902 0.015206397
-0.0092193447 -0.0010243717 0.016465008
-0.0084880311 -0.0010610039 0.016611755
-0.0072011915 -0.0010287417 0.016870439
-0.0061705057 -0.0010284176 0.017741442
-0.0053809648 -0.0010761929 0.016922235
-0.0041205129 -0.0010301282 0.016698778
-0.0031314264 -0.0010438089 0.015962154
-0.002131186 -0.001065593 0.015059531
-0.0010444446 -0.0010444446 0.014225781
0 -0.0010796918 0.012692213
0.0010671885 -0.0010671885 0.01232338
0.0020298462 -0.0010149231 0.010152936
0.0033377614 -0.0011125872 0.0091534853
0.0043373303 -0.0010843326 0.0078330636
0.0053754775 -0.0010750955 0.0063865781
0.0066493526 -0.0011082254 0.0044089556
-0.019618804 0 0.004221946
-0.018901655 0 0.0053143501
-0.017236948 0 0.0082556307
-0.016068889 0 0.0094732344
-0.015039937 0 0.012159199
-0.013316384 0 0.014295191
-0.012748654 0 0.01519084
-0.011516805 0 0.016653419
-0.0099718841 0 0.016930938
-0.0095238695 0 0.017517984
-0.0082481066 0 0.018315971
-0.0072519989 0 0.020915151
-0.006393305 0 0.021898687
-0.005246541 0 0.020739704
-0.00418662 0 0.019239426
-0.0032024097 0 0.0180839
-0.0020698523 0 0.01693511
-0.0010103018 0 0.016323537
0 0 0.014164597
0.0010202407 0 0.013114512
0.0021750948 0 0.010964245
0.0032263726 0 0.0094801486
0.0042007654 0 0.0084110498
0.005480974 0 0.0072939694
0.0066007208 0 0.0065616369
0.0075084842 0 0.0040864646
-0.020848623 0.0010972959 0.004112184
-0.019765666 0.0010980926 0.0047011673
-0.01868929 0.00109937 0.0065352619
-0.017016584 0.0010635365 0.0092607737
-0.015994804 0.0010663202 0.011865675
-0.013929963 0.00099499733 0.013715476
-0.013861419 0.001066263 0.015033603
-0.012947549 0.0010789625 0.016865969
-0.011066209 0.001006019 0.018094927
-0.010628352 0.0010628352 0.01924023
-0.0093296217 0.0010366247 0.021479219
-0.0082573472 0.0010321684 0.022159576
-0.007452982 0.0010647117 0.022202075
-0.0061416063 0.001023601 0.023015976
-0.005118181 0.0010236362 0.02284053
-0.0042475788 0.0010618947 0.022620469
-0.0031069149 0.0010356384 0.021736354
-0.0020275293 0.0010137646 0.020650804
-0.001055786 0.001055786 0.019246221
0 0.0010218871 0.016798049
0.001063347 0.001063347 0.01517123
0.0021564297 0.0010782148 0.012879997
0.0030820379 0.001027346 0.011490792
0.0043209898 0.0010802475 0.0099574924
0.0053791353 0.0010758272 0.0087070465
0.0064660814 0.0010776803 0.0076013803
0.0077406201 0.0011058028 0.0056792498
-0.021160876 0.0022274607 0.0042075515
-0.019722721 0.0021914134 0.0055333674
-0.018240683 0.0021459628 0.0073012412
-0.017052492 0.0021315615 0.011211872
-0.015878581 0.0021171442 0.013270587
-0.015215493 0.0021736419 0.014445096
-0.013840689 0.0021293368 0.015682548
-0.012150967 0.0020251612 0.017406523
-0.011532752 0.0020968639 0.019394457
-0.010444166 0.0020888334 0.021343857
-0.009031076 0.0020069059 0.0223836
-0.0085298941 0.0021324735 0.023127377
-0.0075894748 0.0021684214 0.024097711
-0.0063690818 0.0021230273 0.02539736
-0.0054781619 0.0021912649 0.024924785
-0.0042065661 0.0021032831 0.023857594
-0.0031394453 0.0020929636 0.02268514
-0.0021231177 0.0021231177 0.021976471
-0.0010373008 0.0020746016 0.02038157
0 0.002140705 0.019162387
0.0010709589 0.0021419178 0.016837597
0.0020145837 0.0020145837 0.014332205
0.0031485914 0.0020990609 0.012724668
0.0041682757 0.0020841379 0.010727167
0.0052153808 0.0020861523 0.0091637075
0.0066514849 0.0022171617 0.0079676807
0.0077128075 0.0022036594 0.0058194101
0.008583541 0.0021458853 0.0040531754
-0.020887449 0.0032980181 0.0053038001
-0.019595228 0.0032658714 0.0067582726
-0.018437166 0.0032536176 0.009403497
-0.016976191 0.0031830356 0.012060881
-0.015903009 0.0031806019 0.014062673
-0.014755429 0.0031618776 0.015183508
-0.01345386 0.0031047368 0.016743451
-0.012833864 0.0032084661 0.018448085
-0.011631128 0.0031721259 0.021571994
-0.010239195 0.0030717587 0.023227096
-0.0096887387 0.0032295797 0.024376571
-0.0085692648 0.0032134743 0.025348604
-0.0070401262 0.0030171969 0.02599296
-0.0061041415 0.0030520707 0.026090652
-0.0050579989 0.0030347994 0.025804549
-0.0041877213 0.0031407911 0.025425822
-0.0033138988 0.0033138988 0.024471015
-0.0021089388 0.003163408 0.02365908
-0.0010304556 0.0030913667 0.022200525
0 0.0031586916 0.020379782
0.0010078953 0.0030236861 0.018808275
0.0021719849 0.0032579773 0.01552549
0.0032604872 0.0032604872 0.013663769
0.0041767466 0.0031325598 0.011503339
0.0053945482 0.003236729 0.0099277794
0.0067088129 0.0033544064 0.0086701214
0.0075782607 0.0032478259 0.0068179965
0.0089116255 0.0033418594 0.0053734481
-0.020668287 0.0043512182 0.0056673884
-0.02035241 0.0045227581 0.0069462657
-0.0177978 0.0041877176 0.009531945
-0.016726276 0.004181569 0.012102634
-0.015812181 0.0042165816 0.014450461
-0.014577663 0.0041650464 0.016019344
-0.013966135 0.0042972723 0.017683893
-0.012778002 0.0042593339 0.019240022
-0.011355992 0.0041294517 0.022695124
-0.01099967 0.0043998682 0.023477912
-0.0091426559 0.0040634028 0.025138378
-0.0080136061 0.004006803 0.026088446
-0.0071445243 0.0040825852 0.026242882
-0.0061508291 0.0041005528 0.026545942
-0.0050713015 0.0040570414 0.026238501
-0.0040293531 0.0040293531 0.025824934
-0.0029929979 0.0039906637 0.025344223
-0.002137915 0.00427583 0.024597973
-0.0010753697 0.0043014786 0.023187965
0 0.0040549194 0.021140993
0.0010805522 0.0043222089 0.019922227
0.0021127947 0.0042255893 0.018120915
0.0031069524 0.0041426034 0.015158862
0.004293717 0.004293717 0.012491494
0.0053459611 0.0042767692 0.010856956
0.0063721347 0.0042480901 0.010137409
0.007715079 0.0044086166 0.0082041323
0.0086978255 0.0043489127 0.005559206
0.010003432 0.0044459701 0.0048317313
-0.021892892 0.005473223 0.0043564439
-0.020991705 0.0055241329 0.0062784553
-0.019335506 0.0053709741 0.0074377358
-0.018155606 0.0053398842 0.0098476112
-0.016617609 0.0051930025 0.012003154
-0.01575416 0.0052513862 0.014159083
-0.015011465 0.0053612376 0.015286088
-0.01357281 0.0052203117 0.017558843
-0.012334462 0.0051393593 0.019240022
-0.011902071 0.0054100323 0.022078395
-0.010194799 0.0050973995 0.023173571
-0.0090535255 0.0050297366 0.024831712
-0.0083142733 0.0051964205 0.025893599
-0.0072676484 0.0051911776 0.026248604
-0.0061945505 0.0051621255 0.026762158
-0.0052055889 0.0052055889 0.026599079
-0.0041848295 0.0052310368 0.025998682
-0.0030732099 0.0051220162 0.025423467
-0.0020231095 0.0050577731 0.024860054
-0.0010746687 0.0053733434 0.024101764
0 0.0053864694 0.022448272
0.0010300381 0.0051501906 0.020737708
0.0020489607 0.0051224013 0.018905997
0.0032391069 0.0053985114 0.015881628
0.0042048274 0.0052560335 0.013728827
0.0051519386 0.0051519386 0.011939973
0.0065270485 0.005439207 0.010996193
0.0076495721 0.0054639801 0.0084520578
0.0086171161 0.0053856974 0.0063038468
0.010005344 0.0055585247 0.0054091513
-0.020827834 0.0065772105 0.0058451891
-0.01917807 0.0063926899 0.0067950189
-0.018270966 0.0064485758 0.0089831352
-0.016579999 0.0062174993 0.011638701
-0.016044237 0.006417695 0.014159083
-0.014656085 0.0062811794 0.015286088
-0.013443219 0.0062045627 0.018003732
-0.012815963 0.0064079817 0.020254076
-0.01163149 0.0063444488 0.022666782
-0.0099110315 0.005946619 0.023721248
-0.0093170805 0.0062113875 0.025096357
-0.0082062166 0.0061546625 0.025984377
-0.0073416475 0.0062928405 0.026713401
-0.0062546902 0.0062546902 0.027602434
-0.0052712513 0.0063255015 0.027187288
-0.0040976265 0.0061464398 0.02615732
-0.0030818838 0.0061637675 0.025438368
-0.0020176745 0.0060530235 0.025164723
-0.0010251254 0.0061507518 0.024182051
0 0.0063808677 0.022488385
0.001019882 0.0061192922 0.020539969
0.0021080291 0.0063240873 0.018952936
0.003201318 0.0064026359 0.016379297
0.004153715 0.0062305727 0.014653146
0.0053401408 0.0064081689 0.012646526
0.0063677132 0.0063677132 0.011709422
0.007450033 0.0063857427 0.0097202063
0.0088538192 0.006640364 0.0073828399
0.0101789 0.0067859334 0.0059019327
0.010883179 0.0065299082 0.00402686
-0.020771451 0.0076526399 0.0057133734
-0.01947329 0.0075729461 0.0064686537
-0.017951291 0.007391708 0.0086803734
-0.017219691 0.007533615 0.011615336
-0.016194372 0.0075573735 0.014080316
-0.014532658 0.0072663291 0.016196638
-0.013760324 0.007409405 0.01783523
-0.012803012 0.0074684233 0.020700693
-0.011086672 0.007055155 0.022672117
-0.010205615 0.0071439305 0.023696065
-0.009313412 0.0072437651 0.025096357
-0.0082931686 0.0072565228 0.026271194
-0.0071757906 0.0071757906 0.027173758
-0.0062017674 0.0072353953 0.02767849
-0.005129606 0.0071814484 0.027608156
-0.0042866901 0.0075017079 0.026719123
-0.0031251044 0.0072919102 0.025728226
-0.0020366139 0.0071281488 0.025233865
-0.0010193529 0.0071354699 0.024024457
0 0.0075251278 0.022090495
0.0010551399 0.0073859799 0.020672143
0.002126721 0.007443523 0.018887371
0.0031208978 0.007282095 0.016312331
0.0042274338 0.0073980088 0.014801621
0.0052475664 0.0073465933 0.012876332
0.0062489496 0.0072904411 0.011683524
0.007588408 0.007588408 0.0094279945
0.008582823 0.0075099701 0.0066675246
0.0098202787 0.0076379948 0.005897373
-0.021234438 0.0089408159 0.0058192909
-0.019448262 0.0086436719 0.0065132976
-0.018111981 0.0085232854 0.0086803734
-0.017081464 0.0085407319 0.011366338
-0.015723001 0.0083856005 0.013400197
-0.014974668 0.0085569527 0.015031397
-0.013708192 0.0084358109 0.017447382
-0.012302981 0.0082019875 0.020607799
-0.011374401 0.0082722921 0.023198754
-0.01031118 0.0082489438 0.024376571
-0.0090381615 0.0080339219 0.025547743
-0.0084117576 0.0084117576 0.0267874
-0.0071268128 0.0081449291 0.027782261
-0.0062398794 0.0083198398 0.028206021
-0.0051126024 0.0081801638 0.028102249
-0.0040919036 0.0081838071 0.027197391
-0.0030909411 0.0082425103 0.025984377
-0.0020760223 0.0083040893 0.025433987
-0.0010002846 0.0080022765 0.024270564
0 0.0086133992 0.022066534
0.0010539931 0.008431945 0.019703746
0.0020424926 0.0081699705 0.018337756
0.0031673873 0.0084463665 0.015736938
0.0042204079 0.0084408158 0.014632612
0.005202821 0.0083245141 0.013260812
0.0064209206 0.0085612275 0.011452973
0.0078841671 0.009010477 0.0093380511
0.0086931083 0.0086931083 0.0071863532
0.01010341 0.0089808097 0.006046474
0.01076034 0.0086082723 0.0046820343
-0.020725416 0.0098173022 0.0056631565
-0.018730333 0.0093651665 0.0064242482
-0.018364692 0.0097224843 0.0086803734
-0.016428562 0.009241065 0.010713279
-0.016093154 0.0096558919 0.013063997
-0.01520075 0.0097719105 0.014436573
-0.013480934 0.009332954 0.01733771
-0.012968445 0.0097263334 0.020615727
-0.011498475 0.0094078435 0.022695124
-0.0100754 0.0090678595 0.02374959
-0.0093909176 0.0093909176 0.024860054
-0.0084644584 0.0095225153 0.02600053
-0.0071703801 0.0092190597 0.026894271
-0.0060687568 0.0091031352 0.027197391
-0.0051568286 0.0092822909 0.026713401
-0.0041548382 0.009348386 0.025984377
-0.003109979 0.0093299374 0.024979889
-0.0020439692 0.009197861 0.024646461
-0.0010119359 0.0091074221 0.023661196
0 0.0096423756 0.021000981
0.0010044987 0.0090404879 0.019265383
0.0021139507 0.0095127774 0.018411487
0.0032623142 0.009786943 0.015736938
0.0041324063 0.0092979129 0.014801621
0.0053211031 0.0095779859 0.013589531
0.0063145207 0.0094717806 0.012763292
0.0074596526 0.0095909815 0.0099175572
0.0089466786 0.010065014 0.0073738992
0.0098011969 0.0098011969 0.0059600472
0.010746971 0.0096722739 0.0047766268
-0.020786662 0.010940348 0.0059098601
-0.019786969 0.010992761 0.0070460141
-0.018252824 0.010736955 0.0086883307
-0.017340718 0.010837949 0.0098403692
-0.016306007 0.010870672 0.012296677
-0.014945693 0.010675495 0.014163673
-0.013947426 0.010728789 0.016550362
-0.012912109 0.01076009 0.018236995
-0.011662009 0.010601826 0.02048403
-0.010009599 0.010009599 0.02131924
-0.0092554362 0.010283818 0.023198754
-0.0082367547 0.010295943 0.024201423
-0.0074323327 0.010617618 0.025314689
-0.0063529098 0.010588183 0.025433987
-0.005264712 0.010529424 0.02492097
-0.0041572736 0.010393184 0.024587542
-0.003084925 0.010283083 0.023504019
-0.0020409222 0.01020461 0.023286819
-0.001032601 0.010326009 0.021403581
0 0.010469899 0.020127267
0.0010658831 0.01065883 0.019111872
0.0021328435 0.010664216 0.017607868
0.0030882165 0.010294055 0.0153265
0.0042523611 0.010630903 0.01425606
0.0053436444 0.010687289 0.013004929
0.0061920029 0.010320004 0.011617005
0.0076904446 0.010986349 0.0092884004
0.008709196 0.010886495 0.0065469146
0.0097507052 0.010834116 0.0050336421
-0.021050205 0.012186961 0.0054145157
-0.019813074 0.012107991 0.006256938
-0.017975215 0.01163102 0.0080655217
-0.017579302 0.012085769 0.0090693533
-0.015610569 0.01144775 0.01102221
-0.015175828 0.011923864 0.012995631
-0.014189646 0.012006624 0.014659405
-0.012550829 0.011504927 0.016311884
-0.012168605 0.012168605 0.01740393
-0.010194181 0.011213599 0.018617362
-0.009073847 0.011090257 0.020430505
-0.0084024603 0.011553383 0.021888435
-0.0070534484 0.01108399 0.0232687
-0.0061078575 0.011197739 0.023722202
-0.0052137803 0.011470317 0.023504019
-0.0041448111 0.011398231 0.021605849
-0.0030777741 0.011285172 0.020793766
-0.0020094591 0.011052025 0.020934194
-0.0010726399 0.011799038 0.019878089
0 0.011727334 0.019098759
0.0010557561 0.011613317 0.018402129
0.0020299389 0.011164663 0.017211825
0.0031670062 0.011612356 0.014988393
0.0042484254 0.011683169 0.013927251
0.0052588815 0.01156954 0.013004929
0.0064512258 0.011827247 0.011222482
0.007605046 0.011950786 0.0089503825
0.0086506093 0.011894587 0.0064842403
0.010081321 0.012321615 0.0047685504
-0.020922618 0.013214285 0.0045802593
-0.02015469 0.013436461 0.0061372519
-0.018047426 0.012739359 0.0072999001
-0.016686471 0.012514853 0.0085090399
-0.016011424 0.012809139 0.0098390281
-0.015231021 0.013055161 0.01192525
-0.013524218 0.012483893 0.013639182
-0.012715877 0.012715877 0.015732944
-0.011897651 0.012979255 0.016462207
-0.010613251 0.012735902 0.017052203
-0.0090814214 0.012108562 0.018349618
-0.0080742659 0.012111398 0.019306421
-0.0071732355 0.012296975 0.020452023
-0.0062021217 0.012404243 0.020793766
-0.0050476394 0.012114335 0.019699723
-0.0040499265 0.01214978 0.01937601
-0.0030464705 0.012185882 0.017766714
-0.002134379 0.012806274 0.018001974
-0.0010643959 0.01277275 0.01776132
0 0.012774252 0.017611146
0.0010272176 0.012326611 0.017042696
0.0021168261 0.012700956 0.015546739
0.0031486775 0.01259471 0.013940752
0.0041898568 0.01256957 0.012669593
0.0053450433 0.012828103 0.011398852
0.0065571661 0.013114332 0.010149956
0.0075191855 0.012890032 0.007700026
0.0087504117 0.013125617 0.0064246356
0.009900175 0.013200234 0.0047685504
-0.020101616 0.014517834 0.0056327879
-0.018341025 0.01402549 0.0064464211
-0.017120689 0.013910561 0.0080682337
-0.016203841 0.014043329 0.009114027
-0.014531483 0.01349352 0.011180788
-0.013893747 0.013893747 0.012771815
-0.012766787 0.013830686 0.013639182
-0.011353922 0.013418271 0.014694661
-0.011066919 0.014386996 0.015870273
-0.01007652 0.014554974 0.016386092
-0.0085381754 0.013874535 0.016654909
-0.0070353309 0.013065615 0.016654909
-0.0059753195 0.012946526 0.016223699
-0.0050591286 0.013153736 0.016223699
-0.0041685663 0.01354784 0.016354829
-0.003323213 0.014400589 0.016293824
-0.0021605394 0.014043506 0.016726613
-0.0010777203 0.014010363 0.016580194
0 0.013508903 0.016804993
0.0010579138 0.013752879 0.015366048
0.0021813819 0.014178983 0.014044344
0.0030703656 0.013304918 0.012818635
0.0042326753 0.013756195 0.011416882
0.0054049557 0.014052885 0.010299861
0.0064085787 0.013885254 0.0091927052
0.0077220579 0.014340965 0.0066369176
0.0087082954 0.01415098 0.0053849816
0.0097628627 0.014101913 0.0042822957
-0.019726261 0.015342649 0.0045050681
-0.018670687 0.01537586 0.0053125918
-0.017262463 0.015104655 0.0069690049
-0.015594131 0.014554522 0.0084725618
-0.01486278 0.01486278 0.0091728866
-0.013914747 0.014985112 0.011005163
-0.012449949 0.014524941 0.01181671
-0.011863559 0.015099075 0.012681544
-0.010752862 0.015054008 0.01295653
-0.0094582792 0.014712879 0.013929665
-0.0087187728 0.015257852 0.015037119
-0.0077892216 0.015578443 0.015037119
-0.0066847894 0.015597842 0.014792293
-0.005484628 0.015356959 0.014633954
-0.0042908168 0.015017859 0.014617622
-0.0031779648 0.014830502 0.014653057
-0.0022093512 0.015465458 0.015433818
-0.0010484401 0.014678162 0.015643209
0 0.015006664 0.014253587
0.0010531932 0.014744706 0.013563424
0.0020852825 0.014596977 0.01295501
0.0031538338 0.014717892 0.011475921
0.0042754612 0.014964114 0.010510981
0.0052707512 0.014758104 0.0099180639
0.0065034572 0.015174734 0.0074397624
0.0077546746 0.015509349 0.006036967
0.0088264896 0.015446357 0.0050953925
0.0099292742 0.015445538 0.0040920675
-0.018898753 0.016675372 0.0044362247
-0.016873192 0.015818616 0.0050885677
-0.01615626 0.01615626 0.0078172982
-0.015106115 0.016185122 0.0084147751
-0.013716353 0.015826562 0.0090813339
-0.012710473 0.015888091 0.0098618269
-0.011984426 0.0163424 0.010726243
-0.010555748 0.015833622 0.010820657
-0.0097628022 0.016271338 0.011300534
-0.0085025681 0.015942317 0.011834115
-0.0075872256 0.01625834 0.012309611
-0.0065156636 0.01628916 0.012028158
-0.0053976136 0.01619284 0.012249798
-0.0041929409 0.015723528 0.012645364
-0.0032888153 0.016444076 0.012740642
-0.0021294523 0.015970893 0.012799799
-0.0010587646 0.015881469 0.01315254
0 0.016125556 0.012691408
0.0010467609 0.015701413 0.012196004
0.0021468787 0.016101591 0.0109846
0.0032442138 0.016221069 0.010342658
0.0041714935 0.015643101 0.0097512901
0.0055264761 0.016579429 0.0076154768
0.0064301235 0.016075309 0.0060963333
0.0077036503 0.016507823 0.0054275393
0.0090367198 0.01694385 0.0043242872
-0.017985879 0.017985879 0.0043148398
-0.01638484 0.017477162 0.0065616965
-0.01495718 0.017093921 0.0073872209
-0.013969142 0.01719279 0.0083308518
-0.013163068 0.017550757 0.008384645
-0.011661696 0.016962467 0.008988589
-0.010563863 0.016902182 0.0093960464
-0.009660989 0.017175091 0.010063618
-0.0084997974 0.016999595 0.010240704
-0.0076679382 0.017526716 0.0099450648
-0.006394411 0.017051764 0.0096229315
-0.0052344296 0.016750176 0.0099804997
-0.0044035758 0.017614303 0.009896636
-0.0031737143 0.016926477 0.0099509656
-0.0021533731 0.017226985 0.0099442601
-0.0010905269 0.017448431 0.010262758
0 0.016586736 0.010301828
0.0010668874 0.017070198 0.010140985
0.0021196199 0.016956959 0.0095523596
0.0031325896 0.016707145 0.0088421404
0.0044284323 0.017713729 0.0070823133
0.005538431 0.017722981 0.0064536929
0.0064528943 0.017207719 0.0049579144
0.0081152562 0.018549157 0.0042457283
-0.018071687 0.019201167 0.0041163862
-0.016250746 0.018417513 0.006160289
-0.014998262 0.018212175 0.0073637068
-0.014057151 0.018382428 0.0080890357
-0.012430265 0.017609542 0.0082484782
-0.011867487 0.018340662 0.0089060068
-0.010718685 0.018221764 0.0087507963
-0.0094281295 0.017808691 0.0095026195
-0.0085413149 0.018150294 0.0093058348
-0.0074232607 0.018027918 0.0079666674
-0.0063294284 0.017933382 0.0083037019
-0.0055497396 0.018869115 0.0089854002
-0.0042820177 0.018198576 0.0087849796
-0.0031774079 0.018005311 0.0089722574
-0.0022264987 0.01892524 0.0089634657
-0.0010589189 0.01800162 0.0091970265
0 0.018233662 0.0082696974
0.0010762812 0.01829678 0.0075680614
0.0021133097 0.017963132 0.0073278546
0.0032974791 0.018685715 0.0069493949
0.0043777805 0.018605568 0.0052696764
0.0054132878 0.01840518 0.004938066
-0.016802294 0.020162754 0.0044036806
-0.0157739 0.020280728 0.0051371455
-0.013893368 0.019236971 0.0065198541
-0.013066026 0.019599039 0.006983906
-0.011994124 0.019626748 0.0079073012
-0.010648704 0.019167667 0.0077720582
-0.0097351251 0.01947025 0.0075223148
-0.0086124903 0.019378103 0.0064505935
-0.007617285 0.019587303 0.0053806603
-0.0066477689 0.019943306 0.0057992935
-0.0052360604 0.018849818 0.0060248971
-0.0043188282 0.019434726 0.0059030056
-0.0033300121 0.019980071 0.0064673722
-0.0021898297 0.019708466 0.0064164698
-0.0010620316 0.019116569 0.0071417689
0 0.019913748 0.0066696405
0.0010469251 0.018844651 0.0066612661
0.0022596363 0.020336725 0.0050601959
0.0033468239 0.020080943 0.0053791702
0.0043117628 0.019402931 0.004838407
0.0055610109 0.020019639 0.0045491159
-0.015099715 0.020492472 0.0044063926
-0.014961703 0.021867106 0.0057482719
-0.013357473 0.021149334 0.0058909953
-0.011583541 0.020007934 0.0068383217
-0.010720542 0.020369031 0.0067940354
-0.0098775849 0.020852679 0.0064505935
-0.008672392 0.020596931 0.0054215491
-0.0077536693 0.021045674 0.0053806603
-0.0063477391 0.020101175 0.0050811768
-0.0053663962 0.020392306 0.0053587258
-0.004380452 0.020807147 0.0050173402
-0.0032673217 0.02069304 0.0043284297
-0.0021638747 0.020556809 0.0047513843
-0.0011161161 0.021206206 0.005484432
0 0.020879934 0.0041584671
0.0011259221 0.021392519 0.0042487383
-0.012889274 0.023435045 0.0050690174
-0.011342657 0.022685314 0.0057021677
-0.0097163804 0.021591956 0.0054742992
-0.0089455741 0.022363935 0.0046885014
-0.0075447261 0.021556359 0.0046007037
-0.006438307 0.021461023 0.0043880641
-0.0056525581 0.022610232 0.0047294497
-0.0044464185 0.022232091 0.0043284297
0 0 0 1 0 0 0 1 0 0 0 1 0 0 0 0 0 664 1 0 0
