ply
format ascii 1.0
comment PCL generated
element vertex 522
property float x
property float y
property float z
element camera 1
property float view_px
property float view_py
property float view_pz
property float x_axisx
property float x_axisy
property float x_axisz
property float y_axisx
property float y_axisy
property float y_axisz
property float z_axisx
property float z_axisy
property float z_axisz
property float focal
property float scalex
property float scaley
property float centerx
property float centery
property int viewportx
property int viewporty
property float k1
property float k2
end_header
-0.011038071 0.0044152285 0.0041079819
-0.0097878259 0.0043501449 0.0046422184
-0.0086958744 0.0043479372 0.004999429
-0.0077347094 0.0044198339 0.004433006
-0.0053365114 0.0042692092 0.0044286251
-0.0044298009 0.0044298009 0.0046798587
-0.012646005 0.0052691689 0.0054484904
-0.012037497 0.0054715895 0.006700635
-0.010920734 0.0054603671 0.007332176
-0.0096180337 0.005343352 0.0077651739
-0.0088936239 0.005558515 0.0095064342
-0.0076256753 0.0054469109 0.0090413988
-0.0065281461 0.0054401215 0.0077822804
-0.005623816 0.005623816 0.0068148971
-0.0043740738 0.0054675918 0.0065510273
-0.0032241084 0.0053735138 0.0059129298
-0.0022588198 0.0056470488 0.004260689
-0.0010946671 0.0054733353 0.0042980909
-0.015171322 0.006501995 0.0042720437
-0.014107062 0.006510952 0.0061732829
-0.013295693 0.0066478467 0.0067784786
-0.012029708 0.0065616593 0.0086789727
-0.010299891 0.0061799348 0.01228717
-0.0096281264 0.0064187511 0.012852162
-0.0084168827 0.0063126618 0.012691677
-0.007359996 0.0063085682 0.012671292
-0.0063593006 0.0063593006 0.011753798
-0.0052618016 0.0063141622 0.0094532967
-0.0042102914 0.0063154367 0.0087613463
-0.0033333728 0.0066667455 0.0075561106
-0.0022159424 0.0066478271 0.0064685047
-0.0010998728 0.0065992367 0.0056529045
0 0.0065220711 0.004391551
-0.015186913 0.0075934567 0.0058095157
-0.014044703 0.0075625326 0.0067350268
-0.012725498 0.0074232067 0.010722607
-0.011559287 0.0073559098 0.012826979
-0.010699288 0.0074895015 0.012951195
-0.0095235091 0.007407174 0.013355523
-0.0085252821 0.0074596219 0.013706475
-0.0074838665 0.0074838665 0.013450056
-0.0063681863 0.0074295509 0.01280123
-0.0051393597 0.0071951039 0.012112021
-0.0043705753 0.0076485071 0.0107674
-0.003151441 0.0073533622 0.009562552
-0.0021039199 0.0073637194 0.0091105402
-0.0010993404 0.0076953825 0.0079468787
0 0.0076395003 0.0060632229
-0.017606793 0.0088033965 0.004212141
-0.015924953 0.008493308 0.0068669915
-0.014895341 0.0085116234 0.0090509653
-0.013688389 0.0084236246 0.012305439
-0.012299324 0.0081995502 0.013966978
-0.011743761 0.0085409172 0.014977038
-0.010713412 0.0085707307 0.015242517
-0.0089701433 0.0079734614 0.015898585
-0.008689696 0.008689696 0.016569078
-0.0073320451 0.0083794799 0.016206533
-0.0063159536 0.0084212711 0.013972878
-0.0054597617 0.0087356195 0.013450056
-0.0042011444 0.0084022889 0.01303947
-0.0030797853 0.008212761 0.012142092
-0.0021606383 0.0086425534 0.011490852
-0.0010501525 0.0084012197 0.0096316934
0 0.0086490018 0.0082251132
0.0011347085 0.0090776682 0.0047081411
0.0021347902 0.0085391607 0.004391551
-0.01683009 0.0094669256 0.0072051287
-0.016128791 0.0096772742 0.011108994
-0.015286042 0.0098267412 0.013356298
-0.01317995 0.0091245808 0.01535362
-0.012709604 0.009532202 0.016538203
-0.011736435 0.0096025374 0.017188668
-0.010200329 0.0091802962 0.01758495
-0.0094134063 0.0094134063 0.018908739
-0.0083410991 0.0093837362 0.018855214
-0.0073039234 0.0093907584 0.01782304
-0.0063291495 0.0094937235 0.017381459
-0.0051239124 0.0092230421 0.01668945
-0.0040987576 0.0092222048 0.015699446
-0.003218607 0.0096558202 0.013729125
-0.0020748149 0.0093366662 0.013029367
-0.0010438788 0.0093949093 0.011204302
0 0.009699435 0.0097386837
0.00099200185 0.0089280168 0.0082061589
0.0021829568 0.0098233046 0.0069748163
0.0032213503 0.0096640503 0.0044897795
-0.018488878 0.010875811 0.006727308
-0.016996711 0.010622944 0.011238337
-0.016034637 0.010689758 0.013605356
-0.014630985 0.010450703 0.015902609
-0.013652796 0.01050215 0.017068118
-0.012385681 0.010321401 0.019666761
-0.011447523 0.010406839 0.019703269
-0.010444692 0.010444692 0.019997835
-0.009377745 0.010419717 0.020074427
-0.0082625952 0.010328244 0.020077348
-0.0072783194 0.010397599 0.020049244
-0.0062951297 0.010491882 0.019889176
-0.0052098553 0.010419711 0.019635379
-0.0043118517 0.010779629 0.019550383
-0.0031756258 0.010585419 0.01743722
-0.0020653044 0.010326521 0.016435891
-0.0010854502 0.0108545 0.01447314
0 0.01031446 0.01188013
0.0010999577 0.010999577 0.0096316934
0.0022275688 0.011137843 0.0087105334
0.0034314531 0.011438177 0.0059129298
-0.019868972 0.01214215 0.005944401
-0.017618051 0.011399915 0.010280371
-0.017089147 0.011748789 0.012564212
-0.015246023 0.011180417 0.014445603
-0.014904632 0.011710783 0.016714394
-0.013822174 0.011695686 0.01804933
-0.012318339 0.011291811 0.020092696
-0.0117658 0.0117658 0.020460784
-0.010575016 0.011632518 0.020983696
-0.0091040106 0.011127125 0.021824509
-0.0086930236 0.011952908 0.022105992
-0.0072309156 0.011362867 0.021668822
-0.0061148056 0.011210476 0.021122754
-0.0053493888 0.011768656 0.020808071
-0.0042108805 0.011579921 0.020249248
-0.003034621 0.011126943 0.019546151
-0.0021584253 0.011871339 0.019281089
-0.0010474665 0.011522132 0.017343104
0 0.011840645 0.014788449
0.0011099428 0.01220937 0.011946261
0.0020713862 0.011392623 0.010164917
0.0033394361 0.012244599 0.0086417496
0.0045882799 0.012617769 0.006315887
-0.019698773 0.013132515 0.0061304569
-0.017805193 0.012568371 0.011336982
-0.016395129 0.012296346 0.013573617
-0.01579308 0.012634463 0.015754849
-0.015022948 0.012876813 0.017898262
-0.013354749 0.012327461 0.019826531
-0.012506066 0.012506066 0.021663606
-0.011570605 0.012622477 0.022111714
-0.010201369 0.012241644 0.022551388
-0.0096753333 0.012900445 0.023294538
-0.008498868 0.012748301 0.023614526
-0.0073024868 0.012518549 0.023706168
-0.0066028722 0.013205744 0.022618264
-0.0053746011 0.012899042 0.022035003
-0.0041691354 0.012507406 0.021461487
-0.0032011524 0.01280461 0.020366669
-0.0020759914 0.012455948 0.019902915
-0.0010558022 0.012669627 0.018940777
0 0.012862749 0.017606437
0.0010330076 0.012396092 0.014736623
0.002115729 0.012694374 0.012145728
0.0031814061 0.012725624 0.0098203421
0.0043263738 0.012979122 0.0085858405
0.0054818611 0.013156467 0.005289942
-0.021154625 0.014474218 0.0056851804
-0.019085741 0.013784146 0.0094967484
-0.017810015 0.013619424 0.012984693
-0.016696863 0.013566201 0.015038282
-0.015800985 0.013694186 0.016995639
-0.014278236 0.013258361 0.019892275
-0.013472483 0.013472483 0.02137664
-0.012624974 0.013677056 0.023237437
-0.011333148 0.013393721 0.023587853
-0.010963348 0.014252353 0.023786575
-0.0094163036 0.013601328 0.024555176
-0.0080044176 0.013007178 0.025718749
-0.0070451414 0.013083833 0.025718749
-0.0060667242 0.013144569 0.023702294
-0.0052395072 0.013622719 0.023542643
-0.0043669883 0.014192711 0.022728294
-0.0032138834 0.013926828 0.022149682
-0.0021295806 0.013842274 0.020542741
-0.0010779641 0.014013533 0.019481093
0 0.013401947 0.018743038
0.0010493817 0.013641962 0.016761929
0.0021807726 0.014175021 0.013489902
0.0030540943 0.013234409 0.010796845
0.0043053161 0.013992278 0.0096097887
0.005548771 0.014426805 0.0078995824
-0.020896098 0.015397125 0.0056782067
-0.018815666 0.014634408 0.0096446276
-0.017967911 0.014797103 0.012963355
-0.016900048 0.014787542 0.016048104
-0.015205008 0.014191341 0.018073827
-0.014673498 0.014673498 0.020458102
-0.013769059 0.014828217 0.022109777
-0.012254059 0.014296403 0.02369523
-0.012094062 0.015392443 0.024265826
-0.0099450732 0.013923103 0.025991529
-0.0090333419 0.014051866 0.026696742
-0.0082225902 0.014389533 0.026711166
-0.0071916906 0.014383381 0.026711166
-0.0060676755 0.01415791 0.026127189
-0.0050099557 0.014027877 0.025461793
-0.0040188017 0.014065806 0.025034159
-0.003172846 0.014806615 0.023613483
-0.0021632824 0.015142976 0.022444278
-0.0010141928 0.0141987 0.020111144
0 0.014941826 0.019278258
0.0010325352 0.014455493 0.017116457
0.0020535949 0.014375164 0.014321625
0.0031242184 0.014579686 0.011479437
0.0043037352 0.015063073 0.0098052025
0.0052479012 0.014694124 0.0086643398
0.0065264897 0.015228475 0.0049022734
-0.019986421 0.015778752 0.0072016716
-0.018472116 0.01539343 0.010029167
-0.018147398 0.01601241 0.013010412
-0.016400732 0.015375686 0.015399903
-0.015754385 0.015754385 0.018386006
-0.014858025 0.015919313 0.020733535
-0.013353751 0.015408175 0.021788985
-0.01285153 0.016064413 0.023636371
-0.011064506 0.015087963 0.025718749
-0.010147626 0.015221438 0.02637285
-0.0092759505 0.015459917 0.026316851
-0.0082062501 0.015386719 0.026979953
-0.0071466886 0.015314332 0.02706781
-0.0062780525 0.01569513 0.025964111
-0.0051371465 0.015411439 0.025930405
-0.0039857798 0.014946674 0.024934798
-0.0030833557 0.01541678 0.023565501
-0.0020972802 0.015729602 0.02232185
-0.001044872 0.01567308 0.020286024
0 0.015956467 0.019153684
0.0010073376 0.015110063 0.017421216
0.0021278681 0.015959011 0.014506161
0.0031699997 0.015849998 0.012903482
0.0041205562 0.015452086 0.0099519491
0.0053960904 0.016188271 0.0093490779
0.0066242334 0.016560584 0.0052854419
-0.021961123 0.017568899 0.0048494935
-0.019634129 0.016534004 0.0088866651
-0.019362131 0.017210783 0.010501295
-0.018121844 0.017055854 0.012945265
-0.017213454 0.017213454 0.015478939
-0.01616109 0.017238496 0.017841786
-0.014434624 0.016496714 0.020855725
-0.013941434 0.017158689 0.021705508
-0.012389156 0.016518876 0.025223762
-0.011094254 0.016137097 0.026469529
-0.010280033 0.016448053 0.027092725
-0.00924874 0.016442206 0.027107179
-0.0083267996 0.016653599 0.028130054
-0.0073609138 0.016824946 0.028172314
-0.0063048587 0.016812956 0.026894003
-0.0051253792 0.016401215 0.026754647
-0.0041574431 0.016629772 0.025797218
-0.0029938631 0.01596727 0.024910837
-0.0021527638 0.01722211 0.023471862
-0.0010681668 0.017090669 0.021339417
0 0.016189981 0.019525707
0.0010495842 0.016793348 0.018387079
0.0020884257 0.016707405 0.015379727
0.0030775743 0.01641373 0.012607425
0.0042188545 0.016875418 0.0099956989
0.0054034889 0.017291164 0.0089478195
0.0064236531 0.017129742 0.0047628582
-0.022086639 0.018773645 0.0041630864
-0.020670373 0.018494543 0.0066532791
-0.019545278 0.018459428 0.0094029307
-0.017564338 0.017564338 0.012851477
-0.017086048 0.018153924 0.015135586
-0.015382324 0.017433301 0.017841786
-0.014829492 0.018007241 0.020672113
-0.014060318 0.018386569 0.021471739
-0.012017408 0.017024662 0.025112629
-0.011335607 0.017518666 0.027150184
-0.01034962 0.017594356 0.027107179
-0.0092965737 0.017560197 0.028121054
-0.0081734275 0.017368533 0.028011471
-0.0070135104 0.017032811 0.02803874
-0.0061678849 0.017475674 0.027828246
-0.0052661761 0.017904999 0.026894003
-0.0041428823 0.017607249 0.026432216
-0.0030379647 0.017215133 0.025785744
-0.0020433736 0.017368676 0.023780018
-0.0010300425 0.017510723 0.022111058
0 0.017493172 0.019794524
0.0010600763 0.018021299 0.018321216
0.0020558015 0.017474312 0.015536845
0.0031531013 0.017867574 0.013370007
0.0042057494 0.017874435 0.011089593
0.0052591707 0.017881181 0.0095375776
0.0066846777 0.01893992 0.006893754
-0.022258233 0.02003241 0.0041630864
-0.019868124 0.018822433 0.0063141584
-0.018890321 0.018890321 0.0092595816
-0.018554613 0.01964606 0.012945265
-0.016256414 0.018288465 0.01533404
-0.015913879 0.019096654 0.016276568
-0.014778443 0.019000854 0.019798011
-0.013874373 0.01921067 0.021471739
-0.012137384 0.018206075 0.025352538
-0.011295523 0.018483581 0.027168155
-0.010184075 0.018331334 0.027171433
-0.009318579 0.018637158 0.027975529
-0.0081281997 0.018288448 0.028006583
-0.0071453345 0.018373717 0.028046489
-0.0061840224 0.018552067 0.027519077
-0.0051252055 0.018450741 0.0275985
-0.0040439982 0.018197991 0.026310772
-0.0030750942 0.018450566 0.026232839
-0.0020251204 0.018226083 0.024690092
-0.0010351687 0.018633034 0.021352381
0 0.018964222 0.019478798
0.0010054427 0.018097969 0.018594652
0.002132084 0.019188754 0.015933365
0.0032264004 0.019358402 0.013702869
0.0042026103 0.018911745 0.011946589
0.0053685382 0.019326737 0.0099039078
0.0067701926 0.020310577 0.0069867074
-0.022080477 0.020976454 0.0042879581
-0.020048475 0.020048475 0.0054001212
-0.01913676 0.020199915 0.0071291625
-0.017904887 0.020011343 0.012211442
-0.017369468 0.020626245 0.013841629
-0.01591935 0.020164508 0.015544802
-0.014342983 0.019465476 0.017643183
-0.014183783 0.020730145 0.020407796
-0.012027862 0.019044116 0.022602409
-0.011197779 0.01934162 0.025525749
-0.010262056 0.019497907 0.026903898
-0.0094090244 0.019863497 0.026774406
-0.0081715928 0.019407533 0.027807862
-0.0071082758 0.019293891 0.027945101
-0.0061851363 0.019586265 0.027486861
-0.0051593287 0.01960545 0.026872069
-0.0041115005 0.019529628 0.0262945
-0.0030487941 0.019309029 0.02556321
-0.0020369464 0.019350989 0.023055196
-0.00108481 0.02061139 0.021051437
0 0.019582678 0.018801153
0.0010657462 0.020249179 0.018297136
0.0021056484 0.02000366 0.015710801
0.0031248038 0.019790424 0.013665408
0.0043239333 0.020538684 0.01158452
0.0055302233 0.021014849 0.0096643269
0.00684103 0.021663263 0.006534487
-0.020819265 0.021915015 0.0051496029
-0.019108156 0.021231284 0.0067493916
-0.017718596 0.020845408 0.010909528
-0.017211583 0.021514477 0.012695193
-0.015703809 0.020938411 0.015148997
-0.014889124 0.021270176 0.01547119
-0.013893244 0.021374222 0.017088413
-0.012201713 0.020336188 0.019269407
-0.011172311 0.020313295 0.021267742
-0.010307687 0.020615375 0.025012076
-0.009235274 0.020522831 0.025912791
-0.008661109 0.021652771 0.026629835
-0.0073354463 0.020958418 0.026713818
-0.0063561019 0.021187006 0.026329398
-0.0051745344 0.020698138 0.025797218
-0.004076655 0.020383274 0.024289072
-0.002994346 0.019962307 0.021802187
-0.0021304826 0.021304825 0.020262986
-0.0010388209 0.020776419 0.018732458
0 0.020838602 0.01792714
0.001055751 0.021115018 0.016395539
0.0020290252 0.020290252 0.014150709
0.0031523758 0.02101584 0.013325304
0.0042849206 0.021424603 0.010877937
0.0059950911 0.023980364 0.008470118
0.0064499984 0.021499993 0.0048823953
-0.020717226 0.022897987 0.0045585632
-0.018834174 0.021973204 0.006490171
-0.018409271 0.022740863 0.0089739859
-0.016642813 0.021843692 0.011844367
-0.016088806 0.022524327 0.013529629
-0.014996275 0.022494413 0.014939785
-0.013599527 0.021968467 0.015149862
-0.013440329 0.023520576 0.017007172
-0.010880968 0.020772757 0.018750876
-0.010224801 0.021472083 0.020357341
-0.0092127277 0.021496365 0.021838039
-0.0082421247 0.021635579 0.024327248
-0.0070016645 0.021004993 0.024952531
-0.0062146448 0.021751259 0.024253666
-0.0050551435 0.021231603 0.023108542
-0.0040305895 0.021160595 0.020480961
-0.0030538791 0.021377156 0.018676609
-0.0021319154 0.022385111 0.01816377
-0.0010240743 0.021505561 0.017848641
0 0.022488968 0.016699851
0.0010240134 0.021504281 0.013664126
0.0020978164 0.022027072 0.013547093
0.0031642118 0.022149483 0.011640072
0.0041767219 0.021927791 0.0099640191
0.0059462246 0.024974145 0.0077222288
-0.02126216 0.024619341 0.0041724145
-0.01946445 0.023789883 0.0051368475
-0.017926991 0.023199633 0.0071339011
-0.017461132 0.024009055 0.011648059
-0.016302029 0.023909641 0.013003975
-0.014310233 0.022487508 0.014076889
-0.013867461 0.023468012 0.014838517
-0.012781282 0.02343235 0.015190184
-0.011713667 0.023427334 0.01562196
-0.010023796 0.022052351 0.016570002
-0.0090718009 0.022175513 0.016300678
-0.0082191071 0.022602545 0.018057078
-0.0071767145 0.022555389 0.020430923
-0.0060790316 0.022289781 0.020135313
-0.0050252443 0.022111075 0.019338578
-0.0040575676 0.022316622 0.017835468
-0.0031849751 0.023356484 0.016141981
-0.0020907165 0.02299788 0.016362488
-0.0010658858 0.023449486 0.01505968
0 0.02270617 0.013744265
0.0010630852 0.023387872 0.012726098
0.0021647499 0.023812249 0.011666209
0.0031195879 0.022876976 0.010398895
0.0042779553 0.023528753 0.0075797439
0.0058796788 0.025870588 0.0042622983
-0.019090641 0.024393598 0.0047749579
-0.018021673 0.024382265 0.0065079629
-0.016965263 0.024387565 0.010097921
-0.015502234 0.023770092 0.011701584
-0.014855892 0.024406109 0.013078243
-0.014111508 0.024966514 0.013925284
-0.012512979 0.02398321 0.013533831
-0.01211432 0.025329944 0.013705641
-0.011037471 0.025386184 0.014160126
-0.0092321131 0.023593178 0.013911843
-0.0080923345 0.023265462 0.013876915
-0.0069818511 0.022940367 0.013878524
-0.0061143357 0.023438288 0.013658017
-0.0054411977 0.02502951 0.013806492
-0.0042539807 0.024460388 0.013407588
-0.0031737536 0.024332112 0.013132304
-0.0021767432 0.025032548 0.013272911
-0.0010554484 0.024275316 0.012887836
0 0.024381801 0.012595236
0.0010446736 0.024027493 0.010942131
0.0020121392 0.0231396 0.0097306371
0.0031582308 0.024213104 0.0088143945
0.0043550278 0.025041413 0.0062769651
-0.019447939 0.025930587 0.0041853786
-0.018504925 0.026124598 0.0059619844
-0.016599823 0.024899734 0.0067608953
-0.016251748 0.026002796 0.0086736083
-0.015195216 0.026048942 0.010478616
-0.013753565 0.025391197 0.011264414
-0.012830188 0.025660377 0.011191666
-0.011803342 0.025752746 0.012293756
-0.01063244 0.025517859 0.012585998
-0.0099361446 0.026496386 0.012478918
-0.0087478869 0.026243661 0.012270421
-0.0077889482 0.026704965 0.012387753
-0.0067236163 0.026894465 0.012232035
-0.005385017 0.025848083 0.012232095
-0.0043076477 0.025845887 0.012224078
-0.0032629429 0.026103543 0.012015641
-0.0021304104 0.025564924 0.012269795
-0.0010701453 0.025683485 0.011483818
0 0.025189819 0.010207146
0.0010514595 0.025235025 0.008913815
0.002205153 0.026461836 0.0068918765
0.003263308 0.026106464 0.0063832104
-0.01837807 0.027026573 0.0050228834
-0.017400941 0.02718897 0.0063146949
-0.015838776 0.02639796 0.0068855584
-0.01482421 0.026471805 0.0086736083
-0.013857426 0.026648898 0.0089644194
-0.012830422 0.026730048 0.0089269578
-0.011568002 0.026290914 0.0098713338
-0.010765879 0.026914699 0.0096512139
-0.0096745314 0.0268737 0.0095441341
-0.0085046338 0.026576983 0.009257406
-0.0076702028 0.027393581 0.0091933906
-0.0064403685 0.02683487 0.0093382001
-0.005470606 0.027353033 0.0099486113
-0.0043934034 0.02745877 0.0099769831
-0.0031536361 0.026280301 0.0093382001
-0.0021304504 0.026630633 0.0099381506
-0.0010828228 0.027070571 0.010153443
0 0.026693342 0.0080723464
0.0010794757 0.026986893 0.0080835521
0.0021545496 0.026931871 0.0061291158
0.0031817511 0.026514594 0.0057059824
-0.01977138 0.030238582 0.0042032003
-0.017302848 0.028117128 0.0050291419
-0.015609161 0.027055878 0.0058124363
-0.015250085 0.028321585 0.0064002573
-0.013795935 0.027591869 0.0080149472
-0.012787516 0.027706286 0.0079210997
-0.012075328 0.028541684 0.0094543993
-0.010893736 0.028323716 0.0094279349
-0.0094063701 0.027173961 0.0091933906
-0.0087641468 0.028483476 0.0085465312
-0.0075714625 0.028122576 0.0085626841
-0.0064349663 0.027884854 0.0084126294
-0.0054749092 0.028469529 0.0084126294
-0.00435693 0.028320044 0.0084410012
-0.0032635699 0.028284274 0.0079812109
-0.0021768427 0.028298954 0.0076544583
-0.0010709683 0.027845176 0.0077770948
0 0.028678991 0.0059989691
0.0010749842 0.027949588 0.0056705773
-0.018426295 0.031094372 0.0043853223
-0.016528541 0.029751375 0.0047694445
-0.015016899 0.028961161 0.0054402053
-0.01368774 0.028428383 0.0061992109
-0.012911652 0.029051218 0.0056783855
-0.011919478 0.029256901 0.0060657263
-0.010556833 0.02850345 0.0058805346
-0.0098520443 0.029556135 0.0057092905
-0.008611856 0.029065015 0.0050579607
-0.0074561015 0.02875925 0.0049911737
-0.0065189465 0.02933526 0.0048785806
-0.0052893804 0.028562656 0.0049409866
-0.0042501166 0.028688287 0.0056182742
-0.0033201564 0.029881408 0.00536412
-0.0021426585 0.02892589 0.00519225
-0.0010634304 0.028712623 0.0049932003
-0.017313482 0.032318499 0.0042693615
-0.014805823 0.029611645 0.0046411753
-0.014184891 0.030552072 0.0047577918
-0.01317137 0.030733196 0.0045036674
-0.011677326 0.029724102 0.0052013695
0 0 0 1 0 0 0 1 0 0 0 1 0 0 0 0 0 522 1 0 0
