ply
format ascii 1.0
comment PCL generated
element vertex 658
property float x
property float y
property float z
element camera 1
property float view_px
property float view_py
property float view_pz
property float x_axisx
property float x_axisy
property float x_axisz
property float y_axisx
property float y_axisy
property float y_axisz
property float z_axisx
property float z_axisy
property float z_axisz
property float focal
property float scalex
property float scaley
property float centerx
property float centery
property int viewportx
property int viewporty
property float k1
property float k2
end_header
-0.0022542854 0.039449994 0.0042231977
0.0021021855 0.036788244 0.0041788518
-0.010201379 0.040805515 0.0049905479
-0.0088084973 0.039638236 0.0050278604
-0.0075024953 0.038584262 0.0053127408
-0.006552659 0.03931595 0.0051053166
-0.0053180302 0.038289819 0.0051075816
-0.0041777836 0.037600052 0.0051248968
-0.0032782434 0.03933892 0.0050934851
-0.002142533 0.038565591 0.0051248968
-0.0011013378 0.03964816 0.0046798289
0 0.039834119 0.0046116412
0.0010679971 0.03844789 0.0043129623
0.0022671497 0.040808693 0.0042962134
-0.012919546 0.03983527 0.0048887432
-0.011558014 0.038876958 0.0052427948
-0.010835737 0.04009223 0.0055627227
-0.0096287243 0.03958476 0.0068034232
-0.0084927846 0.039279129 0.0075934231
-0.0076699289 0.040541053 0.0074415803
-0.0065027308 0.040100176 0.0072222352
-0.0053857355 0.039854448 0.0072222352
-0.004432078 0.040996723 0.0070487261
-0.0032432587 0.040000193 0.0057140291
-0.0021518844 0.03980986 0.0056196153
-0.0010991457 0.040668394 0.0049578249
0 0.039358806 0.0046798289
0.0011063709 0.040935729 0.0043263733
0.0021851566 0.040425397 0.0042962134
-0.01288888 0.040814787 0.004932493
-0.011874385 0.041020606 0.0060818493
-0.010987356 0.041751955 0.0070703924
-0.0097499257 0.041166358 0.0079548657
-0.00896711 0.04259377 0.0079071224
-0.007509253 0.040764518 0.0080551803
-0.0064072637 0.040579338 0.00863114
-0.0054816008 0.041660167 0.0086387098
-0.0043298025 0.041133124 0.0078365207
-0.0032066312 0.040617328 0.0077086687
-0.0022487496 0.042726245 0.0072331131
-0.0010756415 0.040874377 0.0057614446
0 0.042406145 0.0056574643
0.0011021076 0.04188009 0.0055641532
0.0021165416 0.040214293 0.005199641
0.0033308247 0.042190447 0.0046023428
0.004485921 0.042616248 0.0040763021
0.0052831196 0.040151708 0.0041788518
-0.013971953 0.04191586 0.0049440563
-0.013187173 0.04285831 0.0078057945
-0.011928946 0.042293534 0.0088279843
-0.010643173 0.041508377 0.00970909
-0.0099649318 0.043181375 0.010514021
-0.0086756703 0.042293891 0.01114431
-0.0074386541 0.041443929 0.011762619
-0.0066580479 0.043277312 0.01202628
-0.0054511661 0.042519096 0.011750817
-0.004294544 0.041871805 0.010941058
-0.0033063632 0.04298272 0.010487288
-0.0021626449 0.042171575 0.0095853806
-0.0010625193 0.041438252 0.0082086921
0 0.043213498 0.0078353882
0.0010628228 0.041450083 0.0077162385
0.0021847349 0.04260233 0.0062643886
0.0032825135 0.042672675 0.0055766702
0.0042093424 0.041041087 0.0049533546
0.0057008769 0.044466842 0.0050917864
0.0066292854 0.043090355 0.0043577552
-0.014959445 0.042741269 0.0052645504
-0.01419164 0.043666583 0.0081117749
-0.01324581 0.044152699 0.010496229
-0.011649163 0.042360589 0.011503518
-0.010501674 0.042006698 0.014160067
-0.009585266 0.042601183 0.014851421
-0.0082241734 0.041120868 0.015462726
-0.0072988258 0.041707575 0.015934825
-0.0061970567 0.041313712 0.015892237
-0.0050806673 0.040645339 0.014647067
-0.0041796775 0.041796774 0.014393628
-0.0031042476 0.041389968 0.012972176
-0.0021386966 0.042773932 0.012591392
-0.0011109798 0.044439189 0.010934621
0 0.042638555 0.010534704
0.0010956903 0.043827608 0.0094566941
0.0021672125 0.043344248 0.00803864
0.0031690444 0.042253926 0.0059016347
0.0045281658 0.045281656 0.0054430664
0.0055199056 0.044159245 0.0052723289
0.0064544026 0.043029349 0.0045906007
0.0076814326 0.0438939 0.0042990744
-0.016093452 0.043988768 0.0052151978
-0.01536732 0.045004293 0.0083844662
-0.013991841 0.044128116 0.010432094
-0.011831737 0.040425103 0.013325185
-0.011534193 0.042991087 0.016246229
-0.010554832 0.043274816 0.016648591
-0.0091506047 0.041686095 0.018783182
-0.0082803341 0.042436715 0.019466728
-0.0071573239 0.04192147 0.020125389
-0.0060761431 0.041520312 0.019640386
-0.0052962294 0.043429084 0.019970566
-0.0041022054 0.042047605 0.019021153
-0.0030301365 0.041411869 0.016295493
-0.0020680414 0.04239485 0.014575481
-0.0010448879 0.04284041 0.012830734
0 0.044258114 0.012439102
0.0010975995 0.045001578 0.010544449
0.0021330658 0.043727852 0.0097770393
0.0032670593 0.044649813 0.0079095364
0.0043994137 0.045093991 0.0064972043
0.0052977456 0.043441519 0.0056446195
0.0066107213 0.045173265 0.0051461458
0.0075704013 0.044340923 0.0040799379
-0.017090505 0.044862576 0.0051579773
-0.016586551 0.046442345 0.0079696178
-0.014943384 0.044830151 0.01081866
-0.013234988 0.042759191 0.014602572
-0.012625189 0.044188164 0.016722232
-0.011145816 0.042556755 0.018082112
-0.010147767 0.042620625 0.019014329
-0.0093599679 0.043679856 0.020243347
-0.0080972901 0.042510774 0.020563811
-0.0070353746 0.042212248 0.021278948
-0.0062932358 0.044052653 0.020320624
-0.0050705117 0.042592298 0.020492792
-0.0039869086 0.04186254 0.020290792
-0.0031132251 0.043585155 0.019852072
-0.0020722409 0.043517057 0.018393666
-0.0010108423 0.042455379 0.015722543
0 0.043897096 0.014225334
0.0010275189 0.043155793 0.012561023
0.0022107458 0.046425663 0.010615289
0.0032727702 0.045818787 0.0095319152
0.0042823427 0.044964597 0.0072835386
0.0055095274 0.046280034 0.0061723292
0.0065198913 0.045639239 0.0050806701
0.0074856961 0.044914179 0.0042990744
-0.017608449 0.047322709 0.0062358379
-0.015781581 0.045240533 0.010780007
-0.014268494 0.043824662 0.014314801
-0.01358048 0.04492005 0.016258925
-0.012438624 0.044571739 0.018785864
-0.011079561 0.043311011 0.019959867
-0.010316623 0.044361483 0.021392673
-0.0094278809 0.045044325 0.022762567
-0.0081519 0.043816462 0.023153275
-0.007262235 0.044610873 0.023105443
-0.0061708293 0.044224277 0.022846043
-0.00506524 0.043561064 0.022880256
-0.0041551217 0.044667561 0.022846043
-0.0031171362 0.044678953 0.021437168
-0.0021103758 0.045373078 0.02042976
-0.0010541064 0.045326576 0.018882871
0 0.043113429 0.016204774
0.0010479224 0.045060664 0.015442401
0.0021512373 0.046251606 0.0128434
0.0031891584 0.045711271 0.0109815
0.0044245319 0.047563717 0.0085371435
0.0054338193 0.046730846 0.0067840219
0.0064137927 0.045965515 0.0064789653
0.0076436987 0.046954148 0.0051132143
0.0084515773 0.045427226 0.0040998161
-0.019487243 0.047635484 0.0047169924
-0.018502342 0.047888413 0.0058069527
-0.016871167 0.046395712 0.0088535845
-0.015420299 0.045232877 0.013127267
-0.014763306 0.04639896 0.0163275
-0.013636686 0.046154935 0.018316448
-0.012108136 0.044396497 0.020450085
-0.011517784 0.046071135 0.022209883
-0.010384139 0.045690212 0.023223609
-0.0089885211 0.043943882 0.023753136
-0.0084313704 0.046372533 0.024197668
-0.0072221062 0.045396097 0.024043053
-0.0061324462 0.044971272 0.02392602
-0.00528721 0.046527445 0.023921341
-0.0039726691 0.043699361 0.023598522
-0.0029957488 0.043937646 0.023085058
-0.0020881107 0.045938432 0.022464395
-0.0010412163 0.045813516 0.020569026
0 0.045296289 0.019160092
0.0010558233 0.046456221 0.016783178
0.0020374414 0.04482371 0.015726119
0.003190665 0.046796419 0.011738062
0.0043302509 0.047632758 0.010954559
0.0052878158 0.04653278 0.0078726113
0.0065720621 0.04819512 0.0071645975
0.0076200115 0.047897216 0.005744487
0.0087939883 0.048366934 0.0041063428
-0.019563619 0.048909053 0.0053901672
-0.018404646 0.048718184 0.0074098706
-0.016186493 0.045524511 0.011077851
-0.015827516 0.04748255 0.016286612
-0.01453459 0.046718329 0.018421918
-0.013151902 0.045525815 0.019893706
-0.012504552 0.046892069 0.022702545
-0.011245445 0.046004098 0.023391455
-0.010044493 0.045200221 0.024928719
-0.0093387999 0.046694003 0.025227964
-0.0081804292 0.046014912 0.025208354
-0.0071005295 0.045646265 0.025208354
-0.0063521457 0.047641095 0.025083572
-0.0051451917 0.046306729 0.024994433
-0.0040913052 0.046027184 0.024681687
-0.0031379829 0.047069747 0.02385658
-0.0020588161 0.046323366 0.023086667
-0.0010190562 0.04585753 0.022433698
0 0.046582974 0.020474374
0.001009846 0.045443069 0.019532979
0.0021317697 0.047964819 0.016532123
0.0031779737 0.047669608 0.014415264
0.0042173327 0.047444995 0.011652231
0.0053860322 0.048474293 0.0088452697
0.0066087907 0.049565934 0.0074582696
0.0072973073 0.046911262 0.0063076615
0.0090780035 0.051063772 0.0052735806
-0.020259513 0.049049348 0.0042439699
-0.019675782 0.050282557 0.0075347424
-0.017328423 0.046888672 0.0091803968
-0.016907329 0.048608575 0.014169544
-0.015792206 0.048429433 0.017082989
-0.014061817 0.046203114 0.019080371
-0.013719636 0.048546407 0.02133745
-0.012312131 0.047196504 0.02344501
-0.011140379 0.046587043 0.024974585
-0.010343253 0.047578964 0.025374025
-0.0091650337 0.04684351 0.026327372
-0.0080991574 0.046570156 0.02694416
-0.0073088268 0.048029434 0.026910335
-0.0061599324 0.04722615 0.02653113
-0.0051143705 0.047052212 0.026034325
-0.0041785939 0.048053831 0.026135296
-0.0030502381 0.046770319 0.025227964
-0.0020455173 0.0470469 0.023632348
-0.0010504515 0.04832077 0.023275137
0 0.045980249 0.021669716
0.0010287652 0.047323201 0.020406038
0.0021349268 0.04910332 0.018134594
0.003055508 0.046851125 0.015686542
0.0042561274 0.048945468 0.012546599
0.005483252 0.050445922 0.01105383
0.0064034224 0.049092907 0.008633256
0.0076878564 0.0505202 0.0069109201
0.0087517994 0.050322849 0.0057137609
0.0095961699 0.049047094 0.0043577552
-0.021181235 0.052395687 0.0048047304
-0.019323859 0.050456744 0.0089239776
-0.017544609 0.048505682 0.010831505
-0.016824067 0.049420696 0.015368551
-0.014980691 0.0469395 0.017464161
-0.014667856 0.049242087 0.019632488
-0.013620497 0.049243335 0.021921158
-0.011831368 0.046339527 0.023423642
-0.011504099 0.049153879 0.025255352
-0.010374798 0.04876155 0.026035577
-0.0092092687 0.04809285 0.026843041
-0.0084974151 0.049922314 0.027088434
-0.0069977459 0.046984866 0.027239889
-0.0061581666 0.048238974 0.027314395
-0.0053100088 0.049914084 0.026786238
-0.0041655265 0.048944939 0.026436657
-0.0031451047 0.049273308 0.026192099
-0.0021094859 0.049572919 0.024567097
-0.0010153289 0.047720458 0.023817241
0 0.049049817 0.022753239
0.0010359189 0.048688192 0.021479517
0.0020088381 0.047207698 0.01970461
0.0030980515 0.04853614 0.016696304
0.0041480865 0.048740014 0.014520407
0.0052388576 0.049245261 0.01200527
0.0065774308 0.051523209 0.010976642
0.007616566 0.051139798 0.0077795088
0.0086984318 0.051103286 0.0064118505
0.010056579 0.052517697 0.0052447617
-0.020603994 0.052052192 0.0048602819
-0.018979643 0.050612379 0.0090033412
-0.018165709 0.051291414 0.010891259
-0.016524911 0.049574729 0.015923172
-0.016024463 0.051278282 0.018217951
-0.014836369 0.05086755 0.01976648
-0.013300291 0.049108766 0.022545248
-0.012326789 0.049307156 0.024282128
-0.011454135 0.04998168 0.025374025
-0.01015388 0.048738629 0.026119977
-0.0089342063 0.047649104 0.026587933
-0.007894963 0.047369774 0.027088434
-0.0069571394 0.047706097 0.027432114
-0.0061026094 0.048820876 0.027398288
-0.0049155722 0.047189496 0.026843548
-0.0039519393 0.04742327 0.026413679
-0.0031657969 0.05065275 0.026158273
-0.0021028146 0.050467547 0.024778038
-0.001023447 0.049125455 0.023897827
0 0.049782358 0.022747874
0.0010125496 0.04860238 0.02177909
0.0020663692 0.04959286 0.019895822
0.0031216636 0.049946617 0.017621636
0.0041032853 0.049239419 0.015637904
0.0053387233 0.051251747 0.012777686
0.0066376138 0.05310091 0.011577457
0.0074762027 0.051265389 0.0083172619
0.0089510791 0.053706471 0.006582886
0.0097060967 0.051765852 0.0052114725
-0.021910267 0.053680152 0.0047079921
-0.020182038 0.052048411 0.0075111687
-0.019298306 0.052534278 0.010583788
-0.017711066 0.051049542 0.011464536
-0.016799621 0.051448837 0.016068429
-0.01580558 0.051631555 0.018368602
-0.013965652 0.04887978 0.020023704
-0.013599083 0.05125808 0.022646695
-0.012500244 0.051042661 0.024943054
-0.011492643 0.0511945 0.025947213
-0.0099064112 0.048541415 0.026450455
-0.0092882356 0.050569281 0.027083576
-0.0082547041 0.050560061 0.028387815
-0.007260053 0.050820369 0.028846055
-0.006215163 0.050757162 0.028789252
-0.0051213801 0.050189529 0.028094471
-0.0041749259 0.051142842 0.027142733
-0.0029614989 0.048371147 0.026786238
-0.0020744673 0.050824445 0.026196957
-0.0010463216 0.051269755 0.024961114
0 0.049475703 0.023397923
0.0010472294 0.051314238 0.021933049
0.0021065441 0.051610325 0.019941121
0.0030128818 0.049210403 0.017830491
0.0042649796 0.052246001 0.015895307
0.0052805441 0.051749334 0.013333887
0.0063255453 0.051658619 0.012066364
0.0077645588 0.054351911 0.0088714659
0.0087005505 0.053290874 0.0067432523
0.0096612675 0.052600235 0.0054364502
-0.02173561 0.054339033 0.0047079921
-0.020890152 0.054974087 0.0074162781
-0.018821334 0.052281488 0.010192513
-0.017563863 0.051658418 0.011081666
-0.01679451 0.052482847 0.014169544
-0.01544797 0.051493231 0.01791814
-0.01441431 0.051479682 0.020050824
-0.013739596 0.052844603 0.022987217
-0.012330972 0.051379051 0.025396764
-0.010912325 0.04960148 0.026373625
-0.010393938 0.051969692 0.027123004
-0.0090257237 0.050142914 0.028372139
-0.0082226703 0.051391691 0.029061407
-0.0072553009 0.051823579 0.029136568
-0.0062847794 0.052373163 0.029056102
-0.0051854625 0.051854629 0.02881223
-0.0040202215 0.050252773 0.028209329
-0.0030381011 0.050635021 0.027432114
-0.0020320874 0.050802186 0.026545793
-0.0010421305 0.052106529 0.025191844
0 0.052971907 0.023456752
0.0010400129 0.052000646 0.021949589
0.0020040136 0.050100338 0.019973874
0.0031228662 0.05204777 0.017943621
0.0042385119 0.052981403 0.015895307
0.0050069871 0.050069876 0.014186502
0.0064898678 0.054082233 0.012474656
0.0076275305 0.054482363 0.010309339
0.0086383764 0.053989857 0.0074562728
0.0099708149 0.055393416 0.0053911805
-0.022297954 0.056859788 0.0050963461
-0.020631127 0.055378288 0.0085211098
-0.018951457 0.053695798 0.010597587
-0.018634049 0.05590215 0.011117101
-0.016364783 0.052162748 0.013333023
-0.015921896 0.054134447 0.017067552
-0.014855835 0.054117683 0.019699901
-0.013426471 0.052673079 0.022254735
-0.012820492 0.054487087 0.024975479
-0.010959486 0.050812162 0.026119977
-0.010095631 0.051487718 0.027006179
-0.0094517814 0.053560097 0.02821663
-0.0082423715 0.052545119 0.028793067
-0.006911838 0.050357677 0.029693574
-0.0060037756 0.051032092 0.029558837
-0.0052464507 0.053513799 0.028817743
-0.0040530851 0.051676836 0.0284006
-0.003080525 0.052368924 0.028053582
-0.002000246 0.051006272 0.027239889
-0.0010502144 0.053560931 0.024961114
0 0.054208901 0.0233666
0.0010033379 0.051170234 0.021479517
0.0020592795 0.052511629 0.019262999
0.0031933885 0.054287605 0.017782032
0.0040180054 0.051229566 0.015507787
0.0053356607 0.054423738 0.013676345
0.0064744251 0.055032615 0.012094766
0.0074359304 0.054176062 0.0096031427
0.0089830579 0.057266995 0.0074951053
0.0097222682 0.055092853 0.0055540502
-0.021959962 0.0570959 0.0047888756
-0.02040083 0.055833846 0.0079828203
-0.019218387 0.055519786 0.010265231
-0.018073568 0.055283856 0.010936975
-0.017075941 0.055496804 0.012968481
-0.016011126 0.055505235 0.015930742
-0.014538107 0.053998683 0.018182248
-0.013631997 0.054527987 0.021281302
-0.012555336 0.054406453 0.024626881
-0.010992588 0.051964961 0.025915176
-0.010221795 0.053153336 0.026582837
-0.0092469426 0.053426784 0.027067214
-0.0079650562 0.051772866 0.028120875
-0.0070560784 0.052416585 0.028907597
-0.0061458917 0.053264394 0.028878123
-0.0050827512 0.052860614 0.028371125
-0.0041478188 0.053921647 0.027979553
-0.0030285774 0.052495345 0.027210742
-0.0020020313 0.052052815 0.024481446
-0.0010509703 0.054650456 0.023199528
0 0.051808201 0.022038221
0.0010439561 0.05428572 0.020839155
0.0020933351 0.054426711 0.018267959
0.0031011356 0.053753018 0.017581761
0.0041204891 0.053566359 0.015697598
0.005219698 0.054284859 0.014176518
0.0062405718 0.054084957 0.012436777
0.0075918548 0.056396633 0.0091969669
0.0085797617 0.055768453 0.0069895089
0.0095869834 0.055391464 0.0054239333
-0.021370899 0.056632884 0.0046230853
-0.021082602 0.058809359 0.0075111687
-0.019299159 0.056825303 0.0097596645
-0.017864466 0.055695094 0.010558963
-0.017441539 0.057775099 0.011569649
-0.015418825 0.054479845 0.013998866
-0.01506202 0.057020504 0.016870826
-0.01383181 0.056391224 0.019667864
-0.012447608 0.054976933 0.023152083
-0.011028925 0.053139366 0.025166094
-0.010102478 0.053543136 0.025797784
-0.0091640102 0.053965837 0.026822209
-0.0082419422 0.054602861 0.027679622
-0.0070741107 0.053561121 0.028120875
-0.0060180728 0.053159639 0.028371125
-0.0051893047 0.055006631 0.028029174
-0.0039953706 0.052938655 0.02677995
-0.0030118246 0.053208902 0.02568233
-0.0020052544 0.053139236 0.022942394
-0.0010520821 0.05576035 0.022993088
0 0.055081334 0.021501482
0.0010571596 0.056029458 0.019832581
0.0020330597 0.053876083 0.018111885
0.0031556247 0.055749372 0.016883612
0.0042057168 0.055725746 0.014809966
0.0050738589 0.053782906 0.013453186
0.0065830718 0.058150467 0.012114376
0.0076253675 0.057734925 0.0088760555
0.0086935153 0.057594538 0.006582886
0.0097998176 0.057710037 0.0053369105
-0.021853967 0.059005711 0.004927218
-0.020262573 0.057588369 0.0074162781
-0.018721275 0.056163829 0.0089258552
-0.01846621 0.058657371 0.010265231
-0.016494857 0.055670146 0.011113763
-0.015682787 0.056458037 0.012997895
-0.014985215 0.057800118 0.015288204
-0.013261179 0.055084899 0.018056989
-0.012863188 0.05788435 0.020097971
-0.010980787 0.053905685 0.023331136
-0.010102786 0.054555051 0.023552269
-0.0093039973 0.055823989 0.024337143
-0.0081005218 0.054678522 0.025298238
-0.007144955 0.055118226 0.026677787
-0.0061052772 0.054947499 0.026411265
-0.0050607128 0.054655701 0.024895191
-0.0040358719 0.054484274 0.022956163
-0.0030672124 0.055209827 0.022868633
-0.0020139012 0.054375336 0.021997482
-0.0010512532 0.056767669 0.020515382
0 0.05672216 0.019567937
0.0010128213 0.054692354 0.018072546
0.0021198897 0.057237022 0.016932726
0.0031623831 0.056922898 0.015507787
0.0040689847 0.054931294 0.014255822
0.0052809538 0.057034306 0.012805492
0.0065761968 0.059185773 0.011025846
0.0074054794 0.057127986 0.0077506006
0.0090599209 0.061154466 0.0058130324
0.0095867272 0.057520371 0.0048966408
-0.021840643 0.060061771 0.0042631924
-0.020894399 0.060483783 0.0051923692
-0.019366778 0.05917627 0.0079560876
-0.017939856 0.058040716 0.0089843869
-0.017217534 0.05918527 0.010436594
-0.016252533 0.05959262 0.011435121
-0.014264331 0.056038443 0.013461113
-0.013803815 0.058400761 0.015794396
-0.012924101 0.059235465 0.018027306
-0.011295286 0.056476429 0.019687206
-0.010018489 0.055101693 0.022380769
-0.0091215232 0.055742644 0.022873163
-0.0081403321 0.055964783 0.023876488
-0.0070842216 0.055661742 0.025298238
-0.0061072228 0.05598288 0.023876488
-0.0051031145 0.056134261 0.022149891
-0.00407294 0.056002922 0.021382362
-0.0029884449 0.054788157 0.021245897
-0.0021010591 0.057779126 0.020451397
-0.0010789909 0.0593445 0.019078285
0 0.056341231 0.017769605
0.0010566403 0.058115218 0.017603725
0.0020861991 0.057370473 0.015843481
0.0030756104 0.056386191 0.014521658
0.0042437632 0.058351748 0.013894528
0.0053030471 0.05833352 0.012440771
0.0062463861 0.057258543 0.010576248
0.0077995779 0.061282396 0.0075223148
0.0084877266 0.058353119 0.0050496757
0.0096357027 0.058884855 0.00430879
-0.02088272 0.061549071 0.0041614175
-0.01923098 0.059829723 0.0071787834
-0.018119408 0.059687462 0.0079560876
-0.016938467 0.059284635 0.0088399649
-0.015433257 0.057617493 0.010490656
-0.014984413 0.059937652 0.01143387
-0.013814031 0.059506595 0.013162076
-0.012402544 0.057878535 0.014487058
-0.011976701 0.060972296 0.017775416
-0.010500442 0.058802478 0.018550664
-0.0088826092 0.055269573 0.01923877
-0.0080428962 0.056300271 0.01984629
-0.0070598349 0.056478679 0.02108863
-0.0060236324 0.056220569 0.019748032
-0.0050126174 0.056141317 0.018493325
-0.0039911228 0.055875719 0.017671466
-0.0031328956 0.058480721 0.017700791
-0.0021885077 0.061278213 0.017245084
-0.0010614741 0.059442546 0.017119527
0 0.059550941 0.016128331
0.0010661841 0.059706312 0.015136182
0.0020459967 0.057287909 0.014255822
0.0032432191 0.060540091 0.01344341
0.004340624 0.060768731 0.012276918
0.00525324 0.058836289 0.010847181
0.0064612669 0.060305156 0.0083422959
0.0075910976 0.060728781 0.0061845481
0.0085229967 0.059660979 0.0045212805
-0.019502228 0.061757054 0.0052669346
-0.018792929 0.063011587 0.0075876713
-0.01630144 0.058073882 0.007725209
-0.016040513 0.060953952 0.0089508891
-0.014738517 0.060006816 0.0099170208
-0.01336845 0.058615509 0.011061579
-0.012720465 0.060422204 0.012123734
-0.011914809 0.061740376 0.012369722
-0.010652507 0.060719289 0.013401359
-0.01000007 0.06333378 0.013697088
-0.0081926882 0.0583729 0.013451964
-0.0070383796 0.057312518 0.013070405
-0.0060852868 0.057810225 0.016103446
-0.005203736 0.059322592 0.015754372
-0.0044516376 0.063435838 0.014528066
-0.0033069279 0.062831625 0.015160859
-0.0021585333 0.0615182 0.015372127
-0.0010466791 0.05966071 0.01456672
0 0.061205838 0.01371327
0.0010237403 0.058353193 0.013179511
0.0021096377 0.060124673 0.012428433
0.0031540857 0.059927627 0.010780454
0.0041167447 0.058663614 0.0099547803
0.0054433695 0.062054414 0.0088683367
0.0067556356 0.064178541 0.0073764324
0.0074160919 0.060388174 0.0052075684
-0.019891446 0.064094663 0.0044956803
-0.018001214 0.061415903 0.0070277452
-0.017192934 0.062324386 0.0072308183
-0.016112665 0.06230231 0.007840693
-0.014501991 0.060079679 0.0083434284
-0.013763625 0.061406948 0.0091160536
-0.013059803 0.063122384 0.0096518993
-0.011276933 0.059460197 0.0095432997
-0.010982964 0.063701198 0.0099221766
-0.009665885 0.062291265 0.0098147988
-0.0088331923 0.064040646 0.0096651912
-0.0079908315 0.066209748 0.0073532462
-0.0068271114 0.06599541 0.0084025562
-0.005473434 0.063491836 0.0089781582
-0.0044517606 0.064550526 0.0093292296
-0.0032243007 0.062336486 0.009799093
-0.0021387048 0.06202244 0.0099221766
-0.0010827587 0.062800005 0.0095095038
0 0.060213707 0.010190398
0.001070026 0.062061507 0.0096136332
0.0021391877 0.06203644 0.0086053908
0.0031162268 0.060247052 0.0082647502
0.0043655923 0.063301094 0.0077144802
0.0054574441 0.063306354 0.0071808398
0.006324979 0.061141469 0.0049296916
0.0076871631 0.063693635 0.0040284395
-0.018365681 0.063739717 0.0052509308
-0.017303484 0.063806593 0.0063441992
-0.01530034 0.060181338 0.0070618093
-0.015330695 0.064607926 0.0072678924
-0.013837867 0.062802628 0.007496357
-0.012576139 0.061832681 0.0078908503
-0.011842018 0.063516282 0.0079837739
-0.010749277 0.063420735 0.0076208115
-0.0094257789 0.061791219 0.007615447
-0.0088049425 0.064936452 0.0068240166
-0.0076198168 0.064224176 0.0060738921
-0.0064533614 0.063458055 0.0055349767
-0.0054699671 0.064545617 0.0062556267
-0.0042839255 0.063187905 0.0066951811
-0.0032311091 0.063545145 0.0068461001
-0.0022150311 0.065343417 0.0062713325
-0.0010535972 0.062162235 0.0063787103
0 0.063902803 0.0070555508
0.0010614392 0.062624916 0.0068766475
0.0020723089 0.061133113 0.0062373579
0.0032790648 0.064488277 0.006183058
0.0043316991 0.063892566 0.0061588287
0.0052977586 0.062513553 0.0055608451
0.0064808656 0.063728511 0.0044447482
-0.018927451 0.066802762 0.0041649342
-0.017168015 0.064380057 0.004981786
-0.016223986 0.064895943 0.0056782961
-0.015242442 0.065324746 0.0064979494
-0.013680839 0.063142337 0.0068004727
-0.013129951 0.065649755 0.0069651902
-0.011859594 0.064688697 0.0071201622
-0.010438531 0.062631182 0.0070327222
-0.0099209771 0.066139847 0.0067121983
-0.0084882379 0.063661784 0.0055095255
-0.0074448516 0.063813016 0.0050142407
-0.0066695213 0.066695213 0.0047168732
-0.0053968281 0.064761937 0.0048410594
-0.0042809201 0.064213805 0.0048410594
-0.003309529 0.066190585 0.0048156083
-0.0010424202 0.06254521 0.0040163398
0 0.065707579 0.0043121874
0.0010418171 0.06250903 0.0043654442
0.0021942058 0.065826178 0.0045877099
0.0033126045 0.06625209 0.0045212805
0.0042828498 0.06424275 0.0044518709
-0.017836275 0.068000793 0.0041429102
-0.016628215 0.067621402 0.0048979819
-0.01456294 0.06345281 0.0052066147
-0.014183314 0.066552468 0.0055245757
-0.013065814 0.066417888 0.0054913759
-0.011446917 0.063478358 0.0057020783
-0.011172863 0.068154462 0.0052066147
-0.014164685 0.067554653 0.0040388107
-0.012904074 0.066671051 0.0040124059
0.1180006 0.12455618 0.0040431619
0.11703309 0.12461857 0.0040431619
0.11009001 0.12644 0.0040393472
0.10644672 0.12454267 0.004427731
0.10978471 0.12717634 0.0043674111
0.11401697 0.13078418 0.0041610599
0.11847118 0.12834378 0.0040884018
0.11815158 0.12909153 0.0040884018
0.11041582 0.13272205 0.0044815838
0.10961235 0.1304387 0.0044815838
0.10986784 0.12944825 0.0045009851
0.11092356 0.12941082 0.004427731
0 0 0 1 0 0 0 1 0 0 0 1 0 0 0 0 0 658 1 0 0
