ply
format ascii 1.0
comment PCL generated
element vertex 623
property float x
property float y
property float z
element camera 1
property float view_px
property float view_py
property float view_pz
property float x_axisx
property float x_axisy
property float x_axisz
property float y_axisx
property float y_axisy
property float y_axisz
property float z_axisx
property float z_axisy
property float z_axisz
property float focal
property float scalex
property float scaley
property float centerx
property float centery
property int viewportx
property int viewporty
property float k1
property float k2
end_header
-0.013151814 -0.046031352 0.0040458143
-0.011855975 -0.045268271 0.0041796863
-0.01022645 -0.047723435 0.004514426
-0.0092769116 -0.048703786 0.004214108
0.0010867055 -0.045641635 0.0040796697
-0.014825852 -0.043418568 0.0045321584
-0.014180207 -0.044722192 0.0049182773
-0.014023176 -0.047912523 0.0051190257
-0.012614043 -0.047015984 0.0051953793
-0.012556527 -0.051481765 0.0051045418
-0.011084862 -0.050497707 0.0050489902
-0.0093438197 -0.047887076 0.0048440695
-0.008969686 -0.052536737 0.0046948493
-0.007124193 -0.048681986 0.0046784282
-0.0056501403 -0.046331152 0.004665643
-0.0051998142 -0.053298097 0.0046379566
-0.0036288125 -0.049593773 0.0043680072
-0.0022884691 -0.04691362 0.004573077
-0.0011321136 -0.046416663 0.0048594773
0 -0.042977322 0.0045710504
0.0010875909 -0.044591233 0.00487867
0.0021755258 -0.044598281 0.0041122139
0.0032985399 -0.045080047 0.0040994287
-0.016135676 -0.043028466 0.0047947168
-0.015722614 -0.044921752 0.0053808987
-0.015731262 -0.048403878 0.0054271817
-0.013347696 -0.044492319 0.0060352385
-0.013377757 -0.048646387 0.0064032376
-0.011521878 -0.046087511 0.0062448084
-0.0096545974 -0.042909324 0.0063941181
-0.0088865925 -0.04443296 0.0066373944
-0.0075102998 -0.042915996 0.0062425435
-0.0063550314 -0.042366873 0.0059778392
-0.0055001886 -0.044001509 0.006153971
-0.0042964062 -0.04296406 0.0059614182
-0.0032089055 -0.042785406 0.0060752928
-0.0025307606 -0.05061521 0.006049782
-0.0011970139 -0.047880556 0.0059191883
0 -0.047555495 0.0054792166
0.0010944769 -0.043779071 0.0055381656
0.0020922218 -0.041844431 0.0049369037
0.0033787244 -0.04504966 0.0048306584
0.0043929932 -0.043929931 0.0043079257
-0.01750307 -0.042663734 0.0047796071
-0.017009273 -0.04422411 0.0051779151
-0.017670076 -0.049223781 0.0061367452
-0.014165142 -0.042495426 0.0063769221
-0.013053962 -0.042425375 0.0068706274
-0.012192535 -0.043228082 0.0073341429
-0.010356208 -0.040389214 0.0078624189
-0.0096798921 -0.041946199 0.0084002018
-0.0086596524 -0.042215806 0.0096134245
-0.0072959382 -0.040648799 0.0097117424
-0.0066256444 -0.043066692 0.0090038478
-0.0053200903 -0.041496709 0.0088610053
-0.0040559312 -0.039545327 0.0075164437
-0.003303268 -0.042942487 0.007060051
-0.0021062058 -0.041071013 0.0070509613
-0.0010478329 -0.040865481 0.0069839954
0 -0.045497485 0.0067862868
0.0011198084 -0.043672528 0.0061817467
0.0022684832 -0.044235423 0.0055522025
0.0032242548 -0.041915312 0.0051754713
0.0042952718 -0.041878901 0.0047429502
0.0055267164 -0.043108389 0.0041280091
-0.01850469 -0.041363426 0.0046109557
-0.018468002 -0.043861501 0.0053898096
-0.017905936 -0.045361705 0.0060535371
-0.014743292 -0.040017508 0.0068154931
-0.013823846 -0.040408168 0.0072340369
-0.012947856 -0.041001547 0.0083163381
-0.011426509 -0.039473396 0.0098974705
-0.010714888 -0.040716574 0.010146052
-0.0098635321 -0.041646026 0.010909677
-0.0084034186 -0.039916236 0.011013895
-0.0077233785 -0.041926913 0.011102438
-0.0064047147 -0.040563192 0.01100111
-0.0052084615 -0.039584309 0.010926843
-0.0042982385 -0.040833268 0.010088205
-0.0031947945 -0.0404674 0.0085626543
-0.0021281964 -0.040435731 0.0076816082
-0.0011078137 -0.042096917 0.0073329806
0 -0.038879219 0.0072566271
0.0011439921 -0.043471701 0.0070489347
0.0024216278 -0.046010926 0.0063810349
0.0032195605 -0.040781099 0.006254524
0.0043535964 -0.041359168 0.0054971278
0.0054375948 -0.041325722 0.0046801269
0.0063770371 -0.040387902 0.004335314
-0.019464606 -0.040010583 0.0040948093
-0.019187547 -0.041761134 0.0048618913
-0.019041112 -0.044032574 0.005913645
-0.016064385 -0.039625484 0.006817013
-0.015303995 -0.040446274 0.008393079
-0.014277518 -0.040636014 0.0099391341
-0.01211335 -0.037349496 0.011399269
-0.011835081 -0.03980891 0.011840194
-0.01077686 -0.039874382 0.012013286
-0.0092129819 -0.037875596 0.012782365
-0.0087652262 -0.040539172 0.012907326
-0.0076049115 -0.040197391 0.012912184
-0.00624775 -0.038527794 0.013458788
-0.00551748 -0.040829353 0.013392836
-0.0043169656 -0.039931934 0.012799531
-0.0031050113 -0.038295142 0.012449712
-0.0022144215 -0.040966798 0.011448145
-0.0010552478 -0.039044175 0.010567576
0 -0.0398755 0.0083788931
0.0011127462 -0.04117161 0.0077002943
0.0021466629 -0.039713264 0.0069588125
0.0036179291 -0.044621129 0.0068055689
0.0044165356 -0.040852956 0.0064304173
0.0054309657 -0.040189147 0.0055376589
0.0065001808 -0.040084451 0.0051353276
-0.019814089 -0.039628178 0.0047063529
-0.020370873 -0.043138318 0.005774498
-0.017034654 -0.03832797 0.0070290565
-0.016154494 -0.038770784 0.0092205107
-0.015294706 -0.039329242 0.011284351
-0.013422227 -0.037169244 0.01218009
-0.012856906 -0.038570717 0.013204157
-0.012012715 -0.039314341 0.013806581
-0.010048333 -0.036173996 0.014355928
-0.0096975667 -0.038790267 0.014587224
-0.0083960993 -0.037782446 0.01494348
-0.0072891214 -0.037486911 0.015716672
-0.006728271 -0.040369622 0.016578168
-0.0052749156 -0.03797939 0.016650766
-0.0040786774 -0.036708094 0.014956266
-0.0033569476 -0.040283371 0.013489753
-0.002080346 -0.037446227 0.013052851
-0.0010145546 -0.036523968 0.012478054
0 -0.03942528 0.010885805
0.0010284011 -0.037022438 0.0095337033
0.0021778776 -0.039201792 0.0075940788
0.0032705916 -0.039247099 0.0071471632
0.0043179421 -0.038861476 0.0065356791
0.0055405893 -0.039892241 0.0061591566
0.0065508373 -0.03930502 0.005181551
0.0075441496 -0.038798481 0.0041441321
-0.020434035 -0.037641641 0.0041055679
-0.021252614 -0.041324526 0.0050999522
-0.01817883 -0.037427001 0.0066438019
-0.017412283 -0.038089368 0.0094585717
-0.016224515 -0.037857201 0.011193126
-0.014058078 -0.035145193 0.012749135
-0.013968186 -0.037606653 0.014371067
-0.012870664 -0.037539437 0.014671862
-0.011316038 -0.036005575 0.015144497
-0.010578847 -0.037025966 0.015879095
-0.0095843766 -0.037272576 0.016831905
-0.0082303286 -0.036007687 0.017856181
-0.0075687673 -0.037843838 0.018531889
-0.0063704331 -0.037160862 0.01965031
-0.0052250563 -0.036575392 0.019263119
-0.0043227803 -0.037824325 0.017327309
-0.0031729098 -0.037017282 0.017010391
-0.002093317 -0.036633048 0.016559541
-0.0010888242 -0.038108848 0.013437361
0 -0.036890753 0.012793183
0.0010653773 -0.037288204 0.012554258
0.002176899 -0.038095735 0.010233998
0.0031805632 -0.037106574 0.0077778101
0.0043738023 -0.038270768 0.0068411827
0.00565782 -0.039604742 0.0064280927
0.0064578941 -0.037671052 0.0054481626
0.0076117064 -0.038058531 0.0047798753
-0.020195225 -0.038146541 0.0055427551
-0.018173425 -0.036346849 0.0076211393
-0.017993946 -0.038237136 0.010252923
-0.015726179 -0.035646006 0.012447596
-0.015049718 -0.036549319 0.014236212
-0.013867757 -0.036269519 0.015114605
-0.01214102 -0.034399558 0.015599161
-0.011750032 -0.036318284 0.016000926
-0.010612087 -0.036081098 0.017425179
-0.0092649851 -0.035001054 0.019780368
-0.0088400189 -0.037570082 0.020425439
-0.0075189341 -0.036520537 0.022773743
-0.0064964551 -0.036813248 0.022969365
-0.0053865593 -0.036628604 0.022786528
-0.0042291731 -0.035947971 0.021165699
-0.0031274762 -0.035444733 0.019655794
-0.0021893948 -0.037219711 0.017635137
-0.0010586183 -0.035993025 0.016523749
0 -0.036507498 0.015465945
0.0010874169 -0.036972173 0.012861818
0.0021105339 -0.035879076 0.012248397
0.0032605294 -0.036952667 0.0099407732
0.0044014701 -0.037412494 0.0078187883
0.0053221621 -0.036190704 0.0067679286
0.0066776108 -0.037839796 0.0062513649
0.0076673399 -0.037241366 0.0052148402
-0.019167863 -0.035141084 0.0064020157
-0.018352661 -0.035625756 0.010011733
-0.016438369 -0.033904135 0.012433201
-0.016020022 -0.035244051 0.013875932
-0.015156575 -0.035726212 0.0150626
-0.013809839 -0.035055745 0.015701979
-0.012803202 -0.035208803 0.016827464
-0.011661597 -0.03498479 0.017779529
-0.01018418 -0.033607796 0.02078107
-0.0099307084 -0.036412597 0.022813827
-0.0085550835 -0.03528972 0.024614275
-0.0073486683 -0.034643721 0.026020736
-0.0066567599 -0.036612179 0.025713623
-0.0053986167 -0.035630871 0.024090916
-0.0041863006 -0.03453698 0.024047047
-0.0033076939 -0.036384635 0.022438198
-0.0021306614 -0.035155915 0.019568741
-0.0010339231 -0.034119464 0.018253952
0 -0.035120253 0.016599923
0.0010366578 -0.034209706 0.015454829
0.0021751442 -0.035889875 0.012736291
0.0033510819 -0.0368619 0.010329902
0.0041836267 -0.034514919 0.0083680749
0.0055651111 -0.036729734 0.0073981285
0.0066779056 -0.036728479 0.0066163242
0.0075264517 -0.035481844 0.0055482686
0.0090066306 -0.03715235 0.0044547617
-0.020802049 -0.035035029 0.0052749515
-0.020019867 -0.035590876 0.0072249174
-0.018070396 -0.034014862 0.010890186
-0.017321099 -0.034642197 0.012615114
-0.016259221 -0.034686342 0.014136553
-0.014549025 -0.033254918 0.015180528
-0.01391608 -0.034254968 0.016646475
-0.012942844 -0.034514252 0.017719507
-0.011612486 -0.033781778 0.020346552
-0.010463311 -0.033482596 0.023272872
-0.0091867447 -0.032663982 0.02609241
-0.0082296273 -0.032918509 0.026302785
-0.0071774372 -0.032811143 0.02657783
-0.0061661932 -0.032886364 0.02657783
-0.0050800205 -0.032512132 0.02628392
-0.0041146977 -0.032917581 0.026106715
-0.0031818182 -0.033939395 0.023992866
-0.0020927999 -0.033484798 0.022628903
-0.0010727887 -0.034329239 0.020222634
0 -0.032761671 0.018286645
0.0010748553 -0.034395371 0.01632455
0.0021495689 -0.034393102 0.012615472
0.0030189892 -0.032202553 0.011589438
0.0043147802 -0.034518242 0.010147631
0.0054556201 -0.034915973 0.0083190799
0.0063237213 -0.033726513 0.0069247782
0.0079342332 -0.036270779 0.0055855811
0.0087804403 -0.035121761 0.0042437315
-0.021438384 -0.034978416 0.0053509176
-0.019236688 -0.033129852 0.0088497102
-0.017967572 -0.032764398 0.011773765
-0.017305043 -0.033528518 0.013455153
-0.015503318 -0.032040194 0.014290363
-0.014961003 -0.033127937 0.015508235
-0.013946448 -0.033256914 0.017390847
-0.012414521 -0.032070845 0.019635618
-0.011738425 -0.033081017 0.02277562
-0.010108004 -0.031334814 0.024604589
-0.0092952074 -0.032016829 0.026279688
-0.0083284872 -0.03227289 0.026496947
-0.0070686396 -0.031303976 0.027810782
-0.0061954833 -0.03201 0.027844101
-0.0051846583 -0.032144886 0.026694775
-0.0040471745 -0.031365603 0.026338041
-0.0030436537 -0.031451087 0.025532722
-0.0022065267 -0.034201164 0.023899496
-0.0010311729 -0.031966362 0.023034185
0 -0.033108525 0.020215034
0.0010854611 -0.033649296 0.018286407
0.0020454265 -0.031704109 0.014900953
0.0032716224 -0.033806764 0.012077332
0.0043321592 -0.033574235 0.011722356
0.0052873916 -0.032781828 0.0097061098
0.0066076159 -0.03413935 0.0073569417
0.0076434738 -0.033849671 0.0059914589
0.0089435931 -0.034656424 0.0042509735
-0.020849282 -0.032919921 0.0060571432
-0.018517597 -0.030862663 0.0088497102
-0.018540019 -0.032717682 0.011646003
-0.016794074 -0.031488888 0.013406813
-0.016062228 -0.032124456 0.014769256
-0.01496809 -0.032074478 0.015739322
-0.013522462 -0.031205682 0.01836884
-0.01281217 -0.032030426 0.022515625
-0.011114837 -0.030313192 0.023717999
-0.010220549 -0.030661648 0.026156187
-0.0093243234 -0.03108108 0.026381135
-0.0081330966 -0.030499112 0.027472496
-0.0071729664 -0.030741284 0.028826892
-0.0062262048 -0.031131024 0.028870285
-0.0052041854 -0.031225113 0.027666867
-0.0040849089 -0.030636817 0.026462466
-0.003053898 -0.030538982 0.026038051
-0.0020486109 -0.030729165 0.023976624
-0.0010396378 -0.031189134 0.023300081
0 -0.032409582 0.020172745
0.0010230991 -0.03069297 0.018360585
0.0021486946 -0.032230418 0.016068131
0.0031879689 -0.03187969 0.012543499
0.0042014052 -0.031510539 0.012033582
0.0054431297 -0.032658778 0.011724979
0.0065997476 -0.032998737 0.007661283
0.0075108679 -0.032189433 0.0063561201
0.0088927634 -0.03334786 0.0044952929
-0.021852003 -0.031685408 0.00456357
-0.019975899 -0.03048953 0.0060571432
-0.019871566 -0.032015305 0.0093818903
-0.017757345 -0.030291941 0.0116193
-0.017150087 -0.031084536 0.013861448
-0.016313124 -0.03153871 0.014817208
-0.014201613 -0.029417627 0.016936094
-0.013914505 -0.03104005 0.018346459
-0.012443949 -0.030072879 0.022555411
-0.011258643 -0.029681878 0.023654431
-0.01019932 -0.02957803 0.026092052
-0.0093626957 -0.030168688 0.026411355
-0.0083242962 -0.030175574 0.02802366
-0.0074611679 -0.030910553 0.029145539
-0.0062386566 -0.030153509 0.029145539
-0.0051589226 -0.029921753 0.028826892
-0.004163255 -0.0301836 0.027513087
-0.0030664995 -0.02964283 0.02626577
-0.002036094 -0.029523363 0.025499552
-0.0010836159 -0.031424861 0.023350716
0 -0.029178053 0.022667795
0.0010355107 -0.030029809 0.019701153
0.0021318169 -0.030911347 0.016608655
0.0030610261 -0.029589921 0.013892442
0.0042690695 -0.030950755 0.012234688
0.005369938 -0.031145642 0.011894137
0.0062656566 -0.030284008 0.007661283
0.0078063677 -0.032340668 0.0062855482
-0.022141397 -0.030997956 0.004722625
-0.021338174 -0.03144573 0.0060633719
-0.019294282 -0.03001333 0.0092541277
-0.018251222 -0.030060835 0.0116193
-0.017190076 -0.030082632 0.013546944
-0.01549269 -0.028919687 0.014639437
-0.01506114 -0.03012228 0.01724112
-0.013828451 -0.029784355 0.019884169
-0.012219248 -0.02851158 0.022736132
-0.011333541 -0.028849013 0.024309158
-0.010288689 -0.028808331 0.026351154
-0.0090146288 -0.028045513 0.027388602
-0.008272253 -0.028952885 0.028609544
-0.0071270205 -0.028508082 0.029029012
-0.0061120405 -0.028522857 0.029155403
-0.0051647029 -0.028922338 0.029173434
-0.0040720277 -0.028504193 0.02837491
-0.0030091985 -0.028085852 0.027783304
-0.0020339002 -0.028474601 0.026727587
-0.0010471903 -0.029321328 0.024593711
0 -0.029672269 0.02308327
0.0010481635 -0.02934858 0.02008304
0.0020526345 -0.028736884 0.017565489
0.0032088263 -0.029949045 0.015372545
0.0043104566 -0.030173197 0.012543499
0.0050479248 -0.02826838 0.012041062
0.0066575953 -0.03106878 0.0087353885
0.0077975336 -0.031190135 0.0054223835
-0.022531619 -0.030417688 0.0042913854
-0.020504724 -0.029138293 0.0052683055
-0.019075504 -0.028613258 0.007012099
-0.018208871 -0.028919972 0.011219442
-0.016726153 -0.028225385 0.013220996
-0.016416375 -0.029549476 0.014259428
-0.015235657 -0.029383052 0.017300189
-0.013581026 -0.028206749 0.019900024
-0.012689088 -0.028550448 0.022424549
-0.011017723 -0.027043505 0.023842275
-0.010178544 -0.027482068 0.026065826
-0.009444234 -0.028332703 0.027221173
-0.0081680762 -0.027567258 0.028324217
-0.0070656473 -0.027253212 0.028993338
-0.0060787778 -0.027354501 0.028984785
-0.0050998875 -0.027539395 0.028963894
-0.0040797805 -0.027538521 0.028078616
-0.003165026 -0.028485235 0.027420968
-0.0020437385 -0.02759047 0.026515037
-0.0010321602 -0.027868327 0.024492264
0 -0.02891968 0.02254501
0.001028875 -0.027779626 0.019800961
0.002092286 -0.028245861 0.017382801
0.0032230632 -0.029007569 0.014747173
0.0040656673 -0.027443256 0.012425333
0.0053231423 -0.028744971 0.011758596
0.0066423104 -0.029890398 0.0086185932
0.0075157131 -0.028989179 0.0059732199
-0.022095341 -0.028723944 0.0041277111
-0.020286378 -0.027760305 0.0050844252
-0.019381721 -0.027995819 0.0066783726
-0.017950401 -0.027453555 0.011297107
-0.017570363 -0.028551839 0.013230652
-0.015920177 -0.027594972 0.014323145
-0.014999791 -0.027856754 0.017300189
-0.013939032 -0.027878065 0.019620478
-0.012845905 -0.027832793 0.022144258
-0.011116554 -0.026275491 0.02328819
-0.01026173 -0.026680499 0.025222719
-0.0092585487 -0.026746921 0.025876284
-0.0081781829 -0.026579095 0.026902407
-0.0073274416 -0.027216211 0.028178841
-0.006289314 -0.027253695 0.027833164
-0.0052126781 -0.027105927 0.02739203
-0.0040950566 -0.026617868 0.026549608
-0.0030582163 -0.026504543 0.026426196
-0.0020155995 -0.026202792 0.02498877
-0.0010730979 -0.027900545 0.02395615
0 -0.026279055 0.021997124
0.0010585554 -0.027522443 0.019259065
0.0021489749 -0.027936673 0.017633736
0.003049637 -0.026430188 0.015173942
0.0041950843 -0.027268048 0.012356222
0.0053720851 -0.027934844 0.011350036
0.0063203429 -0.027388154 0.0072615743
0.0077388277 -0.028744217 0.0053453743
-0.02108191 -0.027739353 0.0048795044
-0.019378224 -0.026914204 0.0057532787
-0.017825073 -0.026213342 0.0092898011
-0.017377591 -0.027152484 0.013014823
-0.015629878 -0.026049798 0.01387316
-0.015444936 -0.027580244 0.016433537
-0.014153947 -0.02721913 0.018267274
-0.012577129 -0.026202351 0.021338791
-0.011514468 -0.026169246 0.022180617
-0.01040146 -0.026003651 0.023200214
-0.0091537889 -0.025427194 0.024867326
-0.0083196666 -0.025998957 0.025573283
-0.007165472 -0.025590973 0.02638945
-0.0061278427 -0.025532678 0.025480092
-0.0051490027 -0.025745016 0.025596082
-0.0041300277 -0.025812674 0.025279224
-0.0030566936 -0.025472449 0.025047749
-0.0021647734 -0.027059667 0.023277611
-0.0010432659 -0.02608165 0.022234112
0 -0.026513813 0.021659791
0.0010610969 -0.026527425 0.019164741
0.0020537719 -0.025672149 0.017565668
0.0031958087 -0.026631741 0.016028047
0.0042970106 -0.026856318 0.012432784
0.0050927144 -0.025463574 0.011877418
0.0066506662 -0.027711112 0.0073777735
0.0078550577 -0.028053777 0.0053748488
-0.018993726 -0.025324969 0.0052440464
-0.018178245 -0.025663406 0.0070121288
-0.016593983 -0.024890976 0.011699975
-0.016219815 -0.025951704 0.013174385
-0.014974649 -0.025670826 0.015097916
-0.013790735 -0.025459819 0.016879797
-0.01283968 -0.025679359 0.019250154
-0.01168555 -0.025495745 0.020976901
-0.010072647 -0.024174351 0.021703899
-0.0093758907 -0.025002377 0.022268921
-0.0082883174 -0.024864951 0.022691905
-0.0072402628 -0.024823757 0.024429739
-0.0062949234 -0.025179693 0.024171591
-0.0051354854 -0.024650332 0.024171591
-0.0040383893 -0.024230335 0.023023158
-0.0031621512 -0.02529721 0.022666425
-0.0021467223 -0.025760667 0.021685243
-0.0010445815 -0.025069958 0.021502912
0 -0.025353428 0.019749343
0.0010015493 -0.024037184 0.018574685
0.0021016819 -0.025220182 0.017041534
0.0031499176 -0.025199341 0.015267044
0.0041389354 -0.024833612 0.012068033
0.0053195911 -0.025534039 0.010579556
0.0067415093 -0.026966037 0.0068241358
0.0076078987 -0.026084224 0.0042255819
-0.01980654 -0.025308358 0.0046016872
-0.017831428 -0.024124874 0.0055075884
-0.017335087 -0.024919188 0.00919047
-0.015804268 -0.024233211 0.012584448
-0.014516902 -0.023849197 0.01360473
-0.013946989 -0.024675442 0.015431374
-0.012864922 -0.024657769 0.016879797
-0.011566103 -0.02418367 0.017865658
-0.010745971 -0.024715735 0.019955724
-0.0094555896 -0.024164286 0.020767957
-0.0080601992 -0.023173073 0.021135867
-0.0070657847 -0.023216151 0.02187264
-0.0059383046 -0.022763502 0.021876633
-0.00508815 -0.02340549 0.021711469
-0.004244728 -0.024407187 0.021299988
-0.0032038859 -0.024563126 0.021299988
-0.0020610821 -0.023702443 0.020988315
-0.0010568486 -0.024307519 0.02051273
0 -0.023545925 0.018700749
0.0010553877 -0.024273915 0.017509639
0.0021264609 -0.024454301 0.01597032
0.003144352 -0.024106698 0.014755905
0.0041707074 -0.023981569 0.011853606
0.0054028495 -0.024853108 0.0092996061
0.0066347593 -0.025433244 0.0051732659
-0.020147605 -0.024624851 0.004262805
-0.018049013 -0.023357546 0.0045955181
-0.017437771 -0.023976935 0.0075035691
-0.015793703 -0.023164097 0.010746956
-0.015292416 -0.024030939 0.012877136
-0.013682351 -0.023154749 0.014591128
-0.012360643 -0.022661179 0.015771717
-0.01169626 -0.023392521 0.016037375
-0.0106014 -0.023323081 0.016780853
-0.009420759 -0.023028521 0.01810059
-0.0087382188 -0.024030102 0.018683881
-0.0074745724 -0.023491513 0.019464344
-0.0065315892 -0.023949161 0.020595461
-0.0052876323 -0.023265582 0.019456834
-0.0042752763 -0.023514019 0.019365579
-0.0031133778 -0.022831438 0.018951982
-0.0021256632 -0.023382295 0.018584132
-0.0010373923 -0.02282263 0.018678546
0 -0.023515191 0.017838538
0.0010756879 -0.023665134 0.016390473
0.0020272767 -0.022300042 0.015206456
0.0032647911 -0.023941802 0.01216957
0.004325442 -0.023789929 0.010801166
0.0054739215 -0.024085253 0.0068881512
0.006699244 -0.024563894 0.004313767
-0.018578883 -0.022950387 0.0040258765
-0.01674795 -0.021981683 0.0058233738
-0.016416477 -0.022983069 0.0087897778
-0.014981791 -0.022472687 0.011517137
-0.013661238 -0.022068156 0.012877136
-0.012709226 -0.022241147 0.014707267
-0.01173867 -0.022410188 0.014863759
-0.010422637 -0.021887539 0.01540935
-0.0095951529 -0.022388691 0.015449196
-0.0088299783 -0.023178693 0.015913904
-0.0073183142 -0.021954942 0.016414791
-0.006507623 -0.022776682 0.017717361
-0.0053687114 -0.022548588 0.017683446
-0.0042427257 -0.02227431 0.017717361
-0.0032518937 -0.022763256 0.017560184
-0.002066884 -0.02170228 0.017149955
-0.0010547636 -0.022150036 0.016466349
0 -0.022192303 0.015554696
0.0010171327 -0.021359786 0.015042841
0.0021121867 -0.022177961 0.012699515
0.0032305212 -0.022613648 0.010638714
0.0041477391 -0.021775631 0.0079449713
0.0055629411 -0.023364352 0.0050317645
-0.01744817 -0.021810213 0.0042867064
-0.016445959 -0.021927945 0.0059893429
-0.014531253 -0.020758932 0.0077152252
-0.013863967 -0.021329179 0.00894925
-0.013015453 -0.021692421 0.012684911
-0.011549321 -0.020998765 0.013041198
-0.011000508 -0.022001015 0.014157563
-0.0097547378 -0.021677196 0.014517337
-0.0083415713 -0.020853929 0.01456064
-0.0074471189 -0.021277482 0.014624506
-0.0064244233 -0.021414744 0.015252173
-0.0052856673 -0.021142669 0.015254736
-0.0042754211 -0.021377105 0.015404195
-0.0032353185 -0.02156879 0.015404195
-0.0020155057 -0.020155055 0.015298486
-0.0010483821 -0.020967644 0.015279949
0 -0.020541411 0.014464319
0.0010631807 -0.021263612 0.013291478
0.0021192774 -0.021192772 0.01021862
0.0030807601 -0.020538401 0.0075148344
0.004433752 -0.022168759 0.0051583052
0.0056422059 -0.022568824 0.0042893291
-0.015952216 -0.02020614 0.0045768023
-0.015476378 -0.021003656 0.0067608356
-0.013856154 -0.020251304 0.0076247752
-0.012474962 -0.019752024 0.0087569058
-0.011784458 -0.020354973 0.011004686
-0.010640779 -0.02021748 0.011953086
-0.0095032845 -0.020062491 0.012649
-0.0086558284 -0.020557592 0.013110667
-0.007335485 -0.019910602 0.013207376
-0.0062976792 -0.019942651 0.014022589
-0.0053922795 -0.020490663 0.014033854
-0.0042111389 -0.020002911 0.013999939
-0.0031975245 -0.020250989 0.014114588
-0.0021811721 -0.020721136 0.013418436
-0.0010391299 -0.019743469 0.013044506
0 -0.02074801 0.012118965
0.0010457078 -0.01986845 0.010558397
0.0020269577 -0.019256098 0.0064311326
0.003334013 -0.021115417 0.0045915842
0.0044757058 -0.021259604 0.0041851401
-0.014932704 -0.019199191 0.0046845078
-0.014048495 -0.019451762 0.0063226819
-0.013196811 -0.019795217 0.0069265962
-0.011793854 -0.019299032 0.007094413
-0.010272373 -0.01849027 0.0081060231
-0.009906128 -0.019812256 0.009403199
-0.0085223559 -0.0191753 0.010731936
-0.0074335351 -0.019114804 0.011046976
-0.0065498301 -0.019649491 0.011854112
-0.0053420421 -0.019231351 0.011690408
-0.0041675256 -0.018753864 0.011690408
-0.0032240248 -0.019344147 0.011707187
-0.0021325713 -0.019193141 0.010954261
-0.001049118 -0.018884122 0.0097942054
0 -0.019161582 0.0090688169
0.001049788 -0.018896183 0.0055280924
0.002210662 -0.019895956 0.0043680072
-0.014056359 -0.018381393 0.0040193796
-0.013015571 -0.018438727 0.0049726963
-0.011521162 -0.017805431 0.0059169829
-0.010861195 -0.018464031 0.0063495934
-0.009741121 -0.018399896 0.0065729916
-0.0085266959 -0.018119229 0.0069999993
-0.0076138522 -0.018490784 0.0066096485
-0.0063180984 -0.017901279 0.0072887838
-0.0053213052 -0.018092439 0.0066070259
-0.0042856731 -0.01821411 0.0073072612
-0.0031127122 -0.017638702 0.0074546039
-0.0021105073 -0.017939312 0.0064329505
-0.0010714076 -0.018213928 0.0050474703
-0.010651571 -0.017042514 0.0052129328
-0.0095151672 -0.016915854 0.0058099329
-0.0089091444 -0.017818289 0.0059895217
-0.0075012068 -0.017145615 0.0058099329
-0.0064879842 -0.017301291 0.0056164265
-0.0054421742 -0.017414959 0.0053254068
-0.0042622322 -0.017048929 0.0051560402
-0.0031896157 -0.017011285 0.0051560402
-0.0021889538 -0.01751163 0.0040232837
0 0 0 1 0 0 0 1 0 0 0 1 0 0 0 0 0 623 1 0 0
