ply
format ascii 1.0
comment PCL generated
element vertex 588
property float x
property float y
property float z
element camera 1
property float view_px
property float view_py
property float view_pz
property float x_axisx
property float x_axisy
property float x_axisz
property float y_axisx
property float y_axisy
property float y_axisz
property float z_axisx
property float z_axisy
property float z_axisz
property float focal
property float scalex
property float scaley
property float centerx
property float centery
property int viewportx
property int viewporty
property float k1
property float k2
end_header
0.0010836037 0.053096581 0.0040418804
0 0.054384694 0.0040121675
0.0010892032 0.054460157 0.0040648878
-0.0021637175 0.056256659 0.0040581226
0 0.056329668 0.004006803
0.0010800548 0.056162845 0.0040648878
-0.0043275724 0.057340335 0.0040580332
-0.0022296319 0.059085242 0.0040822625
-0.0010688258 0.05664777 0.0042006671
0 0.056398056 0.0040969253
0.0011096882 0.058813471 0.0042262673
0.0021909461 0.058060069 0.0040571094
-0.0021684729 0.058548767 0.0040110946
-0.0010782037 0.058223002 0.0040580332
0 0.060027663 0.0041765273
0.0010744572 0.058020689 0.0042723715
-0.0021229261 0.058380466 0.0040794909
-0.0010780848 0.059294663 0.0041382313
0 0.057769865 0.0043697059
0.0010922804 0.060075425 0.0046591461
0.0022270668 0.061244339 0.0044402182
0.0032289196 0.05919686 0.0042327344
-0.0022462367 0.062894627 0.0040214956
-0.0011033822 0.061789405 0.0040821731
0 0.061556261 0.004170388
0.0010833339 0.060666699 0.0041832626
0.0021135081 0.059178229 0.0045266747
0.0033314417 0.062186912 0.0043807924
0.0044157412 0.061820373 0.0042943358
0.0052272757 0.058545489 0.0043221116
-0.0021666221 0.061748728 0.0040618777
-0.0010725156 0.061133388 0.0040969849
0 0.062038522 0.004357636
0.0010544059 0.060101137 0.004314065
0.0054732487 0.062395032 0.0042849779
0.0063047525 0.05989515 0.0040851831
-0.0053325407 0.061857473 0.0042260885
0.0010910862 0.063283004 0.0040110946
-0.0096027227 0.062951185 0.0054651499
-0.0087914336 0.064836822 0.0054485202
-0.0076134838 0.064170793 0.0055133402
-0.0065090936 0.06400609 0.0055114925
-0.0055887946 0.065947779 0.0057887137
-0.0043312162 0.063885443 0.0046541691
0.001085146 0.064023614 0.0040821731
-0.012057188 0.065766484 0.0054705143
-0.010645299 0.063871801 0.0069962144
-0.0098629212 0.065752812 0.0073988736
-0.0086647645 0.064985737 0.007230103
-0.0074870563 0.064174764 0.0072555542
-0.0066322591 0.066322595 0.0073849857
-0.0054553156 0.065463789 0.0075362623
-0.0043047983 0.064571977 0.0066979229
-0.0032684652 0.065369308 0.0058229566
-0.0021568197 0.06470459 0.0055133402
-0.0010657565 0.063945398 0.0042757392
0.0010695555 0.064173326 0.0041061342
-0.015020906 0.065448232 0.0050058067
-0.014428461 0.067702778 0.0061202943
-0.013236448 0.067285277 0.0069895387
-0.01162853 0.064485483 0.0092003942
-0.010981235 0.066985533 0.010488003
-0.0099352105 0.067338653 0.01078707
-0.0087141162 0.066445135 0.010980964
-0.0077441726 0.06748493 0.010952294
-0.0064862403 0.065943442 0.010410041
-0.0053692176 0.065504454 0.010306984
-0.0044813822 0.068341076 0.0097843111
-0.0032520676 0.066125378 0.0091902614
-0.0021642204 0.066008724 0.0075108111
-0.0011100291 0.067711771 0.00699085
0 0.065035127 0.0057559013
0.001098757 0.067024171 0.0045695603
0.0022054506 0.067266241 0.0041832626
-0.016060175 0.066382065 0.0051521659
-0.015402246 0.068209946 0.0069989264
-0.014027674 0.066901214 0.0085332692
-0.012886728 0.066581428 0.010901272
-0.01186203 0.066858724 0.013062298
-0.010536174 0.065324284 0.015087247
-0.0090667205 0.062459636 0.015867054
-0.0082862433 0.064218387 0.016823471
-0.0071786796 0.063582592 0.016567409
-0.0061646039 0.063700907 0.0166547
-0.0052111503 0.064618267 0.015570909
-0.0041283038 0.063988708 0.013063937
-0.0031232277 0.064546712 0.012643307
-0.0022095635 0.068496473 0.010067791
-0.0010879202 0.067451052 0.0088875294
0 0.068172283 0.0078931451
0.0011011162 0.068269208 0.0063431859
0.002137257 0.066254973 0.005213201
0.0032895301 0.06798362 0.0043798685
-0.017193012 0.067697488 0.0052436888
-0.016584953 0.069656804 0.0064219534
-0.015537121 0.069917046 0.0080506206
-0.01362867 0.066046633 0.010927677
-0.012662907 0.066480264 0.013767481
-0.011483301 0.065768003 0.015399188
-0.010026357 0.063166052 0.017840475
-0.0095808413 0.067065895 0.019511282
-0.0081722792 0.0643567 0.019919515
-0.0072273747 0.065046377 0.019984931
-0.0062905368 0.066050641 0.01981616
-0.0051694131 0.065134607 0.018384308
-0.0041349214 0.065125011 0.017836392
-0.0030951137 0.06499739 0.016904563
-0.0020185071 0.063582979 0.013942719
-0.0010302842 0.064907901 0.012090504
0 0.070372447 0.010646015
0.0010561843 0.066539615 0.0078944564
0.0022232973 0.070033863 0.0068158507
0.0032711099 0.06869331 0.0057311952
0.0042406856 0.066790797 0.004229635
-0.018351747 0.069088928 0.005125761
-0.017658047 0.07063219 0.0058109164
-0.016619157 0.070908405 0.0078110099
-0.01400968 0.064044252 0.011572301
-0.01352952 0.066606872 0.014382333
-0.012448574 0.066392399 0.015786588
-0.011229262 0.065333888 0.019396216
-0.01038122 0.066439807 0.020310223
-0.009364225 0.066590048 0.020630658
-0.0081296274 0.06503702 0.020630091
-0.0072869463 0.066623509 0.020698935
-0.0060746223 0.064795971 0.020605147
-0.0049985372 0.06398128 0.020555466
-0.0041701677 0.066722684 0.019969076
-0.0030334063 0.064712673 0.018958241
-0.0020377154 0.065206893 0.017949194
-0.0010593279 0.067796983 0.016444981
0 0.065554492 0.013897121
0.0010890112 0.069696717 0.011332452
0.0022023269 0.070474461 0.0093141496
0.0032122247 0.06852746 0.0078359842
0.0044001578 0.070402525 0.0065506101
0.0054970365 0.070362069 0.0052197576
0.0064838836 0.069161423 0.004129529
-0.019590411 0.070743158 0.0045714378
-0.018382374 0.070285551 0.0054441094
-0.017868584 0.072591126 0.0070227385
-0.015238627 0.066034049 0.011012316
-0.01456755 0.067635052 0.014382333
-0.013623527 0.068117641 0.017905772
-0.012179465 0.065972105 0.020285487
-0.011332728 0.066966116 0.020764112
-0.010449947 0.067924656 0.020986557
-0.0090637831 0.06546066 0.021723032
-0.0082867397 0.067329757 0.021811664
-0.0071029509 0.065955974 0.023432791
-0.006064293 0.065696508 0.023444146
-0.0052357959 0.068065353 0.022648871
-0.0040869215 0.066412471 0.021848112
-0.003041965 0.065909244 0.020945668
-0.0020930078 0.06802275 0.020109117
-0.001045069 0.067929484 0.018538177
0 0.0680314 0.01696384
0.0010611386 0.068974011 0.013711601
0.0021156373 0.068758212 0.011600524
0.0032808373 0.071084812 0.0094835162
0.0044196141 0.071818732 0.0083528757
0.0053573623 0.06964571 0.0077629387
0.0066225184 0.07174395 0.004722327
0.007760928 0.072065763 0.0042710602
-0.020601995 0.071564823 0.0043223202
-0.019285109 0.070712067 0.0056908429
-0.019076055 0.074059978 0.0065791905
-0.016093601 0.066386104 0.0077675581
-0.015816936 0.069594517 0.014244914
-0.014844584 0.069981612 0.017592579
-0.013156115 0.066792585 0.020180076
-0.012648727 0.069567993 0.020698935
-0.011353352 0.068120115 0.021689683
-0.0098978747 0.065325968 0.022700518
-0.0092924014 0.068144277 0.023679495
-0.0082074078 0.067711107 0.023915172
-0.007051277 0.066483468 0.024105906
-0.0063037015 0.069340713 0.024111152
-0.0051203119 0.067588113 0.023889065
-0.004108394 0.067788497 0.0236485
-0.0031508461 0.069318615 0.023367971
-0.0020586033 0.06793391 0.021669269
-0.0010193243 0.067275397 0.020450532
0 0.069630228 0.018552274
0.0010072918 0.066481262 0.015705705
0.0020586033 0.06793391 0.013801128
0.0032618421 0.071760528 0.010970712
0.0042989785 0.070933141 0.0097762644
0.0055119377 0.072757579 0.0075872242
0.0065837856 0.07242164 0.0060250461
0.0073009725 0.06883774 0.0046941936
0.0091428673 0.075428657 0.0041876733
-0.020710101 0.07303036 0.0049356222
-0.020055946 0.074652694 0.0058608055
-0.017554572 0.069185667 0.0072028935
-0.01696299 0.071032524 0.011698544
-0.015873652 0.07090231 0.015584648
-0.013997161 0.066986412 0.01958847
-0.013556342 0.069867298 0.020643353
-0.012534693 0.069985375 0.021271408
-0.010986388 0.066917092 0.022719473
-0.01033395 0.069237463 0.023627847
-0.0092929741 0.069181032 0.024035513
-0.008050167 0.067420155 0.024220377
-0.0071948995 0.068865471 0.025747567
-0.0061041634 0.068163157 0.025655836
-0.0050788545 0.06805665 0.025072277
-0.0041695135 0.069839351 0.024679303
-0.0030792127 0.06876909 0.024335563
-0.0019965514 0.066884473 0.023700148
-0.0010477782 0.070201136 0.021224201
0 0.067388937 0.020314991
0.0010516871 0.070463039 0.019125402
0.0021188702 0.070982151 0.015854388
0.0030368166 0.06782224 0.013209701
0.0044507044 0.074549295 0.011195153
0.0054435628 0.07294374 0.0090303123
0.0064447466 0.071966343 0.007422775
0.0077673267 0.074344411 0.0054289401
0.0087548448 0.073321827 0.0046308637
-0.021795815 0.074105769 0.0040022433
-0.020929806 0.074906677 0.0055432916
-0.01897433 0.071680807 0.0066687763
-0.017513692 0.07005477 0.010727793
-0.016912797 0.071879387 0.014685601
-0.015053472 0.068242408 0.018258989
-0.014390942 0.069898859 0.020179749
-0.013537509 0.070811592 0.020770133
-0.012119285 0.06867595 0.021617621
-0.011452518 0.070797391 0.023733258
-0.01026421 0.069796629 0.024041861
-0.0091149993 0.06886889 0.024431884
-0.0083257379 0.070768774 0.025089473
-0.0072689438 0.070612594 0.026615471
-0.0061290688 0.069462776 0.026514322
-0.0052008964 0.070732191 0.026316285
-0.0040444573 0.068755776 0.025900364
-0.0029645197 0.067195781 0.025339782
-0.0020961205 0.071268097 0.024946809
-0.001038031 0.0705861 0.023848832
0 0.071289398 0.02118504
0.0010341235 0.070320398 0.020755768
0.0020418989 0.06942457 0.018799305
0.0031482805 0.071361028 0.014628023
0.0042534005 0.07230781 0.013141125
0.0052967696 0.072036065 0.010880351
0.0065539018 0.074277557 0.0080326498
0.0077010328 0.074810028 0.0060568452
0.0086089363 0.073175959 0.0044899285
-0.022022033 0.075976014 0.0040434003
-0.020615488 0.074866772 0.0054781735
-0.018692002 0.071652673 0.0078434646
-0.01807694 0.073371105 0.012086004
-0.016140126 0.069604285 0.014945626
-0.015514689 0.071367569 0.019061565
-0.014565722 0.071788199 0.020394892
-0.01307593 0.069403015 0.020987839
-0.012500566 0.071878262 0.023216039
-0.011250202 0.070569448 0.024220377
-0.01004129 0.069284901 0.025714934
-0.0094837267 0.072708569 0.026276767
-0.008346308 0.071986906 0.026983768
-0.0071431198 0.070410751 0.028188378
-0.0062000602 0.071300693 0.027960569
-0.0052332818 0.07221929 0.026937127
-0.0041189636 0.071052119 0.026832491
-0.0031428253 0.072284982 0.026615471
-0.0020367235 0.070266962 0.025880247
-0.0010150663 0.07003957 0.023871183
0 0.072175011 0.021969199
0.0010187317 0.070292488 0.020383626
0.0020454964 0.07056962 0.019468069
0.0031707655 0.072927609 0.016671151
0.0040540718 0.069932736 0.013475865
0.0054420717 0.075100593 0.011850685
0.006493859 0.074679382 0.008612901
0.0074198451 0.073138475 0.0065705776
0.0089821573 0.077471107 0.0044880211
-0.022054765 0.077191681 0.0042333305
-0.020793768 0.076608613 0.0066054463
-0.019460708 0.075680532 0.0091002882
-0.017465388 0.071916305 0.012265533
-0.016668197 0.072923362 0.015379876
-0.015648609 0.073026836 0.019085377
-0.014303274 0.071516365 0.020429462
-0.013730656 0.073934302 0.021506846
-0.012575272 0.073355749 0.023863584
-0.011112052 0.070713058 0.025861889
-0.010420144 0.072941005 0.026316285
-0.0088987648 0.069212623 0.026695192
-0.0078931274 0.069064863 0.027554452
-0.0070593967 0.070593968 0.028356045
-0.0060216025 0.070252031 0.028266966
-0.0048863417 0.06840878 0.027501345
-0.00404948 0.070865899 0.026931584
-0.0031254643 0.072927497 0.026872426
-0.0020152037 0.070532128 0.026506275
-0.0010455105 0.073185734 0.025316805
0 0.069763578 0.022448748
0.0010374621 0.072622351 0.02118355
0.00207923 0.072773047 0.019058377
0.0030373542 0.070871599 0.017438948
0.0042632935 0.074607633 0.01441282
0.0053067491 0.074294493 0.012088895
0.0063909488 0.074561067 0.0093462765
0.0076979501 0.076979503 0.0068538487
0.0085815536 0.07508859 0.004396081
-0.021539263 0.076464385 0.0053918958
-0.021248663 0.079402894 0.007301569
-0.018691285 0.073726729 0.0093903542
-0.017695539 0.073904894 0.012254417
-0.017035428 0.075594708 0.015010983
-0.01520096 0.07195121 0.018999279
-0.014728941 0.074696772 0.020421743
-0.013519634 0.073838003 0.021506846
-0.01206725 0.071397901 0.023863584
-0.011348268 0.073247917 0.025894523
-0.0099361436 0.07054662 0.026547343
-0.0091175288 0.071927167 0.027295649
-0.0083608357 0.074202418 0.028239042
-0.0071286559 0.072304934 0.029197693
-0.0060564894 0.071668454 0.028917372
-0.0052174353 0.074087583 0.028435558
-0.0040189335 0.071336068 0.027929753
-0.0029679765 0.070242114 0.027479947
-0.002110281 0.07491497 0.027294099
-0.0010288538 0.073048621 0.026198119
0 0.07398662 0.02370435
0.0010167864 0.072191834 0.021969199
0.0020191455 0.071679667 0.020106405
0.0031814028 0.075293198 0.017538309
0.0041687791 0.073995829 0.014248639
0.0051324889 0.072881341 0.012466043
0.0065513817 0.077524684 0.010378003
0.0076929815 0.078028813 0.0072942972
0.008595176 0.076282181 0.0049818456
-0.021891991 0.078811169 0.0054267347
-0.020015093 0.075846665 0.007301569
-0.018632488 0.074529953 0.0093903542
-0.018353494 0.077732436 0.012096375
-0.016280664 0.07326299 0.015009761
-0.015946414 0.076542787 0.019050896
-0.01485104 0.076376773 0.020382226
-0.013509108 0.074819677 0.021196544
-0.012778971 0.076673828 0.02348718
-0.011113721 0.072744355 0.025747567
-0.010060829 0.072437964 0.027035981
-0.0091519216 0.073215373 0.027554572
-0.0083365776 0.075029194 0.028903842
-0.0073565794 0.075667672 0.029256374
-0.0063328897 0.07599467 0.028955281
-0.0051575699 0.074269004 0.028780341
-0.0040553594 0.07299646 0.028384894
-0.0030541855 0.073300451 0.027876526
-0.002032314 0.073163301 0.027547807
-0.0010202469 0.073457778 0.026281923
0 0.0759295 0.023217082
0.0010101651 0.072731882 0.021214485
0.0020832028 0.074995294 0.019144654
0.0031371787 0.075292282 0.015478492
0.0040205545 0.072369978 0.013303012
0.0053327894 0.076792166 0.012466043
0.0066270325 0.07952439 0.010378003
0.0074414224 0.076540343 0.0072942972
0.0091199325 0.082079388 0.0047568083
-0.021927945 0.080037013 0.0055989921
-0.020017719 0.076910183 0.0073500872
-0.019255355 0.078091167 0.010147452
-0.01780037 0.076436892 0.011638522
-0.016734818 0.076352611 0.01467371
-0.015835129 0.077064291 0.018228978
-0.014348513 0.074817248 0.020421743
-0.013656732 0.076687805 0.021196544
-0.012540971 0.076290913 0.023480415
-0.011057402 0.073380947 0.026573837
-0.010403027 0.075942099 0.027335167
-0.0093708169 0.076007746 0.027929753
-0.0081961844 0.07479018 0.029300958
-0.006979703 0.072788335 0.029550314
-0.0060065892 0.073080175 0.028939903
-0.0051292167 0.074886568 0.028824508
-0.0041485922 0.075711809 0.028664023
-0.0030497867 0.074211486 0.028101295
-0.002033462 0.074221373 0.027547807
-0.0010597493 0.077361695 0.02578795
0 0.072803505 0.022881329
0.0010423537 0.076091819 0.020987332
0.0020929663 0.076393276 0.018813163
0.0029949022 0.072875954 0.015141606
0.004142114 0.075593583 0.013542473
0.0052002934 0.075924285 0.012212873
0.0062235906 0.075720362 0.010580212
0.0076715858 0.080003686 0.0072096288
0.0087340241 0.079697974 0.0045500994
-0.021636762 0.080056027 0.0053914189
-0.020696174 0.080606155 0.0071203411
-0.019038726 0.078270324 0.0090657473
-0.017576575 0.076509804 0.010695279
-0.017430043 0.080613956 0.012692869
-0.015278058 0.075371757 0.016256362
-0.014576203 0.077045649 0.019700885
-0.014019944 0.079805836 0.020578176
-0.012152798 0.074942261 0.021409273
-0.011225889 0.075519621 0.024622649
-0.010141863 0.075049795 0.026400626
-0.0090559097 0.074459709 0.02769959
-0.0081795957 0.075661264 0.029041946
-0.0071222205 0.075292051 0.029295325
-0.0061168703 0.075441405 0.029123038
-0.0051725036 0.076553054 0.028850615
-0.0040513002 0.074949056 0.028382331
-0.0030198328 0.074489214 0.0272834
-0.0020011407 0.074042208 0.026324064
-0.0010383531 0.076838136 0.02478525
0 0.078107312 0.022091776
0.0010460877 0.077410489 0.020192772
0.0020354365 0.075311154 0.018961012
0.0031095878 0.076703176 0.014915973
0.0041760071 0.077256136 0.012958854
0.0051449244 0.076144889 0.011835724
0.0066082347 0.081501566 0.01013124
0.0076006157 0.080349371 0.0069159269
0.0085459892 0.079050407 0.0043452382
-0.021864096 0.081990361 0.0053632855
-0.020611811 0.081362419 0.0066985786
-0.019101307 0.079588778 0.0077930391
-0.018546926 0.081824675 0.009175688
-0.016474593 0.077224657 0.011962295
-0.016083311 0.08041656 0.014813185
-0.014762517 0.079084918 0.016871482
-0.013297231 0.076714799 0.020055801
-0.012824504 0.080153152 0.020421743
-0.011116719 0.075795814 0.022357494
-0.010099558 0.075746693 0.023639649
-0.0093095982 0.07757999 0.026887655
-0.0080814837 0.075763911 0.028416425
-0.0070632286 0.075677454 0.029203326
-0.0061432426 0.076790534 0.028742969
-0.0050482252 0.075723387 0.028203428
-0.0040499568 0.075936697 0.027170658
-0.0030558703 0.076396763 0.025767744
-0.0020172608 0.07564728 0.024076015
-0.0010254802 0.076911017 0.022596151
0 0.079113722 0.020835638
0.0010153519 0.076151386 0.019891858
0.0021235775 0.07963416 0.018571943
0.0031881949 0.079704881 0.013960779
0.0039631804 0.07430964 0.012033165
0.0053990963 0.080986448 0.011004716
0.0065689473 0.08211185 0.0081291497
0.0075636404 0.081039011 0.0059000552
-0.021763213 0.082700215 0.0053632855
-0.020517172 0.082068689 0.006650418
-0.01971633 0.083246738 0.007692188
-0.017738752 0.079302654 0.00881055
-0.016997678 0.080738977 0.010830224
-0.015805712 0.080082275 0.012528032
-0.01446915 0.078546815 0.015575856
-0.013811898 0.080746487 0.018573314
-0.012868245 0.081498884 0.020172626
-0.010960157 0.075724721 0.021069169
-0.010118316 0.076899201 0.022244304
-0.0091716861 0.077449799 0.022934169
-0.0079652062 0.075669453 0.02621004
-0.0070927152 0.077006623 0.026837885
-0.0060484414 0.076613598 0.026342273
-0.0050815661 0.077239811 0.025640666
-0.0040936368 0.077779099 0.023928732
-0.0030082937 0.076210104 0.022846788
-0.0020667806 0.078537658 0.021802217
-0.0010867738 0.082594812 0.020006537
0 0.076549076 0.019248545
0.0010620336 0.080714554 0.018211991
0.0021124266 0.080272213 0.014631629
0.0030526812 0.07733459 0.011946797
0.0043583997 0.08280959 0.011058003
0.0053681852 0.081596419 0.010030508
0.0063557154 0.080505729 0.0066955984
0.0077668941 0.084326282 0.0041768253
-0.021107759 0.085541971 0.0052967668
-0.019249648 0.082345717 0.0065945387
-0.018037722 0.081700265 0.0076256692
-0.016827116 0.080980495 0.0088991821
-0.015477114 0.079449184 0.011763781
-0.015189673 0.083543204 0.012652129
-0.013814872 0.081826553 0.015458137
-0.012469458 0.080012359 0.017866552
-0.01138109 0.079667628 0.019024044
-0.010181293 0.078395955 0.020364374
-0.0089966739 0.076971546 0.021004081
-0.0081655532 0.078593455 0.022794902
-0.0071028559 0.078131415 0.023249239
-0.006029129 0.077373825 0.023883164
-0.0050675487 0.07804025 0.022734046
-0.0040088845 0.077171028 0.020053536
-0.0030555846 0.078426674 0.019470483
-0.0021866562 0.084186263 0.018046021
-0.0010580111 0.081466854 0.017754912
0 0.08175756 0.017578542
0.0010445989 0.080434114 0.014288664
0.0020567263 0.079183958 0.012707531
0.0032407769 0.083179943 0.011437267
0.0042613107 0.082030237 0.010283262
0.0052103428 0.080239281 0.0080350637
0.0066796746 0.085722491 0.0054326952
-0.02048682 0.084103793 0.0046294034
-0.01868858 0.080983855 0.0060171485
-0.018554868 0.085134104 0.006650418
-0.016473856 0.080310039 0.0077024698
-0.016077248 0.083601698 0.0083822608
-0.014664251 0.081700832 0.012010276
-0.013228316 0.079369895 0.012528032
-0.012951795 0.084186666 0.015215307
-0.012118768 0.085933082 0.016391218
-0.010262101 0.080044389 0.016984105
-0.0090527888 0.078457505 0.020213306
-0.0080253156 0.078246824 0.020531625
-0.0069822557 0.077802278 0.021787882
-0.0060686837 0.078892887 0.02113986
-0.0049760165 0.077625856 0.017995685
-0.0040287971 0.078561544 0.014579773
-0.0032710428 0.085047118 0.014240235
-0.0021403909 0.08347524 0.014279425
-0.0010272341 0.080124266 0.014152884
0 0.082505271 0.012967378
0.0010136486 0.079064593 0.011923611
0.0021296183 0.083055116 0.010743767
0.0031397992 0.081634775 0.0088905394
0.0041042031 0.080031954 0.0065397322
0.0055098236 0.085953251 0.0055276752
-0.020256767 0.088904701 0.0054117739
-0.018160017 0.08439067 0.0053181946
-0.017194852 0.084899575 0.0064381659
-0.01607953 0.084685527 0.0068096817
-0.014702531 0.082964279 0.0082816482
-0.013982242 0.084969006 0.009706974
-0.012958597 0.085310765 0.0099351406
-0.01136844 0.08164607 0.0099351406
-0.010967108 0.086640157 0.0092106164
-0.0099403951 0.087254576 0.010801226
-0.008555498 0.084485538 0.010078728
-0.0074499734 0.084078267 0.0097469687
-0.0064394143 0.084785618 0.0096232891
-0.0054536867 0.086168244 0.010478884
-0.0045953975 0.090759099 0.010974139
-0.0032258905 0.084948443 0.010385603
-0.0020711857 0.081811838 0.010974139
-0.0010896196 0.086079948 0.010271788
0 0.081189021 0.010160506
0.0010713148 0.084633864 0.0083244443
0.0021296893 0.084122725 0.0061903
0.0031094237 0.081881493 0.0057150424
0.0043616313 0.08614222 0.0043108165
-0.018242756 0.085848264 0.0048426986
-0.017334817 0.086674079 0.0050920546
-0.015622826 0.083321743 0.0057989359
-0.01553963 0.088797882 0.006862253
-0.013986443 0.086070418 0.0078277886
-0.012441773 0.082945153 0.0078277886
-0.011984318 0.08715868 0.0071978271
-0.010777768 0.086222142 0.0064381659
-0.0095977876 0.085313663 0.0061307549
-0.0088192252 0.088192247 0.0059324801
-0.0075665172 0.086474478 0.0053311884
-0.0064955247 0.086606994 0.0055828989
-0.0055010025 0.088016041 0.0059431195
-0.0042098369 0.084196731 0.0065732002
-0.0031642599 0.084380262 0.006895721
-0.0021973115 0.08789245 0.006895721
-0.0010677535 0.085420273 0.00652951
0 0.086099759 0.0057332218
0.0010741511 0.085932091 0.0056409836
0.0020672067 0.082688265 0.0047337115
0.0033084732 0.088225953 0.0044020414
-0.016277308 0.087897457 0.0047773719
-0.015069718 0.087189071 0.0056883097
-0.013479609 0.083988331 0.0055995882
-0.013399199 0.090444587 0.0063061416
-0.011971958 0.08815714 0.0056573153
-0.010319098 0.083584689 0.0047141016
-0.0098345922 0.088511333 0.0043216944
-0.0086457478 0.087538198 0.0044066906
-0.0076180724 0.088151976 0.004316479
-0.0054600989 0.088453598 0.0046878755
-0.0041848542 0.084743291 0.005071342
-0.0032884078 0.088787004 0.0053128004
-0.0021634996 0.087621726 0.0053128004
-0.001076142 0.087167494 0.0043108165
0 0 0 1 0 0 0 1 0 0 0 1 0 0 0 0 0 588 1 0 0
