ply
format ascii 1.0
comment PCL generated
element vertex 620
property float x
property float y
property float z
element camera 1
property float view_px
property float view_py
property float view_pz
property float x_axisx
property float x_axisy
property float x_axisz
property float y_axisx
property float y_axisy
property float y_axisz
property float z_axisx
property float z_axisy
property float z_axisz
property float focal
property float scalex
property float scaley
property float centerx
property float centery
property int viewportx
property int viewporty
property float k1
property float k2
end_header
-0.0090736821 -0.034026306 0.0044099092
-0.0060517387 -0.036310434 0.0040415227
-0.014768315 -0.030591512 0.004011929
-0.014544289 -0.032444954 0.0043298304
-0.013976555 -0.033776678 0.0045227408
-0.011855814 -0.031256236 0.0048838556
-0.011071758 -0.032108102 0.0049368441
-0.0098721441 -0.031810246 0.005364567
-0.0086696614 -0.031427525 0.0059981048
-0.0078770248 -0.03263339 0.0050967932
-0.0066556861 -0.032169152 0.0057644248
-0.005424364 -0.031461313 0.005420804
-0.0043996959 -0.031897794 0.0049512088
-0.003287985 -0.031783856 0.0043730438
-0.0021894698 -0.031747315 0.0046024024
0 -0.031767111 0.0041556358
0.0022879906 -0.033175863 0.0041456223
-0.015830494 -0.031660989 0.0049679279
-0.014093212 -0.03035461 0.0053233206
-0.012842323 -0.029965419 0.0058616102
-0.012150198 -0.030927777 0.00652349
-0.011017168 -0.030848071 0.0075642169
-0.0095701404 -0.029773772 0.0082377791
-0.0087889349 -0.03076127 0.0088623464
-0.0076178783 -0.030471513 0.008032769
-0.0065623512 -0.030624306 0.0084549189
-0.0056527997 -0.03165568 0.0086116493
-0.0042771255 -0.029939877 0.0080384314
-0.0032549924 -0.030379931 0.0057021379
-0.002224772 -0.031146809 0.0053165853
-0.0010682971 -0.029912319 0.0051110983
0 -0.03100243 0.0047174096
0.0011085034 -0.031038096 0.004126817
0.0021948456 -0.030727839 0.0040047467
-0.017008211 -0.03061478 0.0045238733
-0.015652746 -0.030187439 0.0050596297
-0.014088507 -0.029260745 0.006678611
-0.013299134 -0.029923052 0.007433027
-0.01214224 -0.029803682 0.0085130334
-0.01032694 -0.027882738 0.010526925
-0.00963418 -0.028902542 0.011859208
-0.008632293 -0.02913399 0.012521535
-0.0071746511 -0.027673654 0.01237607
-0.0063693034 -0.028661868 0.012367517
-0.0051525077 -0.027823543 0.012747794
-0.0041143349 -0.02777176 0.012146443
-0.0032221503 -0.028999355 0.011726648
-0.0021050617 -0.028418332 0.0098474622
-0.0010793698 -0.029142985 0.0093515515
0 -0.030115496 0.0074720085
0.0010648296 -0.028750403 0.0064382255
0.0021890157 -0.029551715 0.004445225
-0.018086908 -0.029391227 0.0042213202
-0.016578691 -0.028736396 0.0049184859
-0.015293503 -0.028402219 0.006678611
-0.014361212 -0.028722424 0.0077564716
-0.013207174 -0.028615544 0.0085035861
-0.011196173 -0.026463682 0.010433644
-0.010442999 -0.027151799 0.010702908
-0.0095744496 -0.027659521 0.012946337
-0.0083202943 -0.027040955 0.012969702
-0.0075480402 -0.028035577 0.012858361
-0.0062130201 -0.026923088 0.012512684
-0.005305463 -0.027588408 0.012859643
-0.0042566583 -0.027668279 0.012456745
-0.0031312311 -0.027137335 0.012083799
-0.0020731601 -0.026951082 0.011694252
-0.0010803387 -0.028088806 0.011031806
0 -0.027264658 0.0093048215
0.0011099712 -0.02885925 0.0086847544
0.0022426783 -0.029154819 0.0065616369
0.0032173882 -0.027884031 0.0055668354
0.0044413814 -0.028868979 0.004599452
0.0056321872 -0.029287374 0.0040439367
-0.017816383 -0.0278381 0.004842937
-0.016183592 -0.026972655 0.0054868162
-0.016065663 -0.028688684 0.0076979697
-0.013906452 -0.026743177 0.0096096992
-0.012404859 -0.025843456 0.01036188
-0.011790836 -0.026797358 0.012025774
-0.011031132 -0.027577832 0.013591528
-0.0092934202 -0.025815058 0.015603334
-0.0085255653 -0.026642391 0.014148325
-0.0073166783 -0.026130995 0.013794005
-0.0061858934 -0.025774557 0.013622701
-0.005453568 -0.02726784 0.013794005
-0.0041967239 -0.026229525 0.013550013
-0.0031200438 -0.026000367 0.013550013
-0.0021827868 -0.027284836 0.012489766
-0.001056472 -0.026411798 0.012125164
0 -0.026595971 0.011745483
0.0010606102 -0.026515255 0.0094203055
0.0020941803 -0.026177255 0.007704109
0.0032987755 -0.027489796 0.0067610741
0.0044204225 -0.027627639 0.0066423118
0.0053622895 -0.026811449 0.0047549903
0.0066568726 -0.027736971 0.0042577386
-0.018468741 -0.026073517 0.0043866634
-0.017382182 -0.026073271 0.0056153238
-0.016467975 -0.026348762 0.0070638657
-0.014813695 -0.025394905 0.0090685785
-0.013574043 -0.025059773 0.01006934
-0.012577585 -0.02515517 0.012860686
-0.011579135 -0.025263567 0.013802648
-0.010201642 -0.024483941 0.016209573
-0.0096371239 -0.025698997 0.017069489
-0.0082449894 -0.024734968 0.017362297
-0.0071069254 -0.0243666 0.017384559
-0.0064271102 -0.025708441 0.017145276
-0.0052946382 -0.025414264 0.016565591
-0.0041642543 -0.024985526 0.015392989
-0.0032171118 -0.025736894 0.015320271
-0.0020917 -0.025100399 0.014775217
-0.0010335649 -0.024805557 0.013627082
0 -0.025661653 0.013150752
0.0010064186 -0.024154047 0.012026936
0.0021459919 -0.025751902 0.0093048215
0.0032622123 -0.026097698 0.0078378022
0.004319577 -0.025917461 0.0067447126
0.0055262158 -0.026525836 0.0055681467
0.0068054115 -0.027221646 0.0046059191
0.0074775433 -0.025637291 0.004091084
-0.018698908 -0.025298523 0.0050143301
-0.017528759 -0.025197592 0.0070312321
-0.01575773 -0.024161855 0.0087895691
-0.014401068 -0.023658898 0.0099362433
-0.013980209 -0.024734216 0.012791455
-0.012832794 -0.02459619 0.014554083
-0.011236771 -0.023495069 0.016431391
-0.010531149 -0.024221644 0.01745221
-0.0097552026 -0.024929963 0.017936021
-0.0082432749 -0.023699414 0.018630981
-0.0075561805 -0.024827451 0.020071298
-0.0062125768 -0.023814879 0.019575268
-0.0051070196 -0.023492292 0.019575268
-0.004228171 -0.024311982 0.019548655
-0.0030928531 -0.023711875 0.019002736
-0.0020707001 -0.023813052 0.017262518
-0.0011027482 -0.025363209 0.016228855
0 -0.023142688 0.014007062
0.001060014 -0.024380324 0.013613015
0.0021351052 -0.024553711 0.012064159
0.0031377776 -0.024056295 0.010369092
0.0043971515 -0.025283622 0.0080582798
0.0054978072 -0.025289914 0.0066635609
0.0065577002 -0.025137851 0.0051716268
0.0079217404 -0.026028575 0.0046813786
-0.020210007 -0.02470112 0.0044946373
-0.018372683 -0.023776414 0.0065268278
-0.017261593 -0.023734689 0.0071295798
-0.015485239 -0.022711685 0.0092754066
-0.014856269 -0.023345564 0.011589468
-0.013730606 -0.023236411 0.013692051
-0.01216493 -0.022302371 0.016327739
-0.011689566 -0.023379132 0.018107533
-0.010597749 -0.023315048 0.018630981
-0.0092262849 -0.02255314 0.020072222
-0.0085979709 -0.023644421 0.022007406
-0.0072201784 -0.022691989 0.022950947
-0.0062360936 -0.022865677 0.023073286
-0.0053631221 -0.023597738 0.022774875
-0.0041598468 -0.022879157 0.022232175
-0.0030706387 -0.022518016 0.021687329
-0.0021462417 -0.023608658 0.020050079
-0.00104068 -0.02289496 0.018947482
0 -0.023574125 0.016605049
0.0010775145 -0.023705319 0.015197426
0.0020135171 -0.022148687 0.013972223
0.0032567547 -0.023882868 0.012210339
0.0043023075 -0.02366269 0.0097894371
0.0054042153 -0.023778547 0.0079081953
0.0066411677 -0.024350947 0.0068814754
0.0076607866 -0.024076758 0.005230397
0.0086958529 -0.023913594 0.0046008229
-0.01942654 -0.022664297 0.0055194199
-0.018634733 -0.023019375 0.0066215396
-0.01648316 -0.021634148 0.0090764761
-0.016180992 -0.02265339 0.011020452
-0.01491619 -0.022374285 0.013596147
-0.013343977 -0.021555657 0.015871763
-0.012669056 -0.022170847 0.017520636
-0.011636228 -0.022214618 0.019013166
-0.010296631 -0.021622926 0.020054311
-0.0095409118 -0.02226213 0.022114009
-0.0088679669 -0.023278413 0.022967368
-0.0076379473 -0.022913842 0.024261922
-0.0068926597 -0.024124309 0.024556071
-0.0055793803 -0.023433398 0.02411142
-0.0043257778 -0.022710335 0.023073286
-0.0032807554 -0.022965288 0.022474855
-0.0021026877 -0.022078222 0.021687329
-0.0010305288 -0.021641105 0.019648403
0 -0.022336798 0.017827868
0.0010087296 -0.021183321 0.016611725
0.0021079243 -0.022133207 0.014410853
0.0032515281 -0.022760699 0.013680637
0.0040746727 -0.021392033 0.011732936
0.0055495454 -0.023308093 0.0088644326
0.0066259839 -0.023190944 0.0075321198
0.0075718896 -0.022715669 0.0055666864
0.0090384306 -0.02372588 0.0047010481
-0.020808864 -0.021904066 0.0041294098
-0.019885667 -0.022095187 0.0065566301
-0.018147856 -0.021350417 0.0074416697
-0.017287524 -0.021609405 0.0095299184
-0.016290773 -0.02172103 0.011397719
-0.014191275 -0.02027325 0.014329106
-0.013737363 -0.021134404 0.01679185
-0.012645837 -0.021076394 0.018522561
-0.01145758 -0.020831963 0.020032942
-0.01102486 -0.022049719 0.021765441
-0.009844603 -0.021876896 0.024129659
-0.0083123455 -0.020780863 0.024777979
-0.0071393796 -0.020398227 0.025070041
-0.0060861036 -0.020287013 0.025575876
-0.005056398 -0.020225592 0.02491954
-0.0041136802 -0.020568399 0.024605185
-0.0032808094 -0.021872062 0.02411142
-0.0020228135 -0.020228136 0.022474855
-0.0010733509 -0.021467017 0.021070868
0 -0.020352622 0.018987298
0.0010665301 -0.021330602 0.017715126
0.0021342584 -0.021342583 0.015476495
0.0031249719 -0.020833146 0.014085591
0.0042376653 -0.021188326 0.012159348
0.0054214625 -0.02168585 0.0098409653
0.0063360073 -0.021120025 0.0084533989
0.0077024316 -0.022006948 0.0064247847
0.0087356353 -0.021839088 0.0049751997
-0.021033328 -0.021033328 0.0048494041
-0.019104999 -0.020166388 0.0068865716
-0.017671093 -0.019750046 0.008662194
-0.017070532 -0.020271257 0.0095057189
-0.015797924 -0.020010704 0.013239026
-0.01521902 -0.020654384 0.015572309
-0.013753276 -0.020100944 0.017182976
-0.012245568 -0.019388815 0.019632101
-0.01204498 -0.020804966 0.02149573
-0.010598766 -0.020137656 0.02312097
-0.0090385601 -0.019081404 0.024653643
-0.0081813354 -0.019430673 0.025021017
-0.007230619 -0.019625966 0.026373327
-0.0063155838 -0.019999349 0.026407391
-0.0052104867 -0.019799851 0.026287675
-0.0040605851 -0.019287778 0.025467962
-0.0030316187 -0.019200252 0.024711609
-0.0021367106 -0.020298749 0.023876518
-0.0010444897 -0.019845305 0.022657335
0 -0.020238828 0.020034641
0.0010487533 -0.019926311 0.018433094
0.0020197707 -0.019187821 0.016072929
0.0032704282 -0.020712711 0.014330298
0.0042722868 -0.020293362 0.012788236
0.0050816783 -0.019310379 0.010469973
0.0065282471 -0.020672783 0.0086765885
0.0076765115 -0.020836247 0.0062993467
0.0085330643 -0.020266028 0.0047768652
-0.020792976 -0.019698607 0.0046873391
-0.019341603 -0.019341603 0.0072796047
-0.018339414 -0.019418202 0.0084736645
-0.016350878 -0.018394738 0.0099014342
-0.016116582 -0.019339897 0.013170511
-0.014942079 -0.019211244 0.015841842
-0.013774648 -0.019072589 0.017752588
-0.012891403 -0.019337105 0.019530773
-0.011886956 -0.019451384 0.021958381
-0.010005653 -0.018010175 0.023999035
-0.0092769237 -0.018553847 0.025121987
-0.0082397712 -0.018539485 0.025752038
-0.0071798675 -0.018462516 0.026414454
-0.0062673432 -0.01880203 0.026485115
-0.0052360604 -0.018849818 0.026085913
-0.0041282987 -0.018577343 0.025511473
-0.0030792973 -0.018475782 0.025153518
-0.0020257295 -0.018231565 0.02500242
-0.0010517372 -0.01893127 0.023924679
0 -0.019709809 0.022020996
0.0010286509 -0.018515715 0.019677192
0.0021142974 -0.019028675 0.017162591
0.0032013655 -0.019208193 0.014661074
0.0040800576 -0.018360257 0.013829142
0.0055092382 -0.019833257 0.010833889
0.0065322891 -0.019596867 0.0090795159
0.0076053478 -0.019556608 0.006421864
0.0089530535 -0.020144369 0.0046726763
-0.020648405 -0.018474888 0.0054194629
-0.019834477 -0.018732563 0.0073823035
-0.017925456 -0.017925456 0.0087422132
-0.017276941 -0.01835675 0.0099530518
-0.016139342 -0.018291254 0.012104601
-0.014261816 -0.017317919 0.015841842
-0.013952666 -0.018245794 0.017752588
-0.0130543 -0.018493591 0.019638985
-0.011231106 -0.017357165 0.023903608
-0.010080435 -0.017136741 0.0241898
-0.0093135666 -0.017592294 0.02543819
-0.0083186338 -0.017677097 0.026346475
-0.0073268986 -0.017793898 0.027621329
-0.006153631 -0.017435288 0.027645886
-0.0051872903 -0.017636787 0.026972711
-0.0041499487 -0.017637283 0.026048571
-0.0031154535 -0.017654236 0.025262773
-0.0020198587 -0.017168799 0.025129139
-0.0010368656 -0.017626716 0.024149418
0 -0.017899146 0.022359669
0.0010547152 -0.017930159 0.019441664
0.002153395 -0.018303858 0.017067045
0.0030577024 -0.017326981 0.01427862
0.0042447364 -0.01804013 0.013458937
0.0053136908 -0.01806655 0.010678709
0.0062376922 -0.017673461 0.0090205073
0.0077929311 -0.018925691 0.0068174303
0.0087864101 -0.018671121 0.0050256848
0.0097126178 -0.018346056 0.0045559704
-0.021177802 -0.017833939 0.0045446157
-0.019186839 -0.017054969 0.0065760016
-0.017670661 -0.01663121 0.0085864365
-0.017374173 -0.017374173 0.0099530518
-0.015261527 -0.016278962 0.011383474
-0.014925638 -0.017057873 0.014542758
-0.013782317 -0.016962852 0.017214537
-0.012804979 -0.017073305 0.019274175
-0.011212165 -0.016308604 0.02174148
-0.010292823 -0.016468517 0.023753971
-0.0092608007 -0.016463647 0.025949568
-0.0083984351 -0.01679687 0.026098073
-0.0070807538 -0.01618458 0.027763397
-0.0061290436 -0.016344117 0.027939439
-0.0051774676 -0.016567897 0.02743873
-0.0041089477 -0.016435791 0.026750475
-0.0031578129 -0.016841669 0.025523275
-0.0020393194 -0.016314555 0.025262833
-0.0010259447 -0.016415115 0.023790866
0 -0.017397795 0.022053182
0.0010578702 -0.016925924 0.019645631
0.002008978 -0.016071824 0.018020123
0.0031876049 -0.01700056 0.015240371
0.0042702742 -0.017081097 0.014092237
0.0050845612 -0.016270597 0.013116658
0.0064656879 -0.017241834 0.0097950995
0.0077621778 -0.017742122 0.0074158907
0.0085728951 -0.01714579 0.0051704645
0.010067756 -0.017898234 0.0045458078
-0.021118557 -0.016672544 0.0054952204
-0.019098844 -0.015915705 0.0065760016
-0.01831816 -0.016163083 0.0069848299
-0.016773829 -0.015725465 0.0093564391
-0.015953496 -0.015953496 0.011167198
-0.015320953 -0.016415307 0.014084369
-0.013333167 -0.015384424 0.016821444
-0.013026206 -0.016282758 0.019012213
-0.011130837 -0.015178414 0.021470994
-0.010230469 -0.015345703 0.023738772
-0.009303363 -0.015505606 0.025477022
-0.0082330555 -0.015436978 0.025811285
-0.0071752612 -0.01537556 0.027656615
-0.0062499046 -0.015624762 0.027828813
-0.005059463 -0.01517839 0.02712816
-0.0041249432 -0.015468537 0.026297003
-0.0031111403 -0.015555701 0.025523275
-0.0020294019 -0.015220514 0.025305182
-0.0010080078 -0.015120116 0.023788273
0 -0.016430829 0.021566361
0.0010190975 -0.015286462 0.019530952
0.0021233591 -0.015925193 0.017371804
0.0032061927 -0.016030964 0.015087634
0.0040720562 -0.015270211 0.014092237
0.0053656264 -0.016096879 0.013118386
0.0063467766 -0.015866943 0.010240197
0.0076140929 -0.016315913 0.0069216192
0.0088841747 -0.016657827 0.0051808655
0.0099459197 -0.016576534 0.0042393208
-0.020686766 -0.01524288 0.0052655637
-0.019355888 -0.015054579 0.0065736771
-0.017908914 -0.014748517 0.0069848299
-0.017455362 -0.015273441 0.0094904602
-0.015730232 -0.01468155 0.011244357
-0.014388724 -0.014388724 0.014396876
-0.0139963 -0.015072939 0.016498178
-0.013207925 -0.015409246 0.018666059
-0.01128462 -0.014362244 0.020368457
-0.010093107 -0.014130349 0.023297638
-0.0093179131 -0.014494532 0.024687797
-0.0083346944 -0.014585716 0.025426537
-0.0070833592 -0.014166718 0.026668102
-0.006111912 -0.014261128 0.026958346
-0.0050937394 -0.01426247 0.026007116
-0.0041843019 -0.014645057 0.025511473
-0.0030425026 -0.014198346 0.025136739
-0.0020350697 -0.014245489 0.02369225
-0.001014985 -0.014209791 0.022568554
0 -0.014627019 0.021186054
0.0010678794 -0.014950311 0.019065052
0.002135617 -0.014949318 0.017371804
0.0030735803 -0.014343375 0.014210045
0.0042769238 -0.014969232 0.013271928
0.0055373353 -0.01550454 0.010641932
0.0062025776 -0.014472681 0.0092216134
0.0078280335 -0.015656067 0.0060838163
0.0089766122 -0.01570907 0.0047546327
-0.021442626 -0.01467127 0.0049719512
-0.018724103 -0.013522963 0.0064041913
-0.018225092 -0.013936835 0.00681144
-0.017560108 -0.014267586 0.0089919269
-0.015620108 -0.013537426 0.010841846
-0.0152989 -0.014206122 0.01214695
-0.014044197 -0.014044197 0.015225142
-0.012306993 -0.013332576 0.016719192
-0.011601868 -0.013711299 0.019288987
-0.010054356 -0.013070663 0.021390796
-0.0091651585 -0.013238563 0.022660762
-0.0082861632 -0.013465015 0.024219275
-0.0072703538 -0.013502086 0.025440902
-0.0062206504 -0.013478076 0.025842786
-0.005242554 -0.013630641 0.025332212
-0.0040866621 -0.013281652 0.025129139
-0.003058482 -0.013253422 0.024065048
-0.0020154959 -0.013100724 0.02192238
-0.0010378633 -0.013492224 0.021079034
0 -0.013809172 0.019376248
0.0010378024 -0.013491431 0.017905235
0.0020559619 -0.013363753 0.016556174
0.0032096785 -0.013908607 0.014136434
0.0042356006 -0.013765701 0.012928396
0.0050831996 -0.013216319 0.0096949339
0.0064743902 -0.014027845 0.0089433193
0.0076521058 -0.014211053 0.0055088699
0.0087370547 -0.014197715 0.0045295656
-0.020950379 -0.013231818 0.005025655
-0.019195726 -0.012797152 0.0064187944
-0.018614708 -0.013139793 0.0064041913
-0.016845297 -0.012633973 0.0082533956
-0.01611466 -0.012891727 0.0095832348
-0.01504171 -0.012892894 0.011425823
-0.013532928 -0.012491933 0.014525861
-0.013063125 -0.013063125 0.01565066
-0.01193451 -0.013019466 0.01844871
-0.010097181 -0.012116618 0.020499676
-0.0090912925 -0.012121723 0.021497577
-0.0081459265 -0.012218889 0.021827519
-0.0071723824 -0.012295512 0.024326056
-0.0061966372 -0.012393274 0.024863929
-0.0051369215 -0.012328612 0.024023861
-0.0040613841 -0.012184152 0.022359669
-0.0030360485 -0.012144194 0.020870149
-0.0020379601 -0.012227761 0.019436121
-0.0010691498 -0.012829797 0.019203186
0 -0.01296368 0.017335296
0.0010211228 -0.012253474 0.016323894
0.0021147537 -0.012688522 0.01556775
0.0032728256 -0.013091302 0.013377756
0.0040513892 -0.012154168 0.012119949
0.0053386441 -0.012812747 0.0089693666
0.006540712 -0.013081424 0.0084278882
0.0074952976 -0.012849081 0.005326122
0.008884958 -0.013327437 0.0041908622
-0.020644171 -0.011951888 0.0041953623
-0.019927062 -0.01217765 0.005204916
-0.01809427 -0.011708057 0.0055351555
-0.017564686 -0.012075721 0.0070360899
-0.016228193 -0.011900675 0.0088394582
-0.014829585 -0.011651817 0.011205465
-0.013926714 -0.011784142 0.012603313
-0.012886405 -0.011812538 0.014465183
-0.011582829 -0.011582829 0.015536189
-0.010798032 -0.011877836 0.016718984
-0.0094221029 -0.011515903 0.018371612
-0.0079671023 -0.010954765 0.019216001
-0.0070218798 -0.011034383 0.020229191
-0.0061115143 -0.011204443 0.020955533
-0.0050504403 -0.011110968 0.020746589
-0.0039973133 -0.010992611 0.020335972
-0.0031628006 -0.011596935 0.019618779
-0.002163789 -0.011900839 0.019089013
-0.0010949485 -0.012044433 0.017401814
0 -0.01134315 0.016019672
0.0010521599 -0.011573759 0.015514076
0.0021369702 -0.011753337 0.013501674
0.0031439667 -0.011527877 0.012814671
0.0042830445 -0.011778372 0.010775954
0.0055026729 -0.01210588 0.0077150762
0.0063411579 -0.011625456 0.0070379078
0.0077812327 -0.012227652 0.0046529174
-0.020924328 -0.011012804 0.0040096343
-0.019971116 -0.011095064 0.0045167208
-0.017938085 -0.010551814 0.0051994026
-0.017357286 -0.010848303 0.0065069497
-0.015532098 -0.010354732 0.0071227252
-0.015107738 -0.010791241 0.0091660619
-0.014177903 -0.010906079 0.010855824
-0.012439786 -0.010366488 0.011278868
-0.011932128 -0.010847389 0.012040257
-0.011121709 -0.011121709 0.014414787
-0.0096678864 -0.010742095 0.015239388
-0.0088500995 -0.011062624 0.016130656
-0.0073576728 -0.010510961 0.017221898
-0.0061499476 -0.010249913 0.018192679
-0.0053015877 -0.010603175 0.016878992
-0.0043903599 -0.010975899 0.018196613
-0.0032975962 -0.010991988 0.016920775
-0.0021284546 -0.010642272 0.015911758
-0.0010697234 -0.010697233 0.015523851
0 -0.010528417 0.013685912
0.0010531433 -0.010531432 0.013370663
0.0020551858 -0.010275928 0.012593001
0.003183306 -0.01061102 0.011364609
0.0043813386 -0.010953346 0.0086419582
0.0051111132 -0.010222226 0.0067105889
0.0066864267 -0.011144045 0.0047025681
0.0078116073 -0.011159439 0.0040835142
-0.018772636 -0.0099384543 0.0045522153
-0.017022083 -0.0095749218 0.0056206882
-0.016111428 -0.0096668564 0.0060823262
-0.014905639 -0.0095821964 0.0081568956
-0.013780335 -0.0095402319 0.0091204345
-0.01275055 -0.0095629124 0.0099650919
-0.011864464 -0.0097072879 0.010830283
-0.010308195 -0.0092773754 0.011038363
-0.0094973268 -0.0094973268 0.011635959
-0.0085829413 -0.0096558081 0.011776805
-0.0075415708 -0.0096963048 0.012198597
-0.0067617963 -0.010142694 0.012321711
-0.0053905929 -0.0097030671 0.012491018
-0.0042679748 -0.0096029425 0.013460815
-0.0032727381 -0.009818214 0.013134331
-0.0021105369 -0.0094974162 0.013134897
-0.0010584482 -0.0095260339 0.012906015
0 -0.009809711 0.012631267
0.001023701 -0.0092133088 0.011659175
0.0021455276 -0.009654874 0.010666043
0.0032714582 -0.0098143741 0.0086491406
0.004178002 -0.0094005037 0.0061120391
0.0054728827 -0.0098511884 0.0050445497
0.0065807649 -0.0098711466 0.004455775
0.0075650364 -0.009726475 0.0041769147
-0.018822296 -0.008857551 0.0040147305
-0.017420638 -0.0087103192 0.0052105486
-0.016217371 -0.0086492654 0.0055422485
-0.014612156 -0.0083498042 0.0065069497
-0.013774728 -0.0084767565 0.0073525906
-0.01309783 -0.0087318867 0.0083063543
-0.011487689 -0.0083546834 0.009059757
-0.010923062 -0.0087384488 0.0093070865
-0.0097572869 -0.0086731445 0.0090298951
-0.0085673053 -0.0085673053 0.0093304217
-0.0075820787 -0.0086652329 0.010458231
-0.0063177822 -0.0084237093 0.010573864
-0.0053564371 -0.0085702995 0.010668993
-0.0043159937 -0.0086319875 0.010952294
-0.0032087192 -0.0085565848 0.010910511
-0.0021467388 -0.0085869553 0.010899961
-0.0010793539 -0.0086348308 0.010899961
0 -0.0083241891 0.010230809
0.0010755742 -0.0086045936 0.0090231597
0.0021924609 -0.0087698437 0.0080069005
0.0031675701 -0.0084468536 0.0069002807
0.0042538145 -0.0085076289 0.0048411787
0.0054704295 -0.0087526878 0.0045045316
0.0065079667 -0.0086772889 0.0043287277
-0.018080335 -0.0079101464 0.0045101941
-0.01568627 -0.0073202592 0.0044638515
-0.015354102 -0.0076770512 0.0057510734
-0.014035197 -0.007557414 0.0057510734
-0.012389846 -0.0072274101 0.0072564483
-0.01190386 -0.0075751836 0.0077495277
-0.010752921 -0.007527045 0.0087122321
-0.0096299294 -0.0074899457 0.0086999238
-0.0087349638 -0.0076430938 0.0084312558
-0.0076020621 -0.0076020621 0.008356005
-0.0064387773 -0.0075119068 0.0084312558
-0.0055231126 -0.0077323583 0.0084146261
-0.0043525305 -0.0076169283 0.0087826252
-0.0032375839 -0.0075543625 0.0085943937
-0.0021781758 -0.0076236152 0.0085585117
-0.0010631266 -0.0074418858 0.0085585117
0 -0.0076902858 0.0067889094
0.0010851353 -0.007595947 0.0064034462
0.0020996523 -0.0073487828 0.0051769912
0.0032240499 -0.0075227832 0.0046482086
0.0044473889 -0.0077829305 0.0045119226
0.0054206974 -0.0075889765 0.0043120384
-0.016694013 -0.0066776047 0.0040162802
-0.015416997 -0.0066072843 0.0046912432
-0.013680873 -0.0063142488 0.0046037138
-0.013052903 -0.0065264516 0.0052849352
-0.012016301 -0.0065543461 0.0066076219
-0.010671684 -0.0064030103 0.0071438849
-0.0098332949 -0.0065555302 0.0070589185
-0.0087636039 -0.0065727024 0.0067889094
-0.0073104971 -0.0062661404 0.0067840815
-0.0066065621 -0.0066065621 0.0068068206
-0.0053060008 -0.006367201 0.0066428483
-0.0042063892 -0.0063095838 0.0066787302
-0.003336482 -0.006672964 0.0062459409
-0.0020935189 -0.0062805563 0.0068068206
-0.0010479885 -0.006287931 0.0067722797
0 -0.0067261946 0.0050829053
0.0010419526 -0.0062517156 0.0048253536
0.0021815565 -0.0065446692 0.0045703053
-0.015140279 -0.0054072421 0.0042661428
-0.014348377 -0.0055186064 0.004440397
-0.012943652 -0.0053931884 0.0047591925
-0.011630548 -0.005286613 0.0054153204
-0.0110658 -0.0055328999 0.0049831867
-0.0098083979 -0.0054491097 0.005007863
-0.0087136738 -0.0054460461 0.005007863
-0.0078283725 -0.0055916943 0.005323112
-0.0064747417 -0.0053956178 0.005323112
-0.0053951931 -0.0053951931 0.0045316815
-0.0044096787 -0.0055120983 0.0047174394
-0.0032517274 -0.0054195458 0.0043487549
-0.0021470005 -0.0053675012 0.0043487549
-0.0011163726 -0.0055818628 0.0040246546
-0.014651409 -0.0045081261 0.0041181147
-0.012812376 -0.004270792 0.0042665601
-0.012231593 -0.0044478523 0.0045777261
-0.011128892 -0.0044515571 0.004050225
-0.009628728 -0.0042794351 0.004255712
-0.0087914607 -0.0043957303 0.0042067468
-0.0075836424 -0.0043335101 0.0042684674
0 0 0 1 0 0 0 1 0 0 0 1 0 0 0 0 0 620 1 0 0
