ply
format ascii 1.0
comment PCL generated
element vertex 650
property float x
property float y
property float z
element camera 1
property float view_px
property float view_py
property float view_pz
property float x_axisx
property float x_axisy
property float x_axisz
property float y_axisx
property float y_axisy
property float y_axisz
property float z_axisx
property float z_axisy
property float z_axisz
property float focal
property float scalex
property float scaley
property float centerx
property float centery
property int viewportx
property int viewporty
property float k1
property float k2
end_header
0.0010870063 0.019566113 0.0040498674
0.002197383 0.019776445 0.004050374
0.0010872463 0.020657681 0.00407359
0.0032627541 0.020664109 0.0041650236
0.0021535023 0.021535022 0.0041365623
0.0032694822 0.021796549 0.0041449666
0.0022406667 0.023527 0.0043761432
0.0032266851 0.022586796 0.004404217
0.0042816945 0.022478895 0.0042894483
0.0054518222 0.022897653 0.0041327178
0.002140397 0.023544366 0.0041365623
0.0033250642 0.024383804 0.0041365623
0.0021633508 0.024878535 0.0042683184
0.0033059707 0.025345776 0.0045078397
0.0056067649 0.02579112 0.00407359
-0.0032292181 0.026910152 0.0043098032
-0.0094370302 0.027262533 0.0045008361
-0.0087037981 0.028287344 0.0048011839
-0.0077503263 0.028786926 0.0059111714
-0.0065360828 0.028323025 0.0064890385
-0.0055108061 0.028656192 0.0072764456
-0.0044180173 0.028717112 0.0072384477
-0.0032874821 0.028491512 0.0064890385
-0.0022213822 0.028877968 0.0057885349
-0.001077053 0.028003378 0.005307585
0 0.028645769 0.004168421
0.0021543293 0.028006282 0.004034698
-0.012046579 0.029568879 0.0044428706
-0.010739287 0.028996078 0.004907161
-0.0099877985 0.029963398 0.0055865645
-0.0086206151 0.029094577 0.0071419775
-0.0073453947 0.028332239 0.0073335767
-0.0064777033 0.029149666 0.0072833896
-0.0053045885 0.02864478 0.0074929297
-0.0042532799 0.028709641 0.0074929893
-0.0033082934 0.029774643 0.0074651837
-0.0021454571 0.02896367 0.0059651136
-0.0010808907 0.029184049 0.0051320493
0 0.029520873 0.0051079988
0.001062092 0.028676486 0.0047735572
0.002232088 0.03013319 0.0047337115
0.0033070161 0.029763145 0.0043595433
-0.014392748 0.030999767 0.0041780472
-0.013151671 0.030687232 0.0049702823
-0.011901388 0.030294443 0.0058591664
-0.011034802 0.030897446 0.0080493391
-0.010152471 0.031585466 0.0093336999
-0.0087271472 0.030545015 0.010568589
-0.0076153241 0.030461296 0.0092299581
-0.006399597 0.029864788 0.0086556971
-0.0053730183 0.030088903 0.0087191463
-0.0043982859 0.030788003 0.0092227161
-0.0032746997 0.030563865 0.008449167
-0.0021753814 0.03045534 0.0074929893
-0.0011060096 0.030968267 0.00683707
0 0.029619474 0.0061950386
0.0011139779 0.031191381 0.0054788888
0.0022579832 0.031611763 0.0055963397
0.0032504306 0.030337352 0.0049673319
-0.015357142 0.031811226 0.004295975
-0.014452626 0.032240476 0.0058945119
-0.013063265 0.031569559 0.0076697767
-0.011972171 0.031562999 0.010480404
-0.010778716 0.031258278 0.014002204
-0.0090688458 0.029221838 0.014970094
-0.008356886 0.030293714 0.015233427
-0.0072500468 0.030035909 0.015233427
-0.0060989172 0.029478101 0.015486449
-0.0053465255 0.031009851 0.0151788
-0.0040552514 0.029400572 0.015178859
-0.0031132048 0.030094314 0.01394704
-0.0021701306 0.031466898 0.012924701
-0.0010757707 0.03119735 0.0092445314
0 0.032146297 0.0089163482
0.0010862917 0.031502463 0.0078639388
0.0021458047 0.031114168 0.0074945986
0.0033480087 0.032364085 0.006600529
0.0043943445 0.031858996 0.0052863359
0.0052054436 0.030191574 0.0044412911
-0.017417192 0.032657236 0.0042761862
-0.016561694 0.033123389 0.0046657622
-0.015658047 0.03355296 0.0070141554
-0.013543003 0.031253085 0.0082483292
-0.012734132 0.031835329 0.014169306
-0.011602247 0.031642493 0.015771568
-0.0099646403 0.029893922 0.016524285
-0.0095136221 0.031712074 0.016585201
-0.0082984529 0.031119199 0.018627465
-0.0071704132 0.030730342 0.018577337
-0.0063301693 0.031650845 0.01860261
-0.005132745 0.030796472 0.01860261
-0.0041277134 0.030957852 0.017669439
-0.003222262 0.032222621 0.016388744
-0.0020621095 0.030931642 0.015633464
-0.0010125798 0.030377394 0.014234394
0 0.031807616 0.013714492
0.0010539269 0.031617809 0.010180801
0.0021765428 0.032648142 0.0087708533
0.0033534144 0.033534143 0.0080909133
0.0042935805 0.032201856 0.006600529
0.0055504423 0.033302654 0.0047350824
0.0065621748 0.032810874 0.0044167638
-0.018507602 0.033749159 0.0041952729
-0.017596617 0.034093447 0.0051032603
-0.016518464 0.034138162 0.0074505806
-0.014482973 0.032069441 0.0097153187
-0.013684992 0.032633442 0.014169306
-0.01271349 0.032843184 0.016699314
-0.011264476 0.031745344 0.018858075
-0.010357787 0.032109141 0.019302905
-0.0093220109 0.032109149 0.020231783
-0.0082560359 0.031992141 0.0206227
-0.0073443558 0.032525007 0.020557314
-0.0060929973 0.031480487 0.020434856
-0.0050773667 0.031479675 0.020019203
-0.0042271134 0.032760132 0.019855469
-0.003024322 0.031251326 0.019016832
-0.0020387392 0.03160046 0.018110037
-0.0010455808 0.03241301 0.016367644
0 0.03103359 0.015306056
0.0010478303 0.03248274 0.014323056
0.0021154594 0.032789622 0.0096496344
0.0032362414 0.033441164 0.0084327757
0.0043676607 0.033849373 0.0078751743
0.0055177798 0.034210239 0.0064920187
0.0063953493 0.033042639 0.0050325096
0.0079532294 0.035221446 0.00424698
-0.018135434 0.034137286 0.0042428076
-0.017865267 0.035730533 0.005992651
-0.015302584 0.032645512 0.0081639588
-0.014644274 0.033472624 0.013210982
-0.013745496 0.033835068 0.016175598
-0.012050485 0.03213463 0.020077229
-0.011436043 0.033268489 0.021016479
-0.010423816 0.033356212 0.021131516
-0.0091320556 0.032469533 0.02169618
-0.0083618611 0.033447444 0.022116244
-0.0073088869 0.033412054 0.022609383
-0.0060254391 0.032135677 0.02250886
-0.0051957997 0.033253118 0.022420287
-0.0041484907 0.033187926 0.021857262
-0.0030025789 0.032027509 0.021099836
-0.0020980269 0.033568431 0.020081848
-0.0010234343 0.032749899 0.018752694
0 0.033496883 0.017412692
0.0010388728 0.033243928 0.015909106
0.0020182827 0.032292522 0.014855236
0.003249466 0.034660973 0.012576848
0.0043699672 0.034959737 0.0095801353
0.0053021591 0.033933818 0.0084619522
0.0067040487 0.035754927 0.0070442557
0.0077023865 0.035210911 0.0050570667
0.00884753 0.03539012 0.0045282841
-0.01942903 0.035619888 0.0040692985
-0.018807841 0.036509335 0.00546363
-0.016587986 0.03421272 0.0077321231
-0.015766792 0.034686942 0.012849182
-0.014787567 0.034856405 0.016170353
-0.013260288 0.033660732 0.020264447
-0.012524031 0.034441087 0.021204531
-0.011483853 0.034451559 0.021817148
-0.010209087 0.033689991 0.022742033
-0.0094079813 0.034495931 0.023297042
-0.0082211625 0.033912294 0.024061918
-0.0072861463 0.034348972 0.024208039
-0.0062123439 0.034167893 0.023936838
-0.00529319 0.034935053 0.023781627
-0.0040356005 0.033293705 0.023170441
-0.003140158 0.034541737 0.022800386
-0.0021134033 0.034871154 0.022544742
-0.001006091 0.033201002 0.02141118
0 0.034376256 0.019678593
0.0010022017 0.033072658 0.018842995
0.0021089064 0.034796957 0.017175496
0.0031589353 0.03474829 0.015336126
0.0042108502 0.034739513 0.012883008
0.0054010469 0.035646912 0.0099073946
0.0065174927 0.035846211 0.0082984865
0.0074409624 0.035078824 0.0070697963
0.0089060161 0.036737315 0.0053547025
0.0095364759 0.03496708 0.0040848851
-0.01962493 0.037069313 0.0045286119
-0.018289002 0.036578003 0.0075468421
-0.017118776 0.0363774 0.010629863
-0.015569537 0.035290949 0.015597224
-0.014344157 0.034835812 0.019501895
-0.013603302 0.035577867 0.021204531
-0.012528717 0.03549803 0.021915287
-0.011183508 0.034567207 0.023130327
-0.010391002 0.035329409 0.023847729
-0.0093792398 0.035432685 0.024790525
-0.008141215 0.034600161 0.025181323
-0.0072676227 0.035299882 0.025471598
-0.00619866 0.03512574 0.025672495
-0.0051104422 0.034751009 0.025291324
-0.0041037779 0.03488211 0.024912119
-0.0030543881 0.0346164 0.024588257
-0.0020478338 0.034813173 0.023244053
-0.001048958 0.035664577 0.022542864
0 0.034615297 0.021813482
0.0010515099 0.035751335 0.020168036
0.0020675187 0.035147816 0.01773867
0.0030822745 0.034932446 0.015589088
0.0042374353 0.0360182 0.014256686
0.0055843065 0.037973285 0.012394667
0.0064275651 0.036422871 0.0093013048
0.0077898065 0.037836201 0.0080448985
0.0087379683 0.037136365 0.0062554479
0.0095880684 0.03622159 0.0045282841
-0.019591246 0.038094088 0.0065797269
-0.017674319 0.036388304 0.0087430477
-0.016648976 0.036419638 0.013260067
-0.015051768 0.035120793 0.017410308
-0.01483658 0.037091449 0.020191431
-0.013563299 0.036516573 0.021646589
-0.01239999 0.036166638 0.022545964
-0.011304015 0.03596732 0.02407077
-0.010479258 0.036677405 0.024987519
-0.0091187125 0.03546166 0.02526623
-0.0084499335 0.036968458 0.025779933
-0.007382981 0.036914907 0.027146757
-0.0061976979 0.036153238 0.027784765
-0.0052642324 0.036849629 0.027149886
-0.0041721435 0.036506254 0.025750816
-0.0030238496 0.035278246 0.025394768
-0.0021539384 0.037693921 0.024849117
-0.0010286883 0.036004089 0.024517864
0 0.036376256 0.022502124
0.0010549901 0.036924653 0.021227032
0.0020080341 0.035140596 0.019168049
0.0031512252 0.036764294 0.017083377
0.0041356995 0.036187369 0.014820725
0.0052065304 0.036445715 0.013425529
0.0065675848 0.038310912 0.01044178
0.0076673999 0.038337 0.0084550977
0.0086330995 0.037769809 0.0061815083
0.010104696 0.039296042 0.0044920444
-0.020472191 0.038789414 0.0046694875
-0.019145757 0.038291514 0.0073215365
-0.018094378 0.038317505 0.010262668
-0.016197728 0.036444884 0.015214711
-0.015779443 0.03787066 0.018068731
-0.014657428 0.037690528 0.021004587
-0.013361468 0.037000988 0.021744132
-0.012336803 0.037010409 0.023130327
-0.011311545 0.037019599 0.024614125
-0.010228645 0.03682312 0.025476247
-0.0095724324 0.03828973 0.025791645
-0.0081692571 0.036761653 0.027335227
-0.0068649254 0.035305329 0.028059334
-0.0058972109 0.035383262 0.028468221
-0.0050210832 0.036151797 0.027933478
-0.0040385975 0.036347374 0.027662307
-0.0032328791 0.038794551 0.026578814
-0.0020402647 0.036724761 0.025196224
-0.0010242715 0.036873773 0.02487427
0 0.037625968 0.023124903
0.0010121255 0.036436517 0.021669418
0.0021239498 0.038231093 0.019478381
0.003120471 0.03744565 0.01767379
0.0040570581 0.036513522 0.016279995
0.005295258 0.038125858 0.013613522
0.0065734261 0.039440554 0.011401147
0.0074051595 0.038083676 0.0092276633
0.0086982325 0.039142046 0.0063432157
0.0096254367 0.038501747 0.0048987567
-0.020445677 0.039815266 0.0065740347
-0.019701527 0.040497586 0.0084420741
-0.017730383 0.03858966 0.010241747
-0.016678445 0.038568906 0.015185177
-0.015632993 0.038561381 0.018657148
-0.014214918 0.037567999 0.021004587
-0.013528062 0.03850295 0.021744132
-0.012411213 0.038267907 0.023309708
-0.011082661 0.037278045 0.024965167
-0.010622688 0.039303947 0.025830507
-0.008937641 0.036743637 0.027270317
-0.0080406582 0.037188046 0.028211266
-0.007234355 0.038238734 0.028714985
-0.0061523146 0.037939277 0.029146492
-0.0050475714 0.037352029 0.028680384
-0.0040099989 0.037092488 0.028345555
-0.0029549245 0.036444072 0.027824074
-0.0021050118 0.038942721 0.026578814
-0.0010585266 0.039165486 0.025522739
0 0.036919098 0.024430394
0.0010410403 0.038518492 0.022421718
0.0021336696 0.039472889 0.019951046
0.0030445394 0.037549321 0.018009096
0.0041763536 0.038631272 0.0164015
0.0053256308 0.039409671 0.014276952
0.0061818194 0.03812122 0.012233168
0.0078003886 0.041230626 0.0097793043
0.0086088516 0.03981594 0.0076287985
0.0099204537 0.040784091 0.0055624843
0.010914643 0.040384181 0.0040402412
-0.021135628 0.042271256 0.0068768561
-0.019048581 0.040213674 0.0084170401
-0.01753038 0.039185554 0.010192633
-0.017187955 0.040821392 0.014433712
-0.015234467 0.038593985 0.017588377
-0.014556441 0.039510343 0.020405084
-0.013570668 0.039668109 0.021661401
-0.012252518 0.03879964 0.023379534
-0.01154532 0.039883833 0.025079668
-0.0099411728 0.037776459 0.027267426
-0.0091851717 0.03878184 0.027728647
-0.008337873 0.039604899 0.028306097
-0.0071540768 0.038836416 0.028818995
-0.0061563482 0.038990207 0.029281169
-0.0051113451 0.038846225 0.028947294
-0.0041241534 0.039179455 0.028526366
-0.0030613139 0.038776644 0.028211385
-0.0020186908 0.038355123 0.027668744
-0.0010459581 0.039746411 0.027036399
0 0.039921843 0.025202662
0.0010391596 0.039488062 0.023163885
0.0020053363 0.038101394 0.020538896
0.0031478123 0.039872289 0.018478781
0.0041273092 0.03920944 0.017123759
0.0051022405 0.038777031 0.015007764
0.0063227755 0.040044244 0.013077706
0.0075585358 0.04103205 0.010606259
0.0085811196 0.04076032 0.0080788732
0.010065073 0.042496979 0.0056912899
0.010765254 0.040907968 0.0042649508
-0.020772396 0.042638075 0.006862253
-0.018616265 0.040335242 0.0085242093
-0.018193115 0.041737147 0.010149777
-0.016333934 0.039813966 0.012829453
-0.015788479 0.041050043 0.016591251
-0.014686287 0.040911801 0.019751906
-0.013318262 0.039954785 0.022125453
-0.012757693 0.041462503 0.0231646
-0.011262297 0.039929964 0.025124311
-0.0099515459 0.038811028 0.027687162
-0.0091578644 0.03968408 0.028079569
-0.0081019206 0.039496861 0.028917104
-0.0072271284 0.04026543 0.029292971
-0.0062684757 0.040745091 0.02986294
-0.0051975106 0.040540583 0.029281169
-0.0041374918 0.040340543 0.029184341
-0.0030766055 0.039995871 0.028759778
-0.0019928424 0.038860425 0.027937651
-0.0010111168 0.039433558 0.027662307
0 0.041549623 0.025361061
0.0010156077 0.039608702 0.024107546
0.0021190715 0.041321892 0.020966411
0.0031357743 0.040765066 0.019018501
0.0040789912 0.039770167 0.016605705
0.0053043133 0.041373644 0.014996648
0.0063798865 0.041469261 0.013071775
0.0075040655 0.041808367 0.010690242
0.0087145036 0.042483203 0.0081628561
0.009994965 0.043311518 0.0064104497
0.010689282 0.0416882 0.0047271252
-0.020596907 0.043361906 0.0061226487
-0.019770386 0.043934193 0.0083327889
-0.017972266 0.042287685 0.0099638999
-0.017119529 0.042798821 0.012686938
-0.016090203 0.042907204 0.015755147
-0.014405957 0.041159879 0.018783301
-0.013706024 0.04217238 0.021493733
-0.012842636 0.042808786 0.022830606
-0.011002691 0.040009782 0.025124311
-0.010115913 0.040463652 0.027677208
-0.0093150362 0.041400161 0.028302997
-0.0081974827 0.040987413 0.029161185
-0.0070155868 0.040089067 0.029710859
-0.0060409019 0.040272679 0.030047417
-0.0049890578 0.039912462 0.029863238
-0.0041362373 0.041362371 0.029224128
-0.0030341721 0.040455628 0.028810531
-0.0020374954 0.040749907 0.028312415
-0.0010172403 0.04068961 0.027036399
0 0.041155703 0.024515599
0.001037323 0.04149292 0.023019254
0.002096954 0.04193908 0.020228893
0.0030585621 0.040780827 0.018075645
0.0042211753 0.042211752 0.016221315
0.0053357771 0.042686217 0.014469326
0.0060714772 0.040476516 0.012188524
0.0077718827 0.044410758 0.0099005401
0.0086332718 0.043166354 0.0080142617
0.0097654201 0.043401867 0.0063673258
0.010888041 0.043552164 0.0047147274
-0.021407969 0.046196148 0.0060507953
-0.019019371 0.043321908 0.0081369877
-0.017955411 0.043304227 0.0089595914
-0.017481815 0.044797152 0.012458414
-0.015576096 0.042574666 0.014963895
-0.014920057 0.043694455 0.017264664
-0.013610383 0.042925052 0.020664036
-0.012429799 0.042468481 0.022403419
-0.011055296 0.041206107 0.02411291
-0.010157647 0.041646354 0.027128398
-0.009110217 0.041502103 0.027950287
-0.0083031375 0.042553581 0.028757155
-0.0070966142 0.041565888 0.029288739
-0.0060597672 0.041408412 0.02986294
-0.0050654444 0.041536648 0.029575288
-0.0041288934 0.042321157 0.029130489
-0.0030410546 0.041561082 0.028659701
-0.0020229125 0.041469708 0.027897537
-0.0010021244 0.041087102 0.026628643
0 0.043076802 0.024302691
0.0010551998 0.043263193 0.022165954
0.0020087189 0.041178741 0.020068556
0.0031542389 0.043107934 0.017600924
0.0041820267 0.042865779 0.015594363
0.0051394408 0.042143419 0.014358073
0.0063403393 0.043325651 0.011437297
0.0075585144 0.044271301 0.0092829764
0.0086713787 0.044440817 0.0074912608
0.010140656 0.04619633 0.0057600141
0.010742813 0.044045538 0.0042056143
-0.020807464 0.045995448 0.0058802664
-0.019156262 0.044697952 0.0073322058
-0.018284531 0.045173548 0.0082079172
-0.016722091 0.043895487 0.01022023
-0.016119326 0.045134112 0.012974918
-0.015021443 0.04506433 0.016144723
-0.013479248 0.043548342 0.018676728
-0.012970695 0.045397438 0.021410942
-0.011059131 0.042225774 0.022764593
-0.0099974209 0.04198917 0.024437934
-0.0092110075 0.042984705 0.025795758
-0.0081855673 0.04297423 0.028056741
-0.0070472583 0.042283554 0.028818995
-0.0060869539 0.042608678 0.0289433
-0.0050790007 0.042663608 0.028680086
-0.0040621012 0.042652063 0.028063893
-0.0030602859 0.042844005 0.026870489
-0.002026032 0.042546671 0.025053412
-0.0010053845 0.042226151 0.024302691
0 0.045055967 0.022259861
0.0010118732 0.042498678 0.020426273
0.0021206327 0.044533286 0.018775314
0.0031430603 0.044002846 0.015999436
0.0040870844 0.042914387 0.014755487
0.0052818335 0.044367403 0.01284036
0.0062732259 0.043912586 0.010520697
0.0074385842 0.044631507 0.00928092
0.0087933252 0.04616496 0.006675303
0.0098434081 0.045935906 0.0053390563
-0.020836528 0.047156356 0.0052534938
-0.019507732 0.046601806 0.0063290894
-0.017837984 0.04511961 0.0078266561
-0.017165501 0.046132281 0.0088941455
-0.016107827 0.046175774 0.011863023
-0.014736732 0.045262821 0.014001429
-0.014090141 0.046605852 0.016314328
-0.012662599 0.045374312 0.018679321
-0.011399549 0.044561874 0.021620423
-0.010000858 0.043003689 0.022563368
-0.0092276828 0.044087816 0.023801506
-0.0080689797 0.043370765 0.025321752
-0.0072830268 0.044738594 0.027883291
-0.0061657373 0.044187784 0.028068572
-0.0050949445 0.043816525 0.027723998
-0.0040959534 0.044031501 0.026325792
-0.0030551173 0.043790016 0.024174511
-0.0020042812 0.043092042 0.023122638
-0.001062109 0.045670688 0.022388041
0 0.043991968 0.01991269
0.0010517419 0.045224901 0.019535154
0.0020901267 0.044937726 0.017700195
0.0030514798 0.043737877 0.015532702
0.0042620613 0.045817159 0.014285207
0.0052364958 0.045033865 0.01196
0.0061766491 0.044265985 0.010545343
0.0077026794 0.047316458 0.0086909235
0.008651847 0.046503678 0.0064824522
0.0098304609 0.046967756 0.0048286319
-0.02111507 0.048898056 0.0041701496
-0.019089434 0.046663061 0.0052540302
-0.017957762 0.046478912 0.0069047809
-0.017018454 0.046800748 0.0083078444
-0.015606546 0.045779198 0.009924382
-0.01495496 0.047001302 0.012255311
-0.013839866 0.046842624 0.014128774
-0.012479631 0.045758646 0.016134888
-0.012076945 0.04830778 0.018676728
-0.010231449 0.045018375 0.020835191
-0.0088969013 0.043495964 0.022296488
-0.008158436 0.044871397 0.023351252
-0.0071296291 0.044814814 0.024193555
-0.0061349915 0.04498994 0.025053412
-0.0051108482 0.044975463 0.024959296
-0.0040429737 0.044472709 0.023204744
-0.0029866574 0.04380431 0.022137195
-0.0020387748 0.044853043 0.020078182
-0.0010720062 0.04716827 0.019858927
0 0.045805655 0.017790377
0.0010597024 0.046626899 0.016177058
0.0020699278 0.045538411 0.015576124
0.003170846 0.046505742 0.014211059
0.0041678241 0.045846064 0.01284036
0.0051884227 0.045658123 0.010652572
0.0064618858 0.04738716 0.009367466
0.0075597744 0.047518581 0.006675303
0.0087178769 0.047948323 0.005710572
0.0097269304 0.047553882 0.0040754378
-0.020540038 0.04864746 0.0040871799
-0.019478632 0.048696581 0.0044016242
-0.018491097 0.048947021 0.0056847334
-0.016624358 0.046756007 0.0075032413
-0.016247138 0.048741415 0.0085237324
-0.014894055 0.04787375 0.010040849
-0.01350855 0.046760369 0.011520654
-0.012585952 0.047197323 0.013079613
-0.0117245 0.047963865 0.014234245
-0.010902231 0.049060043 0.018021971
-0.0092613809 0.046306908 0.018435955
-0.0078654056 0.044242907 0.020500004
-0.0070144399 0.045092829 0.021700323
-0.0060460619 0.045345467 0.021645814
-0.0050018993 0.045017097 0.021389842
-0.0039805453 0.044781141 0.019261956
-0.003110535 0.046658028 0.017611802
-0.0022044808 0.049600821 0.017226905
-0.0010584417 0.047629878 0.015971929
0 0.047507327 0.015534043
0.0010244489 0.046100203 0.015372336
0.0021421916 0.048199315 0.014384478
0.0032141467 0.048212204 0.012747675
0.0041274168 0.046433438 0.011403203
0.0054069352 0.04866242 0.0093843043
0.0066734971 0.050051231 0.0082569122
0.007321056 0.047063936 0.0058427155
0.0087275999 0.049092755 0.00464046
-0.019595174 0.050076563 0.0044769645
-0.017933404 0.048525684 0.0056098402
-0.01760946 0.050627202 0.0059835911
-0.016116368 0.049423527 0.0076800585
-0.014366937 0.047205653 0.0087511539
-0.014259575 0.05045696 0.0094315112
-0.012601315 0.048305042 0.011407346
-0.011478754 0.048002064 0.011810005
-0.010622423 0.04886315 0.01254192
-0.0099041238 0.050621081 0.01406914
-0.0089150807 0.051261716 0.014423639
-0.0074177878 0.048745465 0.014389813
-0.006260599 0.047997929 0.014046162
-0.0053242515 0.048983116 0.013955593
-0.0044882447 0.051614814 0.014056563
-0.0032666712 0.050088961 0.01379323
-0.0021432862 0.049295586 0.013850033
-0.0010754089 0.049468808 0.013284534
0 0.046529189 0.01302591
0.0010559639 0.048574343 0.013239443
0.0021827817 0.050203979 0.011810392
0.003085674 0.047313672 0.010582924
0.0042895642 0.049329989 0.0097788274
0.0054647778 0.050275959 0.0082569122
0.006238794 0.047830753 0.0063845217
0.0078188637 0.051381104 0.0049328208
0.0084683578 0.048693061 0.0042758286
-0.018456966 0.05102808 0.0044016242
-0.017489206 0.051374543 0.0051932931
-0.015351055 0.048099972 0.0057092905
-0.015027116 0.050448176 0.0072031021
-0.014109135 0.051009949 0.007481575
-0.012219985 0.047861606 0.0082424581
-0.011837049 0.050576486 0.0087196231
-0.010726537 0.050414722 0.0087973177
-0.0093416777 0.048784319 0.011608511
-0.0086596813 0.050875627 0.011635959
-0.007466523 0.050132371 0.011608511
-0.0064851488 0.050800335 0.011318088
-0.0055921921 0.052566607 0.011261284
-0.0042355293 0.049767468 0.011284262
-0.0032584679 0.051049333 0.010947049
-0.0021877273 0.051411591 0.011393398
-0.001059658 0.049803928 0.011466652
0 0.050697811 0.011235893
0.0010747977 0.050515492 0.010649264
0.0020775113 0.048821513 0.0098187029
0.0031643617 0.049575001 0.0092344284
0.0042679873 0.050148852 0.0075792372
0.0053439192 0.050232843 0.0061936975
0.0066609927 0.052177779 0.0054844618
0.007619109 0.051156875 0.0042971969
-0.017070806 0.051212411 0.0045111179
-0.016305786 0.05217851 0.0049434602
-0.015282772 0.052398078 0.0052388608
-0.013541785 0.050000437 0.0052637458
-0.012925882 0.051703528 0.0071495473
-0.011900158 0.051927961 0.0073150992
-0.010281583 0.049351599 0.0074205101
-0.0098226704 0.052387577 0.0075383782
-0.0084755598 0.05085336 0.0071799755
-0.0074528977 0.051105585 0.0073312521
-0.0066041984 0.052833587 0.0072974265
-0.0053190487 0.051062867 0.0076552331
-0.0042568101 0.051081721 0.0078996122
-0.00328058 0.052489281 0.0081458986
-0.0021387755 0.051330615 0.0093946159
-0.0010463921 0.050226819 0.0096081495
0 0.051616032 0.0096027851
0.0010381585 0.049831606 0.0084126592
0.0021384126 0.051321898 0.0077465475
0.0031877728 0.051004365 0.0063845217
0.0042548729 0.051058471 0.0061936975
0.0055633141 0.053407818 0.0048644245
0.0066844677 0.053475741 0.0044670403
-0.017358899 0.053161629 0.0042385757
-0.016483271 0.053845353 0.0046061575
-0.014321314 0.050124597 0.0046766698
-0.014512084 0.054699395 0.0047552586
-0.013035274 0.053227369 0.0051566362
-0.011545218 0.051428694 0.0057225525
-0.0108164 0.053000361 0.0059484839
-0.0098938001 0.053866245 0.0058943331
-0.0086226128 0.0528135 0.0051141977
-0.0076527288 0.053569101 0.0049925148
-0.0064976541 0.053064171 0.0051867366
-0.0053180656 0.052117042 0.0054616332
-0.0044593709 0.054627292 0.0062994361
-0.0032311222 0.052774996 0.0067891181
-0.002138742 0.052399177 0.0071799755
-0.0011046053 0.054125652 0.0074186623
0 0.051284742 0.0070672035
0.0010826959 0.053052098 0.0068097413
0.0021934542 0.05373963 0.006033361
0.0032046137 0.052342024 0.0055352747
0.0043840837 0.053705022 0.00464046
0.005570428 0.054590192 0.0043310523
-0.016014809 0.053382698 0.00411883
-0.015122877 0.054010279 0.0042859912
-0.014212074 0.054661825 0.0044198036
-0.012510953 0.052128978 0.0049540699
-0.01193756 0.05426164 0.0054030418
-0.010943152 0.05471576 0.0054422319
-0.0094383853 0.052435476 0.0057549775
-0.0089055132 0.055659458 0.0054030418
-0.0075390255 0.053850181 0.0051141977
-0.006450302 0.053752519 0.0049973726
-0.0056661358 0.056661364 0.0048202276
-0.0042636804 0.053296007 0.0048413873
-0.0031814936 0.053024895 0.0049925148
-0.0022261841 0.055654608 0.0057503581
-0.0010853914 0.054269567 0.0051870346
0 0.055861007 0.0051428974
0.0010954955 0.05477478 0.004175216
0.002132524 0.053313103 0.0042150915
0.0033321462 0.055535771 0.0040490925
0.0044601904 0.055752385 0.0040494204
-0.012193908 0.056535393 0.0043910146
-0.010559415 0.05385302 0.0045644641
0 0 0 1 0 0 0 1 0 0 0 1 0 0 0 0 0 650 1 0 0
