ply
format ascii 1.0
comment PCL generated
element vertex 1279
property float x
property float y
property float z
element camera 0
property float view_px
property float view_py
property float view_pz
property float x_axisx
property float x_axisy
property float x_axisz
property float y_axisx
property float y_axisy
property float y_axisz
property float z_axisx
property float z_axisy
property float z_axisz
property float focal
property float scalex
property float scaley
property float centerx
property float centery
property int viewportx
property int viewporty
property float k1
property float k2
end_header
0.020307701 -0.038584631 0.016830146
0.021268193 -0.0384853 0.018840581
0.022432687 -0.038747367 0.016025662
0.023449095 -0.038741983 0.016944617
0.024465073 -0.038736366 0.016942173
0.025606312 -0.038921595 0.014928192
0.026626375 -0.03891547 0.01451394
0.027663935 -0.038934425 0.015650183
0.028575145 -0.038780555 0.017197728
0.029544841 -0.038713928 0.017558008
0.030558072 -0.038706891 0.01714316
0.031458173 -0.038561631 0.018108308
0.032598324 -0.038710508 0.017064005
0.033614296 -0.038707372 0.017447799
0.034510609 -0.038570683 0.014734417
0.035636619 -0.038691185 0.015989125
0.036931943 -0.038983718 0.012817532
0.038076799 -0.0391059 0.011436492
0.038855772 -0.038855772 0.012956768
0.040347204 -0.039312661 0.0080477297
0.0062459288 -0.038516562 0.0083050728
0.0072296807 -0.038214024 0.011777163
0.0082509387 -0.038160592 0.012529373
0.0092539554 -0.038044039 0.013985574
0.01028096 -0.038039554 0.014081836
0.011308988 -0.038039323 0.014056653
0.012288135 -0.037888415 0.015512168
0.013308749 -0.037878744 0.015511006
0.014320257 -0.037846394 0.015825242
0.015267126 -0.037658911 0.017401367
0.016247457 -0.037572246 0.018297553
0.017182788 -0.037397832 0.019800127
0.01839246 -0.037806723 0.015455037
0.019442003 -0.037860744 0.015356213
0.020505248 -0.037934709 0.014505416
0.021483218 -0.037851382 0.015352428
0.022485899 -0.037817195 0.015374631
0.023504717 -0.037811935 0.015784711
0.024399461 -0.037615836 0.017843097
0.025447104 -0.037661716 0.018567562
0.026424594 -0.037604228 0.01604411
0.027482234 -0.037660841 0.018440485
0.028495263 -0.037654456 0.018437326
0.029493712 -0.03762991 0.018361449
0.030456148 -0.037562583 0.018721372
0.031465441 -0.037555527 0.018717855
0.032479964 -0.037554957 0.01869005
0.033488259 -0.037547443 0.017911762
0.034493886 -0.037537463 0.015851021
0.035500877 -0.037529498 0.017638087
0.036500689 -0.037514593 0.015916765
0.037758965 -0.037758965 0.014970005
0.038800403 -0.037779342 0.013636738
0.040356491 -0.038286928 0.0084363222
0.043474108 -0.038298618 0.0094687343
0.044557322 -0.038340021 0.0089832544
0.007261069 -0.037342642 0.010492563
0.0082634911 -0.03718571 0.011997938
0.0092555014 -0.037022006 0.014013022
0.010283286 -0.03701983 0.014085025
0.011314884 -0.037030529 0.013938427
0.01234263 -0.037027892 0.013767481
0.013358312 -0.036992248 0.014082015
0.014329441 -0.036847133 0.015707403
0.015351594 -0.036843825 0.016701311
0.016373463 -0.03684029 0.016238511
0.017186668 -0.036395296 0.019804597
0.01847961 -0.03695922 0.014245093
0.019486733 -0.036922231 0.014607489
0.020509876 -0.036917776 0.014508694
0.021337781 -0.036579054 0.01816991
0.022326881 -0.036534898 0.018143266
0.023215776 -0.036337737 0.020905524
0.024288569 -0.036432855 0.019374758
0.025296764 -0.036427341 0.019784003
0.026304493 -0.036421604 0.017817348
0.02746225 -0.036616333 0.016069353
0.028447395 -0.036575221 0.016454369
0.029486302 -0.036603685 0.01877746
0.030463003 -0.036555603 0.017780811
0.031472519 -0.03654873 0.017777473
0.032332286 -0.036373824 0.018161446
0.033300046 -0.036327321 0.01854521
0.034501635 -0.036531143 0.015854597
0.035534259 -0.036549523 0.017642051
0.036541544 -0.036541544 0.017347813
0.037680175 -0.036661793 0.016884357
0.03877924 -0.036738224 0.014244378
0.039886989 -0.036818758 0.014627904
0.041366339 -0.037229702 0.0099590421
0.042439498 -0.037263948 0.011164874
0.043230157 -0.03705442 0.013119042
0.044486795 -0.03724476 0.0098306835
0.0072788219 -0.036394108 0.011247993
0.0082706539 -0.03618411 0.012219161
0.0092985295 -0.03616095 0.012461424
0.010306194 -0.03607168 0.012144923
0.011345427 -0.036099087 0.012751341
0.012365747 -0.036066763 0.013041854
0.013388086 -0.036044847 0.012263745
0.01435044 -0.035876099 0.015152395
0.01535497 -0.035828266 0.01570949
0.016377062 -0.035824824 0.016703367
0.017202826 -0.035417583 0.021046996
0.018400654 -0.035779051 0.016432852
0.019420691 -0.035774957 0.016867816
0.020382123 -0.035668716 0.017593831
0.021255843 -0.035426404 0.020527512
0.022214359 -0.035341024 0.020743191
0.023186002 -0.035283048 0.021419525
0.024219679 -0.035320364 0.020931333
0.025225012 -0.035315018 0.021485895
0.026269281 -0.035362493 0.018936604
0.027455175 -0.035590041 0.018569887
0.028453628 -0.035567034 0.018954545
0.029478703 -0.035577744 0.018805802
0.030518735 -0.035605188 0.017130554
0.031530093 -0.035598494 0.016012937
0.032494374 -0.035540722 0.016179383
0.033501115 -0.035531487 0.015933961
0.034509178 -0.035524152 0.016196996
0.035330225 -0.035330225 0.019025594
0.036318649 -0.035309799 0.019166678
0.0373706 -0.035350565 0.020323724
0.038698081 -0.03564297 0.015505344
0.039886251 -0.035795353 0.016009569
0.041201279 -0.036051117 0.013128489
0.042220809 -0.036042154 0.013391137
0.042894486 -0.035745405 0.015538454
0.044008218 -0.035820644 0.013045996
0.045202982 -0.035956919 0.012511134
0.0072884588 -0.035401087 0.010788739
0.0082952632 -0.035254866 0.011079788
0.0093059866 -0.035155948 0.013557434
0.0103084 -0.035048559 0.012147516
0.011358542 -0.035108224 0.014065921
0.012361833 -0.035025194 0.013311863
0.013390948 -0.035022479 0.01331085
0.014353507 -0.034858517 0.015204221
0.015351876 -0.034797587 0.01588285
0.016331024 -0.034703426 0.016949743
0.017206501 -0.034413002 0.021051496
0.018216673 -0.03440927 0.02061224
0.019240346 -0.03443009 0.020318568
0.02025055 -0.034425933 0.018277168
0.021211961 -0.034343176 0.019197136
0.022219099 -0.034338608 0.019412965
0.023225825 -0.034333829 0.020817518
0.024261234 -0.03437008 0.020329267
0.025268292 -0.034364875 0.02025345
0.026304834 -0.034398627 0.019619703
0.027461028 -0.034580555 0.01857385
0.028473265 -0.03457468 0.018764615
0.029470921 -0.034552112 0.019003719
0.030476158 -0.034539647 0.017812729
0.031672012 -0.034737043 0.014271796
0.032698967 -0.034742653 0.013978243
0.033582173 -0.034599815 0.015356064
0.034592673 -0.034592673 0.015570819
0.035778366 -0.034756128 0.014284372
0.036376469 -0.034355555 0.018904507
0.037378527 -0.034347836 0.018948644
0.038379908 -0.034339916 0.01862973
0.039894711 -0.034780007 0.01473093
0.04105524 -0.034896955 0.011922151
0.04209841 -0.034910876 0.012982965
0.043071069 -0.034867056 0.012061179
0.04412923 -0.034892879 0.01200971
0.045345407 -0.035039634 0.011305898
0.0073061367 -0.034443215 0.0098673999
0.008296987 -0.034225073 0.011738271
0.00930792 -0.034129042 0.013560265
0.010310541 -0.034024786 0.013462245
0.011340857 -0.03402257 0.014797777
0.012352739 -0.033970032 0.012828708
0.013342406 -0.033869185 0.014698416
0.014346287 -0.033816248 0.01457575
0.015313162 -0.033688959 0.016080469
0.016199371 -0.033411201 0.019163489
0.017208008 -0.03340378 0.019452989
0.01821827 -0.033400159 0.019208044
0.019278938 -0.03348447 0.016729265
0.020291166 -0.033480424 0.017552674
0.021225281 -0.033354014 0.019249648
0.022233052 -0.033349577 0.019975245
0.023275292 -0.033394981 0.019365788
0.024283731 -0.033390131 0.020454854
0.025432736 -0.03357121 0.018243998
0.026436416 -0.033553913 0.018629223
0.027483081 -0.033590432 0.018335164
0.028479159 -0.033564724 0.018768519
0.02949108 -0.033558816 0.017553002
0.03048246 -0.033530705 0.017816424
0.031537689 -0.033572379 0.016504347
0.032705724 -0.033727776 0.014538437
0.033721019 -0.033721019 0.013978332
0.034748048 -0.033726044 0.014556795
0.03578575 -0.033740852 0.01477161
0.036346935 -0.033318024 0.019319952
0.037348177 -0.033310536 0.019364029
0.038376324 -0.033326805 0.019069165
0.039902929 -0.03376402 0.015363008
0.041049179 -0.033865571 0.01272282
0.042107075 -0.033891059 0.011655629
0.043079928 -0.033848513 0.012063682
0.044187672 -0.03391147 0.01155296
0.045354728 -0.034016047 0.011308223
0.0072914455 -0.033332322 0.0086296499
0.0082986606 -0.033194643 0.010330796
0.0093289381 -0.033169556 0.012031704
0.010313229 -0.033002332 0.01200667
0.011337128 -0.032980736 0.014047384
0.012328254 -0.032875344 0.013730466
0.013326931 -0.032804754 0.015260309
0.01433557 -0.032767016 0.014967471
0.015316249 -0.032674666 0.016083717
0.016285233 -0.032570466 0.01710245
0.017289933 -0.032545757 0.017610818
0.018221939 -0.032394558 0.019211918
0.019282818 -0.032476325 0.016732633
0.020336531 -0.032538451 0.016730577
0.021382513 -0.032582875 0.016340017
0.022384394 -0.032559119 0.017308861
0.02345304 -0.032630317 0.016359806
0.024424037 -0.032565381 0.018201917
0.025484864 -0.032620627 0.016961604
0.026451191 -0.032555312 0.0175412
0.027488604 -0.032579087 0.016834885
0.028500156 -0.032571606 0.016492426
0.029437227 -0.032482456 0.017314017
0.030423114 -0.032451324 0.017626047
0.031423785 -0.032437455 0.018059045
0.032419514 -0.032419514 0.018394858
0.033627827 -0.0326088 0.016210347
0.034755006 -0.032710597 0.014850378
0.035792917 -0.032724954 0.014774561
0.036800981 -0.032711983 0.014359683
0.037472099 -0.032408301 0.019803703
0.038475972 -0.032400817 0.018492073
0.039887313 -0.032728054 0.015608072
0.041241247 -0.032992996 0.010886699
0.042162586 -0.032907385 0.011803091
0.04313169 -0.032862242 0.012259513
0.044196486 -0.032890409 0.011796981
0.045363769 -0.032991834 0.010464609
0.0073090405 -0.032368608 0.0081693828
0.0083138999 -0.032216363 0.010041088
0.0093307626 -0.032139294 0.010915756
0.010315245 -0.031977262 0.012568146
0.01132865 -0.031926196 0.012834728
0.012330664 -0.031854216 0.013733149
0.013357184 -0.031851746 0.013732105
0.014373247 -0.031826474 0.014095485
0.015390321 -0.031806663 0.014312923
0.01638755 -0.031750876 0.014870405
0.01730467 -0.031555574 0.017347008
0.018216752 -0.031373292 0.019142807
0.019325813 -0.031531587 0.015642822
0.02036236 -0.031561658 0.015203774
0.021386687 -0.031570822 0.017314583
0.022342021 -0.031481937 0.018162102
0.023354311 -0.031477548 0.017625451
0.024345782 -0.031446636 0.018690914
0.025511067 -0.031633724 0.017110527
0.026478427 -0.031570431 0.017908633
0.027493957 -0.031567138 0.016474187
0.028471747 -0.031522293 0.016131759
0.02948164 -0.031514857 0.015449822
0.03042176 -0.031435817 0.017726481
0.031379167 -0.031379167 0.018523216
0.032385096 -0.031373061 0.018713534
0.033390433 -0.031366769 0.018612832
0.03431277 -0.031285174 0.019578218
0.035314452 -0.031278513 0.019574046
0.03641358 -0.031356141 0.020029962
0.037479371 -0.031401634 0.020122319
0.038492635 -0.031401888 0.018398821
0.03989505 -0.031711448 0.014328331
0.041007262 -0.031780627 0.013308555
0.042269934 -0.031960193 0.010910302
0.042949583 -0.031700883 0.014075756
0.044205036 -0.031868748 0.012258708
0.04531936 -0.031929549 0.011361063
0.0083694588 -0.03138547 0.0084623396
0.0093325302 -0.031108435 0.012133628
0.010342729 -0.031028189 0.011549324
0.011334139 -0.030911287 0.012253672
0.012363631 -0.030909078 0.013079345
0.013389734 -0.030899385 0.014245212
0.01438958 -0.030834815 0.015070409
0.015393234 -0.030786468 0.014315635
0.016390651 -0.03073247 0.014532954
0.017307943 -0.030543428 0.017010063
0.018209262 -0.03034877 0.017980099
0.019230224 -0.030363511 0.018609732
0.020154871 -0.030232307 0.020307869
0.021279791 -0.030399701 0.018337965
0.022260757 -0.030355578 0.018869787
0.023300083 -0.030391412 0.018502921
0.024350381 -0.030437976 0.01869446
0.025515884 -0.030619062 0.017162293
0.026455028 -0.030525032 0.018348902
0.027468026 -0.030520028 0.017302394
0.028480513 -0.030514836 0.01662007
0.029459061 -0.030474892 0.016495854
0.030498436 -0.030498436 0.016686887
0.031435817 -0.03042176 0.017872006
0.032441624 -0.030414023 0.019371659
0.033396717 -0.030360652 0.018616349
0.034269787 -0.030238047 0.019145668
0.035270214 -0.030231612 0.018245071
0.036420427 -0.030350357 0.018652916
0.037486412 -0.030394388 0.019762814
0.038499866 -0.030394631 0.019661367
0.03999931 -0.030768698 0.013338506
0.041286021 -0.030964516 0.010213166
0.042424191 -0.031042092 0.0094847679
0.043077011 -0.030769294 0.01400584
0.044189923 -0.030830178 0.01308322
0.045205515 -0.030821942 0.012475312
0.0073151714 -0.03030571 0.0097777247
0.0083481306 -0.030261973 0.0096070468
0.0093145426 -0.030013524 0.013011336
0.010320914 -0.029930649 0.012499899
0.011336215 -0.029886384 0.012985408
0.012365896 -0.029884249 0.013081729
0.013395349 -0.02988193 0.01415053
0.014392216 -0.029812446 0.014222264
0.015418843 -0.029809764 0.014220983
0.016393652 -0.029713495 0.014997482
0.017413374 -0.029705167 0.014607042
0.018236656 -0.029381279 0.017448783
0.019252209 -0.02938495 0.018175781
0.020258173 -0.029374352 0.018319339
0.021273479 -0.029377662 0.019580245
0.022143256 -0.029188838 0.021399409
0.023252673 -0.029318588 0.019550622
0.024260126 -0.029314319 0.01954779
0.025339969 -0.029394364 0.020054668
0.026362028 -0.029403802 0.020172924
0.027396038 -0.029425375 0.019489974
0.028480614 -0.02949778 0.016938627
0.029415181 -0.029415181 0.017178237
0.030504001 -0.0294872 0.016932547
0.031484783 -0.029453507 0.017317384
0.032529015 -0.02947942 0.018041492
0.033426803 -0.029375069 0.01731056
0.034399647 -0.029340876 0.016725212
0.035403863 -0.029334629 0.017424464
0.03640743 -0.029328208 0.018801689
0.037300531 -0.029235551 0.019984394
0.038506866 -0.029386818 0.017800182
0.040006574 -0.029748479 0.01292932
0.041378237 -0.029999221 0.0093678236
0.042454213 -0.030028589 0.0092687011
0.04345572 -0.03000514 0.010476023
0.044533361 -0.030034127 0.010908663
0.045660578 -0.030094473 0.0095032454
0.00732115 -0.0292846 0.0095118582
0.0083612865 -0.029264502 0.0093654394
0.0093161929 -0.028983712 0.013013631
0.010322742 -0.028903678 0.01184538
0.011338223 -0.02886093 0.012987703
0.012358601 -0.028836736 0.013619095
0.013389026 -0.028837902 0.014420539
0.014383699 -0.028767398 0.014540881
0.015351366 -0.028655883 0.015852541
0.016373215 -0.028653126 0.015243232
0.017410256 -0.028675715 0.014755487
0.018432384 -0.028672598 0.01412192
0.019366438 -0.028540013 0.015967369
0.020266615 -0.02837326 0.018541276
0.02127724 -0.028369652 0.018538952
0.022240702 -0.028306348 0.019192368
0.023256781 -0.028312603 0.019043952
0.024264412 -0.028308479 0.021591336
0.025271591 -0.028304182 0.021539539
0.026287772 -0.02830991 0.021390438
0.027376292 -0.028390229 0.018740892
0.028410882 -0.028410882 0.018373609
0.029416848 -0.028402474 0.017812192
0.030480262 -0.028448245 0.017445028
0.03149033 -0.028442878 0.01744172
0.032534745 -0.028467901 0.018044651
0.033500705 -0.02842484 0.015591949
0.034405701 -0.028334107 0.016485721
0.035522498 -0.028417997 0.017597169
0.03641383 -0.028321868 0.017423689
0.037390009 -0.028295141 0.019043028
0.038451497 -0.028332682 0.018408865
0.040278044 -0.02891757 0.010970026
0.041436344 -0.02900544 0.0096357763
0.04246166 -0.028998207 0.01062578
0.043463338 -0.028975558 0.010840833
0.044642586 -0.029069589 0.0099671185
0.045689858 -0.029075364 0.0088760555
0.0073419884 -0.028319098 0.0083942711
0.008362717 -0.028224168 0.0087588131
0.0093112169 -0.027933652 0.012967229
0.010324507 -0.027876168 0.012406915
0.011366251 -0.02789898 0.01223582
0.01234539 -0.027777128 0.014570028
0.013368391 -0.027765119 0.014933765
0.014379348 -0.027731599 0.014494747
0.015319336 -0.027574806 0.016171396
0.016335161 -0.027565584 0.016267091
0.017413227 -0.027656304 0.014125884
0.018435532 -0.027653299 0.014124334
0.019369744 -0.027525425 0.017939001
0.020265212 -0.027358038 0.020367295
0.021236217 -0.027303707 0.021604061
0.02220574 -0.027252499 0.021139532
0.023252364 -0.027296254 0.021330953
0.024226282 -0.027254567 0.019627422
0.025275899 -0.02729797 0.019017279
0.026347497 -0.027360862 0.018358588
0.027366204 -0.027366204 0.018209904
0.028403824 -0.027389402 0.018546671
0.02940074 -0.027373102 0.017693907
0.030409008 -0.027368106 0.018467218
0.031424232 -0.027369492 0.017590314
0.032431599 -0.027364161 0.01642251
0.033506397 -0.027414326 0.015740097
0.034411546 -0.027326817 0.016488522
0.035562467 -0.027433902 0.016848654
0.03642001 -0.027315008 0.016554117
0.037356004 -0.027259786 0.019240141
0.038398176 -0.027282916 0.018387765
0.040296681 -0.027897701 0.0098335445
0.041443363 -0.027974268 0.0096132159
0.04246885 -0.027967293 0.0096350014
0.043440197 -0.02792584 0.010140806
0.0083694486 -0.027200708 0.008492589
0.0093412204 -0.026985746 0.01077944
0.010320126 -0.026832327 0.01209265
0.01129185 -0.026689829 0.01501143
0.012317501 -0.026687918 0.015569896
0.013332644 -0.026665289 0.016103864
0.014298285 -0.026553959 0.0168809
0.015258013 -0.026447223 0.017365813
0.016237654 -0.026386186 0.017899185
0.017250739 -0.026383484 0.018018931
0.018448414 -0.026647709 0.016071796
0.019327892 -0.026448695 0.019084603
0.02030501 -0.026396511 0.020127565
0.021239709 -0.026296781 0.021607637
0.022209391 -0.026247462 0.019782096
0.023211477 -0.026239062 0.022087693
0.024217142 -0.026235238 0.022084475
0.025342297 -0.026355989 0.020186424
0.026351824 -0.026351824 0.018361628
0.027370697 -0.026356967 0.018212914
0.028379591 -0.026352478 0.01740858
0.029387962 -0.026347827 0.01740551
0.030357562 -0.026309887 0.018445969
0.031493325 -0.026413755 0.017204911
0.032502905 -0.026408611 0.017031699
0.033525895 -0.02641434 0.017416418
0.034388322 -0.026296951 0.017291516
0.035542827 -0.026403243 0.017142385
0.03645651 -0.026329702 0.01621744
0.037460752 -0.026323773 0.018419266
0.038508039 -0.026347606 0.017954618
0.04030326 -0.026868841 0.0099078119
0.041568801 -0.027019721 0.008428067
0.042351693 -0.026857171 0.010847211
0.043373574 -0.026850307 0.010844439
0.044657417 -0.027002158 0.0090750158
0.0083493581 -0.026091745 0.00917539
0.0093427021 -0.02595195 0.010781139
0.010357049 -0.025892623 0.01170522
0.011321077 -0.025729721 0.014016122
0.012307775 -0.025641197 0.015402049
0.013332386 -0.025639204 0.015400857
0.014277562 -0.025495647 0.017224163
0.015260432 -0.025434054 0.017490208
0.016123477 -0.025192933 0.020869434
0.017106695 -0.025156906 0.021402359
0.018281717 -0.025391273 0.017606407
0.019295149 -0.025388354 0.019841403
0.020217054 -0.025271317 0.021856934
0.021225205 -0.0252681 0.021951377
0.022331886 -0.025377143 0.019858122
0.02334371 -0.025373599 0.01985535
0.024375515 -0.025391161 0.019512266
0.025387304 -0.025387304 0.018027276
0.026398621 -0.02538329 0.018024445
0.027375022 -0.025347242 0.018531531
0.028412972 -0.025368724 0.019232571
0.029392602 -0.02533845 0.017408252
0.030347791 -0.025289824 0.018643081
0.031398606 -0.025321456 0.018057108
0.03247115 -0.025368085 0.017665297
0.033497155 -0.025376633 0.018049926
0.034364875 -0.025268292 0.018919379
0.035548426 -0.025391733 0.017145067
0.036370609 -0.025257366 0.016680628
0.037367988 -0.025248641 0.01924631
0.038514096 -0.025338223 0.017303109
0.040285978 -0.025824344 0.0094248056
0.041405775 -0.025878608 0.0098585188
0.042355865 -0.025826747 0.010582536
0.043380387 -0.02582166 0.010555625
0.044474486 -0.02585726 0.0081567168
0.0073382421 -0.025159687 0.0085199773
0.0083399219 -0.025019765 0.0098827183
0.0093233166 -0.024862178 0.012316227
0.010334898 -0.024803754 0.012315482
0.011286662 -0.024625445 0.015259445
0.012309651 -0.024619302 0.015331388
0.013334418 -0.024617387 0.015622199
0.014247377 -0.024424074 0.018151402
0.015237212 -0.024379538 0.018174052
0.016222266 -0.024333399 0.018902153
0.017147552 -0.024208309 0.021965086
0.018225398 -0.024300529 0.020381808
0.019179106 -0.024226239 0.021133304
0.020186087 -0.024223303 0.019185454
0.021192692 -0.024220221 0.019450456
0.022293834 -0.024320547 0.019472182
0.023324898 -0.024339024 0.019104898
0.024379222 -0.024379222 0.019515216
0.025447354 -0.024429459 0.017859906
0.026454745 -0.024419764 0.01795429
0.027433291 -0.024385147 0.018461436
0.028444489 -0.024380991 0.017996818
0.029455161 -0.024376685 0.017993629
0.030427052 -0.024341641 0.018087536
0.031435348 -0.024337044 0.018084109
0.032443065 -0.0243323 0.018468857
0.0333541 -0.024257528 0.019848198
0.034343276 -0.024242312 0.019237638
0.035345834 -0.024237143 0.018239081
0.036144778 -0.024096519 0.019083798
0.037340008 -0.024220545 0.019055247
0.03856137 -0.024354549 0.017838985
0.039803002 -0.024494154 0.015411556
0.041412029 -0.024847217 0.009932667
0.042337436 -0.024782889 0.010269284
0.043280147 -0.024731513 0.01072672
0.044364091 -0.024761353 0.0095377564
0.0073248297 -0.024067298 0.0089350641
0.0083304308 -0.023949988 0.010419726
0.009324681 -0.02382974 0.012488425
0.010338235 -0.023777941 0.013364017
0.011347887 -0.0237274 0.013752609
0.012366215 -0.023701912 0.014116675
0.01335535 -0.023628697 0.015016079
0.014285233 -0.023468597 0.016450554
0.0152659 -0.023407713 0.017471105
0.016247995 -0.023356492 0.018320948
0.017217264 -0.023293944 0.020386964
0.01822806 -0.023291409 0.020384759
0.019181909 -0.023220206 0.01936084
0.020189034 -0.023217389 0.019188285
0.021245575 -0.023268962 0.018407673
0.022297088 -0.023310591 0.018064857
0.023339486 -0.023339486 0.017405957
0.024362359 -0.02334726 0.018448591
0.025394863 -0.023363274 0.018105567
0.026425434 -0.023376346 0.018467158
0.027437286 -0.023372503 0.019120067
0.028484337 -0.02339785 0.018606722
0.029503468 -0.023399303 0.018360585
0.030431477 -0.0233308 0.018502921
0.031336438 -0.023249615 0.019033551
0.032340985 -0.023245083 0.019272536
0.033310894 -0.023216683 0.020433545
0.034313206 -0.023211876 0.020429313
0.035350967 -0.023230636 0.018241733
0.036353014 -0.023225538 0.015764028
0.037397012 -0.023246791 0.018500358
0.038601503 -0.023364069 0.016677976
0.040262461 -0.023744527 0.010760576
0.041510105 -0.023868311 0.0090133846
0.043446615 -0.023792194 0.0088393092
0.044469412 -0.023785966 0.008328557
0.007290489 -0.022912964 0.01015383
0.0083247805 -0.022893146 0.010494232
0.0093429694 -0.022838371 0.011662364
0.010324468 -0.022713829 0.013901472
0.011347469 -0.022694938 0.013827533
0.012263517 -0.022483114 0.017599642
0.013281278 -0.02247601 0.017695665
0.014287233 -0.022451367 0.017767161
0.015284464 -0.022417214 0.015307575
0.016256109 -0.022352152 0.016449779
0.017270343 -0.022349857 0.019562572
0.01823061 -0.022281857 0.02038762
0.019163791 -0.022189654 0.021577209
0.02002646 -0.022029107 0.023106962
0.021248544 -0.022260379 0.018848032
0.022300204 -0.022300204 0.019210279
0.02333156 -0.022317145 0.017602921
0.024354093 -0.022324586 0.017892063
0.025364989 -0.022321191 0.017889321
0.026429122 -0.022363104 0.017424732
0.027441116 -0.022359429 0.018466711
0.028452599 -0.022355614 0.018001974
0.029493494 -0.022374375 0.017828792
0.03043572 -0.022319529 0.017946929
0.031340808 -0.022241862 0.019036174
0.032312471 -0.022214826 0.019687921
0.033187386 -0.022124924 0.020242214
0.034185976 -0.022120336 0.020213753
0.035307061 -0.022193009 0.016279131
0.036358073 -0.022218822 0.016421109
0.037402213 -0.022239152 0.017484426
0.038606867 -0.022351345 0.01609841
0.039953735 -0.022538004 0.013864636
0.0062698065 -0.021944324 0.0083777606
0.0072914655 -0.021874396 0.010155171
0.0083258953 -0.021855475 0.010325164
0.0093442211 -0.021803182 0.011298656
0.010324633 -0.021681728 0.013586849
0.011348989 -0.021666251 0.013756365
0.012249822 -0.021437189 0.017090738
0.013256948 -0.02141507 0.017478913
0.014289145 -0.021433717 0.017087966
0.015313893 -0.02143945 0.01601547
0.016270939 -0.021355607 0.01720646
0.017286099 -0.021353416 0.017204672
0.018236334 -0.021275723 0.019344032
0.019166352 -0.021183863 0.02104488
0.020210369 -0.021220887 0.020288199
0.021301186 -0.021301186 0.019653201
0.022348663 -0.021332813 0.018993944
0.023345863 -0.021315789 0.018650889
0.024357345 -0.021312676 0.017894447
0.025318237 -0.021267319 0.018693924
0.026326798 -0.021263953 0.018690974
0.02741033 -0.021319145 0.0185664
0.028420677 -0.021315508 0.018417448
0.029421695 -0.021305365 0.018074065
0.030410632 -0.021287443 0.018337905
0.031284757 -0.021192901 0.019160151
0.032250736 -0.021164546 0.020516008
0.0331918 -0.021122055 0.020244896
0.03431017 -0.021191576 0.01910004
0.035415791 -0.021249473 0.017834216
0.036419675 -0.021244809 0.016811401
0.037422884 -0.021240016 0.017316937
0.038780153 -0.021431139 0.013578802
0.039977949 -0.021526588 0.012411922
0.041295979 -0.021680389 0.009403646
0.0062633012 -0.02087767 0.0086467862
0.0072864299 -0.020818371 0.0098154843
0.0083269589 -0.020817397 0.010326475
0.0092950016 -0.020655559 0.013540626
0.010325952 -0.020651903 0.013491124
0.011277447 -0.020504449 0.015146077
0.012239697 -0.020399496 0.017214656
0.013240441 -0.02036991 0.0177733
0.014253478 -0.020362111 0.017479688
0.015270204 -0.020360272 0.017234653
0.016215572 -0.020269467 0.01864475
0.017227275 -0.020267382 0.018642813
0.018162003 -0.020180004 0.021049947
0.019106384 -0.020111984 0.022994161
0.020109545 -0.020109545 0.022991389
0.021220887 -0.020210369 0.021236956
0.0222378 -0.020216182 0.021063834
0.023326464 -0.020283882 0.020161062
0.024366282 -0.020305235 0.018066913
0.025377683 -0.020302147 0.018064201
0.026330149 -0.020253962 0.018693328
0.027413815 -0.020306529 0.018568754
0.028424291 -0.020303065 0.018419772
0.029499415 -0.020344423 0.017055929
0.030423604 -0.020282403 0.018218786
0.031405434 -0.020261569 0.016976714
0.03229174 -0.020182338 0.01847893
0.033410326 -0.020248681 0.017067105
0.034440376 -0.020259043 0.017549008
0.035445761 -0.02025472 0.016526073
0.036424287 -0.020235715 0.015794575
0.037427627 -0.02023115 0.017319143
0.038785063 -0.020413192 0.013507783
0.039964098 -0.020494411 0.01185587
0.041218791 -0.020609396 0.009380579
0.0073077767 -0.019835394 0.0086474717
0.0083172536 -0.019753477 0.010352105
0.0092764031 -0.019583518 0.013688385
0.010272407 -0.019517573 0.014077306
0.011280156 -0.019483905 0.014758259
0.012290131 -0.019459376 0.014659792
0.013238093 -0.019347981 0.017483294
0.014255208 -0.019346355 0.017238289
0.015276622 -0.019350389 0.017115027
0.016139641 -0.019165825 0.020594478
0.017142471 -0.019159233 0.020154208
0.018105065 -0.019110901 0.021660984
0.0191376 -0.0191376 0.021463841
0.020142397 -0.019135278 0.021461248
0.0212324 -0.019210268 0.019828409
0.022240495 -0.019207699 0.020385265
0.023329291 -0.019272024 0.020163506
0.024369234 -0.01929231 0.018482536
0.02540811 -0.019310163 0.018358141
0.026235361 -0.019171994 0.019570857
0.02723993 -0.019168841 0.021196246
0.028448146 -0.019304099 0.018130332
0.029481845 -0.019315692 0.017811269
0.030427285 -0.019270614 0.018220991
0.031409226 -0.019250818 0.017658889
0.032416098 -0.019247059 0.016975462
0.033576615 -0.01933199 0.015952289
0.03458691 -0.01932798 0.015948981
0.03550313 -0.019273128 0.016940624
0.036433049 -0.019228553 0.016767055
0.03752863 -0.019271458 0.015768647
0.038789742 -0.019394871 0.013194114
0.039999645 -0.019487007 0.011760294
0.041223753 -0.019581283 0.0092119873
0.042519532 -0.019704172 0.0087249875
0.0082962885 -0.018666649 0.01123029
0.0092774732 -0.018554946 0.012715608
0.010273591 -0.018492462 0.013932794
0.011281456 -0.018460564 0.014759988
0.012291549 -0.018437324 0.014442295
0.013243576 -0.018337259 0.018970788
0.014233839 -0.018300651 0.017410755
0.015278383 -0.018334059 0.016630054
0.016271997 -0.018305996 0.016798824
0.017274804 -0.01829097 0.017089248
0.018134532 -0.018134532 0.020519465
0.019221883 -0.018210206 0.019738287
0.02022624 -0.018203616 0.019638538
0.021270612 -0.018231954 0.019149423
0.022243053 -0.018198861 0.02038762
0.023290012 -0.018226964 0.019752264
0.02436474 -0.018273555 0.018606275
0.025383674 -0.018276244 0.018530488
0.026386937 -0.018267879 0.018187135
0.027461309 -0.018307541 0.017770886
0.028473532 -0.018304413 0.01669836
0.029485229 -0.018301178 0.017983407
0.030487265 -0.018292358 0.017469883
0.031497549 -0.018288899 0.017466605
0.032507252 -0.018285329 0.014888644
0.033544403 -0.018296948 0.015249848
0.034485627 -0.018257096 0.015319556
0.035507195 -0.018260842 0.016529918
0.036513664 -0.018256832 0.015143067
0.037589032 -0.018286556 0.014533073
0.038665131 -0.018315062 0.014190137
0.03984816 -0.018391458 0.012852967
0.041155726 -0.018520078 0.0098919272
0.0082548009 -0.017541453 0.011889309
0.0092751961 -0.017519815 0.012375951
0.010257659 -0.017438021 0.013958663
0.01126661 -0.017412033 0.015346199
0.012250508 -0.017354887 0.015856594
0.013219691 -0.017287288 0.019752234
0.014200445 -0.017243398 0.01841113
0.015258133 -0.017292552 0.017216265
0.016221177 -0.017235 0.018115491
0.017168041 -0.017168041 0.019647479
0.018136509 -0.017128926 0.0205217
0.019183511 -0.017164195 0.020251602
0.02014691 -0.017124873 0.02022481
0.021272928 -0.017220942 0.019151509
0.022276253 -0.017213468 0.01802969
0.023292545 -0.01721623 0.019705802
0.024327986 -0.017232323 0.019070476
0.025106745 -0.017072586 0.022764325
0.026241228 -0.017157726 0.020085871
0.027464293 -0.017292332 0.017019093
0.028486837 -0.017295578 0.016700208
0.029488431 -0.017286321 0.017742306
0.030490575 -0.017277991 0.017374605
0.031500969 -0.017274724 0.017371297
0.032510776 -0.017271351 0.015497535
0.033489935 -0.017252389 0.015445828
0.034489363 -0.017244682 0.015539765
0.035511043 -0.017248221 0.016531706
0.036524169 -0.017247524 0.016455263
0.037597589 -0.017274568 0.014486104
0.038715411 -0.017320052 0.0133183
0.039949425 -0.017413853 0.011859953
0.04097832 -0.017415786 0.011711538
0.0082673468 -0.016534694 0.010915905
0.0092810849 -0.016499706 0.011768103
0.010311705 -0.016498728 0.011840492
0.011305287 -0.016444054 0.014933646
0.01229123 -0.016388306 0.015882581
0.013314462 -0.01638703 0.01588136
0.014236855 -0.016270692 0.016708136
0.015259701 -0.016277015 0.016511768
0.016222844 -0.016222844 0.017825156
0.017169807 -0.016159818 0.020258218
0.018177813 -0.016158056 0.020256013
0.019185482 -0.016156195 0.019912899
0.020066224 -0.016052978 0.020616323
0.021215059 -0.016163854 0.018033892
0.022285232 -0.016207442 0.016887814
0.023320118 -0.016222691 0.019221157
0.024369892 -0.016246594 0.0184156
0.025109321 -0.016069965 0.022912592
0.026169622 -0.016104383 0.021401167
0.027171671 -0.016101731 0.02139765
0.028489754 -0.016279859 0.016701907
0.029498499 -0.016275033 0.01662606
0.030495521 -0.016264278 0.016817421
0.031504191 -0.016260227 0.016838551
0.032484952 -0.016242476 0.015863508
0.033313017 -0.016151765 0.017633379
0.034387622 -0.01618241 0.01656124
0.035419077 -0.016191578 0.016460568
0.036711402 -0.016316179 0.015558898
0.037852839 -0.016368795 0.014147848
0.039000552 -0.016421285 0.010893524
0.040017352 -0.016417375 0.011206239
0.0413123 -0.01652492 0.0084147453
0.042419001 -0.016553758 0.0083884001
0.0072652455 -0.015568383 0.0097233653
0.0082681458 -0.015502773 0.010916948
0.0092781438 -0.015463573 0.010331601
0.010297474 -0.01544621 0.010769546
0.011268859 -0.015366625 0.014325976
0.012263914 -0.015329892 0.014495492
0.013284872 -0.015328699 0.01478669
0.014264659 -0.015283563 0.015954643
0.015216421 -0.015216421 0.019582242
0.016169859 -0.015159243 0.021065921
0.017171465 -0.015151292 0.020893276
0.018179569 -0.015149641 0.02025798
0.019187333 -0.015147895 0.020255625
0.020068159 -0.015051119 0.021543354
0.021068878 -0.015049199 0.023366064
0.022224471 -0.015153048 0.018617332
0.023265 -0.015172827 0.020220697
0.024416033 -0.015260021 0.016008735
0.025111739 -0.015067044 0.02233097
0.026172144 -0.015099314 0.020989776
0.02717429 -0.015096827 0.021229506
0.028359743 -0.01519272 0.018599987
0.029501338 -0.015259312 0.016724855
0.030513037 -0.015256518 0.0166246
0.031484623 -0.015234496 0.017131746
0.032369513 -0.01517321 0.017784357
0.033374336 -0.015170152 0.017343551
0.034390923 -0.015172466 0.017631382
0.035524454 -0.015224766 0.018088967
0.036841642 -0.015350685 0.014637887
0.038040556 -0.015421846 0.01264447
0.039103407 -0.015435556 0.010360748
0.040293187 -0.01549738 0.010964721
0.041318677 -0.015494505 0.0085853338
0.042425551 -0.015521542 0.010062218
0.0062409644 -0.014562251 0.0083354115
0.0072659026 -0.014531805 0.0098704994
0.0082942387 -0.014514918 0.0096507072
0.0092828218 -0.014439944 0.011648476
0.010313635 -0.014439088 0.011623412
0.011243746 -0.014310221 0.015301913
0.012264293 -0.014308342 0.014521152
0.013285282 -0.014307226 0.01481241
0.014288969 -0.014288969 0.015298337
0.015283563 -0.014264659 0.018098176
0.0161645 -0.014143937 0.021238327
0.017151281 -0.014124585 0.021406561
0.01818121 -0.014140941 0.019918889
0.019263085 -0.014193852 0.018796593
0.020217258 -0.014152081 0.018331736
0.021332759 -0.014221839 0.017891258
0.022409869 -0.014260826 0.015820086
0.02351757 -0.014315043 0.015988231
0.024510209 -0.014297621 0.016423851
0.025431786 -0.0142418 0.018416226
0.026383203 -0.01420634 0.019580871
0.027193153 -0.014100154 0.022423118
0.028195487 -0.014097744 0.021519542
0.029317157 -0.014153111 0.019303381
0.030337125 -0.014157325 0.017744184
0.031342432 -0.014154646 0.017740846
0.03234132 -0.014149328 0.018174738
0.033377334 -0.014160082 0.01778236
0.034394015 -0.014162241 0.017632961
0.035425659 -0.014170263 0.016730756
0.036788139 -0.014306499 0.014784902
0.038043968 -0.014395015 0.012645602
0.039162245 -0.014428195 0.0097792745
0.040299162 -0.014466367 0.0094372928
0.041322384 -0.014462835 0.0085861087
0.0062414906 -0.013523229 0.0080924034
0.0072724866 -0.013506046 0.0095300972
0.0082788514 -0.013453134 0.010212064
0.0092698941 -0.013389847 0.012258708
0.010265764 -0.013345493 0.013573945
0.011238661 -0.013282053 0.01552254
0.012244128 -0.013264472 0.014449298
0.013263436 -0.013263436 0.015227795
0.01426715 -0.013248068 0.015543252
0.01528485 -0.013246871 0.017831743
0.016302265 -0.01324559 0.017830014
0.017240707 -0.013184071 0.019338191
0.01836356 -0.013262571 0.015488356
0.019342199 -0.013234136 0.017166734
0.020357735 -0.013232528 0.017067224
0.021334553 -0.013207104 0.017795414
0.022367572 -0.013217202 0.01728183
0.023381006 -0.013215352 0.017620146
0.024420286 -0.013227655 0.017179549
0.02543392 -0.013225639 0.017176926
0.026399648 -0.013199824 0.017758042
0.027367819 -0.013177098 0.019871145
0.028364675 -0.013169314 0.019138187
0.029319618 -0.013143277 0.019305021
0.030334197 -0.013144819 0.017988801
0.031339403 -0.013142331 0.017815262
0.032344028 -0.013139762 0.018176258
0.033380128 -0.013149748 0.017832458
0.034384504 -0.013147016 0.017828763
0.035530616 -0.013197086 0.017484993
0.0366317 -0.013228115 0.014737576
0.038047146 -0.013367916 0.012646675
0.039084822 -0.013371123 0.010144114
0.040186614 -0.013395538 0.010093153
0.041206975 -0.013392266 0.0098481476
0.0072768927 -0.012474674 0.0093114674
0.0082794977 -0.012419247 0.010212868
0.0092821335 -0.012376179 0.012235314
0.010259253 -0.012311104 0.014062464
0.011239537 -0.012261313 0.017522067
0.012245081 -0.012245081 0.016351134
0.013237546 -0.012219273 0.018274844
0.014236711 -0.012202895 0.018078387
0.015252238 -0.012201791 0.018076748
0.016099887 -0.012074916 0.020632774
0.017199609 -0.0121409 0.018950015
0.018246626 -0.012164418 0.018509507
0.019258108 -0.012163015 0.018507361
0.020359321 -0.012215592 0.016703308
0.021375835 -0.012214763 0.016871601
0.022477759 -0.012260595 0.01531145
0.023521375 -0.012272022 0.01521197
0.024540454 -0.012270227 0.015404403
0.025559077 -0.012268357 0.015888691
0.026401699 -0.012185399 0.018586576
0.027412632 -0.012183392 0.01924029
0.028423056 -0.01218131 0.018920839
0.0293025 -0.012125173 0.018990397
0.030141458 -0.012056583 0.020591468
0.031140275 -0.0120543 0.020417422
0.032138519 -0.012051944 0.020413399
0.033250421 -0.012091062 0.018344104
0.034250893 -0.012088549 0.01834029
0.035250731 -0.012085965 0.016927749
0.036575533 -0.012191844 0.013306111
0.038074791 -0.012348581 0.010074407
0.039094765 -0.012345715 0.010072082
0.040132944 -0.012348598 0.0098270476
0.041151941 -0.012345581 0.0098246336
0.007276562 -0.011434597 0.0094583631
0.0082800919 -0.011385126 0.011237413
0.0092526367 -0.011308778 0.014308065
0.01025999 -0.011285989 0.015525877
0.011285249 -0.011285249 0.015890419
0.012256927 -0.011235517 0.017302752
0.013263838 -0.011223247 0.016399801
0.014217265 -0.011170708 0.017105043
0.015193032 -0.011141556 0.018126786
0.016204335 -0.011140481 0.018125027
0.017273309 -0.011176847 0.017903894
0.018287392 -0.011175629 0.017901927
0.019259488 -0.01115023 0.018508703
0.020270683 -0.011148876 0.018506438
0.021215029 -0.011112635 0.019964993
0.022370916 -0.011185458 0.017430484
0.023385899 -0.01118456 0.017793149
0.024407867 -0.01118694 0.018082619
0.025420988 -0.011185234 0.018128544
0.026362471 -0.011153353 0.019171804
0.027327567 -0.011133453 0.019874126
0.028343366 -0.011134895 0.01892218
0.029350432 -0.011132922 0.018359512
0.030356955 -0.011130883 0.018088728
0.031417545 -0.011148161 0.017647743
0.032317739 -0.011109223 0.018713653
0.033226728 -0.011075577 0.018223941
0.034236815 -0.011076617 0.017466992
0.035363756 -0.011114324 0.016005963
0.036578141 -0.011176654 0.01364702
0.038037077 -0.011308321 0.010512143
0.039097548 -0.011317711 0.010169894
0.040192582 -0.011336369 0.00939098
0.041365925 -0.011375629 0.0085638165
0.0072749062 -0.010392723 0.0095321536
0.0082596708 -0.010324588 0.012286365
0.009253243 -0.010281381 0.013577729
0.010209475 -0.010209475 0.016428769
0.011211589 -0.010192353 0.017548859
0.012221903 -0.010184919 0.017815709
0.013178377 -0.010137213 0.01898405
0.014168729 -0.01012052 0.018519461
0.015145602 -0.010097068 0.019419312
0.01610307 -0.010064418 0.020684361
0.017171942 -0.010101142 0.0200001
0.018249128 -0.010138405 0.01851204
0.019221414 -0.010116533 0.019605935
0.020272009 -0.010136005 0.018507659
0.021216417 -0.010103055 0.020161062
0.022377733 -0.010171697 0.017236859
0.023457412 -0.010198875 0.017210126
0.024473719 -0.010197383 0.017280608
0.025422649 -0.01016906 0.018154055
0.02631833 -0.010122434 0.019927353
0.027326068 -0.010120766 0.019924074
0.028345218 -0.010123292 0.018242359
0.029352348 -0.010121499 0.018360734
0.030358933 -0.010119645 0.01808992
0.031429015 -0.010138392 0.017259955
0.032426789 -0.010133372 0.016235739
0.033423357 -0.01012829 0.015867978
0.034247305 -0.010072737 0.017370969
0.035429817 -0.010122805 0.015278339
0.036580522 -0.010161256 0.013647914
0.037934002 -0.010252433 0.010779887
0.039100084 -0.010289497 0.0092967153
0.040263809 -0.010324053 0.008687824
0.0072753374 -0.0093540056 0.0095327199
0.0082884403 -0.0093244947 0.010873139
0.0092537915 -0.0092537915 0.013505369
0.010193626 -0.009174264 0.017014742
0.011184101 -0.009150628 0.017086774
0.012154628 -0.0091159707 0.018328577
0.013166485 -0.0091152592 0.018546492
0.014178098 -0.0091144918 0.018544912
0.015180307 -0.0091081848 0.019615382
0.016203433 -0.0091144312 0.018809468
0.017217482 -0.0091151372 0.01927042
0.018289672 -0.0091448361 0.017904192
0.019318577 -0.0091509055 0.017707288
0.02029269 -0.00913171 0.016779661
0.021262417 -0.0091124643 0.017581105
0.022274608 -0.0091123395 0.017530054
0.023283828 -0.0091110626 0.019864619
0.024410907 -0.0091540897 0.018352628
0.025415026 -0.0091494089 0.018301129
0.026351513 -0.0091216778 0.017860234
0.027330967 -0.0091103222 0.017614007
0.028338378 -0.0091087641 0.018292069
0.029354079 -0.0091098864 0.018240213
0.030375313 -0.0091125937 0.017896473
0.031430867 -0.0091250902 0.017260969
0.0324287 -0.0091205714 0.017379135
0.033435352 -0.009118733 0.017472833
0.034426931 -0.009113011 0.017153323
0.035550933 -0.0091416687 0.014793366
0.036796872 -0.0091992179 0.012142986
0.037936237 -0.0092277331 0.010780513
0.039215386 -0.0092878547 0.0081077814
0.0072522559 -0.0082882931 0.010362178
0.00825621 -0.00825621 0.010069132
0.0092833554 -0.0082518719 0.010678083
0.010186244 -0.0081489952 0.016113698
0.011149165 -0.0081084836 0.018111467
0.012155272 -0.008103515 0.017232716
0.013167184 -0.0081028827 0.01832813
0.014180556 -0.0081031751 0.018497169
0.015181112 -0.0080965934 0.019665152
0.016200393 -0.0081001967 0.018907905
0.017211147 -0.0080993632 0.019125253
0.018225964 -0.0081004286 0.019025713
0.019319599 -0.008134569 0.019120961
0.020286459 -0.0081145838 0.018655896
0.021272492 -0.0081038056 0.019140542
0.022309266 -0.0081124604 0.018529266
0.023292059 -0.0081015853 0.019013584
0.024476461 -0.0081588207 0.016089827
0.025325103 -0.0081040328 0.018569797
0.02633393 -0.0081027476 0.018153161
0.027343908 -0.0081018992 0.018125862
0.028351795 -0.0081005124 0.018195748
0.029359158 -0.0080990782 0.0181925
0.030340444 -0.0080907848 0.01765421
0.031394843 -0.0081018955 0.016678363
0.032420687 -0.0081051718 0.016432017
0.033505283 -0.0081224926 0.016841859
0.034544401 -0.0081280945 0.016303807
0.035652712 -0.0081491908 0.015158564
0.036822859 -0.0081828572 0.011876464
0.03793823 -0.0082028611 0.01078108
0.0062266388 -0.007264412 0.0089732409
0.0072415019 -0.0072415019 0.010265142
0.0082565965 -0.0072245221 0.010069609
0.0092837894 -0.0072207255 0.010264128
0.010231823 -0.0071622757 0.014286041
0.011237507 -0.0071511408 0.014894515
0.01217266 -0.0071007186 0.016843528
0.013191566 -0.0071031507 0.017597735
0.014205105 -0.0071025523 0.01781562
0.015241223 -0.007112571 0.018082082
0.016218694 -0.0070956787 0.018397093
0.017267868 -0.0071102986 0.017518073
0.018280532 -0.0071090963 0.017540544
0.019320503 -0.0071180803 0.017514169
0.020260615 -0.0070912153 0.017463326
0.021264536 -0.0070881788 0.017582834
0.02227415 -0.0070872293 0.019601554
0.023175552 -0.0070534293 0.021789938
0.024236612 -0.0070690117 0.019717604
0.025245663 -0.0070687854 0.019665927
0.026305102 -0.0070821429 0.018738091
0.027345182 -0.0070894919 0.018953979
0.028325871 -0.0070814677 0.018634528
0.029371109 -0.0070895781 0.017585337
0.030378334 -0.007088278 0.017387539
0.031398192 -0.0070899138 0.01740855
0.032408584 -0.0070893778 0.017235011
0.033518877 -0.0071100644 0.016696811
0.034570795 -0.0071175164 0.016012996
0.035786159 -0.0071572317 0.013142884
0.036835499 -0.0071624583 0.011755556
0.038196057 -0.0072262809 0.0080133379
0.0062075057 -0.0062075057 0.0090223849
0.0072119259 -0.0061816508 0.011167765
0.0082345009 -0.0061758757 0.011191607
0.0092616752 -0.0061744498 0.011264175
0.010232237 -0.0061393422 0.012896955
0.011241985 -0.0061319922 0.014748871
0.01225506 -0.0061275298 0.014113992
0.013246761 -0.0061138896 0.017354727
0.014241508 -0.0061035035 0.016646475
0.015244585 -0.0060978336 0.016986161
0.016201807 -0.0060756779 0.018032312
0.01721265 -0.0060750525 0.018030465
0.018242903 -0.0060809674 0.017589986
0.019239133 -0.0060755159 0.018903404
0.020211505 -0.0060634515 0.019656152
0.021219367 -0.0060626767 0.019653648
0.022193355 -0.0060527334 0.021087706
0.023233892 -0.0060610152 0.019672602
0.024237592 -0.0060593979 0.019718409
0.025246684 -0.0060592038 0.019666731
0.026249221 -0.0060575125 0.019420236
0.027343003 -0.0060762228 0.018297791
0.028327014 -0.0060700746 0.018440634
0.029361714 -0.0060748374 0.017731965
0.030344905 -0.0060689808 0.018044859
0.031433377 -0.0060838796 0.017579436
0.032454621 -0.0060852417 0.016676575
0.033520229 -0.006094587 0.015968323
0.03456806 -0.0061002458 0.015503347
0.035749342 -0.0061284588 0.012487441
0.036804192 -0.0061340323 0.011707455
0.038004417 -0.0061628781 0.0096892715
0.006207719 -0.0051730992 0.0084130466
0.0072130268 -0.0051521617 0.011119395
0.0082420977 -0.0051513114 0.011460245
0.0092537645 -0.0051409802 0.011825323
0.010232589 -0.0051162946 0.012897372
0.011261814 -0.0051190066 0.013530403
0.012255481 -0.0051064501 0.014114499
0.013247215 -0.0050950828 0.017355323
0.014204461 -0.0050730221 0.017719477
0.015214032 -0.0050713439 0.017815381
0.016190667 -0.0050595836 0.017569929
0.017137643 -0.0050404831 0.019054443
0.018116349 -0.0050323191 0.020124435
0.019120608 -0.0050317389 0.020341367
0.020181751 -0.0050454377 0.019194037
0.021143377 -0.0050341375 0.019678682
0.022147238 -0.0050334632 0.017922729
0.023234688 -0.0050510191 0.017433256
0.024241343 -0.0050502797 0.01928091
0.02533122 -0.0050662439 0.01793921
0.026267519 -0.0050514457 0.019055873
0.027343936 -0.0050636921 0.01773873
0.028327985 -0.0050585684 0.017687052
0.029417386 -0.0050719632 0.016710907
0.03044444 -0.0050740736 0.016537637
0.031453293 -0.005073112 0.016534477
0.032482959 -0.0050754622 0.016263843
0.033521373 -0.0050789961 0.015895963
0.034529995 -0.0050779404 0.015673965
0.035627261 -0.005089609 0.013581187
0.036700513 -0.0050972933 0.012776673
0.037852962 -0.005115265 0.01124382
0.0072132293 -0.0041218456 0.011119694
0.0082359891 -0.0041179946 0.01177752
0.0092622545 -0.0041165575 0.011728168
0.010253601 -0.0041014403 0.013214707
0.011270176 -0.0040982459 0.013506413
0.012251436 -0.0040838122 0.01377359
0.013247587 -0.0040761805 0.0173558
0.014204861 -0.0040585315 0.017719984
0.01521446 -0.0040571894 0.017815858
0.016188197 -0.0040470492 0.017643571
0.017112233 -0.0040264078 0.019664168
0.018094931 -0.0040210956 0.02061227
0.019103788 -0.0040218499 0.020707339
0.020182317 -0.0040364633 0.019194573
0.021188725 -0.0040359478 0.01697576
0.022194739 -0.0040354072 0.01707086
0.023320742 -0.0040557813 0.016995519
0.024331124 -0.0040551876 0.017942429
0.025341056 -0.0040545692 0.017939717
0.026303058 -0.0040466245 0.018253237
0.027344702 -0.0040510669 0.017349899
0.02835262 -0.0040503745 0.017346948
0.029435845 -0.0040601166 0.016468138
0.030445293 -0.0040593725 0.015540957
0.031480554 -0.0040620072 0.015027344
0.032483865 -0.0040604831 0.015267551
0.033560406 -0.0040679281 0.014462322
0.034570202 -0.0040670824 0.014459312
0.035628255 -0.0040718005 0.013581604
0.036701538 -0.0040779486 0.011781067
0.037863001 -0.0040932973 0.011146992
0.0062018111 -0.0031009056 0.0096327662
0.007225337 -0.0030965731 0.0089251995
0.0082444604 -0.0030916729 0.011436433
0.0092322817 -0.0030774274 0.01280129
0.010250168 -0.0030750502 0.013361335
0.011270422 -0.0030737515 0.01350674
0.012251704 -0.003062926 0.015456021
0.013222526 -0.003051352 0.017258674
0.014193228 -0.0030414059 0.01715976
0.015214792 -0.0030429584 0.016914487
0.016188549 -0.003035353 0.017400235
0.017190279 -0.0030335786 0.017837048
0.018146858 -0.0030244761 0.019467562
0.019104205 -0.0030164535 0.021170676
0.020158397 -0.0030237597 0.0204373
0.021163613 -0.0030233732 0.019825816
0.022238085 -0.0030324659 0.018556774
0.023245646 -0.0030320405 0.019260287
0.024255699 -0.0030319623 0.019257516
0.025312703 -0.0030375244 0.018402606
0.026321031 -0.0030370422 0.018229336
0.027342014 -0.0030380015 0.01710692
0.028389005 -0.003041679 0.016836375
0.029436486 -0.0030451538 0.015982002
0.030471491 -0.0030471489 0.01563856
0.031526469 -0.0030509487 0.014346838
0.032537084 -0.0030503517 0.014416933
0.033607259 -0.0030552053 0.013052851
0.034618467 -0.0030545704 0.01200515
0.03562903 -0.0030539169 0.011808187
0.036702335 -0.0030585278 0.010785401
0.038009841 -0.0030818789 0.0095686615
0.0062019075 -0.0020673026 0.0096329153
0.0072254497 -0.0020644143 0.010803074
0.0082392246 -0.0020598061 0.011704832
0.0092626009 -0.0020583556 0.011728585
0.010250327 -0.0020500654 0.013361543
0.011268587 -0.002048834 0.013580084
0.012224104 -0.0020373506 0.015968233
0.013241746 -0.0020371915 0.015967011
0.014173826 -0.0020248324 0.01772067
0.015184869 -0.0020246492 0.01771906
0.016188802 -0.0020236003 0.01788795
0.017190548 -0.0020224173 0.018324703
0.018147139 -0.0020163488 0.019979537
0.019153105 -0.0020161162 0.019782305
0.020158712 -0.0020158712 0.019779921
0.021163942 -0.0020156135 0.019777387
0.02223843 -0.0020216755 0.018557072
0.023246009 -0.0020213921 0.019309312
0.024391925 -0.0020326604 0.017261446
0.02531614 -0.0020252913 0.018354177
0.026370486 -0.0020284988 0.016550213
0.027380219 -0.0020281642 0.016547501
0.028440541 -0.0020314672 0.015790403
0.029451054 -0.0020311072 0.015787631
0.030461019 -0.0020307347 0.015784711
0.03165511 -0.0020422651 0.012790769
0.03270486 -0.0020440537 0.01232633
0.03372008 -0.0020436412 0.011351556
0.034734678 -0.0020432163 0.010644406
0.035833675 -0.0020476386 0.010374874
0.03684938 -0.0020471879 0.0091580153
0.03801043 -0.0020546177 0.0083059072
0.0041395361 -0.001034884 0.0084629655
0.0051614707 -0.0010322941 0.0094870031
0.0061935522 -0.0010322587 0.010096371
0.0072255176 -0.0010322168 0.010095984
