ply
format ascii 1.0
comment PCL generated
element vertex 1258
property float x
property float y
property float z
element camera 0
property float view_px
property float view_py
property float view_pz
property float x_axisx
property float x_axisy
property float x_axisz
property float y_axisx
property float y_axisy
property float y_axisz
property float z_axisx
property float z_axisy
property float z_axisz
property float focal
property float scalex
property float scaley
property float centerx
property float centery
property int viewportx
property int viewporty
property float k1
property float k2
end_header
-0.035571583 -0.040802699 0.0091675222
-0.034137268 -0.040344041 0.013621062
-0.03296423 -0.040175155 0.014470726
-0.031516369 -0.039649628 0.019459426
-0.030438263 -0.039569743 0.020044059
-0.029636135 -0.039855491 0.018280208
-0.028619222 -0.039862491 0.018113881
-0.027601786 -0.039869245 0.018334925
-0.026727127 -0.040090691 0.015915483
-0.025742574 -0.040158413 0.016257197
-0.024716605 -0.040164482 0.013424486
-0.023658128 -0.04011596 0.015922695
-0.022585997 -0.040038813 0.015197784
-0.021448951 -0.039833765 0.018230081
-0.020395005 -0.03977026 0.018717259
-0.019377587 -0.039775047 0.018574029
-0.018333621 -0.039722845 0.016854316
-0.017321084 -0.039736602 0.016346812
-0.016303858 -0.039740656 0.016639531
-0.015309074 -0.039803594 0.016204536
-0.014270221 -0.039752759 0.017200649
-0.013216541 -0.039649624 0.018269628
-0.012200828 -0.03965269 0.018271059
-0.011280982 -0.039996207 0.014632434
-0.010256104 -0.039998807 0.014779001
-0.0092310365 -0.040001158 0.014973968
-0.0082193883 -0.04006952 0.015799999
-0.0071922988 -0.040071379 0.015800714
-0.0061800028 -0.040170018 0.014223635
-0.0051289392 -0.040005725 0.015898973
-0.0041098194 -0.040070739 0.015244007
-0.003078426 -0.040019538 0.015341431
-0.0020616616 -0.040202402 0.013472527
-0.0010308403 -0.040202774 0.013181329
0 -0.040285736 0.013885409
0.0010290197 -0.04013177 0.015220463
0.0020528014 -0.040029626 0.016264141
0.0030791543 -0.040029004 0.014977336
0.0041149165 -0.040120438 0.014030337
0.0051435027 -0.04011932 0.013665855
0.0061840075 -0.04019605 0.012063444
0.0072636572 -0.040468946 0.0090775192
-0.061354637 -0.039516546 0.014197797
-0.060088724 -0.039368473 0.014443129
-0.058857508 -0.039238337 0.015241534
-0.057467688 -0.038995933 0.017940193
-0.056890529 -0.039306186 0.014867008
-0.055835694 -0.039291784 0.01516068
-0.054774892 -0.039272565 0.015045255
-0.053796154 -0.039312571 0.013436705
-0.052848808 -0.039377544 0.014211714
-0.051915858 -0.039456051 0.011710197
-0.050892912 -0.039467972 0.011713713
-0.049527656 -0.039209396 0.0144898
-0.048487231 -0.039202444 0.014686942
-0.047546756 -0.039277755 0.014015675
-0.046659093 -0.039401013 0.012981981
-0.04563465 -0.039411742 0.013178617
-0.044170756 -0.03903462 0.017020881
-0.0431218 -0.039014962 0.01733923
-0.042073611 -0.038995054 0.015483677
-0.041241247 -0.039179187 0.014110297
-0.040356629 -0.039321844 0.012712002
-0.039379358 -0.039379358 0.012207419
-0.038535286 -0.03957678 0.010227561
-0.037528321 -0.039613225 0.0099396408
-0.036618706 -0.039757453 0.0086113811
-0.035580005 -0.039765887 0.008613199
-0.034145351 -0.039318889 0.013406515
-0.032972042 -0.039154299 0.012610435
-0.031589504 -0.038722619 0.017745167
-0.03043095 -0.038545869 0.019080251
-0.029467585 -0.038612697 0.020512581
-0.028351333 -0.03847681 0.020588875
-0.027444808 -0.038626026 0.020253181
-0.026286183 -0.038418267 0.022509903
-0.025629031 -0.038956128 0.01793322
-0.024633767 -0.039003465 0.016627073
-0.02373484 -0.039214082 0.014472008
-0.022624703 -0.039079033 0.015395343
-0.021454053 -0.038821619 0.018234372
-0.020370753 -0.038704433 0.019303709
-0.01935455 -0.0387091 0.019160509
-0.018309604 -0.038653608 0.018435001
-0.017201485 -0.038450379 0.02025649
-0.016177697 -0.038422029 0.020379841
-0.015188063 -0.038476426 0.019847989
-0.0142354 -0.038638942 0.018587917
-0.013219689 -0.038642168 0.018273979
-0.012188445 -0.038596742 0.018785059
-0.011224932 -0.038777038 0.016917467
-0.010234274 -0.038890243 0.015753448
-0.0092365136 -0.038998611 0.015608728
-0.0082213478 -0.039051402 0.013715982
-0.0071940133 -0.039053213 0.01366809
-0.0061654528 -0.039047867 0.013255924
-0.005106186 -0.038807016 0.015417218
-0.0041042436 -0.038990315 0.015004843
-0.003059675 -0.038755883 0.017481774
-0.0020548687 -0.039042506 0.015855283
-0.001019917 -0.038756844 0.017652184
0 -0.039181396 0.013184547
0.0010277475 -0.039054409 0.01451993
0.0020532906 -0.039012522 0.015782386
0.0030798884 -0.039011922 0.014980912
0.0041154125 -0.039096419 0.013718039
0.0051441225 -0.039095331 0.012916446
0.0061734645 -0.039098609 0.012867451
0.007265388 -0.03944068 0.0096380413
-0.072401397 -0.03882394 0.0081861019
-0.070055477 -0.038687352 0.0085042715
-0.068978243 -0.03866962 0.010520756
-0.068123609 -0.038778052 0.010452986
-0.067293569 -0.038904097 0.0090659857
-0.06292668 -0.038804784 0.0091516376
-0.061272901 -0.038425379 0.013408035
-0.060095433 -0.038336743 0.014494479
-0.05848714 -0.037965339 0.017938107
-0.057426903 -0.037942775 0.017294824
-0.05674139 -0.038171481 0.016001254
-0.055458497 -0.037999343 0.016536146
-0.054832064 -0.038278989 0.014711589
-0.053808447 -0.038286779 0.013704717
-0.052790239 -0.038298801 0.013371736
-0.051759031 -0.038301684 0.012556404
-0.050556082 -0.038175002 0.014054894
-0.049539004 -0.038186315 0.014493138
-0.048521023 -0.038197398 0.01449734
-0.047557659 -0.038252901 0.014018893
-0.0466698 -0.038372949 0.012984931
-0.045514997 -0.038273975 0.014219761
-0.044180904 -0.038016126 0.017024785
-0.043131713 -0.037996985 0.017343223
-0.042083286 -0.037977599 0.016115427
-0.041241068 -0.03814799 0.014210224
-0.040255144 -0.038190778 0.013754398
-0.039340194 -0.038304925 0.012621224
-0.038461395 -0.038461395 0.0105685
-0.037439004 -0.038478974 0.010449946
-0.034366902 -0.038532589 0.010819644
-0.032847952 -0.037980448 0.014332235
-0.031596802 -0.037712313 0.01774928
-0.030443432 -0.037546899 0.019617498
-0.029434003 -0.037553728 0.021074474
-0.028424034 -0.037560329 0.020811677
-0.027451158 -0.037618253 0.019094735
-0.026445072 -0.037633374 0.019752204
-0.025531944 -0.037787277 0.018155515
-0.024613285 -0.037945483 0.016509712
-0.023600915 -0.037966691 0.015081525
-0.022553921 -0.037931595 0.014744133
-0.021433558 -0.037763886 0.016613603
-0.020363348 -0.037672192 0.019769043
-0.019329075 -0.037640829 0.0199413
-0.018265812 -0.037546389 0.02086553
-0.017221974 -0.037483122 0.02023688
-0.01618145 -0.037419602 0.02038455
-0.015191588 -0.037472583 0.019852579
-0.014238704 -0.03763086 0.016893208
-0.013214869 -0.037611552 0.018253922
-0.012199285 -0.037614465 0.018255353
-0.011208843 -0.037702475 0.018547982
-0.010236652 -0.037875611 0.016703993
-0.0092135286 -0.037877839 0.015369534
-0.0081902342 -0.037879832 0.015321791
-0.0071655125 -0.037874851 0.014909714
-0.0061421152 -0.037876379 0.015395969
-0.0051073725 -0.037794556 0.016610712
-0.0040932973 -0.037863001 0.016198337
-0.0030603858 -0.037744761 0.017485857
-0.0020402889 -0.037745345 0.017801821
-0.001016936 -0.037626632 0.019089162
0 -0.037626747 0.019429237
0.0010248291 -0.037918676 0.016393393
0.0020496391 -0.037918326 0.016393214
0.0030873434 -0.038077235 0.012822956
0.0041173398 -0.038085394 0.012725532
0.0051453174 -0.03807535 0.012919456
0.0061220811 -0.037752833 0.016561598
0.0071421405 -0.037751313 0.016779453
0.0081785787 -0.037825927 0.016147375
0.0092801787 -0.038151845 0.012820095
0.010390216 -0.0384438 0.0097115934
-0.072363622 -0.037754934 0.0084991753
-0.070082933 -0.037656505 0.0086019933
-0.069032989 -0.037654359 0.01121822
-0.068013929 -0.037669253 0.012709439
-0.067039743 -0.037709855 0.010747224
-0.062940605 -0.037764363 0.0090576112
-0.061286468 -0.037395135 0.014132023
-0.060066916 -0.037282914 0.01553154
-0.058678333 -0.03706 0.018278778
-0.057581119 -0.037016433 0.016288131
-0.056658022 -0.03708525 0.016678721
-0.055613834 -0.037075888 0.015480489
-0.05484426 -0.037252706 0.014714867
-0.053817287 -0.037258122 0.013755918
-0.052801996 -0.037271999 0.013736159
-0.051782619 -0.037283484 0.013378829
-0.050856832 -0.037364203 0.013069391
-0.049778711 -0.037334032 0.013531566
-0.048367426 -0.03704739 0.015417427
-0.047351796 -0.037057929 0.015252858
-0.046408642 -0.037126914 0.013784498
-0.045416269 -0.037158765 0.015116394
-0.044284262 -0.037075195 0.016159028
-0.043141365 -0.036978312 0.017347097
-0.042092711 -0.036959451 0.016119033
-0.041076265 -0.036968641 0.01585713
-0.040059078 -0.036977611 0.015836835
-0.039243329 -0.037177891 0.013712376
-0.038393948 -0.037356276 0.011369139
-0.037440874 -0.037440874 0.010234535
-0.036554907 -0.037599333 0.0088815391
-0.034374628 -0.037499592 0.0082799792
-0.032855339 -0.036962256 0.013608992
-0.03160391 -0.036701314 0.017535299
-0.03044665 -0.036535978 0.019452333
-0.029409012 -0.036507737 0.02151534
-0.028399898 -0.036514156 0.021252543
-0.027404988 -0.036539983 0.021038026
-0.026451031 -0.036624502 0.019756675
-0.025518002 -0.036745925 0.018886983
-0.024618836 -0.036928255 0.016513467
-0.023606239 -0.036948897 0.016346067
-0.022398921 -0.036652781 0.017658114
-0.021358158 -0.036613986 0.018145651
-0.020304862 -0.036548752 0.020428628
-0.019282725 -0.036535688 0.020625174
-0.018237175 -0.036474351 0.02084595
-0.017225863 -0.0364783 0.020241469
-0.016180251 -0.036405563 0.020510525
-0.015192288 -0.036461491 0.019929916
-0.014262315 -0.036674522 0.0183779
-0.013221801 -0.036614221 0.019423485
-0.012202042 -0.036606126 0.019837767
-0.011189342 -0.036619663 0.019353509
-0.010212861 -0.036766298 0.017751992
-0.0091921156 -0.036768463 0.016247272
-0.0081906291 -0.036857832 0.015398115
-0.0071671335 -0.036859542 0.01539886
-0.0061416831 -0.036850099 0.0155209
-0.005088185 -0.036634933 0.018241882
-0.004073333 -0.036660001 0.018849671
-0.0030638115 -0.036765736 0.017975599
-0.0020471879 -0.03684938 0.017587245
-0.0010165587 -0.036596116 0.019676507
0 -0.036596227 0.019676596
0.001018077 -0.036650773 0.019190669
0.0020395359 -0.036711648 0.018510312
0.0030751068 -0.03690128 0.013773233
0.0041326028 -0.037193429 0.010517925
0.00516561 -0.037192389 0.011562109
0.0061354893 -0.036812939 0.016176701
0.0071577826 -0.036811456 0.016394645
0.0081731426 -0.036779143 0.016515344
0.0092024971 -0.036809988 0.016368747
0.010313034 -0.037126925 0.012895077
0.011431078 -0.037410803 0.0097131431
-0.074359097 -0.036655892 0.0080153048
-0.07322979 -0.036614895 0.0094548762
-0.072213873 -0.036630224 0.0094588101
-0.071176313 -0.036634866 0.0082409978
-0.070025697 -0.036580589 0.010473192
-0.069079436 -0.036633033 0.012515306
-0.068028525 -0.036630746 0.01136896
-0.067322873 -0.036817193 0.0090699494
-0.06240987 -0.036405757 0.011390507
-0.061299678 -0.036364216 0.012428284
-0.059494067 -0.035901591 0.017073959
-0.058601871 -0.035983603 0.017849684
-0.057637349 -0.036023341 0.016989529
-0.056670267 -0.0360629 0.016778648
-0.05562586 -0.036053799 0.015628308
-0.0547891 -0.03618148 0.014308542
-0.05382894 -0.036231019 0.013734818
-0.052911777 -0.036312003 0.012847275
-0.051790833 -0.036253583 0.013646901
-0.050811734 -0.036294095 0.013506353
-0.049789518 -0.036304858 0.013510346
-0.048394937 -0.036038782 0.015275985
-0.047378741 -0.036049042 0.014290601
-0.046380702 -0.036073878 0.014077246
-0.045399584 -0.036113307 0.0141294
-0.044314679 -0.03607009 0.014737129
-0.04315076 -0.035958968 0.015804321
-0.041953228 -0.03581373 0.016533434
-0.041005436 -0.035879757 0.015884757
-0.040098466 -0.035985801 0.01477617
-0.03943114 -0.036318153 0.01136899
-0.038420234 -0.036343463 0.011178046
-0.037455581 -0.036415149 0.010454535
-0.036632791 -0.036632791 0.0080846846
-0.034382146 -0.036465913 0.0091293454
-0.032984599 -0.036076907 0.012812704
-0.031762902 -0.035861339 0.016206741
-0.030376989 -0.035439823 0.020474255
-0.02938734 -0.035467479 0.022247046
-0.028436661 -0.035545826 0.019003004
-0.027469903 -0.035609134 0.018351704
-0.026554544 -0.0357465 0.016754389
-0.025543299 -0.035760619 0.018163592
-0.024525281 -0.035766035 0.01797232
-0.023491466 -0.035747882 0.017683804
-0.022439865 -0.035699788 0.018292785
-0.021422721 -0.035704535 0.01851362
-0.020395471 -0.035692073 0.019195408
-0.019252377 -0.035464905 0.021843225
-0.01822152 -0.035430733 0.021287441
-0.01722965 -0.03547281 0.020852774
-0.016214885 -0.035470057 0.020296544
-0.015285771 -0.035666797 0.018307477
-0.014190661 -0.035476651 0.019863218
-0.013220764 -0.035594363 0.018553525
-0.012204726 -0.035597119 0.019283503
-0.011213845 -0.035680413 0.018361956
-0.010226645 -0.035793256 0.017100066
-0.0092028826 -0.035788987 0.015862226
-0.0081822285 -0.03579725 0.016033113
-0.0071415016 -0.035707507 0.017078489
-0.0061200764 -0.035700448 0.017370701
-0.0051002377 -0.035701666 0.018245935
-0.0040951245 -0.035832342 0.016983032
-0.0030766949 -0.035894774 0.016060144
-0.0020511616 -0.035895329 0.015817404
-0.0010166612 -0.035583138 0.019389272
0 -0.035479072 0.020920068
0.0010136847 -0.035478964 0.021041483
0.0020379196 -0.035663594 0.018927425
0.0030602945 -0.035703436 0.018805683
0.0040914803 -0.035800453 0.015063614
0.0051843612 -0.036290526 0.011200219
0.0061998852 -0.036165997 0.012608916
0.0072783967 -0.036391985 0.011272281
0.0082599651 -0.036137346 0.012753606
0.0093559176 -0.036384124 0.0099108517
0.01039303 -0.036375605 0.0086714923
-0.073224053 -0.035565969 0.0081161261
-0.072286725 -0.035619546 0.0083350837
-0.071191125 -0.035595562 0.0082666278
-0.06995596 -0.035500038 0.010978729
-0.069109663 -0.035601951 0.011079073
-0.068073906 -0.035607889 0.010843545
-0.062307566 -0.03530762 0.01216203
-0.06110682 -0.0352141 0.014715135
-0.059701853 -0.034997638 0.017775059
-0.058703315 -0.035016011 0.017227858
-0.057659563 -0.035007592 0.01733008
-0.056682177 -0.035039891 0.016782135
-0.055800136 -0.035133421 0.015173972
-0.054800626 -0.035155121 0.015058458
-0.053877871 -0.035227839 0.013472587
-0.052922927 -0.035281949 0.012922347
-0.051901229 -0.035292834 0.01285398
-0.050878596 -0.035303514 0.013050854
-0.050040368 -0.035445258 0.011510372
-0.049012102 -0.035455562 0.01151371
-0.047488712 -0.035100352 0.013424426
-0.046390511 -0.035050608 0.014128506
-0.045409184 -0.035088915 0.01413238
-0.044337045 -0.035057198 0.015030235
-0.043276642 -0.035033472 0.01496166
-0.042143017 -0.034947868 0.014772028
-0.041125368 -0.034956563 0.014437139
-0.040234324 -0.035076078 0.013061911
-0.039439503 -0.035287976 0.010669708
-0.038428385 -0.035312571 0.011785418
-0.034435414 -0.035478912 0.0085741878
-0.033131156 -0.035201851 0.011676788
-0.031769663 -0.034844145 0.016307086
-0.030368919 -0.034418106 0.021399498
-0.029361965 -0.034424372 0.021839708
-0.028385021 -0.034467526 0.020001054
-0.027434839 -0.034547575 0.019931734
-0.026546018 -0.034714025 0.016976237
-0.02552904 -0.034719493 0.01804617
-0.024511591 -0.034724753 0.018291503
-0.02345044 -0.034665868 0.019046307
-0.022444654 -0.034687195 0.018466592
-0.021381423 -0.034617543 0.01934275
-0.020358561 -0.034609552 0.019539386
-0.019294539 -0.034527071 0.020561278
-0.018237431 -0.034448478 0.021024942
-0.017226107 -0.034452215 0.021027207
-0.016218349 -0.034463994 0.020300865
-0.015272644 -0.034617994 0.018044233
-0.014229396 -0.034557108 0.018798798
-0.013227537 -0.034595098 0.017998815
-0.01221098 -0.034597777 0.018898994
-0.011234949 -0.03472621 0.017418414
-0.010222759 -0.034757383 0.017298073
-0.0092048515 -0.034773882 0.01637584
-0.0081839794 -0.03478191 0.016449571
-0.0071579134 -0.034767006 0.016498983
-0.006135602 -0.03476841 0.017520189
-0.0051131761 -0.034769598 0.017520815
-0.0041173864 -0.034997784 0.015261263
-0.0030851909 -0.034965497 0.015310198
-0.0020526943 -0.034895804 0.015699297
-0.0010159675 -0.034542892 0.01927191
0 -0.034443844 0.020438492
0.0010139017 -0.034472656 0.020098209
0.0020364118 -0.034619 0.018056631
0.0030545704 -0.034618467 0.019660264
0.0040726718 -0.034617711 0.018055916
0.0050913054 -0.034620877 0.018735856
0.0061968379 -0.035115413 0.012903214
0.0072799544 -0.035359778 0.011274695
0.0082904035 -0.035234217 0.011322767
0.0093579199 -0.035352141 0.011249274
0.010395254 -0.035343863 0.0086733401
-0.072301328 -0.034578897 0.0081930459
-0.07099773 -0.034454782 0.0098740458
-0.069933966 -0.034445088 0.011196733
-0.068953477 -0.034476738 0.011105299
-0.067935631 -0.034490399 0.010989696
-0.06232024 -0.034276132 0.01021722
-0.061090879 -0.034169473 0.012577742
-0.059794243 -0.034020863 0.015445083
-0.059082225 -0.0342055 0.013380796
-0.05806566 -0.034217265 0.014661342
-0.056872554 -0.034123532 0.015557349
-0.055873327 -0.034144811 0.015152991
-0.054856531 -0.034155954 0.014266282
-0.053888895 -0.03419872 0.01388514
-0.052804627 -0.0341677 0.013865411
-0.051785219 -0.034178246 0.013869703
-0.050549112 -0.034043279 0.013487846
-0.050015874 -0.034385912 0.011802346
-0.049022157 -0.034419812 0.012095481
-0.047498457 -0.034074981 0.015383273
-0.046381012 -0.034012742 0.015049398
-0.045352068 -0.034014054 0.015029311
-0.044304591 -0.034001198 0.01542002
-0.043285541 -0.034010068 0.014457017
-0.04215169 -0.033926971 0.014775097
-0.041182209 -0.033975322 0.014295012
-0.040242612 -0.034051441 0.013475895
-0.039466023 -0.034273125 0.01178515
-0.038572889 -0.034402847 0.010311335
-0.034498487 -0.034498487 0.0084063709
-0.033240739 -0.03427951 0.010637343
-0.031789374 -0.033840302 0.016140819
-0.030400649 -0.033440713 0.021500885
-0.029368039 -0.033418804 0.021844238
-0.028384104 -0.033452693 0.020102203
-0.027586218 -0.033716489 0.016977012
-0.026578318 -0.03373402 0.016567409
-0.025573749 -0.033757348 0.01741913
-0.024519581 -0.033714425 0.01824674
-0.023501346 -0.033719324 0.018249422
-0.022449309 -0.033673964 0.018470407
-0.02137821 -0.033594329 0.019104034
-0.020311803 -0.033514474 0.020514548
-0.019295083 -0.033512514 0.020128518
-0.018271813 -0.033498324 0.020009398
-0.017258583 -0.033501953 0.020011574
-0.016249891 -0.033515401 0.019892156
-0.015275816 -0.033606794 0.018582404
-0.014258711 -0.033609819 0.018098205
-0.013261079 -0.03366274 0.017492354
-0.012264542 -0.033727489 0.017323613
-0.011243298 -0.033729892 0.017470598
-0.010224883 -0.033742115 0.017350286
-0.0092177009 -0.033798236 0.016646534
-0.0081939436 -0.033800017 0.016671747
-0.0071615279 -0.033761486 0.016526669
-0.006155835 -0.033857092 0.016089916
-0.0051476597 -0.033974554 0.014850825
-0.0041218884 -0.034005579 0.01489988
-0.0030903895 -0.033994284 0.013733447
-0.0020323384 -0.033533581 0.018959731
-0.0010161786 -0.033533894 0.01895991
0 -0.033465814 0.020102471
0.0010141125 -0.03346571 0.019713461
0.0020282059 -0.0334654 0.019713283
0.0030346052 -0.033380657 0.02080676
0.0040735188 -0.033606529 0.018934727
0.0050896294 -0.033591554 0.019104362
0.0061073466 -0.033590406 0.019103706
0.0071070869 -0.03350484 0.021241665
0.0081220064 -0.033503279 0.020487279
0.0093106544 -0.034139067 0.013438761
0.010344561 -0.034137052 0.012101471
0.01143641 -0.034309231 0.011323094
0.012475194 -0.034306787 0.0087468624
0.014501883 -0.034183007 0.010130137
-0.071052402 -0.033436425 0.0099239349
-0.069983847 -0.033425122 0.010239691
-0.068967029 -0.03343856 0.0095720887
-0.06794899 -0.03345181 0.0085919201
-0.067052677 -0.033526339 0.0084751844
-0.066030383 -0.033539243 0.0084784627
-0.063107997 -0.033657599 0.008079201
-0.06135131 -0.033275288 0.012171298
-0.060221266 -0.033225525 0.013739675
-0.059255131 -0.033266038 0.01280573
-0.058235601 -0.033277486 0.012810171
-0.056900378 -0.033105675 0.013151705
-0.055913676 -0.033134028 0.014047623
-0.054867409 -0.03312749 0.013811141
-0.053877644 -0.033155475 0.014056683
-0.052735161 -0.033088729 0.014398783
-0.051668849 -0.033068065 0.014958143
-0.050650805 -0.033078078 0.014962643
-0.04973324 -0.033155493 0.014822245
-0.0487113 -0.033165142 0.014898986
-0.047602367 -0.03311469 0.015652031
-0.046093978 -0.032777939 0.018000036
-0.045081973 -0.032786887 0.017569929
-0.044069149 -0.032795645 0.017574638
-0.043190088 -0.032906733 0.016297668
-0.042110529 -0.032866754 0.016059905
-0.041154154 -0.032923322 0.014201105
-0.040222343 -0.033002947 0.013309211
-0.039441723 -0.033214081 0.010383636
-0.038625397 -0.033405747 0.0085218549
-0.033247404 -0.033247404 0.010397077
-0.031795751 -0.032821421 0.015877426
-0.030466756 -0.032497872 0.020268708
-0.029373936 -0.032412618 0.021557659
-0.028389804 -0.03244549 0.021512926
-0.02758521 -0.032693584 0.017877936
-0.026583659 -0.032718349 0.017638236
-0.025598608 -0.032766219 0.017107189
-0.024495389 -0.032660518 0.018468857
-0.023460018 -0.032640025 0.018520087
-0.022338999 -0.032493088 0.02017343
-0.021308584 -0.032470223 0.019933313
-0.020302536 -0.032484058 0.019838721
-0.019265516 -0.032447182 0.020084023
-0.018280959 -0.032499481 0.019479096
-0.017262058 -0.032493286 0.020015597
-0.016259968 -0.032519937 0.020454943
-0.015278894 -0.032594975 0.019557953
-0.014308357 -0.032704815 0.017348617
-0.013304029 -0.032748379 0.016718268
-0.012281595 -0.032750919 0.017788857
-0.011245565 -0.032714371 0.017206818
-0.010212362 -0.032679558 0.017888516
-0.0091801835 -0.032640651 0.018011063
-0.008160593 -0.032642372 0.018425256
-0.0071744593 -0.032797527 0.016505718
-0.0061636409 -0.032872751 0.016141742
-0.0051486981 -0.032951668 0.015267134
-0.0041227201 -0.032981761 0.01490289
-0.0030662152 -0.032706294 0.017431647
-0.0020351796 -0.032562874 0.019231021
-0.0010194228 -0.032621529 0.018064171
0 -0.03262163 0.018064231
0.0010240421 -0.032769348 0.015365511
0.0020372462 -0.03259594 0.01752913
0.0030583746 -0.032622665 0.017723382
0.0040743407 -0.032594725 0.018938541
0.0050660418 -0.032422666 0.020493954
0.0060768547 -0.032409891 0.020177186
0.0070753396 -0.032344412 0.02097854
0.0080935033 -0.032374013 0.020588666
0.0091151027 -0.032409254 0.021535486
0.010231806 -0.032741781 0.015263557
0.011254253 -0.032739647 0.017061025
0.012283782 -0.032756753 0.015212834
0.013312716 -0.032769762 0.015697688
0.014359382 -0.032821443 0.014287144
0.015391869 -0.032835986 0.014067173
-0.072081193 -0.032384306 0.0099217296
-0.071065918 -0.032397699 0.0096381307
-0.070049398 -0.032410916 0.0096420348
-0.069047473 -0.03243139 0.0086141527
-0.067891732 -0.032379135 0.0090256035
-0.067065477 -0.032484841 0.0084768236
-0.066042989 -0.032497343 0.0084801018
-0.063120075 -0.032612041 0.0080807805
-0.0616505 -0.032392636 0.0098880529
-0.06034448 -0.032253083 0.011841029
-0.059266496 -0.032232657 0.012808204
-0.058428854 -0.032344542 0.011512071
-0.057226013 -0.032254662 0.011323214
-0.056152165 -0.032235503 0.011712581
-0.054992955 -0.032165691 0.012536079
-0.053972661 -0.03217601 0.012781262
-0.052825287 -0.032109488 0.013123035
-0.051678807 -0.032040861 0.014961004
-0.050660573 -0.032050569 0.014965534
-0.049742837 -0.032125581 0.014897525
-0.048522051 -0.032003906 0.016592562
-0.047308728 -0.031881969 0.016814679
-0.04603764 -0.031714819 0.014837801
-0.044979014 -0.031689759 0.015276939
-0.043968506 -0.031698227 0.014990896
-0.043007988 -0.031743992 0.017268181
-0.041994698 -0.031752091 0.014224499
-0.041033879 -0.031801254 0.015050769
-0.040038995 -0.03182587 0.01483658
-0.039449371 -0.032182384 0.010337234
-0.038588095 -0.032330565 0.0084508657
-0.033370223 -0.032327402 0.0090174079
-0.032066874 -0.032066874 0.01246196
-0.030567257 -0.031586166 0.019157201
-0.029302282 -0.031323131 0.022895813
-0.028395332 -0.031437691 0.021492839
-0.027588947 -0.031676199 0.01848796
-0.026574641 -0.031685151 0.016986489
-0.025556574 -0.03169015 0.017644495
-0.024500165 -0.031646047 0.018278271
-0.023383627 -0.031517062 0.019931763
-0.02232199 -0.03145371 0.020808697
-0.02127832 -0.031410854 0.020592898
-0.020280998 -0.031435546 0.020352632
-0.019288892 -0.031471349 0.019917876
-0.018288899 -0.031497549 0.019798726
-0.017265432 -0.031484023 0.020748377
-0.016303964 -0.031588931 0.019511312
-0.015332 -0.031686135 0.018249542
-0.014329016 -0.031728536 0.01684165
-0.013324008 -0.031772636 0.016308367
-0.012285453 -0.031737421 0.017743737
-0.011295226 -0.031832002 0.015314162
-0.010221653 -0.031687122 0.017211318
-0.0091819791 -0.031626817 0.017941684
-0.0081592724 -0.03161718 0.018574774
-0.007142249 -0.031629961 0.018429697
-0.0061418698 -0.031732995 0.017676711
-0.0051375474 -0.031852793 0.015659153
-0.0040889978 -0.031689733 0.017142862
-0.0030496721 -0.031513277 0.019428968
-0.002035578 -0.031551458 0.018942952
-0.0010196223 -0.031608291 0.018626988
0 -0.031608392 0.01763007
0.0010204125 -0.031632788 0.01690048
0.0020343622 -0.031532615 0.017046243
0.0030589732 -0.03160939 0.016048998
0.0040697884 -0.031540859 0.019477218
0.0050867894 -0.031538092 0.019500971
0.0060802321 -0.031414531 0.020497262
0.0070907646 -0.031401958 0.020642281
0.0081033539 -0.031400494 0.020568371
0.0091168853 -0.031402607 0.020421416
0.010142038 -0.031440318 0.019496441
0.011204313 -0.031575792 0.017356068
0.012278891 -0.031720467 0.015458941
0.013315319 -0.031751912 0.015020251
0.014362189 -0.031801991 0.01441142
0.015394877 -0.03181608 0.014191419
-0.072354965 -0.03145868 0.0081497729
-0.070118569 -0.031396374 0.0093319416
-0.069099814 -0.031409007 0.008879751
-0.068079837 -0.03142146 0.0085951686
-0.061661936 -0.031353526 0.0094327033
-0.060593028 -0.031341221 0.0097490251
-0.058924071 -0.031012669 0.014207244
-0.058463316 -0.031319633 0.010261655
-0.057405636 -0.031312164 0.010096431
-0.056185398 -0.031214111 0.011546046
-0.055118218 -0.031198991 0.011911511
-0.054095604 -0.031209001 0.011674136
-0.053072013 -0.03121883 0.011919051
-0.051833261 -0.031099956 0.01373291
-0.050811991 -0.031109381 0.013809502
-0.049752131 -0.031095082 0.014127553
-0.048726976 -0.031102324 0.012827188
-0.047356483 -0.030884661 0.015078068
-0.046127833 -0.030751888 0.014187992
-0.04503531 -0.030705893 0.014917195
-0.04402354 -0.030714098 0.014558405
-0.043016054 -0.030725753 0.016981184
-0.041952975 -0.030697299 0.014711112
-0.041041579 -0.030781183 0.014012933
-0.040046513 -0.03080501 0.014258415
-0.039456785 -0.031150091 0.010339171
-0.038563982 -0.031268094 0.0086946189
-0.033376507 -0.031290475 0.0080493093
-0.032072917 -0.031038307 0.011494339
-0.030567562 -0.030567562 0.017851084
-0.029390469 -0.030403934 0.021759987
-0.028382005 -0.030409291 0.021763831
-0.027415609 -0.030461788 0.022252858
-0.026578082 -0.030667016 0.018033355
-0.0255614 -0.030673679 0.017647803
-0.024542667 -0.030678334 0.017844737
-0.023388045 -0.030506145 0.020008415
-0.022326207 -0.030444829 0.01947692
-0.021241536 -0.030345052 0.02086395
-0.020333415 -0.030500123 0.019360542
-0.019322544 -0.03050928 0.01928997
-0.018341562 -0.03056927 0.018004447
-0.017324466 -0.030572588 0.019440085
-0.016372181 -0.030697839 0.018421382
-0.015374094 -0.030748188 0.017791212
-0.014350446 -0.030750955 0.017792791
-0.01332811 -0.030757178 0.016165584
-0.012326435 -0.030816089 0.0162884
-0.01130004 -0.030818291 0.015219808
-0.010223589 -0.030670768 0.01714164
-0.009162928 -0.030543093 0.018844783
-0.0081418511 -0.030531941 0.019040316
-0.0071244515 -0.030533364 0.019114107
-0.0061193216 -0.030596608 0.019771546
-0.005099609 -0.030597655 0.017802268
-0.0040798015 -0.030598512 0.017875731
-0.003064113 -0.030641129 0.017584264
-0.0020427736 -0.030641606 0.017876416
-0.0010200588 -0.030601764 0.01853326
0 -0.030598208 0.017584771
0.001020606 -0.03061818 0.01833868
0.002041193 -0.030617895 0.01690352
0.0030595527 -0.030595528 0.017097831
0.0040654521 -0.030490892 0.018483728
0.0050606974 -0.030364184 0.021085501
0.0061050951 -0.030525476 0.018920362
0.0070780646 -0.030334562 0.021448672
0.0081530372 -0.030573888 0.019283473
0.0091301017 -0.030433672 0.021130472
0.010181647 -0.03054494 0.017992646
0.011201086 -0.030548418 0.01709193
0.012241834 -0.030604584 0.017139286
0.013329691 -0.030760825 0.016092688
0.01436576 -0.030783771 0.015751004
0.015338548 -0.030677095 0.015773922
0.016359543 -0.030674145 0.015310645
-0.070195384 -0.030383077 0.0088537335
-0.069175519 -0.030395303 0.0086172819
-0.068177849 -0.030417809 0.008476615
-0.061704952 -0.030329553 0.0083031952
-0.060520127 -0.030260064 0.0097989142
-0.058828276 -0.029930174 0.013993025
-0.058450226 -0.030268867 0.0099743605
-0.05741597 -0.030273875 0.010050058
-0.0563908 -0.030283948 0.010053396
-0.055214431 -0.030211668 0.010177284
-0.054108493 -0.030175891 0.010807782
-0.053364661 -0.030344611 0.0090495348
-0.052059878 -0.03019473 0.011249036
-0.050821174 -0.030077837 0.013739556
-0.049772717 -0.030071016 0.012101173
-0.048556939 -0.029960664 0.013747603
-0.047212187 -0.029764205 0.016410023
-0.04618514 -0.029763756 0.015737712
-0.045112632 -0.029733324 0.016274035
-0.044036727 -0.029699188 0.016834646
-0.043023858 -0.029706949 0.016839057
-0.041960586 -0.02967944 0.014713794
-0.041070815 -0.029776342 0.014063895
-0.040136412 -0.029845025 0.013219833
-0.039282203 -0.029978523 0.012230039
-0.038570996 -0.030231321 0.0088415742
-0.037589319 -0.030280285 0.0082620978
-0.033382591 -0.030252973 0.0084630251
-0.032212224 -0.030134015 0.011205345
-0.030573139 -0.029554034 0.019285589
-0.02939583 -0.02939583 0.021763951
-0.028387185 -0.029401014 0.021767795
-0.027440274 -0.029472886 0.021892846
-0.026534021 -0.029595638 0.018789202
-0.025563033 -0.029653119 0.017699569
-0.02454715 -0.029661139 0.017993659
-0.023358805 -0.029452406 0.020934939
-0.022311585 -0.029410727 0.021569401
-0.021300264 -0.02941465 0.021086454
-0.020406378 -0.029589249 0.018902451
-0.019390715 -0.029596353 0.018686056
-0.018350387 -0.029564513 0.019708872
-0.017332803 -0.029567722 0.020026982
-0.016421849 -0.029764602 0.017938614
-0.015398788 -0.029770991 0.017648637
-0.014365837 -0.029757805 0.017868996
-0.013330553 -0.029737387 0.015974045
-0.012328694 -0.029794343 0.015221506
-0.011281379 -0.029741818 0.015976429
-0.010225463 -0.029653842 0.017047524
-0.0091607766 -0.029518059 0.018945485
-0.00813556 -0.029491406 0.019505888
-0.0071257581 -0.029520998 0.019117624
-0.0061204438 -0.029582145 0.017877907
-0.0051005441 -0.029583156 0.017805547
-0.0040805493 -0.029583983 0.017879039
-0.003064675 -0.029625192 0.017587513
-0.0020431485 -0.029625652 0.017587781
-0.0010213405 -0.029618874 0.018098801
0 -0.029617202 0.017806917
0.0010207932 -0.029603003 0.018342018
0.0020415673 -0.029602727 0.018025607
0.0030418697 -0.029404741 0.020749837
0.0040494134 -0.029358245 0.020165563
0.005055544 -0.029322155 0.022621781
0.0061065797 -0.029515134 0.019945383
0.0071355477 -0.029561555 0.020041913
0.0081550172 -0.029561939 0.019262701
0.0091410773 -0.029454583 0.020720869
0.010156154 -0.029452847 0.019090265
0.011203138 -0.029535547 0.017824531
0.012248453 -0.029600427 0.016996533
0.013343196 -0.029765591 0.015755206
0.014418594 -0.029867087 0.013468593
0.015514562 -0.029994819 0.011668503
0.016413098 -0.029748742 0.014511317
0.017437132 -0.029745694 0.01404804
0.018607382 -0.029978558 0.0092104375
-0.070207492 -0.029340442 0.0089512765
-0.069187455 -0.029352253 0.0096510649
-0.068189621 -0.02937399 0.0088383555
-0.06001737 -0.028973902 0.013340384
-0.058859088 -0.028913235 0.013850898
-0.05794761 -0.028973805 0.013614714
-0.05727018 -0.029155727 0.01067853
-0.056247622 -0.029165434 0.010175705
-0.05522405 -0.02917497 0.010130763
-0.054117925 -0.02914042 0.01080966
-0.053260103 -0.029240841 0.010282069
-0.052068964 -0.02915862 0.011492431
-0.050859638 -0.029062649 0.013138175
-0.049836498 -0.02907129 0.012248218
-0.04874431 -0.029039163 0.012227625
-0.047545686 -0.028940853 0.013753921
-0.046212263 -0.028754298 0.016417474
-0.045179058 -0.028750312 0.015889883
-0.044106852 -0.028720742 0.016281217
-0.043092377 -0.02872825 0.01626125
-0.042049821 -0.028716952 0.014692128
-0.041162763 -0.028813934 0.01525262
-0.040148184 -0.028824337 0.015498519
-0.039450176 -0.029068552 0.012498677
-0.038631562 -0.029234694 0.0098364651
-0.037676621 -0.029304041 0.0084574223
-0.036638074 -0.029310459 0.008119911
-0.035578251 -0.029299734 0.0083640814
-0.034504965 -0.029276941 0.0083415508
-0.033365186 -0.029194538 0.0096044242
-0.032082535 -0.028977774 0.013026744
-0.030578528 -0.028539957 0.019361764
-0.029467871 -0.028451737 0.021961898
-0.028456755 -0.028456755 0.021892995
-0.02748608 -0.028504083 0.021362633
-0.026496092 -0.028534254 0.020929128
-0.025522014 -0.028584655 0.020373911
-0.024585003 -0.028682502 0.018045425
-0.023395056 -0.028480938 0.020647168
-0.022315528 -0.028401582 0.021840423
-0.021245349 -0.028327132 0.022256404
-0.020339517 -0.028475324 0.020145118
-0.019329498 -0.028485574 0.019734383
-0.018202692 -0.028315298 0.022215903
-0.017335869 -0.028553197 0.020030499
-0.016386829 -0.028676951 0.01837939
-0.015401513 -0.028749492 0.017651737
-0.014359019 -0.028718038 0.018139631
-0.013332912 -0.028717041 0.015976876
-0.012308259 -0.028719272 0.016196996
-0.011252611 -0.02864301 0.018168211
-0.010176196 -0.028493349 0.020334125
-0.009159117 -0.02849503 0.019265026
-0.0081370017 -0.028479505 0.019509345
-0.0071270205 -0.028508082 0.019120991
-0.0061178789 -0.028550103 0.017856747
-0.0051023606 -0.028573221 0.017395109
-0.0040820027 -0.02857402 0.017833531
-0.0030652182 -0.028608704 0.018077195
-0.0020435106 -0.028609147 0.018150479
-0.0010217648 -0.028609414 0.018150657
0 -0.028602691 0.018029064
0.0010226772 -0.028634962 0.018077642
0.0020453355 -0.028634697 0.018077493
0.0030445987 -0.028416255 0.021191448
0.0040537808 -0.028376466 0.021482915
0.0050527905 -0.028295627 0.021214753
0.0060802926 -0.0283747 0.021481574
0.0071074371 -0.028429748 0.021724015
0.0081559755 -0.028545916 0.019630969
0.0091426978 -0.028443947 0.020724535
0.010134238 -0.028375866 0.019385546
0.011205123 -0.02852213 0.01782769
0.012250622 -0.028584784 0.017218411
0.013375591 -0.028808964 0.014833957
0.014421145 -0.028842291 0.013470978
0.015324926 -0.028606528 0.016557604
0.016328482 -0.028574843 0.016361535
0.017412322 -0.028679119 0.01470685
0.018464105 -0.028721942 0.013417035
-0.071376793 -0.028340785 0.0080374181
-0.070303604 -0.028331302 0.0095527768
-0.069222756 -0.0283184 0.009916842
-0.068200991 -0.028329642 0.0094403625
-0.067312591 -0.028397501 0.0086029768
-0.060324263 -0.028081983 0.011295468
-0.058868956 -0.027885295 0.013853222
-0.057957333 -0.027943714 0.013134956
-0.057210181 -0.028084999 0.010632098
-0.056188699 -0.028094349 0.010587424
-0.055233337 -0.028137738 0.010132492
-0.05412703 -0.028104419 0.010811478
-0.053259838 -0.028196385 0.010839015
-0.051914737 -0.028033959 0.012798339
-0.050891876 -0.028042462 0.012802243
-0.049868096 -0.028050803 0.011525452
-0.048888851 -0.028085085 0.011069536
-0.047553714 -0.027911963 0.013756245
-0.046375144 -0.027825087 0.015041828
-0.045356993 -0.0278327 0.015045911
-0.044168942 -0.027733985 0.015775859
-0.043153036 -0.027741238 0.015755743
-0.042056944 -0.027696036 0.014839858
-0.041174579 -0.027792841 0.014238209
-0.040183324 -0.027819226 0.013951063
-0.039424647 -0.028012248 0.01119259
-0.038427416 -0.028041627 0.010540903
-0.033376679 -0.028161572 0.010406584
-0.032087993 -0.027947607 0.014460415
-0.030580088 -0.02752208 0.01941365
-0.029472886 -0.027440274 0.020703554
-0.028461602 -0.027445115 0.02189672
-0.027490759 -0.027490759 0.021536261
-0.026543224 -0.027564118 0.020519853
-0.025615925 -0.0276652 0.019405872
-0.024538184 -0.027605455 0.019627422
-0.0235122 -0.027601277 0.018828541
-0.022384821 -0.027472278 0.020799369
-0.021307662 -0.027395567 0.021992922
-0.020295594 -0.02739905 0.021995723
-0.019215025 -0.027305562 0.022460192
-0.018192671 -0.027289009 0.023751259
-0.0172603 -0.027413417 0.0218817
-0.016389627 -0.027657496 0.018382519
-0.015404144 -0.02772746 0.017314315
-0.014361473 -0.027697127 0.018094093
-0.013294088 -0.027610797 0.018265903
-0.012265851 -0.027598165 0.017683536
-0.011236473 -0.027580433 0.018779457
-0.010177935 -0.027480427 0.019486159
-0.0091606835 -0.02748205 0.019098043
-0.0081432601 -0.027483502 0.019099087
-0.0071503804 -0.027580038 0.018394351
-0.0061284155 -0.02757787 0.018808752
-0.0051071877 -0.027578812 0.018760711
-0.0040827007 -0.027558232 0.018566579
-0.0030620925 -0.027558831 0.018566966
-0.0020433734 -0.02758554 0.018031925
-0.0010216963 -0.027585799 0.018129438
0 -0.027585885 0.017788798
0.0010172551 -0.027465889 0.019565195
0.0020344912 -0.027465632 0.019589335
0.0030515071 -0.027463563 0.021243751
0.0040600705 -0.027405478 0.021900266
0.0050573046 -0.027309446 0.022337645
0.0060813329 -0.027365997 0.021485269
0.0071299425 -0.027501207 0.02051118
0.0081481263 -0.027499925 0.019488364
0.0091442605 -0.027432783 0.020387471
0.010134755 -0.027363837 0.01999703
0.011209046 -0.027513111 0.017952383
0.012246149 -0.027553834 0.017878085
0.013286183 -0.02759438 0.017463237
0.014306996 -0.027592065 0.016561925
0.015294715 -0.027530486 0.016827971
0.016280692 -0.027473669 0.017628789
0.017415294 -0.027659586 0.014077246
0.018453037 -0.027679555 0.013735354
0.019673405 -0.027956944 0.011546135
0.020784115 -0.028058557 0.0099892318
-0.07036715 -0.027306655 0.0092422664
-0.069293313 -0.027297366 0.010398716
-0.068153389 -0.027261354 0.0095619559
-0.067131139 -0.027272025 0.009565711
-0.060519122 -0.027129261 0.010574669
-0.058981489 -0.026903836 0.014144599
-0.05813206 -0.026989887 0.011980087
-0.057113346 -0.026999036 0.01198414
-0.0561978 -0.027058201 0.011216253
-0.055290241 -0.027123515 0.01035127
-0.054207981 -0.02710399 0.011971772
-0.053268477 -0.02715648 0.011299521
-0.051923167 -0.027000047 0.01338008
-0.05090015 -0.027008243 0.012804329
-0.049876206 -0.027016276 0.012469798
-0.048896804 -0.027049296 0.01136142
-0.047664341 -0.026940715 0.012936383
-0.046382699 -0.026798895 0.015213579
-0.04529785 -0.026766911 0.015653253
-0.044176139 -0.026711155 0.015923619
-0.04326174 -0.026781077 0.014959544
-0.042143226 -0.026724972 0.015374959
-0.041069895 -0.026695432 0.017098337
-0.040154461 -0.02676964 0.015963942
-0.039431088 -0.026979165 0.013181269
-0.038433701 -0.027007464 0.01250571
-0.037689183 -0.027219964 0.0093086362
-0.034516484 -0.027194805 0.0091205835
-0.033382148 -0.027122997 0.011208922
-0.031720884 -0.026604613 0.019267529
-0.030585103 -0.026507089 0.020945907
-0.02951644 -0.026463015 0.02170226
-0.028440777 -0.026409293 0.02250731
-0.027454296 -0.026437469 0.022146851
-0.026497064 -0.026497064 0.021300435
-0.025639871 -0.026665466 0.019093275
-0.024599064 -0.026648985 0.018780321
-0.023516065 -0.026583377 0.019852191
-0.022466024 -0.026550757 0.019393235
-0.021466844 -0.026577996 0.019152761
-0.020371858 -0.026483415 0.020540804
-0.019218186 -0.026298571 0.023290485
-0.018208796 -0.026301594 0.022466481
-0.017274508 -0.026419837 0.020693809
-0.016352441 -0.026572717 0.019236743
-0.015369286 -0.026640097 0.016830713
-0.014317865 -0.026590323 0.017172784
-0.013296277 -0.026592555 0.018268883
-0.012267872 -0.026580388 0.018489271
-0.01115536 -0.026367215 0.021823764
-0.010179613 -0.026466994 0.019781351
-0.0091621922 -0.026468556 0.019782513
-0.0081533622 -0.026498426 0.018639892
-0.0071409126 -0.026523391 0.019370794
-0.0061210301 -0.026524464 0.019322902
-0.0051040747 -0.026541188 0.017839015
-0.0040802103 -0.026521368 0.018155903
-0.0030625972 -0.026542509 0.017839879
-0.0020417634 -0.026542924 0.01813224
-0.0010208912 -0.02654317 0.018424481
0 -0.026467318 0.018546253
0.0010136504 -0.026354911 0.019787431
0.0020265519 -0.026345175 0.020176679
0.0030521925 -0.026452336 0.020492762
0.0040692585 -0.02645018 0.020516634
0.005075783 -0.026394071 0.019518256
0.0060943817 -0.026408987 0.020685703
0.0071098246 -0.02640792 0.020709246
0.0081314621 -0.02642725 0.020391911
0.0091359131 -0.026392637 0.019904196
0.010136425 -0.026354704 0.019440711
0.011150677 -0.026356146 0.020145029
0.012229189 -0.026496578 0.01851362
0.01325991 -0.02651982 0.018341869
0.014278704 -0.026517594 0.017440349
0.015215146 -0.026372921 0.018508941
0.016227925 -0.02637038 0.018142372
0.017418163 -0.026639543 0.014079571
0.018551264 -0.02679627 0.013786227
0.019676642 -0.026925931 0.011742502
0.020787535 -0.027023796 0.010477036
0.021944083 -0.027168864 0.0081909597
-0.069383278 -0.026281545 0.0085508227
-0.067333832 -0.02630228 0.0083652735
-0.059323788 -0.026019204 0.011857301
-0.05821874 -0.02599051 0.012223035
-0.057122242 -0.025964655 0.012444258
-0.056375921 -0.026099963 0.0099635124
-0.05523172 -0.026052698 0.011318207
-0.054207034 -0.026061073 0.01192534
-0.053264491 -0.026110044 0.011277109
-0.05216378 -0.02608189 0.011522204
-0.051041305 -0.026041484 0.012298882
-0.049884014 -0.025981257 0.012471765
-0.048734013 -0.025922349 0.012813836
-0.04767181 -0.025908591 0.01291424
-0.046422627 -0.025790349 0.014490277
-0.045398112 -0.025794383 0.012872994
-0.044378217 -0.02580129 0.012343973
-0.043395638 -0.025830736 0.014356613
-0.042370759 -0.025835827 0.014384508
-0.041347641 -0.025842275 0.014388114
-0.040262353 -0.0258092 0.014028192
-0.039437294 -0.025945589 0.011947393
-0.038408358 -0.025951592 0.012022853
-0.037468184 -0.026019571 0.011031538
-0.036435388 -0.026025277 0.011033952
-0.035608098 -0.026182424 0.0086593032
-0.03456796 -0.026187846 0.0086610615
-0.033325296 -0.026035387 0.011186421
-0.03169015 -0.025556574 0.019707471
-0.030589931 -0.025491608 0.02082783
-0.02951758 -0.02544619 0.02163282
-0.028445268 -0.025397561 0.021733791
-0.027491422 -0.02545502 0.020887434
-0.026665466 -0.025639871 0.017538607
-0.025648482 -0.025648482 0.018294513
-0.024626283 -0.025652379 0.017835617
-0.023519784 -0.025564983 0.019758135
-0.022489633 -0.025556402 0.020076871
-0.021470243 -0.025559813 0.020079553
-0.020450452 -0.025563067 0.019158244
-0.019453382 -0.025596555 0.017701656
-0.01829266 -0.025406471 0.020670503
-0.017278278 -0.025409235 0.020672739
-0.016434815 -0.0256794 0.016418278
-0.015418245 -0.025697075 0.014741361
-0.01439166 -0.025699392 0.01459676
-0.013254896 -0.025490183 0.017979801
-0.01223624 -0.025492167 0.018662512
-0.01115713 -0.025357112 0.021291882
-0.010193394 -0.025483487 0.018859774
-0.0091745974 -0.025484992 0.018593162
-0.0081682848 -0.02552589 0.017766654
-0.0071599348 -0.025571197 0.017256379
-0.0061220014 -0.025508339 0.018474072
-0.0051003215 -0.025501607 0.01944834
-0.0040772068 -0.025482543 0.019765317
-0.0030579718 -0.025483098 0.018816411
-0.0020386796 -0.025483495 0.018110782
-0.0010181322 -0.025453303 0.018549114
0 -0.025345363 0.019766301
0.0010138113 -0.025345284 0.019668877
0.0020268734 -0.025335919 0.018768013
0.0030526773 -0.025438977 0.019765794
0.0040745293 -0.025465807 0.02005744
0.0050872378 -0.025436189 0.020519346
0.0060968096 -0.025403373 0.020615995
0.0071075452 -0.025384091 0.020907253
0.008132752 -0.025414849 0.020005733
0.0091373622 -0.025381561 0.019907355
0.010119781 -0.025299452 0.021195948
0.011129693 -0.025294758 0.02097553
0.012140616 -0.02529295 0.02097404
0.013168707 -0.025324436 0.020437151
0.014252868 -0.02545155 0.017929673
0.015269554 -0.025449257 0.017246962
0.016285956 -0.025446806 0.016807467
0.017374408 -0.0255506 0.015103251
0.018394433 -0.025547823 0.015101612
0.019637024 -0.025838189 0.012644023
0.02071546 -0.025894325 0.011888802
0.021910546 -0.026083983 0.0088972151
-0.067266919 -0.025225095 0.0082222819
-0.058227453 -0.024954624 0.012224883
-0.057409391 -0.02505137 0.0099616647
-0.056615636 -0.025162505 0.0082519054
-0.05429991 -0.025061497 0.0095368922
-0.053272482 -0.025069404 0.0095398724
-0.052171614 -0.025042376 0.010122657
-0.051048979 -0.02500358 0.011382431
-0.05001625 -0.025008125 0.011700034
-0.048701569 -0.024868887 0.014024794
-0.047678988 -0.024875995 0.013085455
-0.046601098 -0.024853921 0.013403684
-0.045410283 -0.024769245 0.014496416
-0.044390112 -0.024775878 0.012297422
-0.043458119 -0.024833212 0.014455676
-0.042434253 -0.024839563 0.014459342
-0.041499242 -0.024899546 0.013300121
-0.040403105 -0.02486345 0.012479454
-0.039443258 -0.024911532 0.011173576
-0.038598053 -0.025036575 0.010036737
-0.037563331 -0.025042221 0.011057466
-0.036604319 -0.025100105 0.010186702
-0.035613492 -0.025138935 0.0094611347
-0.033330347 -0.02499776 0.0099018514
-0.031694956 -0.024538031 0.017404407
-0.030594572 -0.024475658 0.01869446
-0.029661139 -0.02454715 0.018965006
-0.028543094 -0.024465509 0.019016892
-0.027552987 -0.024491543 0.018534333
-0.026672676 -0.024620932 0.016447961
-0.025784506 -0.024753125 0.015794516
-0.024799176 -0.024799176 0.015092134
-0.023577867 -0.024602992 0.018424302
-0.022493053 -0.024537876 0.019569427
-0.0215335 -0.024609715 0.017748564
-0.02047788 -0.024573456 0.018407345
-0.019489843 -0.024618749 0.016999066
-0.018408177 -0.024544235 0.018217117
-0.01739463 -0.024557125 0.018121779
-0.016373096 -0.024559643 0.018026352
-0.015466212 -0.024745939 0.014938265
-0.014439841 -0.024754012 0.013285071
-0.013256916 -0.024474306 0.017982572
-0.012218392 -0.024436785 0.019322425
-0.011152807 -0.024333397 0.022049576
-0.01019495 -0.024467878 0.018984318
-0.0091776401 -0.024473706 0.018595964
-0.0081836488 -0.024550946 0.017063498
-0.0071610273 -0.024552094 0.017064273
-0.0061174575 -0.02446983 0.018355191
-0.0050953175 -0.024457524 0.018331438
-0.0040561613 -0.024336968 0.020352662
-0.0030544212 -0.024435369 0.018648863
-0.0020363124 -0.024435749 0.018649161
-0.0010181657 -0.024435978 0.018600643
0 -0.024367398 0.019550174
0.0010140877 -0.024338106 0.01962319
0.0020281565 -0.024337877 0.017772704
0.0030524128 -0.024419302 0.018259317
0.0040697949 -0.024418769 0.019013613
0.0050661038 -0.024317298 0.020692885
0.0060791159 -0.024316464 0.02069217
0.0071056471 -0.024362219 0.021811128
0.0081339916 -0.024401976 0.020179212
0.0091387555 -0.024370017 0.020518899
0.010120108 -0.024288258 0.020907104
0.011121351 -0.024264766 0.021270752
0.012141736 -0.024283472 0.020928562
0.013164386 -0.024303483 0.020853937
0.014175843 -0.024301445 0.020195246
0.015187033 -0.024299253 0.019512177
0.016241729 -0.024362594 0.0184156
0.017326398 -0.024460798 0.017756939
0.018397233 -0.024529643 0.016563237
0.019519877 -0.024656687 0.013959169
0.020657821 -0.024789384 0.0097507834
0.021751773 -0.024859168 0.0088013113
0.022870099 -0.0249492 0.0089946389
-0.058644339 -0.024086067 0.0091639161
-0.057616659 -0.024094239 0.0081297159
-0.052251626 -0.024035748 0.0091334879
-0.051236957 -0.024049999 0.0089428723
-0.050069887 -0.023991821 0.0093323886
-0.048924565 -0.023941807 0.010326654
-0.047897305 -0.023948653 0.010644078
-0.046863727 -0.023952572 0.011300385
-0.045834862 -0.023959132 0.011303484
-0.044617765 -0.023865316 0.01065284
-0.043629695 -0.023892451 0.010461897
-0.042564545 -0.023877671 0.012305558
-0.0415731 -0.023904534 0.012139022
-0.040484581 -0.023875521 0.010905981
-0.039485827 -0.023899317 0.010593414
-0.038603656 -0.023996867 0.010038197
-0.037647363 -0.02405248 0.0099191964
-0.036641471 -0.024078682 0.0096545517
-0.035635166 -0.024106143 0.0091713369
-0.031801168 -0.023594415 0.016095996
-0.030748358 -0.023573741 0.016536087
-0.029702436 -0.023557104 0.0169034
-0.028671376 -0.023551488 0.016809225
-0.027652113 -0.023555504 0.017540962
-0.026722366 -0.023639016 0.016158789
-0.026028255 -0.023945995 0.011641026
-0.024990924 -0.023949636 0.011642784
-0.023941949 -0.023941949 0.01208204
-0.022646105 -0.023675473 0.01684919
-0.021600476 -0.023657665 0.017216176
-0.020574501 -0.023660677 0.016731977
-0.019518107 -0.023627182 0.016466469
-0.018437138 -0.023558564 0.017635971
-0.017397171 -0.023537349 0.018124431
-0.016375488 -0.023539763 0.018028975
-0.015443835 -0.023680547 0.015767753
-0.014438543 -0.023720464 0.014941812
-0.013303938 -0.023537736 0.018155575
-0.012167607 -0.023321247 0.02010411
-0.011096203 -0.023201153 0.023196846
-0.010195223 -0.023449013 0.019035786
-0.0091948668 -0.023497993 0.018209219
-0.0081945844 -0.023559429 0.017163366
-0.0071620746 -0.02353253 0.01733458
-0.0060847537 -0.023324888 0.02069521
-0.0050708018 -0.023325689 0.020598531
-0.0040479894 -0.02327594 0.021329582
-0.0030386148 -0.023296047 0.02147612
-0.0020257749 -0.02329641 0.020770341
-0.0010183149 -0.023421241 0.018408567
0 -0.023382111 0.019090414
0.0010166103 -0.023382038 0.019090354
0.0020352714 -0.023405621 0.018335342
0.0030528593 -0.023405256 0.018261969
0.0040535899 -0.023308141 0.017872065
0.0050668451 -0.023307487 0.020695925
0.006073432 -0.02328149 0.02118215
0.0071066865 -0.023350542 0.021400392
0.0081527112 -0.023439044 0.019305706
