ply
format ascii 1.0
comment PCL generated
element vertex 1284
property float x
property float y
property float z
element camera 0
property float view_px
property float view_py
property float view_pz
property float x_axisx
property float x_axisy
property float x_axisz
property float y_axisx
property float y_axisy
property float y_axisz
property float z_axisx
property float z_axisy
property float z_axisz
property float focal
property float scalex
property float scaley
property float centerx
property float centery
property int viewportx
property int viewporty
property float k1
property float k2
end_header
-0.017160466 -0.01110383 0.022946209
-0.016165357 -0.011113683 0.021681815
-0.015161055 -0.011118107 0.021903127
-0.01420362 -0.011159987 0.020418823
-0.013229784 -0.011194433 0.019202143
-0.012221835 -0.011203348 0.019227982
-0.011204822 -0.011204822 0.01764521
-0.010164933 -0.011181427 0.018523812
-0.0091341753 -0.011163992 0.019304901
-0.0081196968 -0.011164583 0.019695938
-0.0071050678 -0.011165107 0.019696862
-0.0060723871 -0.01113271 0.020282745
-0.0050604967 -0.011133092 0.020210296
-0.0040697213 -0.011191733 0.018211722
-0.0030523576 -0.011191978 0.018675327
-0.0020349368 -0.011192153 0.018675625
-0.0010127847 -0.011140632 0.018431991
0 -0.011113848 0.018846512
0.0010103466 -0.011113813 0.019334108
0.0020237218 -0.01113047 0.018846333
0.0030444951 -0.011163148 0.018748462
0.0040607005 -0.011166927 0.017943561
0.005084876 -0.011186727 0.016675323
0.0061078579 -0.011197739 0.016455323
0.0071110399 -0.011174492 0.018916756
0.0081387106 -0.011190727 0.018306464
0.009155564 -0.011190134 0.018622398
0.010208806 -0.011229686 0.017573237
0.011272515 -0.011272515 0.016353488
0.012307373 -0.011281759 0.015621245
0.013331947 -0.011280878 0.014304131
0.014398914 -0.011313433 0.011915058
0.015426012 -0.011312408 0.011913985
0.016489854 -0.011336775 0.010987073
0.017644966 -0.011417331 0.0091590285
0.018680869 -0.011416086 0.0091580153
0.019745341 -0.011431513 0.0082801878
0.020795437 -0.011437491 0.0080113411
-0.026860796 -0.010331075 0.013236254
-0.025798323 -0.010319329 0.013773739
-0.024695691 -0.010289871 0.015163124
-0.023555391 -0.010241474 0.016796291
-0.022511635 -0.010232561 0.016749948
-0.021376209 -0.010179147 0.019917548
-0.020358458 -0.010179229 0.019749641
-0.019317433 -0.010167071 0.020287871
-0.018187745 -0.010104302 0.021459401
-0.017179189 -0.010105405 0.021583557
-0.016170312 -0.010106445 0.020391971
-0.01521961 -0.010146407 0.020028472
-0.01420455 -0.010146107 0.020152122
-0.013230651 -0.010177423 0.018935323
-0.012177303 -0.010147753 0.019546092
-0.011186789 -0.010169808 0.017646343
-0.01011624 -0.01011624 0.019816905
-0.009128741 -0.010143045 0.019452423
-0.0080939019 -0.010117377 0.021013618
-0.007100841 -0.010144059 0.01930806
-0.0060727852 -0.010121308 0.019845247
-0.0050714952 -0.01014299 0.019358277
-0.0040699882 -0.01017497 0.018212914
-0.0030498151 -0.01016605 0.019042283
-0.0020332416 -0.010166208 0.018457413
-0.0010113271 -0.010113272 0.018506348
0 -0.010104161 0.018018752
0.0010104128 -0.010104128 0.018750161
0.0020238545 -0.010119272 0.018725634
0.0030512779 -0.010170926 0.017042965
0.0040682815 -0.010170704 0.017188877
0.0050836853 -0.010167371 0.017164022
0.0060943612 -0.010157268 0.017187804
0.0071097999 -0.010156857 0.018966794
0.0081270551 -0.010158819 0.018917114
0.0091325799 -0.010147311 0.018940538
0.010155849 -0.010155849 0.018573791
0.011224994 -0.01020454 0.017061412
0.012249688 -0.010208073 0.016889542
0.013290051 -0.010223117 0.015547901
0.014343567 -0.010245405 0.013524085
0.015366718 -0.010244478 0.013522863
0.016403224 -0.010252016 0.013180494
0.017426632 -0.01025096 0.01400736
0.018676609 -0.010375895 0.0090124309
0.019746633 -0.010392966 0.008548677
0.020746876 -0.010373438 0.0090103149
0.02183385 -0.010397071 0.0084004402
-0.027945144 -0.0093150483 0.012334704
-0.026827583 -0.0092864716 0.01391834
-0.025675122 -0.0092430441 0.015916169
-0.024629971 -0.0092362389 0.016283691
-0.023535788 -0.0092096562 0.01669988
-0.022444673 -0.0091819121 0.017676145
-0.021374917 -0.0091606779 0.019577861
-0.020359661 -0.0091618476 0.019580364
-0.019318577 -0.0091509055 0.020118594
-0.01818992 -0.0090949601 0.02133885
-0.017181244 -0.0090959528 0.02156046
-0.016172247 -0.0090968888 0.020831704
-0.015220512 -0.009132307 0.019298643
-0.014200275 -0.0091287484 0.019495308
-0.013191831 -0.0091328062 0.019545704
-0.012163403 -0.0091225514 0.020034701
-0.011187453 -0.0091533707 0.018329889
-0.010137561 -0.009123804 0.019671798
-0.0091292821 -0.0091292821 0.019453555
-0.0081124222 -0.0091264751 0.019795924
-0.007101262 -0.0091301939 0.01891914
-0.0060570543 -0.0090855807 0.020675361
-0.0050690528 -0.0091242949 0.018969327
-0.0040641343 -0.0091443025 0.018701643
-0.0030448756 -0.0091346269 0.019774914
-0.0020258033 -0.009116115 0.019970328
-0.0010113872 -0.0091024842 0.018970758
0 -0.0090942839 0.018019825
0.0010151058 -0.0091359513 0.016166598
0.0020306802 -0.0091380607 0.017507553
0.0030593227 -0.0091779679 0.016288102
0.0040673041 -0.0091514345 0.017311841
0.0050724051 -0.0091303298 0.018237889
0.0060804603 -0.0091206897 0.018651724
0.007111928 -0.0091439076 0.018870384
0.008132413 -0.0091489647 0.018674463
0.0091429949 -0.0091429949 0.018429697
0.010150358 -0.0091353217 0.018745482
0.011161311 -0.0091319811 0.017915517
0.012186068 -0.0091395518 0.017280549
0.013229058 -0.0091585787 0.016621172
0.014312007 -0.0092005758 0.01471898
0.015348439 -0.0092090629 0.015131861
0.016390553 -0.0092196865 0.014131457
0.017427666 -0.0092264116 0.014324903
0.01861085 -0.009305425 0.010766894
0.019747803 -0.0093542226 0.0086709559
0.020573976 -0.0092582889 0.011153966
0.021599915 -0.009257107 0.011152565
0.022695085 -0.0092843529 0.0098850131
0.023951519 -0.009372334 0.0082525611
-0.02910614 -0.00831604 0.010168225
-0.027884217 -0.0082619898 0.013259858
-0.02669456 -0.008213711 0.015841484
-0.025653664 -0.0082091726 0.016282052
-0.024631273 -0.0082104243 0.016284525
-0.023546832 -0.0081902025 0.016213924
-0.022445861 -0.0081621315 0.017311841
-0.021428464 -0.0081632249 0.018580467
-0.02041067 -0.008164268 0.01780349
-0.019343898 -0.0081447996 0.01914534
-0.018190885 -0.0080848373 0.021875918
-0.017182155 -0.0080857193 0.022097558
-0.016173104 -0.0080865519 0.022075474
-0.01521401 -0.0081141386 0.019860119
-0.014149849 -0.008085628 0.021324188
-0.013140252 -0.0080863088 0.021325976
-0.012112129 -0.008074753 0.021766335
-0.011103582 -0.0080753323 0.020719737
-0.010094828 -0.0080758622 0.020721078
-0.0091264751 -0.0081124222 0.01957655
-0.0081050517 -0.0081050517 0.019967645
-0.0070922519 -0.0081054308 0.019456565
-0.0060793203 -0.0081057604 0.019262254
-0.0050674933 -0.0081079891 0.01911664
-0.0040531331 -0.0081062661 0.018922091
-0.0030399163 -0.008106444 0.019678444
-0.0020244478 -0.0080977911 0.019239783
-0.0010150376 -0.0081203012 0.017094076
0 -0.0081256917 0.016801536
0.0010187564 -0.0081500513 0.015460253
0.0020313975 -0.0081255902 0.018508285
0.0030591192 -0.0081576519 0.016045123
0.0040582535 -0.008116507 0.018239379
0.0050726747 -0.0081162788 0.018385142
0.0060778572 -0.0081038093 0.01960361
0.007116572 -0.0081332251 0.01811555
0.0081216302 -0.0081216302 0.016798168
0.0091489647 -0.008132413 0.016650975
0.010127128 -0.0081017027 0.018478334
0.01115855 -0.0081153093 0.017770201
0.012149422 -0.0080996146 0.017427713
0.013223424 -0.0081374915 0.016597658
0.014244528 -0.0081397304 0.016669363
0.015276149 -0.0081472797 0.017130852
0.016291035 -0.0081455177 0.016641915
0.017309513 -0.0081456536 0.016810715
0.018451788 -0.0082007945 0.014007419
0.019643562 -0.0082709733 0.01230073
0.020575065 -0.0082300259 0.012883782
0.021567818 -0.0082163122 0.013515264
0.02262665 -0.0082278727 0.012758672
0.023733012 -0.0082549611 0.01134485
0.024843045 -0.0082810149 0.0099800825
0.025900086 -0.0082880277 0.0093700588
0.036203243 -0.0082750265 0.008866787
0.040287223 -0.0082640462 0.0088586509
-0.027947925 -0.0072457585 0.012335926
-0.026823929 -0.0072218268 0.013871074
-0.025796331 -0.0072229728 0.014043659
-0.024654333 -0.0071908468 0.015944511
-0.023547929 -0.007166761 0.017164171
-0.02249914 -0.0071588177 0.017677903
-0.021475494 -0.0071584978 0.017923802
-0.020455465 -0.0071594124 0.017706901
-0.019385301 -0.0071419524 0.018293649
-0.018232297 -0.007090338 0.02097556
-0.017182957 -0.0070753354 0.022196084
-0.01617386 -0.0070760637 0.02249074
-0.01515715 -0.0070733363 0.022298008
-0.014147952 -0.0070739761 0.021568835
-0.013138492 -0.0070745721 0.021570653
-0.012130978 -0.0070764036 0.021767378
-0.011167117 -0.0071063475 0.020086884
-0.010145887 -0.0071021207 0.019698173
-0.0091269026 -0.0070987018 0.01991877
-0.0081054308 -0.0070922519 0.020187974
-0.0070913038 -0.0070913038 0.019335538
-0.0060536359 -0.0070625753 0.020165384
-0.0050677303 -0.0070948228 0.018459141
-0.0040489337 -0.0070856339 0.019361913
-0.0030451799 -0.0071054199 0.018996567
-0.0020245428 -0.0070858994 0.019240707
-0.0010150853 -0.0071055968 0.01709491
0 -0.007110313 0.016826719
0.0010157559 -0.0071102912 0.016826659
0.0020256401 -0.0070897406 0.019679666
0.0030384129 -0.0070896298 0.019118488
0.0040533231 -0.007093315 0.018898606
0.0050729117 -0.0071020769 0.018386006
0.0060872855 -0.0071018329 0.018263459
0.0071169059 -0.0071169059 0.017384917
0.0081220102 -0.0071067587 0.016798943
0.0091493931 -0.0071161943 0.016237319
0.010127603 -0.007089322 0.01845482
0.011159073 -0.0071012285 0.017746657
0.012149991 -0.0070874947 0.017599165
0.01318602 -0.0071001644 0.017768383
0.014240078 -0.0071200388 0.016816378
0.015261329 -0.0071219536 0.017545968
0.016277175 -0.007121264 0.01693508
0.017308252 -0.0071269269 0.016567886
0.018336445 -0.0071308394 0.016298085
0.019450095 -0.0071658241 0.014785945
0.020404316 -0.007141511 0.01458928
0.021492114 -0.0071640383 0.013248026
0.02257012 -0.0071814018 0.014220268
0.023725718 -0.0072208708 0.012221843
0.02477848 -0.0072270567 0.010686457
0.025875434 -0.0072451215 0.0095895827
0.026931489 -0.0072507858 0.009101361
0.028023476 -0.0072653457 0.0089051723
0.029000215 -0.0072500538 0.0090010166
0.030030617 -0.00724877 0.0084886551
0.030898137 -0.0072095655 0.01045683
0.031987976 -0.0072230916 0.0097984076
0.033013389 -0.0072216787 0.0096749663
0.034038186 -0.0072202217 0.010402113
0.035041705 -0.0072144689 0.010472834
0.036109265 -0.0072218534 0.009450227
0.037132788 -0.0072202645 0.0084523559
0.038155627 -0.0072186319 0.0084504187
0.039131626 -0.0072084577 0.0097109079
0.040147107 -0.007205891 0.010315359
-0.028001612 -0.0062225806 0.011290103
-0.026825013 -0.0061903875 0.01387164
-0.025830843 -0.0061994023 0.013508737
-0.024734203 -0.0061835507 0.015774727
-0.023548884 -0.0061431872 0.017164856
-0.022497373 -0.0061356467 0.017727315
-0.021477642 -0.0061364686 0.01819241
-0.020457512 -0.0061372533 0.017902464
-0.019435842 -0.0061376337 0.01727128
-0.018392004 -0.0061306679 0.017638683
-0.017208507 -0.0060735908 0.022343159
-0.016284658 -0.0061067468 0.020176709
-0.015157765 -0.006063106 0.022298872
-0.014148527 -0.0060636541 0.021569729
-0.013123181 -0.0060568526 0.021888465
-0.01211465 -0.0060573248 0.019940019
-0.011073714 -0.006040208 0.021111578
-0.010146298 -0.0060877786 0.019698948
-0.0091322102 -0.00608814 0.020358413
-0.0081179515 -0.0060884636 0.019701183
-0.0070915921 -0.0060785073 0.021384567
-0.0060798516 -0.0060798516 0.019263953
-0.0050465991 -0.006055919 0.021361828
-0.004054463 -0.0060816947 0.019655347
-0.0030281108 -0.0060562217 0.021362871
-0.0020218205 -0.0060654613 0.018778145
-0.0010109197 -0.0060655181 0.017851561
0 -0.0060655372 0.018778384
0.0010118342 -0.006071005 0.018168658
0.0020191378 -0.0060574133 0.020119429
0.0030354268 -0.0060708537 0.018168181
0.0040522683 -0.0060784025 0.017655671
0.0050654979 -0.0060785976 0.017021149
0.0060798516 -0.0060798516 0.017532647
0.0071039665 -0.0060891141 0.017336875
0.0081033222 -0.0060774917 0.017750531
0.0091108158 -0.0060738772 0.017969042
0.010118261 -0.0060709566 0.017455995
0.011145447 -0.0060793348 0.018259346
0.012135859 -0.0060679293 0.018087387
0.013219034 -0.0061010928 0.018207848
0.014240655 -0.006103138 0.016670853
0.015261948 -0.0061047794 0.016523123
0.016227148 -0.0060851811 0.017398775
0.017239572 -0.0060845548 0.017396986
0.018286755 -0.0060955849 0.01661548
0.019375673 -0.0061186333 0.016028911
0.020405143 -0.0061215432 0.01578337
0.021422662 -0.0061207609 0.015781373
0.022439783 -0.0061199409 0.016607195
0.023658084 -0.006171674 0.012295365
0.024683082 -0.0061707706 0.012293547
0.025808025 -0.0061939261 0.010685265
0.026671574 -0.0061549786 0.012922525
0.027970407 -0.0062156459 0.009002924
0.028827686 -0.0061773611 0.011288196
0.029851956 -0.0061762668 0.010969996
0.030731581 -0.0061463164 0.012889177
0.031870555 -0.0061684945 0.011938453
0.032975826 -0.0061829672 0.010161519
0.033999462 -0.0061817202 0.010159463
0.034952242 -0.0061680423 0.010983557
0.035936411 -0.0061605275 0.010349512
0.036955029 -0.0061591715 0.010031492
0.038004417 -0.0061628781 0.0096892715
0.039022498 -0.0061614467 0.010876626
0.039753504 -0.0061159236 0.011553675
-0.0269161 -0.0051761731 0.013628721
-0.0258439 -0.0051687798 0.013314426
-0.024789095 -0.0051643951 0.014704138
-0.023745693 -0.0051621073 0.013561904
-0.022510197 -0.0051159537 0.017313927
-0.021534637 -0.0051272945 0.016658664
-0.020514235 -0.0051285587 0.015637785
-0.019488579 -0.0051285732 0.015615314
-0.018392634 -0.0051090652 0.017225146
-0.017209098 -0.0050614993 0.021637321
-0.016256951 -0.0050802971 0.020884097
-0.015125383 -0.0050417939 0.022445887
-0.014172898 -0.0050617494 0.020010561
-0.013110956 -0.0050426754 0.020012259
-0.012167721 -0.005069884 0.017868608
-0.011145161 -0.0050659818 0.018528134
-0.010149694 -0.005074847 0.019577742
-0.0091352668 -0.0050751483 0.020237207
-0.0081206681 -0.0050754175 0.019579947
-0.0071012233 -0.0050723027 0.019849062
-0.0060540899 -0.005045075 0.019776732
-0.0050467723 -0.0050467723 0.020045668
-0.0040724049 -0.0050905063 0.016607612
-0.0030543706 -0.0050906176 0.017656654
-0.0020420102 -0.0051050251 0.013706058
-0.0010176002 -0.005088001 0.015071929
0 -0.0050803958 0.016706049
0.001009613 -0.005048065 0.019071639
0.0020192072 -0.0050480184 0.017656952
0.0030355311 -0.0050592185 0.016754329
0.0040524076 -0.0050655096 0.017046601
0.0050653671 -0.0050653671 0.016582757
0.0060800607 -0.0050667175 0.016923606
0.0070961025 -0.0050686449 0.017800778
0.0080992114 -0.0050620069 0.018604577
0.0090985112 -0.0050547286 0.018725485
0.010100324 -0.0050501619 0.01818797
0.011129741 -0.0050589731 0.018333107
0.012131887 -0.0050549526 0.018234313
0.013219488 -0.0050844182 0.018208474
0.014170338 -0.0050608353 0.018694431
0.015267953 -0.0050893179 0.016377479
0.016214062 -0.005066894 0.016985089
0.017234987 -0.0050691133 0.016764045
0.018252298 -0.0050700828 0.017103344
0.019354351 -0.0050932504 0.015420437
0.020393664 -0.005098416 0.014955789
0.021410611 -0.0050977645 0.014588505
0.022417784 -0.005094951 0.013003707
0.023567891 -0.0051234546 0.011638403
0.024588984 -0.0051227049 0.013486922
0.025673512 -0.0051347022 0.012462527
0.026642431 -0.005123544 0.013287991
0.027693786 -0.0051284786 0.012555808
0.028694134 -0.0051239529 0.012456328
0.029713659 -0.0051230444 0.012624413
0.030690681 -0.0051151137 0.013254404
0.031766109 -0.0051235659 0.01249814
0.032840811 -0.0051313769 0.011790663
0.033932444 -0.0051412797 0.010913283
0.034879074 -0.0051292754 0.011567146
0.035822839 -0.0051175486 0.011346012
0.036580276 -0.0050805942 0.014112622
0.037533984 -0.0050721597 0.014692217
0.038527928 -0.0050694644 0.014057547
0.039489795 -0.0050627943 0.01427269
0.040764246 -0.0050955308 0.011429936
0.052643955 -0.0051611718 0.0082496405
0.063561097 -0.0051258947 0.0089412928
0.064493351 -0.00511852 0.010985672
0.065680511 -0.0051312898 0.008549124
0.09026143 -0.0051284903 0.0081937015
-0.027136747 -0.0041748839 0.010246128
-0.025847666 -0.0041356264 0.012730598
-0.02478979 -0.0041316315 0.013024747
-0.023786962 -0.0041368627 0.012344837
-0.022730486 -0.0041328156 0.012809277
-0.021559536 -0.0041065784 0.015952855
-0.020522119 -0.0041044238 0.015419006
-0.019489126 -0.0041029742 0.015006721
-0.018301053 -0.0040669008 0.018663079
-0.017230291 -0.0040541859 0.019956589
-0.016257405 -0.0040643513 0.019788057
-0.015198009 -0.0040528025 0.019643754
-0.014192064 -0.0040548756 0.019474894
-0.013173909 -0.0040535107 0.018184602
-0.012168063 -0.0040560211 0.02023378
-0.011150166 -0.004054606 0.018041044
-0.010173751 -0.0040695006 0.016969472
-0.0091667948 -0.0040741311 0.016775399
-0.0080306754 -0.0040153377 0.023481935
-0.007086487 -0.0040494213 0.021678507
-0.0060743783 -0.0040495857 0.019533396
-0.0050469143 -0.0040375316 0.020094991
-0.0040725195 -0.0040725195 0.016608089
-0.0030282999 -0.0040377332 0.018437564
-0.0020420675 -0.0040841349 0.013804018
-0.0010168971 -0.0040675886 0.015462577
0 -0.0040644309 0.016706496
0.0010096414 -0.0040385658 0.017657608
0.0020192638 -0.0040385276 0.017584264
0.0030193371 -0.0040257829 0.01780352
0.0040456927 -0.0040456927 0.016851991
0.0050402079 -0.0040321662 0.018607378
0.0060681598 -0.0040454399 0.017728835
0.0070719779 -0.0040411302 0.019191206
0.0080926111 -0.0040463055 0.018946469
0.0090987673 -0.0040438967 0.018994242
0.010100607 -0.0040402431 0.019334435
0.011085132 -0.0040309574 0.02023524
0.012092004 -0.0040306677 0.01908803
0.013219859 -0.0040676487 0.018208981
0.014156235 -0.0040446385 0.019109309
0.015268383 -0.0040715686 0.016377926
0.016192095 -0.0040480238 0.017546088
0.017235469 -0.0040554046 0.016764492
0.018247329 -0.0040549622 0.017225653
0.019301664 -0.004063508 0.016541541
0.020394236 -0.0040788474 0.014956176
0.02140226 -0.004076621 0.012908429
0.022418413 -0.0040760753 0.013004065
0.023473348 -0.0040823212 0.014341474
0.024577988 -0.0040963311 0.013828069
0.02561642 -0.0040986273 0.01353389
0.026600465 -0.004092379 0.013677776
0.027663352 -0.0040982743 0.012629181
0.028694937 -0.0040992768 0.012456685
0.029809721 -0.0041116858 0.011311203
0.030733492 -0.0040977993 0.011698276
0.031636968 -0.0040821894 0.013009131
0.032633625 -0.0040792031 0.013395578
0.033791013 -0.0040958803 0.011667073
0.034764368 -0.0040899259 0.012174994
0.035766438 -0.0040875929 0.012002349
0.036528829 -0.0040587587 0.013700038
0.037523795 -0.0040566265 0.014814079
0.03847364 -0.0040498571 0.014422178
0.039493263 -0.004050591 0.014467269
0.040765382 -0.0040765381 0.011551559
0.052543618 -0.0041210684 0.008395046
0.054178432 -0.0040889382 0.0093809962
0.055185806 -0.0040878374 0.010828078
0.056381658 -0.0041004843 0.010872781
0.06268245 -0.0041103247 0.0089931488
0.06356284 -0.0041008284 0.009303093
0.064316787 -0.0040836055 0.011106431
0.065308549 -0.0040817843 0.012137681
0.066682398 -0.0041035321 0.0099181831
0.072623327 -0.0040914551 0.0092212558
0.083750986 -0.0041358513 0.0081990361
0.0847435 -0.0041338294 0.0084100664
0.085610673 -0.0041258158 0.0080715418
0.090499654 -0.0041136206 0.0082891583
0.091442734 -0.0041097859 0.0094751716
0.092420943 -0.0041075973 0.0084469616
-0.026001889 -0.0031202266 0.010101944
-0.024875054 -0.0031093818 0.011612952
-0.023849081 -0.0031107496 0.011663347
-0.022815365 -0.0031111862 0.011664957
-0.021781221 -0.003111603 0.011398643
-0.020696735 -0.0031045103 0.012398779
-0.019664289 -0.0031048877 0.011937439
-0.018301453 -0.0030502421 0.01844424
-0.017115714 -0.00302042 0.022466868
-0.01621682 -0.0030406537 0.020007819
-0.015198341 -0.0030396681 0.019644201
-0.014194081 -0.0030415887 0.018500358
-0.013181328 -0.003041845 0.018501937
-0.012180031 -0.0030450078 0.019844145
-0.011150409 -0.0030410208 0.019577414
-0.010127039 -0.0030381116 0.017945111
-0.0090803122 -0.0030267709 0.02038452
-0.0080308514 -0.0030115691 0.022677749
-0.0070956047 -0.0030409733 0.019581795
-0.0060745114 -0.0030372557 0.018924177
-0.0050384887 -0.0030230933 0.020119816
-0.0040309043 -0.0030231783 0.020047247
-0.0030521452 -0.0030521452 0.015267432
-0.0020363808 -0.0030545711 0.014950603
-0.0010169194 -0.0030507583 0.015877545
0 -0.0030483897 0.015560538
0.0010161267 -0.0030483804 0.015048325
0.002026625 -0.0030399375 0.016121298
0.0030367803 -0.0030367803 0.015950322
0.0040489519 -0.0030367139 0.016535312
0.0050570844 -0.0030342506 0.017266452
0.0060701221 -0.0030350611 0.018412024
0.007072133 -0.0030309141 0.017679721
0.008092788 -0.0030347956 0.019020051
0.0090918336 -0.0030306112 0.019043416
0.010078275 -0.0030234824 0.020237029
0.011085374 -0.003023284 0.020235717
0.012092268 -0.003023067 0.02077055
0.013214602 -0.0030495236 0.017502457
0.014171046 -0.0030366527 0.017793506
0.01522576 -0.0030451519 0.016622007
0.016160281 -0.0030300526 0.018106967
0.017226525 -0.003039975 0.016984195
0.018237859 -0.0030396434 0.017445296
0.01926274 -0.0030414853 0.017833054
0.020386156 -0.0030579234 0.015882134
0.021402728 -0.0030575325 0.015271217
0.022456406 -0.0030622371 0.014587313
0.023528462 -0.0030689298 0.014341742
0.024547847 -0.0030684809 0.014388382
0.025557647 -0.0030669176 0.014483511
0.026455501 -0.0030525578 0.016160578
0.027466848 -0.0030518721 0.015257508
0.028637657 -0.0030683205 0.013284206
0.029706318 -0.0030730674 0.012260169
0.03062289 -0.003062289 0.0136199
0.031620696 -0.0030600673 0.013131022
0.032556534 -0.003052175 0.014173836
0.033601243 -0.0030546584 0.013125777
0.034612268 -0.0030540235 0.012078047
0.035660919 -0.00305665 0.011443734
0.036466222 -0.0030388518 0.01340887
0.037470695 -0.0030381642 0.01539728
0.038361453 -0.0030285357 0.015830725
0.039380509 -0.0030292701 0.016822219
0.040732291 -0.0030549217 0.012352675
0.042344455 -0.0030983747 0.0080551207
0.051457863 -0.0030874717 0.0089786649
0.052470718 -0.0030865129 0.0089758635
0.052790899 -0.0030456288 0.011246502
0.053865645 -0.0030489988 0.013249665
0.05518372 -0.0030657623 0.010852486
0.056362931 -0.0030743417 0.0095682442
0.057425674 -0.0030763755 0.0091543794
0.061678987 -0.0030839492 0.0089966655
0.062672772 -0.0030822672 0.0090656579
0.063321374 -0.0030639374 0.011110932
0.064196728 -0.0030569872 0.012793124
0.065071031 -0.0030502046 0.013751537
0.066492133 -0.0030688676 0.011675805
0.068040088 -0.0030927311 0.0089758933
0.072420269 -0.0030600114 0.010374129
0.073460318 -0.0030608466 0.010393649
0.074947111 -0.0030800183 0.0081577301
0.083873436 -0.0030685402 0.0097960234
0.091275133 -0.00307669 0.0098562837
0.093226381 -0.0030733971 0.0085852742
-0.024966009 -0.0020805008 0.010274053
-0.023849454 -0.0020738656 0.012126148
-0.022815719 -0.0020741564 0.011738211
-0.02180074 -0.002076261 0.011374474
-0.020771354 -0.0020771353 0.010913044
-0.019734027 -0.0020772661 0.010037363
-0.018697551 -0.0020775057 0.0096486509
-0.017312752 -0.0020367946 0.018032253
-0.016296035 -0.0020370043 0.018838346
-0.01527901 -0.0020372013 0.018352717
-0.014238665 -0.0020340949 0.019012511
-0.013195794 -0.0020301221 0.019087225
-0.012180222 -0.0020300369 0.019844443
-0.011150585 -0.0020273789 0.020406663
-0.010127197 -0.0020254394 0.018847525
-0.00912215 -0.0020271444 0.01853165
-0.0080821849 -0.0020205462 0.019873828
-0.0070867529 -0.0020247865 0.020094216
-0.0060746064 -0.0020248687 0.02009505
-0.0050623459 -0.0020249384 0.01892513
-0.0040509659 -0.0020254829 0.018828094
-0.0030245723 -0.0020163816 0.019365042
-0.002016413 -0.002016413 0.01936534
-0.0010082159 -0.0020164319 0.018950909
0 -0.0020158286 0.017463177
0.001012911 -0.0020258219 0.015853405
0.0020266564 -0.0020266564 0.016170353
0.0030399375 -0.002026625 0.01568228
0.0040492588 -0.0020246294 0.017486691
0.0050315564 -0.0020126225 0.019876242
0.0060376595 -0.0020125532 0.020582795
0.0070722434 -0.002020641 0.019557744
0.0081036435 -0.0020259109 0.018483877
0.009095815 -0.0020212922 0.019141287
0.010078432 -0.0020156864 0.020237356
0.011085548 -0.0020155541 0.020236015
0.012095382 -0.0020158971 0.020258933
0.013191041 -0.002029391 0.017527133
0.014184917 -0.0020264168 0.017403781
0.015196751 -0.0020262334 0.017402202
0.016160533 -0.0020200666 0.018594682
0.017239222 -0.0020281437 0.0171794
0.018251302 -0.0020279223 0.01766482
0.01931743 -0.0020334136 0.016322851
0.020364549 -0.0020364549 0.015663147
0.021380045 -0.0020361948 0.01566115
0.022508994 -0.0020462722 0.013637751
0.023474224 -0.002041237 0.015340328
0.024462044 -0.0020385035 0.016092807
0.025474366 -0.0020379494 0.01582256
0.026454333 -0.0020349487 0.015260249
0.027460705 -0.0020341263 0.01535511
0.028469492 -0.0020335352 0.015376836
0.029481033 -0.0020331747 0.015374094
0.030513918 -0.0020342611 0.015079409
0.031459115 -0.0020296203 0.015319735
0.03246757 -0.0020292231 0.015292436
0.033455372 -0.0020275982 0.014560133
0.034414496 -0.0020243821 0.014411271
0.035419106 -0.0020239488 0.015112817
0.036423061 -0.0020235034 0.013894916
0.037379168 -0.0020204955 0.015130341
0.038239792 -0.0020126207 0.015806705
0.03938112 -0.0020195446 0.016822487
0.0409659 -0.002048295 0.010023057
0.042332679 -0.0020650087 0.0095352829
0.050302498 -0.0020531632 0.010143578
0.051234789 -0.0020493916 0.0095112026
0.051990304 -0.0020388355 0.011830896
0.052791711 -0.0020304504 0.011246711
0.053866472 -0.002032697 0.014458835
0.055018153 -0.0020377093 0.012085348
0.056018271 -0.0020370281 0.012105465
0.057389356 -0.0020496198 0.0094202161
0.058431797 -0.0020502384 0.010455221
0.05951998 -0.0020524131 0.010017067
0.060894657 -0.0020642257 0.0088311732
0.061679926 -0.0020559975 0.010033995
0.062420011 -0.0020465576 0.011404604
0.06327378 -0.0020410896 0.012340277
0.064080074 -0.0020342881 0.01378113
0.06477531 -0.0020242285 0.015606195
0.065859385 -0.0020264424 0.014998198
0.066945218 -0.0020286429 0.014390618
0.072421364 -0.0020400384 0.010374278
0.073409587 -0.0020391552 0.010369778
0.074449062 -0.0020397003 0.010677189
0.075546302 -0.002041792 0.010288715
0.081779443 -0.0020444861 0.00947088
0.082892358 -0.002046725 0.0098009408
0.083874688 -0.0020457241 0.0097961724
0.093097918 -0.002046108 0.0080146492
-0.023905683 -0.0010393775 0.011152267
-0.022822632 -0.0010373923 0.011543483
-0.021807339 -0.0010384447 0.010911763
-0.02077033 -0.0010385164 0.01003623
-0.01973537 -0.0010387036 0.0093065202
-0.018701017 -0.0010389453 0.0095756352
-0.017587362 -0.0010345507 0.011379927
-0.016392693 -0.0010245433 0.016937643
-0.015369636 -0.0010246424 0.015939981
-0.014305342 -0.0010218101 0.016867667
-0.013222856 -0.0010171427 0.018258572
-0.012181798 -0.0010151499 0.019088924
-0.011141973 -0.0010129065 0.02001673
-0.01012973 -0.001012973 0.018701404
-0.0091222357 -0.0010135818 0.018361151
-0.0081090843 -0.0010136355 0.018532842
-0.0070957816 -0.001013683 0.018533707
-0.0060761264 -0.0010126878 0.020046473
-0.0050636125 -0.0010127225 0.018827736
-0.0040385658 -0.0010096414 0.020072132
-0.003009418 -0.0010031393 0.021389574
-0.0020193586 -0.0010096793 0.018780202
-0.0010103595 -0.0010103595 0.017463326
0 -0.001012192 0.016634107
0.00101414 -0.00101414 0.015853584
0.0020282608 -0.0010141304 0.017048478
0.0030408804 -0.0010136268 0.016975105
0.0040490529 -0.0010122632 0.017511278
0.005040749 -0.0010081497 0.019144773
0.0060735662 -0.001012261 0.018095434
0.0070953551 -0.0010136222 0.017533839
0.008103719 -0.0010129649 0.017971963
0.0090959007 -0.0010106557 0.018702537
0.010080964 -0.0010080965 0.019067168
0.011123199 -0.0010111999 0.018432021
0.012151081 -0.00101259 0.018601328
0.013162643 -0.001012511 0.018648624
0.014167134 -0.0010119382 0.018793315
0.015173128 -0.0010115419 0.017719209
0.016208451 -0.0010130282 0.017083853
0.017252848 -0.0010148734 0.01686278
0.018271208 -0.0010150671 0.017080218
0.019317608 -0.0010167162 0.016688466
0.020417115 -0.0010208557 0.01544404
0.021380244 -0.0010181068 0.016489476
0.022509204 -0.0010231456 0.014660716
0.023443643 -0.0010192888 0.016217053
0.024437439 -0.0010182266 0.016506851
0.025442654 -0.0010177062 0.014702946
0.026454579 -0.0010174838 0.014944017
0.027408399 -0.0010151259 0.016279966
0.028388007 -0.0010138573 0.016544819
0.029396655 -0.0010136777 0.016541868
0.030404756 -0.0010134919 0.016538858
0.0313746 -0.0010120838 0.016973466
0.032370623 -0.001011582 0.016338021
0.033373464 -0.0010113171 0.015094995
0.034396224 -0.0010116537 0.014873147
0.035402428 -0.0010114979 0.01504004
0.036290038 -0.0010080567 0.016032726
0.03721552 -0.0010058249 0.016830564
0.038212467 -0.0010055912 0.016826659
0.039237112 -0.0010060797 0.017308146
0.040624086 -0.0010156021 0.013736337
0.042268407 -0.0010309367 0.0085163414
0.044330731 -0.0010309472 0.0082936585
0.050276272 -0.0010260463 0.011015207
0.051093075 -0.0010218614 0.010987639
0.051990785 -0.0010194272 0.012387484
0.052534368 -0.0010102763 0.015358508
0.053866964 -0.0010163578 0.013395071
0.05501866 -0.0010188641 0.012085438
0.056018788 -0.0010185234 0.012105584
0.056929979 -0.0010166068 0.012705326
0.058022875 -0.0010179451 0.012676775
0.05943653 -0.0010247678 0.010451615
0.060418304 -0.001024039 0.010592669
0.061159499 -0.001019325 0.011553645
0.061894774 -0.0010146685 0.013285369
0.062960535 -0.0010154926 0.014003485
0.064080663 -0.0010171534 0.013540357
0.064899214 -0.0010140502 0.01425764
0.065887377 -0.001013652 0.016250193
0.066787004 -0.0010119244 0.014847964
0.071386255 -0.0010198037 0.0089613497
0.072784342 -0.0010251316 0.0090295672
0.07346642 -0.0010203669 0.010874033
0.07444974 -0.0010198595 0.010893226
0.075436071 -0.0010194064 0.010888368
0.077113278 -0.0010281771 0.008606106
0.08178018 -0.0010222523 0.0098057985
0.082893111 -0.0010233717 0.0098010302
0.083875448 -0.0010228714 0.0097962618
0.085509948 -0.0010179756 0.0092852414
0.088174686 -0.0010252871 0.0083458424
0.090694606 -0.0010190406 0.0092613101
0.09242785 -0.0010156906 0.010963708
0.09442056 -0.0010263105 0.0084619522
-0.022845473 0 0.0094978511
-0.021809964 0 0.0099618733
-0.020774048 0 0.0099631548
-0.019780563 0 0.0083564222
-0.016606232 0 0.01091814
-0.015448288 0 0.012917787
-0.01435828 0 0.014722705
-0.013332228 0 0.014772683
-0.012224987 0 0.017528713
-0.011156087 0 0.018212616
-0.010142563 0 0.018067539
-0.0091288472 0 0.017800391
-0.0080822865 0 0.019703358
-0.0070655029 0 0.020265222
-0.0060589528 0 0.021192759
-0.0050493008 0 0.021193475
-0.0040395539 0 0.020730644
-0.0030114397 0 0.021682322
-0.0020158286 0 0.018877774
-0.0010079237 0 0.017926782
0 0 0.016487807
0.0010182895 0 0.014048725
0.002031316 0 0.016438842
0.0030489387 0 0.016170263
0.0040544313 0 0.017243057
0.0050407648 0 0.019413114
0.0060819988 0 0.017510206
0.0070911087 0 0.018728852
0.0081037451 0 0.018947452
0.0090959286 0 0.020458221
0.010099893 0 0.01804316
0.011088368 0 0.018797785
0.012145267 0 0.017748117
0.013156345 0 0.018599957
0.014185094 0 0.017233342
0.015196941 0 0.017085582
0.01624457 0 0.017083883
0.017264292 0 0.016935945
0.018271266 0 0.01673916
0.019267909 0 0.01707831
0.020364802 0 0.014908224
0.021380311 0 0.014906317
0.022443641 0 0.014027625
0.023362508 0 0.017629415
0.024361555 0 0.015484333
0.025398612 0 0.015384585
0.026454663 0 0.014749348
0.027408484 0 0.016280025
0.028386394 0 0.016277224
0.029393217 0 0.016298681
0.030368365 0 0.016538948
0.0313747 0 0.016973525
0.032368779 0 0.015997708
0.033353515 0 0.015338123
0.034293044 0 0.016088307
0.035294112 0 0.01627928
0.03629015 0 0.016178519
0.037143748 0 0.017680645
0.038104173 0 0.018040717
0.039097589 0 0.020124108
0.04049316 0 0.015969127
0.042166572 0 0.0094141066
0.050317943 0 0.010748953
0.051093232 0 0.010987699
0.051990945 0 0.011831045
0.052430764 0 0.016156763
0.053421814 0 0.016272426
0.054708835 0 0.014381766
0.055822939 0 0.014159471
0.056791507 0 0.013695717
0.057926703 0 0.013352931
0.059296712 0 0.01156202
0.060418487 0 0.011268318
0.060978778 0 0.013652146
0.061894964 0 0.013285428
0.063132584 0 0.012292236
0.06423644 0 0.012191176
0.064899407 0 0.014257699
0.065472886 0 0.017309546
0.066572793 0 0.016147554
0.067771718 0 0.014842033
0.069171973 0 0.0092333853
0.072844237 0 0.008693397
0.073777743 0 0.0097938478
0.073889464 0 0.01300472
0.0748595 0 0.01304689
0.075836986 0 0.013088942
0.077600747 0 0.01126194
0.079456933 0 0.0085503161
0.084189177 0 0.0094139576
0.085262939 0 0.0085256994
0.08615683 0 0.0086169243
-0.01661008 0.00103813 0.0095777214
-0.015557003 0.0010371335 0.0099929571
-0.014425634 0.0010304025 0.012748241
-0.013379723 0.0010292095 0.013236851
-0.012307595 0.001025633 0.013896137
-0.011257965 0.0010234513 0.01448226
-0.010181543 0.0010181543 0.016238779
-0.0091282707 0.0010142523 0.017824709
-0.0080807973 0.0010100997 0.019508272
-0.007065481 0.0010093545 0.020265162
-0.0060563725 0.0010093955 0.021143943
-0.0050322125 0.0010064425 0.022339672
-0.0040385658 0.0010096414 0.019340426
-0.0030264298 0.0010088099 0.01965794
-0.0020243586 0.0010121793 0.017170459
-0.0010138351 0.0010138351 0.016170591
0 0.0010182286 0.014317006
0.0010182863 0.0010182863 0.014341384
0.0020282608 0.0010141304 0.016463131
0.0030408804 0.0010136268 0.017755568
0.0040327124 0.0010081781 0.018828243
0.0050684903 0.0010136981 0.017193705
0.0060819797 0.0010136632 0.017193109
0.0070953551 0.0010136222 0.017460674
0.0081105474 0.0010138184 0.018606007
0.0091162007 0.0010129112 0.019555956
0.010099861 0.0010099862 0.018311322
0.011069561 0.0010063237 0.019748569
0.01214523 0.0010121025 0.018796355
0.013164227 0.0010126329 0.018599898
0.014190169 0.0010135835 0.01813516
0.015219742 0.0010146494 0.018596649
0.016288389 0.0010180243 0.015987158
0.017304629 0.0010179194 0.016521633
0.018320549 0.0010178082 0.01598376
0.019267848 0.0010140972 0.017955303
0.02029166 0.001014583 0.015565872
0.021358507 0.0010170718 0.016221493
0.022372581 0.0010169356 0.016219348
0.023337234 0.0010146623 0.01706931
0.024348332 0.0010145138 0.015289545
0.025360499 0.0010144199 0.015262872
0.026375476 0.0010144414 0.015966237
0.027385402 0.0010142742 0.016620666
0.028370975 0.0010132492 0.016423166
0.029414291 0.0010142858 0.015690476
0.030404756 0.0010134919 0.015906453
0.031412292 0.0010132998 0.015611678
0.03232589 0.0010101841 0.015632927
0.033329345 0.0010099802 0.015629768
0.034280546 0.0010082513 0.015942454
0.035291877 0.0010083393 0.016157746
0.036290038 0.0010080567 0.016178459
0.037278425 0.001007525 0.016636223
0.038104054 0.0010027383 0.020128846
0.039097469 0.0010024993 0.020124018
0.040493034 0.0010123259 0.015969068
0.04200479 0.0010245071 0.010845602
0.04617928 0.0010262062 0.0094040632
0.047192235 0.0010259182 0.0094014108
0.048204329 0.001025624 0.0094229579
0.049186479 0.0010247184 0.0097350478
0.050089441 0.0010222335 0.011935115
0.050696772 0.0010139354 0.014714688
0.051481795 0.0010094469 0.016234398
0.052418027 0.001008039 0.016398579
0.05342165 0.0010079556 0.016296536
0.054702144 0.0010130027 0.014599204
0.055822767 0.0010149594 0.015705824
0.056791332 0.0010141309 0.015893757
0.057926528 0.0010162549 0.014101446
0.058988534 0.0010170437 0.013710201
0.060044605 0.0010177052 0.013295114
0.060783219 0.0010130537 0.014954627
0.061773434 0.0010126793 0.014081061
0.062885821 0.0010142875 0.013328612
0.064126201 0.0010178762 0.012287468
0.064899214 0.0010140502 0.014402121
0.065472692 0.0010072722 0.016948342
0.066524945 0.0010079537 0.016436249
0.067707047 0.001010553 0.01462546
0.073777519 0.0010246878 0.0090256631
0.074200146 0.0010164403 0.011349052
0.074845962 0.0010114319 0.013166755
0.075823262 0.0010109768 0.014143705
0.077454835 0.0010191426 0.010686815
0.079336815 0.0010303482 0.0091730058
0.0821485 0.0010268562 0.0093274713
0.08313515 0.0010263599 0.0094424784
0.084188923 0.0010266942 0.0088883042
0.085262686 0.0010272613 0.0084540546
-0.015576052 0.002076807 0.009432286
-0.014438296 0.0020626136 0.011895001
-0.013390689 0.002060106 0.012091041
-0.01230748 0.0020512466 0.013603449
-0.011263223 0.0020478589 0.014092028
-0.010181447 0.0020362895 0.01623863
-0.0091814026 0.0020403117 0.015386134
-0.0081407093 0.0020351773 0.016362369
-0.007123454 0.0020352725 0.016436279
-0.0060413177 0.0020137725 0.020534039
-0.0050297272 0.002011891 0.020924896
-0.0040351134 0.0020175567 0.019657314
-0.0030264014 0.0020176009 0.019657761
-0.002028242 0.002028242 0.017560542
-0.0010141304 0.0020282608 0.016487539
0 0.0020370476 0.014731526
0.0010182767 0.0020365533 0.01482904
0.0020364125 0.0020364125 0.015048385
0.003045242 0.0020301614 0.017170072
0.0040602335 0.0020301167 0.016072154
0.0050867344 0.0020346937 0.016047299
0.0060552186 0.0020184063 0.019290268
0.0070969947 0.0020277128 0.018606693
0.0081104711 0.0020276178 0.018605798
0.0091237957 0.0020275102 0.019214392
0.01014975 0.00202995 0.017799109
0.011048002 0.0020087278 0.02201581
0.012152429 0.0020254049 0.018649936
0.013177572 0.0020273188 0.018234015
0.014206245 0.0020294636 0.01640439
0.0152196 0.0020292799 0.019157052
0.016304808 0.002038101 0.016376913
0.017322073 0.002037891 0.016375244
0.018339017 0.0020376686 0.016105443
0.019295443 0.0020310993 0.014739305
0.02029147 0.002029147 0.014177233
0.021321224 0.0020305926 0.015222758
0.022314776 0.0020286161 0.01556164
0.023268409 0.00202334 0.016874343
0.024311583 0.0020259654 0.01555723
0.025351133 0.0020280906 0.015067965
0.026370486 0.0020284988 0.016039133
0.027362151 0.0020268259 0.016425848
0.028343461 0.002024533 0.016569018
0.029276451 0.0020190657 0.017563432
0.030404471 0.0020269647 0.01561451
0.031412002 0.0020265807 0.015465617
0.032276962 0.0020173101 0.01655665
0.033278901 0.0020169031 0.016553283
0.03429262 0.0020172128 0.015577793
0.035293672 0.0020167811 0.015574455
0.036294073 0.0020163374 0.015789658
0.037278078 0.0020150314 0.01717037
0.038085245 0.0020044865 0.020322889
0.039097108 0.0020049799 0.020123839
0.040492658 0.0020246329 0.015968919
0.041713428 0.0020348013 0.013684243
0.043020401 0.0020485907 0.0097511411
0.044033132 0.0020480526 0.009894073
0.045149058 0.0020522298 0.0089459419
0.045941632 0.0020418502 0.011973083
0.04716393 0.0020506056 0.0089894533
0.048072957 0.0020456577 0.010973126
0.049081415 0.0020450589 0.011938572
0.050020769 0.002041664 0.012491822
0.050566219 0.0020226487 0.015610039
0.051481318 0.0020188752 0.015726149
0.052417543 0.0020160594 0.016374201
0.053421162 0.0020158929 0.016296417
0.054701641 0.0020259866 0.014864951
0.055755805 0.0020274839 0.015343249
0.056736708 0.0020263109 0.015434623
0.057784922 0.0020275412 0.01504299
0.058777992 0.0020268273 0.015158355
0.059983552 0.0020333407 0.013705194
0.06078266 0.0020260888 0.015002698
0.061772868 0.00202534 0.014948934
0.062915139 0.0020295205 0.013689995
0.063962437 0.0020305538 0.013323396
0.064544111 0.0020170035 0.016617686
0.065472096 0.0020145259 0.017309338
0.06650845 0.0020154074 0.016965538
0.067706428 0.0020210873 0.014625341
0.073807098 0.002050197 0.0089295506
0.073914841 0.0020250641 0.012908578
0.074845277 0.0020228454 0.013166636
0.075872019 0.0020232538 0.013879895
0.077308446 0.0020344327 0.01145345
0.078460127 0.0020379254 0.010633916
0.079600707 0.0020410437 0.012328625
0.081050999 0.0020519241 0.0099539459
0.082037739 0.0020509434 0.0086337924
0.083081149 0.0020513863 0.0083427727
0.084119596 0.0020516973 0.0080758631
0.08527182 0.0020547428 0.0084062219
-0.014538738 0.003115444 0.0090186
-0.013407909 0.003094133 0.011554539
-0.012307287 0.0030768218 0.01389581
-0.011260365 0.0030710087 0.013969898
-0.01021908 0.0030657242 0.01470229
-0.0091977185 0.0030659062 0.014581263
-0.008158627 0.003059485 0.015459895
-0.0071233432 0.0030528614 0.016362876
-0.0060821935 0.0030410967 0.01763168
-0.0050534266 0.0030320559 0.018876046
-0.0040350505 0.003026288 0.019632638
-0.0030322075 0.0030322075 0.017803848
-0.002026869 0.0030403035 0.018974841
-0.0010141147 0.003042344 0.016487271
0 0.0030555238 0.014926404
0.0010182 0.0030545997 0.014853179
0.0020306492 0.0030459738 0.017145663
0.0030239762 0.0030239762 0.020072073
0.0040594391 0.0030445792 0.017827868
0.0050750701 0.003045042 0.018485874
0.0060763406 0.0030381703 0.019387543
0.0070968843 0.0030415219 0.018923402
0.0081103444 0.0030413794 0.017361909
0.0091236532 0.0030412178 0.017360985
0.010121553 0.003036466 0.017969489
0.011102807 0.0030280382 0.020016253
0.012164672 0.003041168 0.018235177
0.013177367 0.003040931 0.018233746
0.014183844 0.003039395 0.018134713
0.0151956 0.00303912 0.018133074
0.016273359 0.0030512547 0.015377492
0.017295912 0.0030522197 0.016569942
0.01831132 0.0030518868 0.016568154
0.019295143 0.0030466013 0.015884101
0.020291155 0.0030436732 0.01439625
0.021302991 0.0030432844 0.015344292
0.022220671 0.0030300915 0.017046899
0.023259645 0.0030338669 0.016484469
0.024290755 0.0030363444 0.01589781
0.025359867 0.0030431841 0.014921695
0.026370073 0.0030427007 0.015552104
0.027361726 0.0030401917 0.01642558
0.02834302 0.0030367521 0.016812056
0.029275997 0.0030285513 0.017587513
0.03027996 0.003027996 0.017268091
0.031273942 0.0030265106 0.016559631
0.032276463 0.0030259183 0.015656829
0.033458866 0.0030417149 0.014365405
0.034552366 0.003048738 0.014751285
0.035393044 0.0030336897 0.015015393
0.036339421 0.0030282852 0.015109211
0.037221339 0.0030179464 0.016392976
0.037819397 0.0029857417 0.02058965
0.038805388 0.0029850299 0.020172089
0.040356126 0.0030267097 0.016114295
0.041675478 0.0030494253 0.013223022
0.042902581 0.0030644701 0.010866761
0.044032454 0.0030720318 0.010912418
0.044932354 0.0030635695 0.010861009
0.04575824 0.0030505494 0.013596773
0.046948649 0.0030618685 0.011969537
0.048072215 0.0030684392 0.011869222
0.04904579 0.0030653619 0.012156337
0.04998441 0.0030602701 0.011450678
0.050544269 0.0030326562 0.015779197
0.051511377 0.003030081 0.015992016
0.052473333 0.0030273078 0.016156286
0.053465191 0.0030263315 0.0161511
0.054700799 0.0030389333 0.014864743
0.05574166 0.0030404541 0.015439659
0.056688495 0.0030368837 0.015772551
0.057728987 0.0030383677 0.01542905
0.058651105 0.0030336778 0.015954643
0.059932813 0.0030474311 0.014042765
0.060781736 0.0030390867 0.01553309
0.061771926 0.0030379635 0.015527368
0.062761009 0.0030368229 0.014123619
0.063692056 0.0030329549 0.013949603
0.064543128 0.0030254591 0.014787138
0.065353736 0.0030163266 0.017670184
0.066507436 0.0030230654 0.016604275
0.0677054 0.0030315849 0.014432669
0.069370374 0.0030604575 0.0090407729
0.074373491 0.0030564449 0.010988951
0.074924022 0.0030374601 0.013598144
0.076342821 0.0030537129 0.01203388
0.077284507 0.0030507043 0.012627423
0.078615695 0.0030629493 0.01300478
0.079440802 0.0030554153 0.010868162
0.080577217 0.0030598943 0.012394398
0.08155819 0.0030584321 0.010068595
0.083079897 0.0030770332 0.0083426237
-0.01348367 0.0041488213 0.0087997615
-0.012370645 0.0041235485 0.011360168
-0.01127621 0.0041004401 0.012872547
-0.010220076 0.0040880302 0.01416558
-0.0091975173 0.0040877857 0.014580965
-0.0081594232 0.0040797116 0.015410751
-0.0071312948 0.0040750257 0.017679334
-0.0060882787 0.0040588528 0.017216712
-0.0050685578 0.0040548462 0.018631756
-0.004027646 0.004027646 0.020363867
-0.0030208004 0.004027734 0.019315571
-0.0020268245 0.004053649 0.016730636
-0.0010200676 0.0040802704 0.014096797
0 0.0040876004 0.014755368
0.0010168971 0.0040675886 0.016560078
0.0020306045 0.004061209 0.017389178
0.0030473229 0.0040630973 0.016998678
0.0040625208 0.0040625208 0.017510414
0.0050813612 0.0040650889 0.017973304
0.0060886447 0.0040590963 0.018557936
0.007099716 0.0040569808 0.018752277
0.0081101665 0.0040550833 0.015874058
0.00911358 0.0040504797 0.017799467
0.010125598 0.0040502395 0.017798424
0.011137428 0.004049974 0.018041044
0.012179034 0.0040596779 0.017747223
0.013177078 0.0040544858 0.018233359
0.014183534 0.0040524383 0.018134326
0.015185214 0.0040493901 0.017304063
0.01621549 0.0040538725 0.016814977
0.017227186 0.0040534553 0.017471164
0.018238559 0.0040530129 0.017469227
0.019271579 0.0040571745 0.016273499
0.020307763 0.0040615527 0.014858752
0.021320427 0.0040610335 0.014856845
0.022216167 0.0040393034 0.017119616
0.023236739 0.0040411716 0.016873717
0.024275618 0.0040459363 0.01660347
0.025383655 0.0040613851 0.015870661
0.026341025 0.0040524653 0.01598984
0.02734963 0.0040517971 0.015987217
0.028342402 0.0040489146 0.016763031
0.02927536 0.0040379805 0.017781675
0.030279303 0.0040372405 0.017121762
0.031320371 0.0040413383 0.015683889
0.032380786 0.0040475982 0.014975786
0.033542361 0.0040657404 0.014753997
0.034625974 0.0040736441 0.01387611
0.035470936 0.0040538213 0.014116049
0.036338631 0.0040376256 0.015643299
0.03698466 0.0039983415 0.018942565
0.037800122 0.0039789602 0.020783454
0.038785614 0.0039780117 0.020608574
0.040144123 0.0040144124 0.017400175
0.041507956 0.0040495568 0.014605671
0.042901654 0.0040858719 0.010696739
0.044031501 0.0040959534 0.0095784664
0.044931386 0.0040846714 0.0093819797
0.045937203 0.004083307 0.011948466
0.046944849 0.004082161 0.011993527
0.047951635 0.0040809903 0.012886345
0.049012765 0.0040843971 0.012422442
0.049885474 0.0040722839 0.011571467
0.050543182 0.0040434543 0.016964674
0.051538032 0.0040421984 0.01587072
0.052531946 0.0040409188 0.015696406
0.05332629 0.0040246258 0.017190367
0.054314602 0.0040233037 0.017184734
0.055301931 0.0040219589 0.01833877
0.056295022 0.0040210728 0.017946064
0.057335511 0.0040235445 0.016322106
0.058348861 0.0040240595 0.016123235
0.059387021 0.0040262388 0.016093373
0.060614012 0.0040409341 0.016642272
0.061759569 0.0040498078 0.01559937
0.062912829 0.0040588924 0.013038784
0.063903183 0.004057345 0.012479693
0.064676613 0.0040422883 0.013775319
0.065414935 0.0040255347 0.018777162
0.066506021 0.0040306682 0.018095911
0.067401782 0.0040239869 0.016236395
0.069184959 0.0040697036 0.010122597
0.074827306 0.0041001262 0.0084934533
0.075299554 0.0040702461 0.011559367
0.076503009 0.0040801605 0.011602163
0.077264674 0.0040665618 0.012770921
0.078457288 0.0040757032 0.014034331
0.079126373 0.0040577627 0.012280315
0.080419578 0.0040718773 0.01071924
0.081556469 0.0040778234 0.0095422268
0.082749002 0.0040863701 0.0098005831
0.084136158 0.0041042031 0.0096285343
-0.013483291 0.0051858812 0.0085070729
-0.012392968 0.0051637366 0.010311633
-0.011294666 0.005133939 0.012189567
-0.010219789 0.0051098946 0.014165163
-0.0091972584 0.0051095881 0.016287297
-0.008158219 0.0050988868 0.017239124
-0.0071310946 0.0050936388 0.017703235
-0.0060881083 0.0050734235 0.018776894
-0.005071159 0.005071159 0.018972635
-0.0040548462 0.0050685578 0.018631756
-0.0030443107 0.005073851 0.016681135
-0.0020300599 0.0050751497 0.015705913
-0.001020039 0.0051001948 0.013096482
0 0.005075213 0.01629144
0.0010098569 0.0050492845 0.019364268
0.002019695 0.0050492375 0.019559205
0.0030294952 0.0050491588 0.019363791
0.0040409453 0.0050511821 0.019656003
0.0050739022 0.0050739022 0.018558085
0.0060855476 0.0050712894 0.018752545
0.0070995167 0.0050710831 0.01777637
0.0081123784 0.0050702365 0.015629768
0.0091133239 0.0050629578 0.016140997
0.010125314 0.0050626569 0.017578483
0.011164603 0.0050748195 0.017040998
0.012178691 0.0050744549 0.017137289
0.013191761 0.0050737541 0.017501593
0.014183135 0.0050654053 0.018133819
0.015140919 0.005046973 0.018473387
0.016098065 0.0050306455 0.019324511
0.017154211 0.0050453562 0.018518418
0.018161301 0.0050448058 0.01854077
0.019271037 0.0050713252 0.016370475
0.020316936 0.005079234 0.015589058
0.021145934 0.0050347461 0.018314809
0.022208847 0.0050474652 0.017240882
0.023236087 0.0050513232 0.017141104
0.024314377 0.0050654951 0.0168221
0.025410328 0.0050820657 0.015553772
0.026394071 0.005075783 0.015794694
0.027345581 0.0050639967 0.016668081
0.028305847 0.0050546154 0.017346412
0.029269248 0.0050464221 0.017854184
0.030278455 0.0050464091 0.016172826
0.031319495 0.0050515318 0.01553759
0.032379881 0.0050593563 0.014829516
0.033541426 0.005082034 0.014048725
0.034746878 0.005109835 0.011737257
0.035531595 0.0050759423 0.013678372
0.036221754 0.0050307992 0.017051697
0.036983632 0.004997788 0.019476324
0.037799072 0.004973562 0.020782858
0.038784534 0.0049723764 0.020608008
0.039929453 0.0049911817 0.020602971
0.041312832 0.0050381506 0.017662168
0.042989593 0.0051178089 0.010308415
0.04409023 0.0051267711 0.0094812214
0.045103464 0.0051253936 0.0091150105
0.046115875 0.0051239859 0.0091125071
0.047107935 0.0051204278 0.0097399652
0.047950309 0.0051010964 0.011141986
0.048898082 0.0050935503 0.011647254
0.049599417 0.005061165 0.01408869
