ply
format ascii 1.0
comment PCL generated
element vertex 1278
property float x
property float y
property float z
element camera 0
property float view_px
property float view_py
property float view_pz
property float x_axisx
property float x_axisy
property float x_axisz
property float y_axisx
property float y_axisy
property float y_axisz
property float z_axisx
property float z_axisy
property float z_axisz
property float focal
property float scalex
property float scaley
property float centerx
property float centery
property int viewportx
property int viewporty
property float k1
property float k2
end_header
0.0031023221 -0.018613933 0.010647446
0.0041309791 -0.018589405 0.011183262
0.0051702787 -0.018613003 0.011840731
0.0061617303 -0.01848519 0.014812648
0.0071883942 -0.018484442 0.014812052
0.0082134623 -0.01848029 0.015371621
0.0092292409 -0.018458482 0.014859259
0.010254105 -0.018457387 0.014712244
0.01130356 -0.018496733 0.013956219
0.012287165 -0.018430747 0.014588416
0.013233287 -0.018323012 0.019287378
0.014200601 -0.018257916 0.018360406
0.015213556 -0.018256268 0.018358767
0.016206749 -0.018232591 0.018430024
0.017205486 -0.018217573 0.018720269
0.018215587 -0.018215587 0.018718243
0.019225352 -0.01821349 0.019665301
0.020433089 -0.01838978 0.015501559
0.021319155 -0.01827356 0.018224806
0.022338057 -0.018276593 0.018660247
0.023350157 -0.018274035 0.018706262
0.024504835 -0.018378627 0.016271383
0.025532624 -0.01838349 0.016147286
0.026549723 -0.018380577 0.015682757
0.027587662 -0.018391773 0.015899003
0.028551798 -0.018354727 0.015580267
0.029536324 -0.018332891 0.017278671
0.030536467 -0.018321881 0.016813844
0.031493787 -0.018286714 0.017515153
0.032379013 -0.018213194 0.016491652
0.033468273 -0.018255422 0.016172647
0.034460865 -0.018243987 0.015610874
0.035481706 -0.018247735 0.016821206
0.036472168 -0.018236084 0.015604138
0.037660848 -0.018321494 0.013756663
0.038943961 -0.01844714 0.011255085
0.040136624 -0.018524596 0.009894371
0 -0.017697195 0.0084557831
0.0010339415 -0.017577006 0.011282444
0.0020657922 -0.017559234 0.011184871
0.0030986399 -0.01755896 0.011184722
0.0041314298 -0.017558577 0.011671811
0.0051400806 -0.017476274 0.013620794
0.0061678849 -0.017475674 0.013620347
0.0071955738 -0.017474964 0.013619751
0.0082051 -0.017435838 0.014374405
0.0092022931 -0.01738211 0.015616119
0.010209547 -0.01735623 0.015883148
0.011257231 -0.01739754 0.015687227
0.012223472 -0.017316585 0.016757816
0.013241063 -0.017315235 0.019094616
0.014251587 -0.017305499 0.016949952
0.015268178 -0.017303934 0.016948432
0.016208515 -0.017221548 0.018432021
0.017181493 -0.017181493 0.019330978
0.018113505 -0.0171072 0.0210329
0.019195072 -0.01717454 0.020008177
0.020202886 -0.017172454 0.019105285
0.021243544 -0.017197154 0.019711196
0.02234049 -0.017263105 0.016861767
0.023542942 -0.017401306 0.015351087
0.024517719 -0.017366717 0.015908271
0.025535399 -0.017364072 0.015905827
0.02655261 -0.017361322 0.015295416
0.027587377 -0.017369829 0.015195638
0.028553197 -0.017335869 0.015752167
0.029539531 -0.017316276 0.017037481
0.030494221 -0.017280059 0.017325968
0.031461429 -0.017253041 0.017881483
0.032403897 -0.01721457 0.016833514
0.033409789 -0.017211104 0.016417265
0.034439832 -0.017219916 0.01612249
0.035487678 -0.017236872 0.016798764
0.036493588 -0.017233083 0.016795069
0.037761439 -0.01734985 0.012714773
0.038948178 -0.017424185 0.010868132
0.040022731 -0.017445806 0.0111081
0.041235343 -0.017525021 0.009141326
0 -0.016586736 0.0094314814
0.0010337433 -0.016539892 0.010601252
0.0020535761 -0.016428608 0.013623089
0.0030803159 -0.016428351 0.01362288
0.0040987125 -0.01639485 0.014451116
0.0051348223 -0.01643143 0.014060825
0.0061615747 -0.016430866 0.014060348
0.0071830954 -0.016418504 0.014376521
0.0081898635 -0.016379727 0.014790088
0.0092125591 -0.016377883 0.014813662
0.01023557 -0.016376913 0.014885873
0.011241642 -0.016351478 0.017248005
0.012224728 -0.016299637 0.018099338
0.013242424 -0.016298367 0.018097907
0.014199347 -0.016227825 0.017779797
0.015212211 -0.016226359 0.017778188
0.016210182 -0.016210182 0.018141717
0.017219478 -0.016206568 0.01908946
0.01806497 -0.01605775 0.02276364
0.019066382 -0.016055902 0.022420228
0.020067442 -0.016053954 0.020591974
0.021212503 -0.016161907 0.018082589
0.022293262 -0.016213281 0.016741812
0.023355095 -0.016247021 0.018612891
0.024416599 -0.016277732 0.017637134
0.025527379 -0.016337521 0.016223669
0.026544264 -0.016334932 0.015637457
0.027590202 -0.01634975 0.015197188
0.028556122 -0.016317785 0.015753776
0.029542556 -0.016299341 0.016018361
0.030497342 -0.016265249 0.016793102
0.031464648 -0.016239818 0.017348796
0.032407213 -0.016203607 0.016835243
0.033413205 -0.016200341 0.016418964
0.034443352 -0.016208636 0.015905589
0.035491303 -0.016224595 0.015635133
0.036752909 -0.016334627 0.015097708
0.037798963 -0.016345497 0.014730304
0.038977504 -0.01641158 0.011136144
0.040026814 -0.016421257 0.011109203
0.041144975 -0.01645799 0.010088027
-0.0020781474 -0.015586106 0.0087498426
-0.0010378038 -0.015567058 0.0092617273
0 -0.015551569 0.0096761286
0.0010341479 -0.015512219 0.011187196
0.0020393948 -0.015295461 0.015696079
0.0030608722 -0.015304361 0.015452117
0.0041083703 -0.015406389 0.014062613
0.0051362324 -0.015408698 0.014013439
0.0061621713 -0.015405428 0.014086068
0.0071671586 -0.015358197 0.015328348
0.0081692105 -0.01531727 0.015863717
0.009198647 -0.015331077 0.013864815
0.010220113 -0.015330169 0.013863981
0.011242728 -0.015330993 0.015276194
0.012225909 -0.015282387 0.015762329
0.013243703 -0.015281197 0.016053438
0.014186226 -0.015199528 0.01819557
0.015203635 -0.015203635 0.01992321
0.016190315 -0.015178421 0.020554513
0.017221142 -0.015195125 0.019724399
0.018204769 -0.015170641 0.019697964
0.019111009 -0.015087639 0.021862447
0.020069377 -0.015052033 0.021519005
0.021117436 -0.015083883 0.022441119
0.022136128 -0.015092815 0.020223558
0.023202039 -0.015131765 0.021315694
0.02436786 -0.015229912 0.016811639
0.025417332 -0.015250399 0.017441511
0.026429834 -0.015247981 0.017025292
0.027446769 -0.015248206 0.017192751
0.028480582 -0.015257454 0.016873747
0.029561261 -0.015290307 0.015898317
0.030503923 -0.015251962 0.016746134
0.031467672 -0.015226294 0.017350465
0.032476414 -0.015223319 0.016448081
0.03358876 -0.015267618 0.014744461
0.0346696 -0.015295412 0.014352798
0.035753906 -0.015323102 0.01546666
0.036859117 -0.015357966 0.014443696
0.037964225 -0.015390902 0.013469666
0.038995069 -0.01539279 0.011501193
0.040326297 -0.015510115 0.010625124
0.041350208 -0.015506328 0.0082700253
-0.0031174547 -0.014548122 0.0098229945
-0.0020719981 -0.014503987 0.0095793605
-0.0010360087 -0.014504123 0.010018229
0 -0.014489664 0.010188878
0.0010264415 -0.01437018 0.013601393
0.0020362886 -0.014254021 0.016355634
0.0030593213 -0.014276833 0.015697271
0.0040814434 -0.014285052 0.015575051
0.0051357835 -0.014380193 0.014234096
0.0061243419 -0.014290131 0.016110271
0.0071358192 -0.014271638 0.017303824
0.0081407055 -0.014246235 0.017327368
0.0091578076 -0.014245478 0.017204642
0.01018875 -0.01426425 0.016618788
0.011242406 -0.014308516 0.01535064
0.012259177 -0.014302373 0.014691681
0.013264695 -0.014285056 0.015445828
0.014187508 -0.014187508 0.018197238
0.015181258 -0.014169174 0.02082631
0.016186908 -0.014163544 0.020678163
0.017222699 -0.014183398 0.019726187
0.018233808 -0.01418185 0.018750042
0.01924458 -0.014180217 0.019186139
0.020179523 -0.014125666 0.019086421
0.021084838 -0.014056559 0.022613555
0.022080569 -0.014051271 0.021807373
0.023184543 -0.014112331 0.021780014
0.02420947 -0.014122191 0.021436185
0.025381608 -0.014213701 0.019219071
0.026384784 -0.014207191 0.019556552
0.027395071 -0.014204851 0.01943174
0.028404847 -0.014202423 0.0185287
0.029563921 -0.014272238 0.015899748
0.03054313 -0.01425346 0.014997482
0.031591047 -0.014266924 0.014532924
0.032607622 -0.014265835 0.014845937
0.033619836 -0.014262961 0.014842927
0.034602527 -0.014248098 0.015179873
0.035612635 -0.014245054 0.014593899
0.036785956 -0.014305649 0.014809161
0.037967633 -0.014366131 0.013470888
0.039058506 -0.014389976 0.010871261
0.040329915 -0.014477405 0.0091219246
0.041353915 -0.01447387 0.0082708001
-0.0031151578 -0.013499018 0.010165095
-0.0020721727 -0.013469122 0.0095801651
-0.001036096 -0.013469248 0.010482222
0 -0.013344904 0.013846368
0.0010247605 -0.013321888 0.015016407
0.0020364602 -0.013236992 0.016820163
0.0030546428 -0.013236786 0.016844273
0.0040742303 -0.013241249 0.016697645
0.005116411 -0.013302669 0.015819699
0.00611718 -0.01325389 0.016379744
0.0071231979 -0.013228795 0.018060893
0.0081316419 -0.013213919 0.017572552
0.0091536436 -0.01322193 0.017425418
0.010175596 -0.013228274 0.017180681
0.011239331 -0.013282846 0.015498132
0.01224632 -0.013266847 0.014376223
0.013265811 -0.013265811 0.015154749
0.01420661 -0.013191852 0.017273009
0.015182537 -0.013158198 0.020560116
0.016153194 -0.01312447 0.021556795
0.017161004 -0.013123121 0.021213561
0.018207945 -0.013150183 0.018946439
0.019272801 -0.013186653 0.018627733
0.020284696 -0.013185052 0.018528044
0.021223363 -0.013138272 0.019913316
0.022087777 -0.013051868 0.022368997
0.023088533 -0.013050041 0.022706628
0.024331223 -0.013179412 0.018663943
0.025354847 -0.01318452 0.018442124
0.026364861 -0.013182431 0.018293202
0.02739737 -0.013191327 0.019433349
0.028347654 -0.013161411 0.019381344
0.029460637 -0.013206493 0.017359912
0.030470937 -0.013204074 0.016165614
0.031557903 -0.01323396 0.014995903
0.032610357 -0.013247957 0.014847159
0.033622652 -0.013245286 0.014892787
0.034725171 -0.013277271 0.013820916
0.035764359 -0.013283905 0.014813662
0.036893915 -0.013322803 0.011824042
0.038069598 -0.013375805 0.012403935
0.039167818 -0.013399517 0.0092704594
0.04029543 -0.01343181 0.0089770854
0.041357365 -0.013441144 0.008344233
-0.0041374438 -0.012412332 0.011287004
-0.0031031508 -0.012412603 0.011287272
-0.0020687995 -0.012412798 0.010287911
-0.0010351408 -0.01242169 0.0099223554
0 -0.012303976 0.01384744
0.0010197819 -0.012237383 0.016236544
0.0020373506 -0.012224104 0.016675204
0.0030548812 -0.012219525 0.016845584
0.0040655285 -0.012196586 0.017430305
0.0050799395 -0.012191854 0.017576098
0.0060957181 -0.012191436 0.017575502
0.0071237534 -0.012212149 0.018062294
0.0081322771 -0.012198415 0.017573923
0.0091543579 -0.01220581 0.017914236
0.010170906 -0.012205087 0.017596364
0.011212731 -0.01223207 0.018496841
0.012234116 -0.012234116 0.016716659
0.01325972 -0.012239742 0.017592549
0.014209423 -0.012179505 0.018858045
0.015177325 -0.01214186 0.020074427
0.016111581 -0.012083685 0.020340443
0.017127147 -0.012089751 0.020655006
0.018168813 -0.012112542 0.020238698
0.019233815 -0.012147673 0.019018769
0.020293579 -0.012176147 0.018018156
0.021305537 -0.012174592 0.01821062
0.022317098 -0.012172963 0.018232524
0.023188295 -0.012098241 0.021004677
0.024346257 -0.012173128 0.018641025
0.025387235 -0.012185873 0.018638164
0.026389048 -0.012179561 0.018781215
0.02740935 -0.012181934 0.019288927
0.02832602 -0.012139723 0.020307094
0.029462922 -0.012191555 0.016777694
0.030473303 -0.012189321 0.016166866
0.031599909 -0.012232223 0.014486641
0.032612886 -0.012229832 0.014483809
0.033591185 -0.012214976 0.014213622
0.034601908 -0.012212439 0.014210671
0.035767127 -0.012263015 0.011026084
0.036809359 -0.012269787 0.010708034
0.037859224 -0.012278668 0.012404889
0.038917229 -0.012289651 0.011940897
0.040158965 -0.012356604 0.009560138
0.041329026 -0.012398708 0.0080537796
-0.0051951911 -0.011429421 0.0094347
-0.0041562696 -0.011429741 0.0095568895
-0.0031033736 -0.011379037 0.011873186
-0.0020638281 -0.011351055 0.012897402
-0.0010254019 -0.01127942 0.013385117
0 -0.011241238 0.014214128
0.0010189409 -0.01120835 0.01589638
0.002037497 -0.011206233 0.016091287
0.0030558317 -0.011204717 0.017236918
0.0040658205 -0.011181006 0.017431587
0.0050803046 -0.01117667 0.017041028
0.0060950592 -0.011174275 0.017308563
0.0071187192 -0.011186559 0.018477976
0.0081352973 -0.011186034 0.018477112
0.0091758566 -0.011214935 0.01772052
0.010194791 -0.01121427 0.018133819
0.011213535 -0.011213535 0.018498182
0.012200632 -0.011183912 0.019179255
0.013217112 -0.01118371 0.017837524
0.014208737 -0.011164008 0.017348707
0.01517476 -0.011128156 0.018614054
0.016122481 -0.011084205 0.020171404
0.017135618 -0.011087753 0.021143675
0.018133946 -0.011081856 0.02131182
0.019181982 -0.011105358 0.02014038
0.020254854 -0.01114017 0.018822998
0.021307064 -0.011160843 0.018211961
0.022386983 -0.011193492 0.017138392
0.023419488 -0.011200625 0.017208993
0.024453135 -0.011207687 0.017328143
0.025389051 -0.011171183 0.018639535
0.026345076 -0.011145994 0.019439429
0.02735384 -0.011144157 0.019484907
0.028328044 -0.011128874 0.019141078
0.029507339 -0.011192439 0.016195267
0.030519243 -0.011190389 0.015924871
0.03161912 -0.011219688 0.015046775
0.03268715 -0.011236208 0.014096022
0.033575535 -0.011191846 0.013995945
0.034755118 -0.011244303 0.011369318
0.035797302 -0.011250581 0.011051178
0.036842581 -0.011257456 0.010708779
0.037861917 -0.011256245 0.012405783
0.039095242 -0.011317044 0.010194153
0.04020441 -0.011339705 0.0092696548
-0.0062450292 -0.010408382 0.0083622932
-0.0051955315 -0.010391063 0.0094353259
-0.004144839 -0.010362098 0.010727823
-0.0030958967 -0.010319656 0.012898058
-0.0020550638 -0.010275319 0.014092982
-0.0010219945 -0.010219945 0.01423943
0 -0.010179747 0.014995307
0.0010188858 -0.010188857 0.015361011
0.0020359238 -0.010179618 0.016311795
0.0030498151 -0.01016605 0.017238021
0.0040638926 -0.010159732 0.017627746
0.0050797234 -0.010159447 0.017480969
0.0060877786 -0.010146298 0.017626643
0.0071021207 -0.010145887 0.019405603
0.0081163291 -0.010145411 0.019453436
0.0091183195 -0.010131466 0.019574344
0.010130865 -0.010130865 0.019573152
0.011153946 -0.010139951 0.019644976
0.012167067 -0.010139222 0.019643545
0.013217187 -0.010167066 0.0177899
0.014098793 -0.010070567 0.020517617
0.015137378 -0.010091585 0.019638598
0.016130356 -0.010081473 0.020002186
0.017195756 -0.01011515 0.019439787
0.018175688 -0.010097604 0.020144016
0.019183237 -0.010096441 0.020409644
0.020237917 -0.010118959 0.019189507
0.02137365 -0.010177929 0.017166138
0.022415226 -0.01018874 0.01655516
0.02346441 -0.010201918 0.017088413
0.024481021 -0.010200426 0.017158926
0.025492612 -0.010197045 0.01703465
0.026508113 -0.010195429 0.017007619
0.027486993 -0.010180368 0.017540008
0.028500156 -0.010178627 0.016028941
0.029512791 -0.010176824 0.016147733
0.030605117 -0.010201706 0.014807463
0.03162118 -0.010200381 0.014780372
0.032689281 -0.010215401 0.012954593
0.033579729 -0.010175675 0.013972551
0.034765638 -0.010225188 0.011272907
0.035780504 -0.010223 0.011270493
0.03681438 -0.010226217 0.011049479
0.03786438 -0.010233616 0.011532545
-0.0072706444 -0.0093479715 0.0092401505
-0.0062088277 -0.0093132416 0.010557115
-0.005181211 -0.0093261795 0.0099966824
-0.0041450853 -0.0093264421 0.010606527
-0.0030918743 -0.0092756236 0.013508409
-0.0020518939 -0.0092335232 0.014752209
-0.0010215675 -0.0091941077 0.014898598
0 -0.0091623152 0.014996201
0.0010180318 -0.0091622863 0.014996171
0.0020360446 -0.0091622006 0.016434669
0.003049996 -0.0091499882 0.017531663
0.0040643779 -0.009144851 0.01760444
0.0050763674 -0.0091374619 0.017920911
0.006059248 -0.009088872 0.020065844
0.0070731025 -0.0090939887 0.021089017
0.0080914563 -0.0091028884 0.0207223
0.0091056963 -0.0091056963 0.020087391
0.010124153 -0.0091117378 0.019793659
0.011127795 -0.0091045592 0.019134253
0.012147316 -0.0091104871 0.018572301
0.013170445 -0.009118001 0.01842463
0.014182363 -0.0091172336 0.01842308
0.015176652 -0.0091059916 0.019712836
0.016131314 -0.0090738637 0.020612478
0.017137757 -0.0090729306 0.021146327
0.018102225 -0.0090511125 0.022069663
0.019175118 -0.0090829507 0.020727485
0.020239113 -0.0091076009 0.017851204
0.021358296 -0.0091535561 0.015754819
0.022389771 -0.0091594514 0.015436172
0.023465799 -0.0091822688 0.01669988
0.024524819 -0.0091968076 0.016454071
0.025542792 -0.0091954051 0.016256869
0.026560288 -0.0091939457 0.014648318
0.027636414 -0.0092121381 0.013088852
0.028668707 -0.0092149414 0.01357311
0.029562138 -0.0091744568 0.015370429
0.030523032 -0.0091569098 0.015926868
0.031534493 -0.0091551756 0.015923858
0.032636762 -0.0091790892 0.014778346
0.033581711 -0.0091586486 0.01569882
0.034767687 -0.0092032114 0.013144404
0.035778359 -0.0092001492 0.012194216
0.036847148 -0.009211787 0.011584371
0.038133878 -0.009275808 0.0086438358
-0.0083093597 -0.0083093597 0.009752214
-0.00727103 -0.008309749 0.0092406571
-0.0062179356 -0.0082905805 0.010021269
-0.0051814858 -0.0082903774 0.0099972188
-0.0041106795 -0.008221359 0.013167441
-0.0030783222 -0.0082088597 0.01455766
-0.0020432244 -0.0081728976 0.015484482
-0.0010206463 -0.0081651704 0.014850646
0 -0.008131057 0.016533285
0.0010163789 -0.0081310309 0.016411275
0.0020321291 -0.0081285164 0.018361956
0.0030481461 -0.0081283897 0.017508179
0.0040631304 -0.0081262607 0.017751664
0.0050735893 -0.0081177428 0.018311977
0.0060551814 -0.0080735749 0.021115363
0.0070640906 -0.008073247 0.021114498
0.0080699436 -0.0080699436 0.019382477
0.0090913689 -0.0080812173 0.019210786
0.010100922 -0.0080807377 0.019526601
0.011094867 -0.0080689946 0.020085961
0.012102623 -0.0080684153 0.018987656
0.013148174 -0.0080911834 0.01891306
0.014196763 -0.0081124362 0.018034101
0.015229544 -0.0081224237 0.018373668
0.01622281 -0.0081114052 0.018347502
0.017234961 -0.0081105698 0.01856488
0.018246792 -0.008109685 0.018562853
0.019221256 -0.0080931606 0.021191359
0.020240186 -0.0080960738 0.019581378
0.021290392 -0.0081106247 0.018799603
0.022373546 -0.0081358347 0.017360568
0.023451641 -0.0081570921 0.016238242
0.024483763 -0.0081612542 0.015968114
0.025452876 -0.0081449207 0.016525418
0.026561696 -0.0081728296 0.014649063
0.027651014 -0.0081928931 0.01357615
0.028751954 -0.0082148444 0.012479186
0.029710058 -0.008195878 0.013352513
0.030674195 -0.0081797857 0.013204187
0.031502243 -0.0081296116 0.015292555
0.032706544 -0.008176636 0.012858778
0.033721823 -0.0081749875 0.014217138
0.034903765 -0.0082126502 0.01207599
0.035784494 -0.0081793135 0.013652444
0.036940895 -0.0082090879 0.010564953
0.038135882 -0.0082455967 0.0086442828
-0.0093518104 -0.0072736307 0.0099228323
-0.0082902433 -0.007253963 0.010947317
-0.0072500361 -0.0072500361 0.010265142
-0.0061962809 -0.0072289947 0.010655731
-0.0051454566 -0.007203639 0.012241066
-0.0041077021 -0.007188479 0.013485044
-0.0030781007 -0.0071822349 0.014607131
-0.0020388085 -0.0071358299 0.016387552
-0.001019109 -0.0071337633 0.015485406
0 -0.0071337852 0.015485466
0.001019109 -0.0071337633 0.015485406
0.0020322243 -0.0071127852 0.01836282
0.0030482891 -0.0071126749 0.017801642
0.0040550297 -0.0070963022 0.018727928
0.0050500515 -0.007070072 0.020214856
0.0060554645 -0.0070647085 0.020384848
0.0070644217 -0.0070644217 0.020384014
0.0080703208 -0.0070615308 0.019383401
0.0090786293 -0.007061156 0.019382358
0.010087377 -0.0070611644 0.020063847
0.011095387 -0.007060701 0.020062506
0.012164617 -0.0070960261 0.017111629
0.013184437 -0.0070993118 0.01781711
0.014232401 -0.0071162004 0.017035723
0.015247622 -0.0071155564 0.017911494
0.01614072 -0.0070615648 0.020346463
0.017088728 -0.0070365351 0.021733135
0.018154461 -0.0070600682 0.020342171
0.019222155 -0.0070818467 0.019584686
0.020292278 -0.0071022976 0.016830057
0.02135659 -0.0071188635 0.015829414
0.022370575 -0.0071179103 0.017848343
0.023384141 -0.0071169124 0.01816234
0.024439629 -0.0071282252 0.016333967
0.025454065 -0.0071271383 0.016331494
0.0264269 -0.0071149347 0.0168643
0.027489709 -0.0071269618 0.016812831
0.028671559 -0.0071678897 0.013696134
0.029662069 -0.0071598096 0.013572097
0.030518772 -0.007121047 0.015515029
0.031503711 -0.0071137412 0.016047001
0.032708071 -0.0071548903 0.013491422
0.033839688 -0.0071781157 0.012808174
0.034857888 -0.0071766237 0.01263544
0.03587544 -0.0071750879 0.012122542
0.036957912 -0.0071862605 0.010395437
-0.010390706 -0.0062344237 0.0099226236
-0.0093428651 -0.0062285769 0.010995954
-0.0082857041 -0.0062142783 0.011313558
-0.0072503304 -0.0062145689 0.012313783
-0.0061936062 -0.0061936062 0.011680305
-0.0051432271 -0.0061718724 0.013631582
-0.0041025039 -0.0061537558 0.014851272
-0.0030721899 -0.0061443797 0.015485644
-0.0020314534 -0.0060943598 0.016851544
-0.0010157361 -0.0060944171 0.01592496
0 -0.006114922 0.015486091
0.0010191504 -0.0061149024 0.015242189
0.0020308436 -0.0060925311 0.017778277
0.0030405479 -0.0060810959 0.01748535
0.0040505612 -0.0060758418 0.017826378
0.0050472091 -0.0060566505 0.018484294
0.0060560759 -0.0060560759 0.019117683
0.0070647085 -0.0060554645 0.019580185
0.008063335 -0.0060475008 0.01974991
0.0090296259 -0.0060197501 0.021577477
0.010087786 -0.0060526715 0.01867497
0.011128018 -0.0060698278 0.018893152
0.012171692 -0.0060858461 0.01689294
0.01321745 -0.0061003617 0.018256575
0.014232978 -0.0060998476 0.016890198
0.015230875 -0.00609235 0.017351717
0.016143324 -0.0060537467 0.019494414
0.017153623 -0.0060542198 0.019419312
0.018222073 -0.0060740244 0.018052876
0.01933633 -0.0061062095 0.016857147
0.020361301 -0.0061083906 0.016660243
0.021357454 -0.0061021298 0.017023414
0.022308532 -0.006084145 0.018993556
0.023351489 -0.0060916925 0.017627448
0.024373429 -0.0060933572 0.017454445
0.025455095 -0.0061092228 0.01633215
0.026396332 -0.0060914615 0.017156988
0.027439905 -0.0060977568 0.016862214
0.028483689 -0.0061036474 0.01620242
0.02951866 -0.0061073089 0.015567183
0.030520003 -0.0061040004 0.015710205
0.031531364 -0.0061028446 0.016315103
0.03270939 -0.0061330106 0.013491958
0.033895195 -0.0061627626 0.01142332
0.034931585 -0.0061643971 0.011226594
0.035957668 -0.0061641717 0.010106564
-0.010378264 -0.0051891319 0.010434926
-0.0093300194 -0.0051833442 0.01158154
-0.008272334 -0.0051702089 0.011996657
-0.0072258287 -0.0051613064 0.012728781
-0.0061429753 -0.0051191458 0.013851047
-0.0051052994 -0.0051052994 0.015363455
-0.0040843547 -0.0051054433 0.015412658
-0.003063333 -0.0051055546 0.01646167
-0.0020333522 -0.0050833807 0.015437633
-0.0010163197 -0.0050815991 0.015584081
0 -0.0050959429 0.01546225
0.0010191854 -0.005095927 0.015242696
0.0020321328 -0.005080332 0.015071839
0.0030406525 -0.0050677541 0.016071469
0.0040394822 -0.005049353 0.018339127
0.0050470768 -0.0050470768 0.018045992
0.0060566505 -0.0050472091 0.018484294
0.0070658051 -0.0050470037 0.019532084
0.0080992114 -0.0050620069 0.018604577
0.009060109 -0.0050333939 0.020432264
0.010117999 -0.0050589996 0.01748094
0.011142478 -0.0050647631 0.01786989
0.012189661 -0.0050790254 0.016308486
0.013244838 -0.0050941687 0.017428458
0.014233466 -0.0050833807 0.016890764
0.015248762 -0.0050829207 0.016889244
0.016143879 -0.0050449623 0.018739611
0.017149033 -0.0050438335 0.01878643
0.018155819 -0.0050432831 0.019247323
0.019232851 -0.0050612767 0.01797834
0.020293796 -0.0050734491 0.01695314
0.021305764 -0.0050728009 0.016585618
0.022309298 -0.0050702947 0.014976203
0.02334249 -0.005074454 0.015558422
0.024353815 -0.0050737117 0.017406374
0.025463574 -0.0050927144 0.015821546
0.026397234 -0.0050763912 0.01706025
0.027565671 -0.0051047541 0.014453769
0.028484663 -0.0050865472 0.015448779
0.02951967 -0.0050895982 0.015300125
0.030521048 -0.0050868415 0.015516192
0.03153244 -0.0050858771 0.015513241
0.032805804 -0.0051259068 0.012228251
0.033896349 -0.0051358105 0.011350781
0.034936909 -0.0051377807 0.010886729
-0.012451093 -0.0041503641 0.010799468
-0.011375435 -0.0041365218 0.0098494589
-0.010339545 -0.0041358178 0.01033771
-0.0093088867 -0.0041372827 0.010460228
-0.0082579348 -0.0041289674 0.012118936
-0.0072260322 -0.0041291611 0.013704509
-0.0061720456 -0.0041146972 0.013022244
-0.0050978223 -0.0040782578 0.016022325
-0.0040783728 -0.0040783728 0.016022801
-0.0030500665 -0.0040667551 0.015535355
-0.0020334092 -0.0040668184 0.015535623
-0.0010164703 -0.004065881 0.015633315
0 -0.0040878444 0.014365137
0.0010190922 -0.0040763686 0.013877332
0.0020321899 -0.0040643797 0.014999062
0.0030418353 -0.0040557804 0.014803767
0.0040466683 -0.0040466683 0.016754448
0.005049353 -0.0040394822 0.017875761
0.0060590152 -0.0040393434 0.018338472
0.0070907543 -0.0040518595 0.018118292
0.0081247976 -0.0040623988 0.017337114
0.0091069965 -0.004047554 0.018628508
0.010112188 -0.0040448755 0.018871188
0.011129382 -0.0040470483 0.018626183
0.012190004 -0.0040633348 0.015821338
0.013238871 -0.0040734988 0.017623961
0.014164765 -0.0040470758 0.018865556
0.015198923 -0.004053046 0.0182302
0.016144332 -0.0040360829 0.018740147
0.01722097 -0.0040519931 0.017105639
0.018143171 -0.004031816 0.01954028
0.019233393 -0.0040491349 0.017978847
0.020256611 -0.0040513221 0.017708719
0.021232199 -0.0040442282 0.016147703
0.022276441 -0.0040502618 0.015585393
0.023320742 -0.0040557813 0.016995519
0.024372026 -0.0040620044 0.01726076
0.025397347 -0.0040635755 0.017039031
0.02640905 -0.0040629306 0.016622603
0.027566444 -0.0040839175 0.014064848
0.028127816 -0.0040182592 0.020558447
0.029497569 -0.0040686303 0.015616745
0.030425226 -0.0040566968 0.015808493
0.031450402 -0.0040581166 0.015416443
0.032806721 -0.0041008401 0.01123184
0.03393339 -0.0041131382 0.0099413097
-0.01770084 -0.0031236776 0.0086992085
-0.016661329 -0.0031239993 0.0088950694
-0.015621508 -0.0031243016 0.0083597302
-0.01454471 -0.0031167234 0.0084823966
-0.013465744 -0.0031074793 0.009750694
-0.012408946 -0.0031022364 0.012213677
-0.011310649 -0.0030847224 0.013750523
-0.010292836 -0.003087851 0.01131323
-0.0092641022 -0.0030880342 0.012216091
-0.0082405591 -0.0030902098 0.012192339
-0.0072108274 -0.0030903546 0.012997627
-0.0061432822 -0.0030716411 0.014339477
-0.0050848252 -0.0030508952 0.016412914
-0.0040679746 -0.0030509811 0.016340226
-0.0030510477 -0.0030510477 0.015413791
-0.0020360148 -0.0030540223 0.015023768
-0.0010167365 -0.0030502095 0.015950739
0 -0.0030557066 0.014584959
0.0010205169 -0.0030615507 0.013292283
0.0020322346 -0.0030483517 0.01499939
0.0030419019 -0.0030419019 0.015267432
0.0040396843 -0.0030297632 0.017462045
0.0050488538 -0.0030293122 0.017924905
0.0060584168 -0.0030292084 0.019192398
0.0070909099 -0.0030389614 0.016606778
0.0081249755 -0.003046866 0.017410666
0.0091362726 -0.0030454241 0.017068356
0.01011241 -0.003033723 0.018871635
0.011129625 -0.0030353523 0.018626601
0.012133224 -0.003033306 0.019405335
0.013205096 -0.0030473298 0.017794967
0.014138629 -0.0030297062 0.018719733
0.015209309 -0.0030418618 0.017060727
0.016149558 -0.0030280421 0.018375009
0.017157139 -0.0030277304 0.018616796
0.018155629 -0.0030259381 0.019272655
0.019162064 -0.003025589 0.019952565
0.020257052 -0.0030385579 0.018464208
0.021232663 -0.0030332375 0.01851058
0.022276927 -0.0030377626 0.017850578
0.023205042 -0.0030267446 0.019966453
0.024325814 -0.0030407268 0.018088907
0.025394859 -0.0030473829 0.017088115
0.026504543 -0.0030582165 0.015406102
0.027567044 -0.0030630049 0.013773143
0.028583158 -0.0030624813 0.014062762
0.029598737 -0.0030619383 0.013744026
0.030628363 -0.0030628361 0.013546914
0.031647079 -0.0030626208 0.012790591
0.032842442 -0.003078979 0.010599971
-0.017631728 -0.002074321 0.010526955
-0.016617723 -0.0020772154 0.0107961
-0.015486483 -0.0020648644 0.012820125
-0.014500573 -0.0020715105 0.011529386
-0.013400196 -0.0020615687 0.012797952
-0.01236087 -0.0020601449 0.013822854
-0.011322225 -0.0020585863 0.014165193
-0.01026069 -0.0020521379 0.013507813
-0.0092351688 -0.0020522599 0.013508618
-0.0082104495 -0.0020526124 0.013460577
-0.0071844803 -0.0020527088 0.014509797
-0.0061437441 -0.0020479148 0.015485853
-0.0050910022 -0.0020364008 0.016632646
-0.0040704771 -0.0020352385 0.016876996
-0.0030529248 -0.0020352833 0.015584707
-0.0020360465 -0.0020360465 0.015438646
-0.0010165084 -0.0020330169 0.015633911
0 -0.0020310723 0.014414459
0.0010140084 -0.0020280168 0.015414417
0.0020310467 -0.0020310467 0.015292317
0.0030501809 -0.0020334539 0.014316499
0.0040590144 -0.0020295072 0.016511172
0.0050653946 -0.0020261577 0.017169178
0.0060585109 -0.0020195036 0.019192696
0.0070910202 -0.0020260059 0.018484771
0.0081216889 -0.0020304222 0.017581612
0.0091270879 -0.0020282418 0.017751396
0.010085138 -0.0020170275 0.019969136
0.011092924 -0.0020168952 0.019967824
0.012120981 -0.0020201635 0.019405663
0.013130037 -0.0020200056 0.019404173
0.014123492 -0.0020176417 0.019158781
0.015135514 -0.0020180685 0.01903519
0.016149811 -0.0020187264 0.018862724
0.017164657 -0.0020193714 0.018933892
0.018212926 -0.0020236585 0.018517613
0.019215595 -0.0020226941 0.018466741
0.020252496 -0.0020252496 0.017904222
0.021232992 -0.0020221898 0.018462151
0.022265218 -0.0020241106 0.018070042
0.023205403 -0.0020178612 0.020015478
0.024372937 -0.0020310781 0.017577916
0.025398297 -0.0020318637 0.017039686
0.026468571 -0.0020360439 0.015041202
0.027482059 -0.0020357082 0.015038759
0.028440541 -0.0020314672 0.015790403
0.029509252 -0.002035121 0.014984876
0.030628838 -0.0020419226 0.013547122
0.031760644 -0.0020490738 0.011429042
0.03302189 -0.0020638681 0.0083634257
-0.017631894 -0.0010371702 0.010332108
-0.016591558 -0.0010369724 0.01196602
-0.015470174 -0.001031345 0.013258934
-0.014455493 -0.0010325352 0.012577653
-0.013401113 -0.0010308549 0.012773693
-0.012358791 -0.0010298992 0.013189167
-0.011286795 -0.0010260723 0.014750481
-0.010260786 -0.0010260786 0.013459176
-0.0092176991 -0.0010241888 0.014118344
-0.0081939455 -0.0010242432 0.014289796
-0.007165344 -0.0010236206 0.014558703
-0.0061375829 -0.0010229305 0.015949368
-0.0050849523 -0.0010169904 0.01712057
-0.0040680761 -0.001017019 0.017121077
-0.003054051 -0.0010180169 0.015438527
-0.0020371631 -0.0010185816 0.015219271
-0.0010110303 -0.0010110303 0.017195016
0 -0.001009753 0.017609715
0.001009079 -0.001009079 0.017877936
0.002023017 -0.0010115085 0.018097281
0.0030333807 -0.0010111269 0.017975062
0.0040444192 -0.0010111048 0.017974675
0.0050553815 -0.0010110763 0.017974138
0.0060585677 -0.0010097614 0.019095331
0.0071064504 -0.0010152071 0.016899794
0.0081373714 -0.0010171714 0.016289353
0.0091271736 -0.0010141304 0.017312646
0.010140702 -0.0010140702 0.016677678
0.011093028 -0.001008457 0.019529164
0.012121094 -0.0010100912 0.019600868
0.01313016 -0.0010100123 0.019648105
0.01412789 -0.001009135 0.019914567
0.015148451 -0.0010098967 0.018377304
0.016149962 -0.0010093726 0.018546075
0.017164817 -0.0010096951 0.018934071
0.018164853 -0.0010091586 0.019443661
0.019147497 -0.001007763 0.020269781
0.02011627 -0.0010058135 0.021460921
0.021009415 -0.0010004484 0.023552865
0.022087282 -0.0010039674 0.022332013
0.02319302 -0.0010083922 0.020575732
0.024267988 -0.0010111661 0.019331038
0.02539549 -0.0010158196 0.0154576
0.026418192 -0.0010160843 0.015503794
0.027360763 -0.0010133616 0.016985714
0.028423771 -0.0010151346 0.016033888
0.029509528 -0.0010175699 0.014984995
0.030669255 -0.0010223085 0.013012201
0.031996515 -0.0010321456 0.0089487731
0.033022199 -0.0010319437 0.0081933141
-0.017532526 0 0.011209399
-0.016517522 0 0.01313588
-0.015470224 0 0.012332827
-0.014455538 0 0.011943936
-0.013439184 0 0.011481702
-0.01240637 0 0.011482626
-0.011322366 0 0.012166113
-0.010268743 0 0.013020307
-0.009211693 0 0.014118373
-0.0081886062 0 0.014387369
-0.0071636592 0 0.014656305
-0.0061376025 0 0.015949458
-0.0050767376 0 0.018998504
-0.0040558944 0 0.019096613
-0.0030419873 0 0.017609268
-0.0020353405 0 0.014975399
-0.0010084115 0 0.017731667
0 0 0.017463416
0.0010090822 0 0.017731637
0.0020230233 0 0.018097341
0.0030344876 0 0.018097073
0.0040719914 0 0.015487045
0.005089846 0 0.015486598
0.0061156536 0 0.015266567
0.0071064723 0 0.017850935
0.0081695858 0 0.015655398
0.0091475016 0 0.018166125
0.010194985 0 0.01423946
0.01106289 0 0.01972425
0.012213286 0 0.015480846
0.01318249 0 0.017795503
0.014195331 0 0.016940862
0.015148498 0 0.018377364
0.016156835 0 0.019277275
0.017164869 0 0.019275278
0.018141884 0 0.019614309
0.01911284 0 0.020342946
0.020087101 0 0.020462245
0.020962166 0 0.022870958
0.022166377 0 0.019068748
0.023170691 0 0.020965368
0.024268065 0 0.017042518
0.025395568 0 0.015433282
0.026418276 0 0.015309155
0.027360847 0 0.016985774
0.028423861 0 0.015741974
0.029509619 0 0.014693141
-0.018687857 0.0010382143 0.0096731484
-0.017540757 0.0010318093 0.011989117
-0.01650285 0.0010314281 0.01225847
-0.015460121 0.0010306747 0.012576491
-0.014458906 0.001032779 0.011797637
-0.013435974 0.0010335364 0.011506051
-0.012339044 0.0010282537 0.012847871
-0.011287466 0.0010261332 0.013409525
-0.010260786 0.0010260786 0.013069063
-0.0092094699 0.0010232744 0.014215857
-0.00818663 0.0010233287 0.014216632
-0.0071538212 0.0010219745 0.015217155
-0.0061156345 0.0010192724 0.017193139
-0.0050819037 0.0010163807 0.01836437
-0.0040558819 0.0010139705 0.017608821
-0.003041978 0.0010139927 0.01758486
-0.0020280168 0.0010140084 0.016438782
-0.0010081034 0.0010081034 0.018463284
0 0.001009753 0.017707258
0.0010097497 0.0010097497 0.017755985
0.002023017 0.0010115085 0.017511934
0.0030344783 0.0010114927 0.018609196
0.0040544183 0.0010136046 0.01665765
0.0050800745 0.001016015 0.016266972
0.0060944171 0.0010157361 0.016363949
0.0071098646 0.0010156949 0.016631544
0.0081568789 0.0010196099 0.016289383
0.0091584455 0.0010176051 0.01767841
0.010163256 0.0010163256 0.015775532
0.011093028 0.001008457 0.018895239
0.012213248 0.0010177706 0.016529083
0.013229986 0.0010176912 0.016576558
0.014254155 0.0010181539 0.016307026
0.01520786 0.0010138573 0.018913478
0.016156785 0.0010097991 0.019277215
0.017206242 0.0010121319 0.018836617
0.018108934 0.0010060519 0.020686328
0.019112779 0.0010059357 0.021219939
0.020087039 0.0010043519 0.019658297
0.021087417 0.0010041627 0.021385133
0.02216363 0.0010074377 0.020018488
0.023089411 0.0010038875 0.021379262
0.024174498 0.0010072708 0.018186748
0.025196183 0.0010078474 0.017891884
0.026282137 0.0010108515 0.017402232
0.027360763 0.0010133616 0.016985714
0.028423771 0.0010151346 0.015668958
-0.018755663 0.0020839626 0.0084791183
-0.017540593 0.0020635992 0.011989027
-0.016488073 0.0020610092 0.012599528
-0.015396913 0.0020529218 0.01420933
-0.014348717 0.0020498168 0.014454365
-0.013337607 0.0020519395 0.013724297
-0.012312599 0.0020520999 0.013432831
-0.01128736 0.0020522473 0.01321435
-0.010228383 0.0020456766 0.014361233
-0.0092077367 0.0020461639 0.014215738
-0.0081850896 0.0020462724 0.014143318
-0.0071388176 0.0020396621 0.015558392
-0.0061148452 0.0020382816 0.015632212
-0.0050818566 0.0020327426 0.016754568
-0.0040558437 0.0020279218 0.017584294
-0.0030419494 0.0020279663 0.017584682
-0.0020243395 0.0020243395 0.018341005
-0.001017606 0.002035212 0.01509735
0 0.0020335112 0.015438855
0.0010167523 0.0020335047 0.015438795
0.0020272662 0.0020272662 0.016877621
0.003040852 0.0020272348 0.017755389
0.0040543806 0.0020271903 0.016657472
0.0050778934 0.0020311573 0.016754597
0.0060932622 0.0020310874 0.016754031
0.007109798 0.0020313708 0.017875105
0.0081568025 0.0020392006 0.016289204
0.0091583598 0.002035191 0.017678231
0.010085138 0.0020170275 0.020383626
0.011072139 0.0020131161 0.021138102
0.012100503 0.0020167504 0.020380825
0.013259967 0.0020399948 0.01569882
0.014318004 0.0020454293 0.01321125
0.015249762 0.0020333016 0.018352717
0.016195627 0.0020244534 0.019106418
0.017206082 0.002024245 0.019104451
0.018216215 0.002024024 0.018834382
0.019239897 0.0020252522 0.015908688
0.020153839 0.0020153839 0.016929865
0.021236829 0.0020225551 0.016830266
0.022245128 0.0020222843 0.016828001
0.023253009 0.0020220007 0.017142177
0.024191801 0.0020159835 0.017553598
0.025162479 0.0020129983 0.018086433
0.026359413 0.0020276471 0.016209483
0.027460705 0.0020341263 0.014965773
0.028844181 0.0020602986 0.0094158649
-0.018755371 0.003125895 0.0084059238
-0.017540319 0.0030953502 0.011988848
-0.016421529 0.0030790365 0.014256477
-0.015350973 0.0030701947 0.015427738
-0.014316929 0.0030679132 0.015356004
-0.013295411 0.0030681719 0.015016019
-0.012264868 0.0030662171 0.015309781
-0.011270422 0.0030737515 0.013604224
-0.010213595 0.0030640785 0.014921725
-0.0091872951 0.0030624315 0.01504454
-0.008158139 0.0030593022 0.015484273
-0.0071378532 0.0030590799 0.015533745
-0.0061129211 0.0030564605 0.015583187
-0.005081777 0.0030490661 0.01660803
-0.0040484644 0.0030363481 0.018291265
-0.0030479382 0.0030479382 0.01570642
-0.0020243081 0.003036462 0.019487023
-0.0010175902 0.0030527704 0.015097082
0 0.0030542433 0.015097141
0.0010127123 0.0030381368 0.01704824
0.0020254054 0.0030381083 0.018194377
0.0030376948 0.0030376948 0.018242896
0.0040543173 0.0030407379 0.018340021
0.0050799479 0.0030479687 0.018095642
0.0060942648 0.0030471324 0.018192589
0.0071587637 0.0030680415 0.015387446
0.0081620412 0.0030607653 0.014777124
0.00917303 0.0030576768 0.015166491
0.010127039 0.0030381116 0.017750055
0.01109275 0.0030252954 0.020381957
0.012140538 0.0030351344 0.019039661
0.013156769 0.0030361773 0.018867552
0.014246974 0.0030529229 0.016331017
0.015210222 0.0030420446 0.01774314
0.016222669 0.0030417503 0.016644746
0.017239988 0.0030423508 0.017885804
0.018252114 0.003042019 0.017883837
0.019239597 0.003037831 0.017053455
0.020193718 0.003029058 0.016344965
0.021259516 0.0030370736 0.016172379
0.022266211 0.0030363014 0.01621893
0.023291847 0.0030380671 0.015924454
0.024318509 0.0030398136 0.015435249
0.025195558 0.0030234668 0.017550647
0.026359001 0.0030414232 0.015722454
0.027706662 0.003078518 0.011315405
-0.026943749 0.004145192 0.011000603
-0.025911562 0.00414585 0.010174751
-0.024981143 0.0041635241 0.0084721446
-0.016381204 0.004095301 0.015255302
-0.015337843 0.0040900917 0.015037447
-0.014306379 0.0040875366 0.015331298
-0.01327373 0.0040842248 0.015259445
-0.012254362 0.0040847873 0.015236288
-0.011233971 0.0040850807 0.014408469
-0.01021337 0.0040853485 0.014433801
-0.0091772191 0.004078764 0.015483111
-0.0081579601 0.0040789801 0.015483916
-0.0071257474 0.0040718555 0.017996371
-0.0061054709 0.0040703141 0.016070575
-0.0050819707 0.0040655765 0.017558753
-0.0040525217 0.0040525217 0.017876267
-0.0030478716 0.0040638288 0.015706092
-0.0020260927 0.0040521855 0.016876996
-0.0010175678 0.0040702713 0.015096754
0 0.0040510171 0.018413723
0.00101269 0.0040507601 0.018242925
0.0020253612 0.0040507223 0.018437862
0.0030376285 0.004050171 0.018291265
0.0040610572 0.0040610572 0.017656773
0.0050801416 0.0040641134 0.018070847
0.0060959603 0.0040639737 0.018070221
0.0071517788 0.004086731 0.01577729
0.0081540588 0.0040770294 0.013679504
0.0091728298 0.0040768133 0.015166163
0.010132912 0.0040531647 0.017505854
0.011138769 0.0040504611 0.017992288
0.012145392 0.0040484639 0.018868625
0.013151727 0.0040466851 0.019013375
0.014162206 0.0040463447 0.018743694
0.015193439 0.0040515838 0.017084688
0.016204767 0.0040511917 0.017083049
0.017215792 0.004050775 0.017739207
0.018208956 0.0040464345 0.018127084
0.019185947 0.0040391469 0.018076241
0.020193279 0.0040386557 0.017148435
0.021342164 0.0040651741 0.014442801
0.022355463 0.0040646298 0.014586985
0.023368344 0.0040640598 0.014584929
0.02442315 0.0040705251 0.014144599
0.025519054 0.0040830486 0.0137043
0.026684308 0.0041052783 0.01070857
-0.028066628 0.0051975236 0.0083462
-0.026942993 0.0051813447 0.0098564923
-0.025862155 0.005172431 0.010636955
-0.024945388 0.005196956 0.0087153316
-0.016380744 0.0051189824 0.013890237
-0.015316391 0.0051054638 0.015012652
-0.014296593 0.0051059262 0.015160263
-0.013273357 0.0051051378 0.014966547
-0.012249629 0.0051040123 0.015089601
-0.011229634 0.0051043793 0.014554322
-0.010206989 0.0051034945 0.014677197
-0.009186836 0.0051037977 0.016750574
-0.0081611453 0.0051007159 0.017092794
-0.007123413 0.0050881524 0.018142164
-0.0060950578 0.0050792149 0.018313587
-0.0050879247 0.0050879247 0.017631382
-0.0040621622 0.0050777029 0.017900169
-0.0030393722 0.0050656204 0.017339617
-0.0020254261 0.0050635654 0.016632646
-0.0010127225 0.0050636125 0.01602307
0 0.005059056 0.017583996
0.0010037598 0.0050187991 0.021803081
0.002015793 0.0050394824 0.020339608
0.0030238249 0.0050397082 0.020119816
0.0040499689 0.0050624609 0.018753707
0.0050528692 0.0050528692 0.020240754
0.006069087 0.0050575724 0.019849896
0.0070803137 0.005057367 0.018873692
0.0080914078 0.00505713 0.016678274
0.0091171637 0.005065091 0.01597032
0.010132628 0.0050663138 0.017285943
0.011186057 0.0050845714 0.016260862
0.012177959 0.0050741499 0.017161697
0.013191761 0.0050737541 0.017501593
0.014205314 0.0050733266 0.017500132
0.015209462 0.0050698207 0.016645551
0.016221859 0.0050693308 0.016229659
0.017172853 0.0050508389 0.018079847
0.018150337 0.0050417604 0.018784404
0.019156478 0.0050411788 0.018782228
0.020298667 0.0050746668 0.015954405
0.021341564 0.0050813248 0.014588505
0.022399032 0.0050906893 0.013782978
0.023432091 0.0050939326 0.013732344
0.024532018 0.0051108371 0.01319477
0.025735885 0.0051471773 0.010344863
-0.027911279 0.0062025068 0.011728108
-0.026829759 0.0061914828 0.012533128
-0.02585214 0.0062045138 0.010782659
-0.024877345 0.0062193363 0.0096887946
-0.023799479 0.00620856 0.010469317
-0.022867016 0.0062364591 0.0086688399
-0.016434764 0.0061630369 0.012403309
-0.015293934 0.0061175739 0.015402049
-0.01427563 0.0061181271 0.015598446
-0.013272902 0.0061259549 0.014966011
-0.012249209 0.0061246045 0.014552772
-0.011229248 0.0061250445 0.014553815
-0.010183478 0.0061100866 0.015603095
-0.0091673192 0.006111546 0.018017799
-0.0081476988 0.0061107739 0.015994996
-0.0071223155 0.0061048418 0.016410291
-0.0060948483 0.0060948483 0.017093718
-0.0050962847 0.0061155418 0.016947985
-0.0040620225 0.0060930336 0.017899573
-0.0030533513 0.0061067026 0.016851246
-0.0020241372 0.0060724113 0.01746121
-0.0010126878 0.0060761264 0.017095596
0 0.0060706586 0.01758337
0.0010133585 0.0060801506 0.017949134
0.0020249907 0.006074972 0.01829043
0.0030374387 0.0060748775 0.017729223
0.0040422697 0.006063405 0.017802
0.0050392835 0.0060471403 0.019484073
0.0060568079 0.0060568079 0.018825024
0.0070659891 0.0060565621 0.01882425
0.0080838157 0.006062862 0.019237876
0.0091031352 0.0060687573 0.018407881
0.010132279 0.0060793678 0.01767543
0.011189695 0.0061034695 0.016040891
0.012201675 0.0061008376 0.016356647
0.013191308 0.006088296 0.01715976
0.014238949 0.0061024064 0.015257239
0.015262862 0.0061051445 0.014524728
0.016278811 0.0061045536 0.015035093
0.017172262 0.0060607987 0.018371612
0.018180411 0.0060601369 0.018369585
0.019285418 0.0060901321 0.015955806
0.020455075 0.0061365231 0.011886239
0.021399647 0.0061141853 0.01424706
0.022442462 0.0061206711 0.01283285
0.023481686 0.0061256574 0.01385361
0.024599826 0.0061499565 0.012171865
-0.029017245 0.0072543113 0.010606587
-0.027855955 0.0072219139 0.012530565
-0.02680653 0.0072171427 0.012873322
-0.025779599 0.0072182878 0.012364239
-0.024769718 0.0072245011 0.01146543
-0.023755116 0.0072298185 0.011223644
-0.022748239 0.0072380761 0.0095937848
-0.021793848 0.007264616 0.0081338882
-0.016434098 0.0071899178 0.01169619
-0.015315246 0.0071471147 0.014182985
-0.014292111 0.0071460553 0.01472044
-0.013272364 0.0071466574 0.014721692
-0.012223117 0.0071301516 0.015283465
-0.011205329 0.0071306638 0.015284598
-0.010135526 0.007094868 0.01960066
-0.0091225132 0.0070952885 0.019991875
-0.0081254235 0.0071097459 0.017091542
-0.0071245865 0.0071245865 0.015653729
-0.006094601 0.0071103675 0.017068624
-0.0050771791 0.0071080509 0.016386479
-0.0040508844 0.0070890477 0.01884982
-0.0030418879 0.0070977383 0.018362522
-0.002024055 0.0070841922 0.019143164
-0.0010117322 0.0070821252 0.017582625
0 0.0070791594 0.018216729
0.0010108177 0.0070757237 0.017948389
0.0020216163 0.0070756576 0.018411577
0.0030298168 0.0070695723 0.018045515
0.0040396671 0.0070694173 0.01884985
0.0050473083 0.0070662317 0.018215299
0.0060565621 0.0070659891 0.019019336
0.0070669823 0.0070669823 0.019237995
0.0080908015 0.0070794513 0.018871367
0.0091027664 0.0070799291 0.018455923
0.010128821 0.0070901751 0.016992062
0.01118924 0.0071204253 0.015650243
0.012206298 0.0071203406 0.015624732
0.013190772 0.0071027237 0.016598463
0.014238371 0.0071191853 0.014111131
0.015267725 0.0071249385 0.014377981
0.016310314 0.0071357624 0.013986677
0.017256476 0.007105608 0.015398413
0.018345214 0.0071342499 0.013983727
0.019436209 0.0071607088 0.012959033
0.020489562 0.0071713468 0.012299836
0.021498507 0.0071661691 0.012541771
0.022519229 0.0071652094 0.010933042
0.023577329 0.0071757087 0.011929691
0.024807692 0.0072355764 0.0084469616
-0.072057374 0.0083544785 0.0085068047
-0.071136594 0.0083690109 0.0094239116
-0.070082955 0.008368114 0.0096442401
-0.069064856 0.0083714984 0.0096481442
-0.030133251 0.0083126212 0.0087071359
-0.02897843 0.0082795518 0.011141211
-0.027846444 0.0082507981 0.012651622
-0.026787881 0.0082424255 0.013140351
-0.025778396 0.0082490863 0.012801737
-0.024777323 0.0082591074 0.011927396
-0.023777807 0.0082705412 0.011223108
-0.022747176 0.0082717007 0.010810763
-0.021792829 0.0083020302 0.0090832412
-0.016406041 0.0082030203 0.011963665
-0.015356564 0.0081901671 0.012647122
-0.014291442 0.0081665386 0.014719754
-0.0132559 0.0081574768 0.015208423
-0.012235708 0.0081571387 0.015258402
-0.01121687 0.0081577236 0.015771389
-0.010135051 0.0081080403 0.019599736
-0.0091220867 0.0081085218 0.018186897
-0.0081099272 0.0081099272 0.018139064
-0.0070999321 0.0081142085 0.017042756
-0.006075663 0.008100884 0.017726153
-0.0050162878 0.0080260606 0.020677179
-0.0040477682 0.0080955364 0.018605083
-0.0030417452 0.0081113204 0.018361658
-0.0020278618 0.0081114471 0.018361926
-0.0010136355 0.0081090843 0.017825633
0 0.0080900891 0.018776745
0.001011258 0.0080900639 0.018215805
0.0020220091 0.0080880364 0.017240286
0.0030322352 0.0080859605 0.017337501
0.004039234 0.008078468 0.018068671
0.0050370139 0.0080592223 0.019067854
0.0060314084 0.0080418773 0.020091295
0.0070666512 0.0080761733 0.018749446
0.0080943238 0.0080943238 0.01848042
0.0090990486 0.008088043 0.018601358
0.010116768 0.0080934139 0.017478824
0.011188716 0.0081372475 0.015649468
0.012210114 0.008140076 0.015477777
0.013116489 0.0080716852 0.018864334
0.014199321 0.0081138983 0.015475273
0.015201217 0.0081073157 0.016131759
0.01629201 0.0081460048 0.014668286
0.017308477 0.0081451656 0.01415512
0.018344356 0.0081530474 0.014689535
0.019445714 0.0081876693 0.011472613
0.022641381 0.0082332296 0.0089116096
0.023667218 0.0082320757 0.01003021
-0.073163785 0.0094067724 0.0086949468
-0.072090961 0.0094031692 0.0083622038
-0.071075708 0.0094070788 0.0083656609
-0.040389221 0.0093205897 0.0085426867
-0.028953062 0.0093063414 0.010775775
-0.027787495 0.0092624985 0.012796938
-0.026762737 0.009264024 0.013431698
-0.025737485 0.0092654945 0.011754572
-0.024762869 0.0092860758 0.01209715
-0.023738755 0.0092890784 0.011879802
-0.022712493 0.0092914747 0.011978865
-0.021737983 0.0093162786 0.010787308
-0.020756628 0.0093404828 0.0090839267
-0.017605754 0.0093206931 0.0087947249
-0.016425638 0.0092394212 0.012450308
-0.015371284 0.0092227701 0.012987584
-0.01433333 0.0092142839 0.013403058
-0.013239355 0.009165707 0.015695065
-0.012218973 0.009164229 0.0157938
-0.01115997 0.0091308849 0.017818034
-0.010135732 0.0091221584 0.018062949
-0.0091227004 0.0091227004 0.017820239
-0.0081094969 0.0091231838 0.018138111
-0.0071238745 0.0091592669 0.01565218
-0.0060775341 0.0091163013 0.01757893
-0.0050160219 0.0090288389 0.0200665
-0.0040182946 0.0090411631 0.020140201
-0.0030265879 0.0090797637 0.019555479
-0.002027754 0.0091248937 0.018385321
-0.0010095583 0.0090860249 0.020189971
0 0.0090619139 0.020507008
0.0010068761 0.0090618851 0.019946098
0.0020214145 0.0090963645 0.018409729
0.0030295139 0.0090885414 0.017677993
0.0040280474 0.009063107 0.019311219
0.0050260792 0.0090469429 0.019871473
0.0060299905 0.0090449853 0.020090193
0.0070662764 0.0090852119 0.01835838
0.0080938945 0.0091056312 0.018308789
0.0090985661 0.0090985661 0.018600345
0.010115012 0.0091035105 0.017502308
0.011178069 0.009145692 0.016379893
0.012210199 0.0091576492 0.015818149
0.013115793 0.0090801641 0.019228876
