ply
format ascii 1.0
comment PCL generated
element vertex 1265
property float x
property float y
property float z
element camera 0
property float view_px
property float view_py
property float view_pz
property float x_axisx
property float x_axisy
property float x_axisz
property float y_axisx
property float y_axisy
property float y_axisz
property float z_axisx
property float z_axisy
property float z_axisz
property float focal
property float scalex
property float scaley
property float centerx
property float centery
property int viewportx
property int viewporty
property float k1
property float k2
end_header
0.00610766 -0.020358866 0.019022882
0.0070890845 -0.020254526 0.021092385
0.0081545254 -0.020386314 0.018948138
0.009114176 -0.020253723 0.021577358
0.010160966 -0.020321932 0.02009058
0.011147535 -0.020268247 0.019870102
0.012141815 -0.020236358 0.020477384
0.013082186 -0.02012644 0.022642702
0.014173382 -0.020247689 0.019768119
0.015173442 -0.020231256 0.019814998
0.016183443 -0.020229304 0.019447982
0.017183833 -0.020216273 0.019665003
0.018279176 -0.020310197 0.018446118
0.019292466 -0.020307858 0.019076645
0.020305397 -0.020305397 0.019074351
0.021284744 -0.020271184 0.020020634
0.022371577 -0.020337798 0.018631518
0.023518043 -0.020450471 0.016829282
0.024538441 -0.020448701 0.015197605
0.025623849 -0.020499079 0.014125556
0.034123357 -0.020680822 0.0084243119
0.035022188 -0.020601286 0.01070416
0.036044557 -0.02059689 0.0096826851
-0.017640058 -0.019715359 0.011002064
-0.01649116 -0.019583253 0.013827026
-0.015425435 -0.019538885 0.014631778
-0.014374513 -0.019508269 0.014194846
-0.013365503 -0.019534197 0.01480478
-0.012338348 -0.019535718 0.014611125
-0.01134177 -0.019590329 0.013491899
-0.010224305 -0.01942618 0.016658932
-0.0091481656 -0.019312793 0.018632829
-0.0081321327 -0.019313816 0.018195361
-0.0071087023 -0.01929505 0.018610299
-0.0060934206 -0.019295832 0.02097398
-0.0050594495 -0.019225907 0.022460759
-0.0040476732 -0.019226447 0.02114585
-0.0030537273 -0.019340273 0.018758833
-0.00203585 -0.019340575 0.018759102
-0.00101361 -0.01925859 0.019343972
0 -0.019241294 0.019076049
0.0010091638 -0.019174112 0.020489037
0.0020226941 -0.019215595 0.019709259
0.003033994 -0.019215295 0.020098716
0.004056687 -0.019269263 0.018953294
0.0050326525 -0.019124079 0.022801757
0.0060868436 -0.019275004 0.019755989
0.0070809936 -0.01921984 0.021606505
0.0081024161 -0.019243238 0.021093965
0.0091147358 -0.01924222 0.020873606
0.0101622 -0.01930818 0.018485576
0.01114889 -0.019257173 0.019531548
0.012161554 -0.019255793 0.018945724
0.013117804 -0.019172175 0.021184474
0.014175103 -0.019237641 0.019527018
0.015186238 -0.019235902 0.01952523
0.016298361 -0.019354302 0.016626507
0.017289368 -0.01932341 0.016697794
0.018304395 -0.019321306 0.017231435
0.019319084 -0.019319084 0.017643154
0.02033584 -0.019319048 0.017592371
0.021360129 -0.019325832 0.017395496
0.02230873 -0.01926663 0.019144624
0.023453763 -0.019374847 0.017998785
0.024539955 -0.019427465 0.015637189
0.025655825 -0.019498426 0.01439473
0.03515435 -0.019645078 0.0092732012
0.036144473 -0.019621285 0.0096110106
0.037173375 -0.01961928 0.0085412264
-0.023072667 -0.018877637 0.0088070631
-0.022026855 -0.018880162 0.0084919035
-0.018799407 -0.018799407 0.0080082119
-0.017546907 -0.018579077 0.01324293
-0.01642976 -0.018483479 0.016068488
-0.015324037 -0.018388845 0.017555267
-0.014303726 -0.018390505 0.017386436
-0.013347258 -0.018480819 0.015415281
-0.012321505 -0.018482259 0.014417976
-0.01123725 -0.018388227 0.017025113
-0.010212695 -0.018382851 0.017172396
-0.0091377106 -0.018275421 0.021290153
-0.008103352 -0.018232541 0.01968345
-0.0070907641 -0.018233394 0.019684374
-0.006078044 -0.018234132 0.019685179
-0.0050600329 -0.018216118 0.021902978
-0.0040481403 -0.01821663 0.019881338
-0.0030511557 -0.018306935 0.018955916
-0.0020341354 -0.01830722 0.018956184
-0.001013727 -0.018247087 0.019516796
0 -0.018159427 0.02066201
0.0010080012 -0.018144019 0.021003097
0.0020159832 -0.018143849 0.021051615
0.0030429326 -0.018257596 0.018566072
0.004057155 -0.018257197 0.018565685
0.0050326237 -0.018117445 0.022853136
0.0060868142 -0.018260444 0.019807011
0.0070818109 -0.01821037 0.020902514
0.0080931196 -0.018209519 0.021388739
0.009104277 -0.018208554 0.02041322
0.010163371 -0.018294068 0.018341571
0.011158883 -0.018259991 0.019217193
0.012194374 -0.018291561 0.01768145
0.013126439 -0.018175071 0.022574991
0.014198044 -0.018254628 0.018433481
0.015210817 -0.01825298 0.018431842
0.016284658 -0.018320238 0.016482323
0.01729136 -0.018308498 0.016699731
0.018306503 -0.018306503 0.016697913
0.019321306 -0.018304395 0.01764521
0.020338181 -0.018304363 0.017399698
0.02138686 -0.018331595 0.016935199
0.022376861 -0.018308342 0.017954737
0.023456458 -0.018357228 0.016857535
0.024519427 -0.01838957 0.016028166
0.025629897 -0.018453525 0.014590919
-0.02301362 -0.017783253 0.0089540184
-0.02192577 -0.017749432 0.0099286139
-0.017548818 -0.017548818 0.01210013
-0.016320519 -0.017340552 0.018407673
-0.015301964 -0.017342227 0.018409461
-0.014283124 -0.017343795 0.018021494
-0.013271141 -0.017354568 0.017803818
-0.01222128 -0.017313479 0.018048763
-0.011203641 -0.017314719 0.018439829
-0.01017727 -0.017301358 0.018782079
-0.0091047231 -0.01719781 0.022875994
-0.0081027737 -0.017218394 0.022414327
-0.0070732031 -0.017177779 0.022537231
-0.006040697 -0.017115308 0.024024397
-0.0050340868 -0.017115895 0.024025232
-0.0040722177 -0.017306926 0.017422438
-0.00305423 -0.017307302 0.017520279
-0.002036307 -0.01730861 0.017398685
-0.0010138378 -0.01723524 0.019518882
0 -0.017185584 0.020493686
0.0010109135 -0.01718553 0.020493627
0.0020292404 -0.017248543 0.018495262
0.0030432646 -0.017245166 0.018568128
0.0040573538 -0.017243754 0.019079387
0.0050264727 -0.017090008 0.022709429
0.0060874787 -0.017247858 0.018980742
0.0070825834 -0.017200559 0.020076364
0.0080701271 -0.01714902 0.021123022
0.0090784123 -0.017148111 0.021121919
0.010059121 -0.017100506 0.021900237
0.011223738 -0.017345777 0.016905189
0.012228588 -0.017323831 0.016587287
0.013246603 -0.017322483 0.018924117
0.014207264 -0.017251678 0.018216312
0.015212474 -0.017240806 0.018433839
0.016233839 -0.017248454 0.01779896
0.017302556 -0.017302556 0.016482443
0.018323835 -0.017305844 0.016358912
0.019339599 -0.017303851 0.016965568
0.020340396 -0.017289337 0.016355097
0.021389188 -0.017315056 0.016937017
0.022313723 -0.017242422 0.017348409
0.023419842 -0.017310319 0.017491937
0.024522096 -0.017369818 0.015835315
0.025611402 -0.017415754 0.014689803
-0.024089575 -0.016757965 0.008418411
-0.02296914 -0.016704829 0.008857578
-0.02192802 -0.016707063 0.0098079443
-0.020985074 -0.01678806 0.0083731115
-0.019820297 -0.016690776 0.010857135
-0.018761756 -0.016677117 0.0080829263
-0.017457487 -0.016430577 0.015169322
-0.016301742 -0.016301742 0.018920958
-0.015283447 -0.016302343 0.019385487
-0.014264986 -0.016302841 0.019411623
-0.013247173 -0.016304214 0.018341541
-0.012213035 -0.016284047 0.018757075
-0.011195416 -0.01628424 0.018904597
-0.010161262 -0.01625802 0.020318866
-0.0091314251 -0.016233644 0.021708876
-0.0081036082 -0.016207216 0.021783143
-0.0070909876 -0.016207973 0.021564841
-0.0060658087 -0.01617549 0.021102697
-0.0050915675 -0.016293015 0.018179178
-0.0040726368 -0.016290547 0.017424196
-0.003051803 -0.016276281 0.01805824
-0.0020315209 -0.016252168 0.018399656
-0.0010113833 -0.016182132 0.019545287
0 -0.016176334 0.019691557
0.0010110177 -0.016176283 0.019691497
0.0020289619 -0.016231695 0.018545926
0.0030313323 -0.016167104 0.020154029
0.0040217051 -0.016086821 0.022151887
0.0050135874 -0.016043479 0.023759633
0.006032181 -0.016085817 0.022686601
0.0070624179 -0.01614267 0.021272391
0.0080709578 -0.016141916 0.020735353
0.0090793464 -0.016141061 0.020734251
0.010060156 -0.016096249 0.021902442
0.011161249 -0.016234543 0.020171374
0.012074185 -0.016098913 0.023117453
0.013228174 -0.01628083 0.018536359
0.014244528 -0.016279459 0.01648894
0.015222257 -0.016237075 0.017510265
0.016235506 -0.016235506 0.017508596
0.017346762 -0.016326364 0.016094565
0.018375019 -0.016333349 0.015873671
0.019383213 -0.016322704 0.01575017
0.020325448 -0.016260359 0.015431821
0.021338997 -0.016258283 0.01567319
0.022398995 -0.016290179 0.014819413
0.02350059 -0.016348237 0.016082525
0.02452461 -0.01634974 0.015836924
0.025714364 -0.016457193 0.013231903
0.027035883 -0.016637467 0.0080741048
-0.027240844 -0.015715873 0.0085369647
-0.026197273 -0.015718363 0.0084167123
-0.025135698 -0.015709812 0.0086855888
-0.023968771 -0.015631808 0.0096115172
-0.022928521 -0.015633082 0.0094181597
-0.021890523 -0.015636088 0.009760201
-0.020890944 -0.015668208 0.010296971
-0.019822208 -0.015649112 0.010858178
-0.018697826 -0.015581522 0.010421187
-0.017319459 -0.015281876 0.018458188
-0.016273119 -0.015256048 0.018581837
-0.015257522 -0.015257522 0.019679666
-0.01416747 -0.015179432 0.019486576
-0.013231036 -0.01526658 0.017953515
-0.012214215 -0.015267769 0.018369108
-0.011189127 -0.015257902 0.019052595
-0.010162245 -0.015243367 0.019468039
-0.0091465618 -0.01524427 0.018055946
-0.0081180371 -0.015221319 0.019884527
-0.0070771747 -0.015165375 0.021103889
-0.0060411724 -0.015102931 0.023468643
-0.0050911456 -0.015273437 0.018254071
-0.0040730308 -0.015273866 0.017694026
-0.0030425929 -0.015212964 0.019327313
-0.0020284271 -0.015213203 0.018693924
-0.0010162337 -0.015243505 0.017889798
0 -0.015269145 0.017207444
0.0010167211 -0.015250818 0.018157899
0.002031961 -0.015239708 0.017182827
0.0030436895 -0.015218448 0.01774314
0.0040420787 -0.015157796 0.020691723
0.0050140717 -0.015042216 0.023786277
0.0060327649 -0.015081912 0.022713155
0.0070631015 -0.015135217 0.021274447
0.0081346082 -0.01525239 0.017593861
0.009136145 -0.015226909 0.01664263
0.010150671 -0.015226007 0.016641647
0.011165007 -0.01522501 0.018102378
0.012165247 -0.01520656 0.017784387
0.013229453 -0.015264753 0.01649192
0.014245903 -0.015263468 0.016490519
0.015297711 -0.015297711 0.01741454
0.016331566 -0.015310843 0.017023236
0.017357752 -0.015315663 0.01651004
0.018386653 -0.015322211 0.015656084
0.019426713 -0.015336879 0.015216053
0.020424781 -0.015318586 0.014410913
0.021537842 -0.015384173 0.014433384
0.022484139 -0.015330095 0.013896078
0.023631578 -0.015411898 0.013845444
0.024595585 -0.015372241 0.013016224
0.025783736 -0.015470242 0.011579007
0.026986318 -0.015569029 0.0084640086
-0.027243299 -0.01466947 0.0080755949
-0.026199633 -0.014671795 0.0080768466
-0.024972998 -0.014567582 0.011119545
-0.023935953 -0.01456971 0.010220766
-0.022767279 -0.014488269 0.012607396
-0.021928282 -0.014618855 0.0090794861
-0.020886743 -0.014620721 0.0098597109
-0.019824 -0.014607158 0.010299176
-0.018460635 -0.014358271 0.01573056
-0.017289974 -0.014238802 0.018776447
-0.016149888 -0.014131151 0.021701068
-0.015150202 -0.014140189 0.021678805
-0.014123562 -0.014123562 0.020779431
-0.013132469 -0.014142659 0.020269573
-0.012186084 -0.014217097 0.018931121
-0.011190141 -0.014241997 0.018250197
-0.010163164 -0.01422843 0.019250512
-0.0091303922 -0.014202832 0.018764257
-0.0080885533 -0.014154968 0.020300597
-0.007077815 -0.01415563 0.019960344
-0.0060669445 -0.014156204 0.02022922
-0.0050925207 -0.014259058 0.017621994
-0.0040570693 -0.014199742 0.019328654
-0.0030428683 -0.014200052 0.019767821
-0.0020209323 -0.014146526 0.019792497
-0.0010163257 -0.01422856 0.017891437
0 -0.014185947 0.018866509
0.0010136444 -0.014191022 0.01872021
0.0020272699 -0.014190889 0.018159389
0.0030408574 -0.014190668 0.018159121
0.004045126 -0.014157941 0.019206792
0.0050529139 -0.014148159 0.020863652
0.0059894398 -0.013975359 0.025103748
0.0071285688 -0.014257138 0.017718166
0.0081519159 -0.014265853 0.016766876
0.0091430033 -0.01422245 0.017862618
0.010151589 -0.014212226 0.018105209
0.011141226 -0.014179741 0.019029915
0.012166348 -0.014194073 0.017785966
0.013230649 -0.014248392 0.01649341
0.014255717 -0.014255717 0.016248405
0.015299092 -0.014279152 0.017684072
0.016337914 -0.014295675 0.016902983
0.01735932 -0.01429591 0.016511559
0.018388314 -0.014302022 0.015316576
0.019428467 -0.014315713 0.015314817
0.020448536 -0.014313974 0.013706177
0.021675248 -0.014450165 0.011367649
0.022704365 -0.014448232 0.010465592
0.023733057 -0.014446209 0.012240618
0.024799269 -0.01446624 0.011606187
0.025830155 -0.014464887 0.012042314
0.02698875 -0.014532404 0.010264784
-0.02703687 -0.013518435 0.011287302
-0.026011756 -0.013526114 0.01111877
-0.024964871 -0.013522638 0.009806484
-0.023937963 -0.013530153 0.0096375644
-0.022933856 -0.013551825 0.0088843405
-0.021936517 -0.013579749 0.0089585185
-0.020894587 -0.013581482 0.0092518628
-0.019770149 -0.013526944 0.010981828
-0.018364657 -0.013263363 0.018970788
-0.017224146 -0.013171406 0.020361125
-0.016151246 -0.013122887 0.021702886
-0.015151478 -0.013131281 0.021680623
-0.014132426 -0.013122967 0.021438986
-0.013133573 -0.013133573 0.021026582
-0.012224391 -0.01324309 0.017811835
-0.011206495 -0.013244039 0.017691284
-0.010154882 -0.013201347 0.01898405
-0.0090785194 -0.013113417 0.021641642
-0.0080716852 -0.013116489 0.021642804
-0.0070630559 -0.013117104 0.021619439
-0.0060542934 -0.013117636 0.021108419
-0.0050853328 -0.013221865 0.017915964
-0.0040652114 -0.013211937 0.018233359
-0.003049158 -0.013213018 0.018965095
-0.0020328036 -0.013213224 0.017453969
-0.0010164722 -0.01321414 0.018331736
0 -0.013173776 0.019111872
0.0010137298 -0.013178488 0.0194287
0.0020286597 -0.013186288 0.018380284
0.0030482439 -0.013209057 0.017697453
0.0040644798 -0.013209559 0.017672688
0.0050716214 -0.013186215 0.019402891
0.0060001817 -0.013000393 0.024179667
0.0070907809 -0.013168593 0.019913286
0.0081282295 -0.013208373 0.0177432
0.0091174524 -0.013169654 0.019033909
0.010129903 -0.013168873 0.019008398
0.01118304 -0.01321632 0.017545074
0.012198806 -0.013215373 0.015960008
0.013214341 -0.013214341 0.016738415
0.014256918 -0.013238567 0.015835613
0.015319563 -0.013276955 0.016906053
0.016358776 -0.013291505 0.016417235
0.017408395 -0.013312303 0.015392601
0.018434793 -0.013314017 0.013905406
0.019505283 -0.013345719 0.013733387
0.020652335 -0.013424017 0.011175275
0.021738417 -0.013457116 0.010102719
0.022781242 -0.013461642 0.0097605884
0.023803622 -0.013454221 0.010270298
0.024834931 -0.013452253 0.010268807
0.02587186 -0.013453367 0.010169923
-0.026955161 -0.012440844 0.01158011
-0.025983365 -0.012472016 0.010341018
-0.024962433 -0.012481216 0.0093691647
-0.02392583 -0.012483042 0.0097356737
-0.021938223 -0.012536128 0.0086427629
-0.020809775 -0.012485865 0.0092769563
-0.019394599 -0.012249221 0.018312573
-0.018329918 -0.012219946 0.018241674
-0.017270001 -0.01219059 0.019315332
-0.016213892 -0.012160419 0.020364791
-0.015201991 -0.012161593 0.020780921
-0.014138645 -0.012118839 0.02197668
-0.013129847 -0.012119859 0.021978527
-0.012120803 -0.012120803 0.021980226
-0.011104162 -0.012113631 0.0213238
-0.010082558 -0.01209907 0.021837026
-0.0090633249 -0.012084433 0.022423267
-0.0080669532 -0.012100429 0.021912605
-0.0070589143 -0.012100996 0.021889269
-0.0060544 -0.0121088 0.021134466
-0.0050817681 -0.012196243 0.018234283
-0.0040448071 -0.012134422 0.020550698
-0.0030492132 -0.012196853 0.01847896
-0.0020224794 -0.012134876 0.019551933
-0.0010096645 -0.012115974 0.020112872
0 -0.012116012 0.020112932
0.0010134433 -0.01216132 0.018772006
0.0020275989 -0.012165594 0.018625528
0.003041351 -0.012165404 0.018649608
0.0040577278 -0.012173183 0.018210411
0.0050570858 -0.012137006 0.019404411
0.0060306326 -0.012061265 0.021914542
0.0070913336 -0.012156572 0.019914836
0.0081093647 -0.012164048 0.018719524
0.0091225514 -0.012163403 0.019327879
0.010128864 -0.012154638 0.01927802
0.011183912 -0.012200632 0.01954478
0.012199756 -0.012199756 0.017861992
0.013235963 -0.012217812 0.01832357
0.014258029 -0.012221168 0.017469287
0.015296089 -0.012236872 0.016907364
0.01636005 -0.012270038 0.014128685
0.017409751 -0.012289236 0.014005452
0.018436227 -0.012290819 0.014296144
0.019506801 -0.012320084 0.013271719
0.02070751 -0.012424506 0.0097395182
0.021750335 -0.012428762 0.0097382963
0.022843262 -0.012459961 0.0086659491
0.023805473 -0.012420247 0.010271132
0.024857303 -0.012428652 0.010123581
0.025968157 -0.012464715 0.0093434453
-0.027020348 -0.011431686 0.011775583
-0.02592743 -0.011408069 0.01126644
-0.024964219 -0.011441934 0.0093698204
-0.023927543 -0.011443608 0.0098336935
-0.02173272 -0.011383805 0.013098985
-0.020526364 -0.0112895 0.016363591
-0.019385578 -0.01122323 0.018971443
-0.018367402 -0.011224524 0.018535227
-0.017353022 -0.011228426 0.018415451
-0.016256956 -0.011176658 0.019391805
-0.015224096 -0.011164337 0.020222038
-0.014197649 -0.011155296 0.020589381
-0.01318385 -0.011155565 0.020615488
-0.012170657 -0.011156435 0.020933896
-0.011157236 -0.011157236 0.019375622
-0.010144216 -0.011158637 0.019352525
-0.0091078496 -0.011131817 0.020474911
-0.0080962954 -0.011132406 0.020866007
-0.0070594209 -0.011093376 0.02230522
-0.0060497154 -0.011091145 0.02179417
-0.005041603 -0.011091527 0.02172178
-0.0040450976 -0.011124019 0.02067408
-0.0030494321 -0.011181251 0.01906541
-0.002028598 -0.011157289 0.019943416
-0.0010104076 -0.011114483 0.019382834
0 -0.011103119 0.019236624
0.0010093714 -0.011103084 0.01972422
0.0020194552 -0.011107003 0.019699663
0.003043398 -0.011159126 0.018894762
0.0040580193 -0.011159552 0.018211722
0.0050723818 -0.011159239 0.017674863
0.0060632452 -0.01111595 0.019429475
0.0070734993 -0.011115499 0.021061957
0.0081045832 -0.011143803 0.020012826
0.0091232071 -0.011150585 0.020060509
0.010194181 -0.011213599 0.018158197
0.011216886 -0.011216886 0.018376321
0.01223865 -0.011218762 0.017912
0.01321632 -0.01118304 0.017861873
0.014223235 -0.011175399 0.016934454
0.015297187 -0.011217938 0.015349299
0.016331989 -0.011228243 0.014933676
0.017410999 -0.01126594 0.014664143
0.018520847 -0.011318295 0.012714028
0.019508198 -0.01129422 0.013272673
0.020648116 -0.011356465 0.010957748
-0.028107705 -0.01041026 0.0096822679
-0.027022114 -0.01039312 0.010754466
-0.025947377 -0.01037895 0.011388868
-0.025062233 -0.010442597 0.0090540648
-0.023929108 -0.01040396 0.010296851
-0.021551339 -0.010262542 0.016581714
-0.020482656 -0.010241328 0.017265707
-0.019370651 -0.010195079 0.019167483
-0.018342296 -0.010190165 0.018024921
-0.017359337 -0.010211375 0.017344773
-0.016284332 -0.010177707 0.017541468
-0.015211388 -0.010140925 0.020247757
-0.014185786 -0.010132704 0.020688206
-0.013173625 -0.010133558 0.020689934
-0.012161218 -0.010134349 0.020082265
-0.011133167 -0.010121061 0.019596219
-0.010121725 -0.010121725 0.01959753
-0.0091035105 -0.010115012 0.020573765
-0.008115354 -0.010144193 0.019941002
-0.0070551913 -0.010078845 0.021916628
-0.0060457233 -0.010076206 0.021649331
-0.0050279144 -0.010055829 0.022844702
-0.0040417057 -0.010104264 0.021041155
-0.0030340885 -0.010113629 0.021139145
-0.0020227572 -0.010113786 0.020554304
-0.0010090718 -0.010090718 0.019408494
0 -0.010094407 0.018408895
0.0010090718 -0.010090718 0.019286573
0.0020188561 -0.01009428 0.019725323
0.0030293341 -0.01009778 0.019968808
0.0040497514 -0.010124379 0.019041896
0.0050620474 -0.010124095 0.01889506
0.0060738823 -0.010123137 0.018553078
0.0070859091 -0.010122727 0.020331979
0.008125592 -0.010156991 0.018990278
0.0091605512 -0.010178391 0.017697334
0.010177786 -0.010177786 0.017696291
0.011194832 -0.01017712 0.018158227
0.012171454 -0.010142879 0.019497335
0.013209267 -0.010160974 0.018033594
0.014224165 -0.010160118 0.016935557
0.015300931 -0.010200621 0.015277177
0.016333058 -0.010208162 0.014934629
0.017551906 -0.010324651 0.011059731
0.018582344 -0.010323524 0.011107236
0.019625163 -0.010329033 0.011105955
-0.029145468 -0.0093681859 0.009681195
-0.028109364 -0.0093697878 0.0099018216
-0.027132839 -0.0093921367 0.0092220902
-0.026093408 -0.0093936268 0.0092235804
-0.025063714 -0.0093988925 0.009054631
-0.023880132 -0.0093443999 0.010711282
-0.022622773 -0.0092547713 0.014437973
-0.021505315 -0.0092165628 0.017094076
-0.020388888 -0.0091749998 0.018995851
-0.019360228 -0.0091706337 0.01924175
-0.018449714 -0.0092248572 0.015565664
-0.01742663 -0.009225864 0.015786648
-0.016357416 -0.009201047 0.01620245
-0.015212288 -0.0091273729 0.019517958
-0.014199421 -0.009128199 0.019519687
-0.013174405 -0.0091207428 0.020081878
-0.012161939 -0.0091214543 0.020083457
-0.011159299 -0.0091303354 0.019353658
-0.010124763 -0.0091122864 0.020183712
-0.0091128265 -0.0091128265 0.020184904
-0.0081158355 -0.0091303149 0.019625247
-0.0070880353 -0.0091131888 0.019674927
-0.0060424251 -0.0090636378 0.021650612
-0.0050355275 -0.0090639498 0.021651357
-0.0040575508 -0.0091294898 0.019359976
-0.0030487159 -0.0091461474 0.01926288
-0.0020325088 -0.0091462899 0.018629223
-0.0010149839 -0.0091348542 0.01753208
0 -0.0090948315 0.017995447
0.0010094974 -0.0090854764 0.018409938
0.0020189758 -0.0090853916 0.019848406
0.0030377433 -0.0091132298 0.019165337
0.0040380443 -0.0090856003 0.020237803
0.0050620432 -0.0091116773 0.01906687
0.0060640029 -0.0090960041 0.019748867
0.0070863287 -0.0091109946 0.020333201
0.0081221741 -0.0091374461 0.019186407
0.0091797449 -0.0091797449 0.01679635
0.010199111 -0.0091792 0.016795367
0.011195496 -0.0091599515 0.016672403
0.012189724 -0.0091422936 0.017158687
0.013210049 -0.0091454182 0.017206073
0.014291537 -0.0091874162 0.01530382
0.015370369 -0.0092222216 0.01454705
0.016542587 -0.0093052061 0.010330588
0.017574692 -0.0093042487 0.01086551
0.018606465 -0.0093032327 0.010864317
-0.030260211 -0.0083476445 0.0083666444
-0.029116357 -0.0083189588 0.010022283
-0.028178183 -0.0083490917 0.0089048147
-0.027139021 -0.0083504673 0.0090036392
-0.026094789 -0.0083503323 0.0092240572
-0.025054818 -0.0083516063 0.0092254579
-0.02374281 -0.0082583688 0.012805581
-0.022527551 -0.008191837 0.015826553
-0.021506453 -0.0081929341 0.017095
-0.020419193 -0.0081676776 0.017632991
-0.019398276 -0.0081676953 0.018000543
-0.018379435 -0.0081686378 0.01768589
-0.017452404 -0.0082128961 0.015738726
-0.016358284 -0.0081791421 0.017445952
-0.015269752 -0.0081438674 0.018373668
-0.014243676 -0.0081392433 0.018643409
-0.013175105 -0.0081077563 0.020253569
-0.012162585 -0.0081083896 0.0200845
-0.011134418 -0.0080977585 0.019598454
-0.010122862 -0.0080982894 0.019599706
-0.0091127623 -0.008100233 0.020186007
-0.0081162667 -0.0081162667 0.019406885
-0.0071020653 -0.0081166457 0.018895775
-0.006087732 -0.0081169764 0.018701464
-0.0050357948 -0.0080572721 0.02165252
-0.004065081 -0.008130162 0.017727286
-0.0030488777 -0.0081303399 0.018483609
-0.0020334702 -0.0081338808 0.017435312
-0.0010177811 -0.0081422487 0.015996754
0 -0.0081422739 0.015972406
0.0010126601 -0.0081012808 0.017898798
0.0020253011 -0.0081012044 0.019727528
0.0030379046 -0.0081010787 0.018873751
0.00404533 -0.00809066 0.019531727
0.0050565209 -0.0080904327 0.01967743
0.0060745655 -0.0080994209 0.019823045
0.0070948116 -0.008108356 0.019358993
0.0081226053 -0.0081226053 0.016749382
0.009180232 -0.0081602056 0.015261352
0.010197214 -0.0081577711 0.015674889
0.011196089 -0.0081426101 0.016405165
0.012213039 -0.0081420261 0.015307128
0.013300258 -0.0081847738 0.014233559
0.014367355 -0.0082099177 0.01316005
0.015503687 -0.0082686329 0.011063188
0.016568806 -0.008284403 0.0096976161
0.017634643 -0.008298655 0.0091606081
0.018702826 -0.0083123669 0.008428812
0.019807855 -0.0083401492 0.0088419318
-0.029218186 -0.0073045464 0.0085874498
-0.028220557 -0.0073164408 0.0082969368
-0.0261386 -0.0073188082 0.0085673332
-0.024978578 -0.0072854185 0.010540426
-0.023742517 -0.0072259838 0.013780028
-0.022505837 -0.0071609481 0.017556131
-0.021438416 -0.0071461387 0.018630028
-0.020417713 -0.0071461992 0.018461943
-0.01934249 -0.00712618 0.019194931
-0.018380295 -0.0071478924 0.017686725
-0.017397303 -0.0071635954 0.017152637
-0.016375618 -0.0071643326 0.017446786
-0.015338092 -0.007157776 0.017472863
-0.014290404 -0.0071452018 0.017498791
-0.013270779 -0.0071458039 0.017500281
-0.012200448 -0.0071169278 0.019451708
-0.011167117 -0.0071063475 0.020086884
-0.010125774 -0.0070880419 0.020502657
-0.0091137374 -0.0070884619 0.020503879
-0.0081244484 -0.0071088918 0.019237101
-0.0071066651 -0.0071066651 0.018457741
-0.0060807019 -0.0070941518 0.018361002
-0.0050674253 -0.0070943953 0.018483549
-0.0040652715 -0.0071142251 0.01772812
-0.0030490204 -0.0071143811 0.018484473
-0.0020319805 -0.0071119317 0.017753184
-0.0010150853 -0.0071055968 0.01709491
0 -0.0070821471 0.018436193
0.0010127076 -0.0070889532 0.018045992
0.0020222261 -0.0070777913 0.020362467
0.0030342063 -0.0070798146 0.019679338
0.0040345462 -0.0070604561 0.020776272
0.00503664 -0.0070512956 0.021287769
0.0060514417 -0.0070600151 0.020653039
0.007100265 -0.007100265 0.018335819
0.0081229853 -0.0071076122 0.016750157
0.0091806613 -0.0071405144 0.014847606
0.01020013 -0.0071400912 0.015553743
0.011235496 -0.0071498607 0.01496765
0.012278694 -0.0071625714 0.013309062
0.013387225 -0.0072085056 0.011577457
0.014455887 -0.0072279437 0.010650396
0.015559244 -0.0072609806 0.0096015632
0.016608566 -0.0072662476 0.0086503029
0.017666532 -0.007274454 0.0081377625
-0.026016437 -0.0062439446 0.010539234
-0.02477218 -0.0061930451 0.015141785
-0.023687482 -0.006179343 0.014754444
-0.022506747 -0.0061382041 0.017556846
-0.021540292 -0.0061543691 0.016999066
-0.020433154 -0.0061299466 0.018389612
-0.019399971 -0.0061263065 0.018026441
-0.018381039 -0.0061270129 0.017882347
-0.017391797 -0.006138281 0.018030465
-0.016376283 -0.0061411057 0.017886132
-0.015354251 -0.0061417003 0.017059267
-0.014299515 -0.0061283638 0.017255753
-0.01327924 -0.0061288802 0.017086625
-0.012225077 -0.0061125383 0.016259134
-0.011190364 -0.0061038351 0.016869783
-0.010173725 -0.0061042351 0.018601865
-0.0091464734 -0.0060976488 0.019724488
-0.0081306305 -0.0060979729 0.019067228
-0.0071069538 -0.0060916748 0.02050674
-0.0060743648 -0.0060743648 0.019629747
-0.0050676316 -0.0060811578 0.019679219
-0.0040639737 -0.0060959603 0.018704295
-0.003048047 -0.0060960939 0.018704683
-0.0020276732 -0.00608302 0.01760757
-0.0010117732 -0.0060706395 0.017510146
0 -0.0060421256 0.020339191
0.0010087858 -0.0060527148 0.01938802
0.0020175525 -0.006052658 0.020436466
0.0030304885 -0.006060977 0.018826634
0.0040405625 -0.0060608443 0.018826216
0.0050493423 -0.0060592107 0.018313587
0.0060864356 -0.0060864356 0.017093718
0.0071415179 -0.0061213011 0.015191078
0.00816184 -0.0061213803 0.014824629
0.009206268 -0.0061375122 0.013726681
0.010201152 -0.0061206915 0.014140308
0.011250701 -0.0061367461 0.014431924
0.012358904 -0.0061794519 0.010652542
0.013432129 -0.0061994442 0.011651069
0.014515334 -0.0062208571 0.0088229179
0.01557267 -0.0062290677 0.0082372129
-0.027235644 -0.0052376236 0.0087126791
-0.026017327 -0.0052034655 0.010539562
-0.024821231 -0.0051710899 0.014168531
-0.023688294 -0.005149629 0.014560193
-0.022532966 -0.0051211286 0.016899943
-0.021544866 -0.0051297303 0.016463816
-0.020489877 -0.0051224693 0.016124934
-0.019343937 -0.0050905095 0.018660426
-0.018274227 -0.0050761742 0.019856423
-0.017377896 -0.0051111458 0.017665595
-0.016376846 -0.0051177642 0.017886728
-0.015354776 -0.0051182588 0.016328722
-0.014291474 -0.005104098 0.016622663
-0.013271773 -0.0051045278 0.015064061
-0.012239391 -0.0050997464 0.015479624
-0.011220248 -0.0051001129 0.015797645
-0.010179561 -0.0050897803 0.018383056
-0.0091621485 -0.0050900825 0.019042492
-0.0081309099 -0.0050818184 0.019067883
-0.0070943953 -0.0050674253 0.020239234
-0.006069087 -0.0050575724 0.018776923
-0.0050696349 -0.0050696349 0.01821667
-0.0040641134 -0.0050801416 0.017436773
-0.0030481517 -0.0050802529 0.018485844
-0.002027743 -0.0050693578 0.016559482
-0.0010138809 -0.0050694048 0.016559631
0 -0.005059056 0.018413216
0.001007479 -0.0050373953 0.019925237
0.0020149392 -0.0050373483 0.01851055
0.0030263856 -0.005043976 0.017973691
0.0040397262 -0.0050496575 0.018314749
0.0050495155 -0.0050495155 0.017850876
0.0061177365 -0.0050981133 0.014411896
0.0071417629 -0.0051012593 0.015191615
0.0081738243 -0.0051086401 0.014873922
0.0092148138 -0.005119341 0.01355648
0.010228932 -0.005114466 0.013043672
0.011281257 -0.0051278439 0.012823403
0.012359328 -0.0051497198 0.01065293
0.013480122 -0.0051846625 0.010188937
-0.027033919 -0.0041590645 0.011828095
-0.025780726 -0.0041249162 0.013801634
-0.024721136 -0.0041201892 0.014168948
-0.023541952 -0.0040942524 0.016605914
-0.022521544 -0.0040948265 0.016608208
-0.021516062 -0.0040982976 0.016780943
-0.020522119 -0.0041044238 0.015419006
-0.019514585 -0.0041083335 0.014470756
-0.018395344 -0.0040878542 0.016567767
-0.01726136 -0.0040614964 0.019225568
-0.016357809 -0.0040894523 0.017277986
-0.015336929 -0.0040898477 0.015939206
-0.014284199 -0.0040811999 0.016842484
-0.013258678 -0.0040795933 0.015576363
-0.01222584 -0.0040752799 0.018307894
-0.011207825 -0.0040755728 0.015944362
-0.010169484 -0.0040677935 0.01714015
-0.0091152256 -0.0040512113 0.019067407
-0.0080916351 -0.0040458175 0.020433933
-0.0070894747 -0.0040511284 0.0215078
-0.0060769389 -0.0040512928 0.019362688
-0.0050697774 -0.0040558218 0.018265933
-0.0040671541 -0.0040671541 0.01714462
-0.0030420185 -0.0040560248 0.016608447
-0.0020264585 -0.004052917 0.016925752
-0.001012873 -0.0040514921 0.01707226
0 -0.0040515047 0.017999083
0.0010088488 -0.0040353951 0.017974675
0.0020169469 -0.0040338938 0.018047631
0.0030293975 -0.0040391968 0.016462147
0.0040530092 -0.0040530092 0.016120344
0.0050969077 -0.0040775263 0.014071375
0.0061179078 -0.0040786052 0.014412284
0.0071487916 -0.0040850239 0.01480189
0.0081740534 -0.0040870267 0.014874339
0.0092150727 -0.0040955879 0.013825119
0.010256648 -0.0041026594 0.013092816
0.011281573 -0.0041023903 0.013091952
0.012369183 -0.004123061 0.0098487139
0.0134805 -0.0041478463 0.010189235
-0.028181361 -0.0031312623 0.008784622
-0.027066147 -0.003123017 0.0095162094
-0.025918214 -0.0031101855 0.011440754
-0.024753813 -0.0030942266 0.013633639
-0.023590067 -0.0030769652 0.016167939
-0.022522036 -0.0030711868 0.016998231
-0.021544663 -0.0030778092 0.015904486
-0.020565195 -0.0030847793 0.015029579
-0.019562455 -0.0030888089 0.014081299
-0.018490037 -0.0030816728 0.014253467
-0.017371511 -0.0030655609 0.016448081
-0.016351342 -0.0030658767 0.016644776
-0.015344575 -0.0030689151 0.015744597
-0.014284511 -0.0030609667 0.015916646
-0.013265307 -0.0030612247 0.015917987
-0.012201971 -0.0030504928 0.019112825
-0.011139682 -0.0030380951 0.019967496
-0.0101246 -0.0030373803 0.018042654
-0.0090868957 -0.0030289653 0.020091921
-0.0080776699 -0.0030291262 0.020336837
-0.0070896298 -0.0030384129 0.01992321
-0.006082925 -0.0030414625 0.018363297
-0.0050692782 -0.003041567 0.017656684
-0.0040457812 -0.003034336 0.018559545
-0.0030344022 -0.0030344022 0.01763317
-0.002026503 -0.0030397545 0.01692614
-0.001013261 -0.0030397831 0.017340899
0 -0.0030397924 0.016706824
0.0010157609 -0.0030472828 0.015194654
0.0020315028 -0.0030472542 0.015145719
0.0030320245 -0.0030320245 0.016584426
0.0040455377 -0.003034153 0.016876757
0.00506623 -0.0030397379 0.016534835
0.0061162133 -0.0030581066 0.015339315
0.0071276105 -0.0030546903 0.014509588
0.0081698438 -0.0030636913 0.015167296
0.0092317332 -0.0030772446 0.012825668
0.010291007 -0.0030873022 0.01172772
0.011377695 -0.0031030078 0.0096058846
0.01241114 -0.003102785 0.010141492
0.013464951 -0.0031072965 0.0097994208
-0.028173586 -0.0020869323 0.008784771
-0.02706657 -0.0020820438 0.0095163584
-0.026066191 -0.0020852953 0.010004759
-0.024844764 -0.0020703969 0.012294829
-0.023590434 -0.0020513423 0.016630828
-0.022538461 -0.0020489509 0.016779304
-0.021544999 -0.0020519046 0.016245723
-0.020565515 -0.0020565514 0.015029848
-0.019539615 -0.0020568015 0.014130265
-0.018490326 -0.0020544806 0.014253676
-0.017387317 -0.0020455667 0.01627779
-0.016351597 -0.0020439497 0.01744923
-0.015330192 -0.0020440256 0.01698786
-0.014325683 -0.0020465262 0.016526252
-0.013265513 -0.0020408481 0.016942024
-0.012202162 -0.0020336937 0.019113094
-0.011136504 -0.0020248189 0.020918667
-0.010124758 -0.0020249516 0.018945068
-0.009089781 -0.0020199514 0.019970298
-0.0081129102 -0.0020282276 0.018337548
-0.0070965681 -0.002027591 0.019533336
-0.0060833856 -0.0020277952 0.019509763
-0.0050693578 -0.002027743 0.018364221
-0.0040590144 -0.0020295072 0.018023282
-0.0030443275 -0.0020295517 0.016731024
-0.0020265346 -0.0020265346 0.017341018
-0.001012911 -0.0020258219 0.017072886
0 -0.0020255845 0.015512019
0.001012911 -0.0020258219 0.015853405
0.0020315344 -0.0020315344 0.015194774
0.0030472542 -0.0020315028 0.014706701
0.004053161 -0.0020265805 0.01709649
0.0050663091 -0.0020265237 0.017096013
0.0061163083 -0.0020387694 0.015339553
0.0071490598 -0.0020425885 0.01516825
0.0082016718 -0.0020504179 0.013582468
0.0092318775 -0.0020515283 0.013094068
0.010291168 -0.0020582336 0.011727899
0.011377873 -0.0020687042 0.0096060336
0.012416454 -0.002069409 0.0095565617
0.013465161 -0.0020715632 0.0090926588
-0.028173849 -0.0010434759 0.0093688965
-0.027066821 -0.0010410316 0.0098328292
-0.026066436 -0.0010426574 0.010004848
-0.0248859 -0.0010369126 0.01161322
-0.023779672 -0.0010338988 0.013343751
-0.02256814 -0.0010258245 0.016170591
-0.02146464 -0.0010221257 0.017439336
-0.020421986 -0.0010210993 0.017003089
-0.019485407 -0.0010255477 0.014568895
-0.018474052 -0.0010263362 0.014619291
-0.017387481 -0.001022793 0.016083002
-0.016366374 -0.0010228984 0.017595649
-0.015330334 -0.0010220223 0.016988009
-0.014325817 -0.0010232726 0.016282678
-0.013303665 -0.0010233589 0.015772104
-0.012257131 -0.0010214276 0.01657784
-0.011144655 -0.0010131504 0.019919217
-0.01012851 -0.001012851 0.018750191
-0.0091162007 -0.0010129112 0.018629372
-0.0081129866 -0.0010141233 0.018337727
-0.0070970613 -0.0010138659 0.018460572
-0.0060834424 -0.0010139071 0.019558728
-0.0050697094 -0.0010139419 0.018339992
-0.0040590521 -0.001014763 0.018023461
-0.0030556971 -0.0010185657 0.015219033
-0.0020371631 -0.0010185816 0.015219271
-0.0010129205 -0.0010129205 0.016438901
0 -0.0010090212 0.017902404
0.0010127985 -0.0010127985 0.016390145
0.0020321633 -0.0010160817 0.016268015
0.0030566119 -0.0010188706 0.014877588
0.0040641739 -0.0010160435 0.015999138
0.0050940979 -0.0010188196 0.014876842
0.0061167316 -0.0010194553 0.015217751
0.0071559548 -0.0010222793 0.014070958
0.008213941 -0.0010267426 0.012460858
0.009242936 -0.0010269929 0.012167633
0.010309552 -0.0010309551 0.0099236965
0.011384014 -0.0010349104 0.0089478493
0.012423884 -0.0010353237 0.0095078945
-0.02820022 0 0.0089795887
-0.027104875 0 0.0092487633
-0.026068037 0 0.0094206631
-0.024859684 0 0.011515826
-0.023779744 0 0.012345463
-0.022648575 0 0.013077796
-0.021486444 0 0.016124159
-0.020422049 0 0.017003119
-0.019403307 0 0.016298681
-0.018462047 0 0.014570594
-0.017409284 0 0.014109224
-0.016350828 0 0.017303258
-0.015290167 0 0.017134339
-0.014272113 0 0.017184615
-0.013253794 0 0.017186046
-0.01225278 0 0.016602308
-0.011213748 0 0.016115844
-0.0101322 0 0.018482
-0.0091162287 0 0.018361211
-0.0081037451 0 0.018630445
-0.0070970836 0 0.018460602
-0.0060834619 0 0.019558817
-0.0050941142 0 0.017608374
-0.0040754061 0 0.017145485
-0.0030557066 0 0.015780061
-0.0020371696 0 0.014609545
-0.0010087774 0 0.017585307
0 0 0.017756104
0.0010108505 0 0.017024338
0.002034121 0 0.015877873
0.0030566212 0 0.015145928
0.0040761377 0 0.015072405
0.0050974675 0 0.014876902
0.0061339443 0 0.014047205
0.0072063352 0 0.012144476
0.0082622506 0 0.01102218
0.0092791757 0 0.012313932
0.010322385 0 0.0091435015
0.011382709 0 0.0080944896
-0.028118003 0.0010414075 0.0086145103
-0.027006702 0.0010387193 0.0092974305
-0.025931029 0.0010372412 0.009956181
-0.024706224 0.001029426 0.013147026
-0.023662062 0.0010287852 0.014390796
-0.02261368 0.0010278946 0.012834221
-0.02146464 0.0010221257 0.015783072
-0.020381792 0.0010190896 0.017222345
-0.019339595 0.0010178734 0.017760426
-0.018315068 0.0010175037 0.017957389
-0.01729013 0.0010170665 0.017886221
-0.016325431 0.0010203394 0.01669395
-0.015306571 0.001020438 0.016671151
-0.01427207 0.0010194335 0.017135799
-0.013250584 0.0010192756 0.017210364
-0.012229337 0.0010191115 0.016504735
-0.011213713 0.0010194285 0.016091406
-0.010141311 0.0010141311 0.017848045
-0.0091414386 0.0010157154 0.017239481
-0.008103719 0.0010129649 0.018362164
-0.0070868195 0.0010124027 0.01904583
-0.0060746633 0.0010124439 0.019924551
-0.0050623929 0.0010124786 0.019925237
-0.0040639304 0.0010159826 0.01680398
-0.0030566119 0.0010188706 0.015633672
-0.0020385045 0.0010192522 0.014341235
-0.001018896 0.001018896 0.014146239
0 0.0010132286 0.01631701
0.0010127375 0.0010127375 0.016560882
0.0020359438 0.0010179719 0.014926583
0.0030566119 0.0010188706 0.015658051
0.0040780758 0.0010195189 0.014291942
0.0050989757 0.0010197952 0.014754891
0.0061339247 0.0010223208 0.013730109
0.0072323452 0.0010331922 0.009632647
0.008281732 0.0010352165 0.010046721
0.0093537616 0.0010393069 0.0089977086
0.010349782 0.0010349782 0.0083144605
-0.0291814 0.0020843856 0.0082236826
-0.028073389 0.0020795104 0.0087604523
-0.026970066 0.0020746205 0.0098571181
-0.025930787 0.0020744628 0.0098830163
-0.024729364 0.0020607803 0.012684345
-0.023680042 0.0020591342 0.013075769
-0.022613468 0.0020557698 0.01239574
-0.021553949 0.002052757 0.014906108
-0.020530194 0.0020530194 0.014908016
-0.019438937 0.0020462039 0.016322851
-0.018323665 0.0020359629 0.018079042
-0.017278576 0.0020327736 0.018154144
-0.016263863 0.0020329829 0.018204749
-0.015229654 0.0020306206 0.018669575
-0.014163589 0.0020233698 0.01974377
-0.013153012 0.0020235404 0.019404143
-0.012164863 0.0020274771 0.018357366
-0.011174722 0.0020317675 0.017310292
-0.010195468 0.0020390935 0.01567784
-0.0091896327 0.0020421406 0.0150204
-0.0081631429 0.0020407857 0.015240639
-0.0070867529 0.0020247865 0.018533498
-0.0060746064 0.0020248687 0.018314809
-0.0050797225 0.002031889 0.016925275
-0.0040724282 0.0020362141 0.015925854
-0.0030593269 0.0020395513 0.0152677
-0.0020384854 0.0020384854 0.015511811
-0.0010179719 0.0020359438 0.014950991
0 0.0020359503 0.01495102
0.0010170572 0.0020341144 0.015316844
0.0020369003 0.0020369003 0.014950812
0.0030595099 0.0020396733 0.01526767
0.0040992559 0.0020496279 0.012169957
0.005125145 0.002050058 0.012974441
0.0061499625 0.0020499874 0.012973994
0.0072339848 0.0020668528 0.010778725
0.0083148181 0.0020787045 0.0083884597
-0.029153697 0.0031236105 0.0083451867
-0.027995752 0.0031106391 0.009904027
-0.026955407 0.0031102393 0.010076016
-0.025851272 0.0031021526 0.011148661
-0.024785949 0.0030982436 0.011783332
-0.023756677 0.0030986969 0.01178506
-0.022576952 0.0030786754 0.014514267
-0.021448761 0.0030641088 0.015271217
-0.020470195 0.0030705291 0.015687287
-0.019438634 0.0030692581 0.01590845
-0.018427541 0.0030712567 0.015691012
-0.017381867 0.0030673884 0.015717089
-0.016325023 0.0030609416 0.016669124
-0.015264146 0.0030528293 0.01774314
-0.014244414 0.0030523743 0.017427862
-0.013152807 0.0030352632 0.019403845
-0.012142 0.0030354999 0.019405395
-0.011151751 0.0030413864 0.01791954
-0.010161174 0.003048352 0.017018586
-0.0091894893 0.003063163 0.014946997
-0.0082166623 0.0030812484 0.012558103
-0.0071608974 0.0030689558 0.01421693
-0.0060953624 0.0030476812 0.016753733
-0.0050796433 0.003047786 0.016778708
-0.0040723644 0.0030542733 0.015901238
-0.0030647665 0.0030647665 0.013462633
-0.0020395513 0.0030593269 0.016438365
-0.0010197852 0.0030593555 0.014219075
0 0.0030557066 0.014902025
0.0010185657 0.0030556971 0.01470685
0.0020371124 0.0030556684 0.015853018
0.0030671444 0.0030671444 0.014316291
0.0040991921 0.0030743941 0.013852566
0.0051253699 0.003075222 0.014461875
0.0061502331 0.0030751165 0.014461398
0.0072338721 0.0031002308 0.011095554
0.0082815262 0.0031055722 0.008802861
-0.02903044 0.004147206 0.0097561181
-0.02797379 0.0041442653 0.010122776
-0.026861487 0.0041325362 0.012266189
-0.025826365 0.0041322187 0.01153788
-0.024785409 0.0041309013 0.011734396
-0.023743561 0.0041293148 0.011955261
-0.022551011 0.004100184 0.014586955
-0.021457244 0.0040870942 0.014369726
-0.020458786 0.0040917573 0.015906185
-0.019418539 0.0040881136 0.016322255
-0.018427139 0.0040949197 0.015690655
-0.017407378 0.0040958538 0.012695223
-0.016371455 0.0040928638 0.015498996
-0.015260157 0.0040693753 0.017109066
-0.014244103 0.0040697437 0.017110616
-0.013177078 0.0040544858 0.018233359
-0.012164406 0.004054802 0.018234789
-0.011151507 0.0040550935 0.017407179
-0.010159123 0.0040636491 0.016603708
-0.0091437539 0.0040638903 0.016970456
-0.0081418669 0.0040709334 0.016288579
-0.00716074 0.0040918514 0.015996754
-0.0061080311 0.0040720208 0.015899897
-0.005115198 0.0040921583 0.014900535
-0.0040822746 0.0040822746 0.014900982
-0.0030685407 0.0040913876 0.012950212
-0.0020457257 0.0040914514 0.012950391
-0.0010245796 0.0040983185 0.012291998
0 0.0040995511 0.013560295
0.0010253113 0.0041012452 0.013194412
0.0020506033 0.0041012065 0.013389438
0.0030833567 0.0041111419 0.012194186
0.004111052 0.004111052 0.012657255
0.0051514744 0.0041211792 0.012364239
0.0061910669 0.0041273776 0.011729807
0.0072358469 0.0041347696 0.010973394
-0.029017707 0.0051817335 0.0095368922
-0.027908949 0.0051683239 0.010682166
-0.02665983 0.0051268903 0.014212817
-0.025638523 0.0051277042 0.014215082
-0.024558309 0.0051163146 0.01516664
-0.023510491 0.0051109763 0.015655845
-0.022466 0.005105909 0.01663211
-0.02144769 0.005106593 0.015270472
-0.020428982 0.0051072454 0.01571086
-0.019417994 0.0051099984 0.014981925
-0.018426621 0.0051185056 0.014350235
-0.017417246 0.0051227193 0.013035983
-0.016394392 0.0051232469 0.013549089
-0.015371227 0.0051237424 0.013550401
-0.014288063 0.0051028794 0.015403986
-0.013230579 0.0050886841 0.016282827
-0.012207213 0.0050863386 0.016503513
-0.011165944 0.0050754291 0.01687035
-0.010157009 0.0050785043 0.016676396
-0.0090826014 0.0050458899 0.021383196
-0.0080987234 0.0050617019 0.020213902
-0.0070867143 0.0050619389 0.020239234
-0.0060939603 0.0050783004 0.018386751
-0.0051144445 0.0051144445 0.015509784
-0.0040916707 0.0051145884 0.014949322
-0.0030686373 0.0051143956 0.013437599
-0.0020457902 0.0051144757 0.012559831
-0.0010245509 0.0051227543 0.011291742
0 0.0051264283 0.012194186
0.0010260751 0.0051303753 0.012876987
0.0020521311 0.0051303278 0.013071984
0.0030832698 0.0051387828 0.012193829
0.0041204477 0.0051505598 0.011705816
0.0051601692 0.0051601692 0.011656731
0.0062022326 0.0051685269 0.010973513
0.0072591137 0.0051850812 0.0086565316
-0.030093551 0.0062262518 0.0089511275
-0.029003091 0.0062149479 0.0099987984
-0.027921136 0.0062046968 0.011582106
-0.026658919 0.006152058 0.015161425
-0.02563156 0.0061515747 0.01431191
-0.024537019 0.0061342549 0.015360862
-0.023509685 0.0061329613 0.015509218
-0.022465229 0.0061268806 0.015974045
-0.021446954 0.0061277016 0.014636725
-0.020428283 0.0061284848 0.014882177
-0.019417329 0.0061317878 0.014713466
-0.018413929 0.0061379764 0.014349729
-0.017401116 0.0061415704 0.013401002
-0.016379207 0.0061422023 0.013792276
-0.01535882 0.006143528 0.013671756
-0.014336195 0.0061440836 0.013868004
-0.013312511 0.0061442358 0.013747305
-0.012211181 0.0061055906 0.015820384
-0.011194387 0.0061060288 0.015821517
-0.010156659 0.0060939956 0.01667583
-0.0091102663 0.0060735112 0.02055344
-0.0080921063 0.0060690795 0.018774599
-0.0070809242 0.0060693636 0.018775493
-0.006117892 0.006117892 0.015557468
-0.0051243282 0.0061491937 0.014704525
-0.0041051861 0.0061577796 0.013583183
-0.0030789573 0.0061579146 0.013437122
-0.0020525483 0.0061576446 0.01177901
-0.0010245157 0.0061470941 0.012364417
0 0.006151503 0.012193739
0.0010306735 0.006184041 0.011023104
0.0020613277 0.0061839828 0.011023015
0.0030919432 0.0061838864 0.010461926
0.0041210377 0.0061815563 0.0099252164
0.0051801102 0.0062161321 0.0082179606
-0.030035909 0.0072500468 0.0099479854
-0.028998515 0.0072496287 0.010874152
-0.027920008 0.0072385203 0.01158163
-0.02665784 0.0071771108 0.015160829
-0.02556359 0.0071578054 0.015820354
-0.024536027 0.0071563413 0.015360266
-0.023441536 0.0071343808 0.016677231
-0.022425484 0.007135381 0.015462071
-0.021400061 0.0071333535 0.015634626
-0.020427454 0.0071496093 0.015149504
-0.019426953 0.0071572987 0.014761597
-0.018413184 0.0071606827 0.014349133
-0.01740041 0.007164875 0.013400465
-0.016378542 0.0071656122 0.013085097
-0.015358197 0.0071671586 0.013037652
-0.014286139 0.0071430695 0.014891058
-0.013311971 0.0071679843 0.013502985
-0.012256024 0.0071493476 0.014186561
-0.011265662 0.0071690581 0.013090611
-0.010214757 0.0071503301 0.016431391
-0.009216317 0.0071682469 0.015822828
-0.0081259115 0.0071101724 0.017067164
-0.0071591493 0.0071591493 0.01367873
-0.0061180093 0.0071376772 0.015508056
-0.0051113176 0.0071558449 0.013655365
-0.0040891692 0.0071560461 0.015021324
-0.0030755401 0.0071762605 0.013875544
-0.002052465 0.0071836272 0.013461173
-0.0010252056 0.0071764393 0.012193233
0 0.0072135902 0.010534972
0.0010308755 0.0072161285 0.009925276
0.0020617316 0.007216061 0.010388494
0.003103523 0.0072415536 0.0082180202
-0.030127963 0.0083111627 0.0087800622
-0.02900227 0.0082863625 0.01080066
-0.027918706 0.0082722092 0.011581093
-0.026704051 0.0082166307 0.014430076
-0.025574567 0.0081838612 0.016063005
-0.024555327 0.0081851091 0.015627325
-0.023440443 0.0081531983 0.017090321
-0.022415061 0.0081509314 0.01684925
-0.021396503 0.0081510488 0.016632318
-0.020396058 0.008158423 0.015489757
-0.019411005 0.0081730541 0.014809608
-0.018388206 0.0081725363 0.014884412
-0.017368533 0.0081734275 0.013472944
-0.016310528 0.008155264 0.014351487
-0.01535565 0.0081896801 0.0126715
-0.01428547 0.0081631262 0.014890373
-0.013311347 0.0081915986 0.013502359
-0.012288357 0.0081922375 0.013503432
-0.011274519 0.0081996508 0.013675034
-0.010250236 0.0082001882 0.014992326
-0.0092158858 0.0081918985 0.014018029
-0.0081923334 0.0081923334 0.014018774
-0.0071728937 0.0081975926 0.012873501
-0.006148445 0.008197926 0.012874037
-0.0051238798 0.0081982082 0.012069821
-0.0040992186 0.0081984373 0.01346004
-0.0030753959 0.0082010562 0.013874888
-0.0020523686 0.0082094744 0.013460547
-0.001026194 0.0082095517 0.012802273
0 0.0082466435 0.010949016
0.0010308272 0.0082466174 0.010388106
0.002061757 0.0082470281 0.009290725
-0.02902798 0.0093304226 0.0097055137
-0.027785853 0.0092619509 0.012821257
-0.026710544 0.0092459572 0.014234692
-0.025573213 0.0092063565 0.014382899
-0.024542345 0.009203379 0.015772521
-0.023426605 0.0091669327 0.017308503
-0.022317458 0.0091298698 0.019161314
-0.02129182 0.009125066 0.019285649
-0.02028173 0.0091267787 0.018581867
-0.019265359 0.0091256965 0.017195761
-0.018344481 0.0091722403 0.015346438
-0.017367614 0.009194619 0.014398009
-0.016347671 0.0091955652 0.014399469
-0.015247925 0.0091487551 0.016277134
-0.014174687 0.0091122985 0.017935723
-0.013163317 0.0091130659 0.018034697
-0.012246027 0.0091845198 0.014891982
-0.011263197 0.0092153428 0.014064312
-0.010239941 0.0092159472 0.013894618
-0.0091835838 0.0091835838 0.015114307
-0.0081753209 0.009197236 0.014846921
-0.0071584336 0.0092037003 0.013677359
-0.006158724 0.0092380866 0.012166262
-0.0051236078 0.0092224944 0.011459589
-0.0041041221 0.0092342747 0.01155746
-0.0030752327 0.0092256982 0.01306951
-0.0020521379 0.0092346203 0.013508588
-0.0010276025 0.0092484225 0.012972295
0 0.0092769815 0.010948449
0.0010307725 0.0092769526 0.01038757
0.0020616476 0.0092774136 0.010363072
-0.027784212 0.010290449 0.011847407
-0.026659939 0.010253823 0.013382226
-0.025571702 0.010228681 0.014382064
-0.024527753 0.010219897 0.015990615
-0.023386028 0.010167838 0.017989069
-0.022352291 0.010160132 0.018502861
-0.02130462 0.010145058 0.019016683
-0.020292707 0.010146353 0.017777145
-0.019264217 0.010139062 0.017194778
-0.018252416 0.010140231 0.017196745
-0.017276511 0.010162653 0.016516536
-0.016261918 0.010163698 0.016518205
-0.015191287 0.010127525 0.018152297
-0.014173846 0.010124176 0.01793465
-0.013162537 0.010125029 0.018521011
-0.01221313 0.010177609 0.01647523
