ply
format ascii 1.0
comment PCL generated
element vertex 972
property float x
property float y
property float z
element camera 1
property float view_px
property float view_py
property float view_pz
property float x_axisx
property float x_axisy
property float x_axisz
property float y_axisx
property float y_axisy
property float y_axisz
property float z_axisx
property float z_axisy
property float z_axisz
property float focal
property float scalex
property float scaley
property float centerx
property float centery
property int viewportx
property int viewporty
property float k1
property float k2
end_header
-0.010168957 0.090503708 0.017577529
-0.0092361243 0.091335006 0.01906085
-0.0082345838 0.091609746 0.019245028
-0.0071322643 0.090681642 0.019571751
-0.0061796661 0.091665044 0.019556016
-0.0051412606 0.091514438 0.019314051
-0.0040686 0.090526342 0.018657178
-0.0030820465 0.091434047 0.017294616
-0.013776478 0.09537562 0.0054494441
-0.012115453 0.09086591 0.017582953
-0.011186397 0.09152507 0.018856764
-0.010085638 0.090770744 0.019619763
-0.0091803577 0.091803588 0.02051878
-0.0081383679 0.091556638 0.020665675
-0.0070943255 0.091212757 0.021172971
-0.0061506797 0.092260197 0.021172971
-0.0050915307 0.091647558 0.020841956
-0.0040895143 0.092014067 0.020552695
-0.0030607746 0.091823243 0.020286173
-0.0020304339 0.091369525 0.019475073
-0.0010140957 0.091268621 0.017980039
-0.015963186 0.096843332 0.0050863028
-0.014364507 0.093369298 0.017618626
-0.013181942 0.092273593 0.020018011
-0.012098957 0.091750428 0.021280318
-0.0110882 0.091729656 0.02128157
-0.010209196 0.092903696 0.0216479
-0.0090860799 0.091870368 0.021599889
-0.0081863031 0.093119204 0.02153936
-0.0071104853 0.092436314 0.021681815
-0.0060389345 0.091590509 0.021681815
-0.0051003853 0.092827015 0.02170378
-0.0040528309 0.092201911 0.02151379
-0.0030241688 0.09173312 0.020988315
-0.0020415895 0.092892326 0.020902038
-0.0010162852 0.092481956 0.019836843
0 0.092904255 0.019072682
0.0010145609 0.092325047 0.018031687
-0.016130185 0.092748567 0.017580509
-0.015246363 0.09351103 0.020540178
-0.014131389 0.092863411 0.021632403
-0.013018817 0.092133164 0.021648854
-0.01210522 0.092806697 0.021739542
-0.011205678 0.09372022 0.021713287
-0.010140684 0.093294293 0.021888584
-0.009146913 0.093501776 0.021779805
-0.0081799552 0.094069488 0.021779805
-0.007109534 0.093439594 0.021837234
-0.0061001824 0.093536139 0.021846861
-0.0050973175 0.09379065 0.02182892
-0.0040309019 0.092710741 0.021681815
-0.0030391046 0.093199216 0.021372169
-0.0020278825 0.093282603 0.02129972
-0.001010682 0.092982739 0.020917624
0 0.093043163 0.020828694
0.0010140097 0.093288898 0.020428419
0.0020085105 0.092391483 0.018917382
0.0030733319 0.094248854 0.017937362
-0.018530171 0.095739231 0.017650723
-0.017163577 0.093894862 0.020342469
-0.016259033 0.09450563 0.02168867
-0.015230889 0.094431512 0.022552937
-0.01408625 0.093572952 0.022555113
-0.012998562 0.092989713 0.022503257
-0.012220404 0.094708137 0.022493184
-0.011088513 0.093748339 0.022270292
-0.010170748 0.094587959 0.022061169
-0.0091686174 0.09474238 0.021839052
-0.008081411 0.093946405 0.021803379
-0.0071089608 0.09444762 0.021963596
-0.0060907789 0.094407074 0.022070616
-0.0050817532 0.094520621 0.021970242
-0.0040557715 0.094296694 0.021715224
-0.003026569 0.093823642 0.021621436
-0.002010972 0.093510203 0.021703273
-0.0010059702 0.093555219 0.021618724
0 0.093665965 0.021424711
0.0010102463 0.093952909 0.022095114
0.0020292643 0.094360799 0.021129191
0.0030589958 0.094828874 0.020711243
0.0039951955 0.092888288 0.019432545
0.0050752209 0.094399109 0.01855579
-0.020962009 0.098521441 0.009686321
-0.019278541 0.095378049 0.019739449
-0.018397171 0.096074127 0.021721274
-0.017187359 0.095035978 0.022720784
-0.016214928 0.095262699 0.022813171
-0.015197548 0.09523797 0.022874713
-0.014066828 0.094448708 0.022894859
-0.013211183 0.095527023 0.022574902
-0.012047743 0.094373994 0.022539228
-0.011180934 0.095546164 0.022441328
-0.010115864 0.095089123 0.022005618
-0.0090321517 0.094335809 0.021966428
-0.0080983015 0.095155045 0.022005618
-0.0071071004 0.095438205 0.021963596
-0.0060286471 0.094448805 0.022070616
-0.00507419 0.095394775 0.021964937
-0.0040658712 0.095547967 0.021955401
-0.0030248926 0.094779976 0.021835506
-0.0020347885 0.095635056 0.022018224
-0.0010117643 0.095105842 0.022253722
0 0.095161922 0.022280842
0.0010060065 0.094564609 0.022454888
0.0020013107 0.094061606 0.022527486
0.0030763552 0.09639246 0.022527486
0.0040271711 0.094638519 0.022473663
0.005075674 0.095422678 0.021738946
0.0060428916 0.094671972 0.019625396
0.0072176103 0.096922196 0.016288728
-0.021256106 0.096158572 0.017929703
-0.020462049 0.097194731 0.02112776
-0.019256523 0.096282616 0.022047937
-0.018109526 0.095578052 0.022964567
-0.017228145 0.096274927 0.023204863
-0.015977286 0.094865136 0.023204863
-0.015205069 0.096298762 0.023227215
-0.014367758 0.097495504 0.022969812
-0.013066593 0.095486633 0.022832304
-0.01209794 0.095775358 0.022822559
-0.011213826 0.096846677 0.022467583
-0.010110211 0.096046999 0.021907866
-0.0092635769 0.097782202 0.021668404
-0.0082527362 0.098001242 0.021495759
-0.0072019491 0.09774074 0.021650314
-0.0061284914 0.097034447 0.021676928
-0.0051843594 0.098502837 0.021586239
-0.0040937332 0.097226165 0.021468908
-0.0030757026 0.097397253 0.021485806
-0.0020271249 0.096288428 0.021574467
-0.0010128003 0.096216023 0.021916062
0 0.096188121 0.022270977
0.0010097745 0.09592858 0.022528648
0.0020334134 0.096587136 0.022807926
0.0030329896 0.096044667 0.022875637
0.0040505463 0.096200474 0.022875637
0.0049841511 0.094698876 0.022555351
0.0061060688 0.096679419 0.022489846
0.0070499796 0.095678292 0.02162233
0.0080430014 0.095510639 0.018654048
0.0092950705 0.09811464 0.0056450367
-0.022450933 0.097967707 0.018083572
-0.021378437 0.097729988 0.021267384
-0.020166257 0.09679804 0.022165209
-0.019253554 0.097281113 0.022766113
-0.01821021 0.097121127 0.023549408
-0.01716204 0.096915044 0.023697704
-0.016047908 0.096287452 0.023433477
-0.015289818 0.09785483 0.023225814
-0.014075102 0.096514985 0.022948503
-0.013142427 0.097051769 0.022822559
-0.012367063 0.098936506 0.02257207
-0.011252487 0.098203525 0.021792024
-0.010201123 0.097930782 0.021515936
-0.009177791 0.097896442 0.021354556
-0.0081603434 0.097924121 0.021266669
-0.0071385424 0.097900003 0.021214724
-0.0061083138 0.097733021 0.021214724
-0.0051259999 0.098419197 0.021277636
-0.0041092094 0.098621018 0.02121228
-0.0030456849 0.097461917 0.021118939
-0.0020532545 0.098556213 0.021372408
-0.001036123 0.099467807 0.02176398
0 0.097988173 0.022225767
0.0010134736 0.097293459 0.022583723
0.0020047543 0.096228197 0.023110598
0.0030355463 0.097137481 0.023332208
0.0040216986 0.096520759 0.023357242
0.0050498149 0.096956447 0.023699313
0.0060033784 0.096054055 0.023550093
0.0070323064 0.096443057 0.022741675
0.0081143416 0.0973721 0.021853536
0.0090657566 0.096701406 0.018764377
0.010125845 0.097208105 0.0057244301
-0.023438659 0.098849989 0.017765492
-0.022365274 0.098610528 0.021261811
-0.021166196 0.097767659 0.022818446
-0.020240027 0.098164134 0.023623824
-0.019427059 0.099180244 0.023835301
-0.018253135 0.098364115 0.024070412
-0.017135166 0.097771235 0.02391243
-0.016225418 0.098366596 0.023766518
-0.015117674 0.09776096 0.023388505
-0.014268571 0.098860808 0.023076326
-0.013144186 0.098075844 0.022673309
-0.012121194 0.09797965 0.021896601
-0.011151597 0.098336808 0.021542758
-0.010252185 0.099446192 0.02093026
-0.0091363071 0.098469086 0.020196229
-0.0082855653 0.10046247 0.020264417
-0.0072551672 0.10053589 0.019495189
-0.0061986889 0.10021213 0.019488931
-0.0052267737 0.10139941 0.019650668
-0.0041447915 0.10051119 0.01950261
-0.0030992359 0.10020863 0.020347893
-0.0020417739 0.099026024 0.02083689
-0.0010172812 0.098676272 0.021210581
0 0.099377826 0.021906286
0.0010271181 0.099630445 0.022724807
0.0020235225 0.098140836 0.023147196
0.0030261728 0.097846247 0.023521423
0.0040260442 0.097631566 0.023786634
0.0050119781 0.097232379 0.024155527
0.00607746 0.098252267 0.02409488
0.0070411582 0.09757033 0.02433458
0.0080457339 0.09755452 0.023377746
0.0092264172 0.099440269 0.022641599
0.010185835 0.098802604 0.016997755
0.011121623 0.098072492 0.0057244301
-0.024596419 0.10043538 0.014069974
-0.023408901 0.099742264 0.020719647
-0.022054505 0.09824279 0.022730947
-0.021288201 0.099344939 0.023946285
-0.020280471 0.099374309 0.024171412
-0.019256292 0.099321924 0.024068713
-0.018079711 0.098433986 0.024159491
-0.017224919 0.099296592 0.023942798
-0.016094903 0.098581277 0.023577482
-0.015232393 0.099518292 0.023248523
-0.014206512 0.099445581 0.022972733
-0.013124323 0.098937206 0.021782249
-0.012283303 0.10031364 0.021474034
-0.011353583 0.1011501 0.020473897
-0.010152155 0.099491119 0.019253165
-0.0092903906 0.10116203 0.017731279
-0.0082372213 0.10090596 0.016765177
-0.0071361773 0.099906482 0.016697705
-0.0061269067 0.10007281 0.016347289
-0.0051142117 0.10023855 0.016385853
-0.0040675523 0.099655032 0.016672522
-0.0030688497 0.10024908 0.017944872
-0.0020699746 0.10142875 0.019210011
-0.00103778 0.10170243 0.01959753
0 0.10018789 0.020481974
0.001016637 0.099630423 0.022167265
0.0020317163 0.099554092 0.022555351
0.0030549916 0.099796392 0.023357242
0.0039964868 0.097913928 0.023909032
0.0050777914 0.099524714 0.024128675
0.0060792957 0.099295162 0.024474502
0.0070126541 0.098177157 0.024815619
0.0080576884 0.098706678 0.024719357
0.0090292748 0.098318763 0.02431187
0.010114263 0.099119775 0.022521973
0.011274133 0.10044227 0.01309675
0.012230024 0.09987852 0.0054782331
-0.025323618 0.10028153 0.0093035698
-0.024681466 0.10181105 0.020191371
-0.023266232 0.10014596 0.022224039
-0.022059947 0.09926977 0.023996472
-0.02118526 0.099873379 0.024177581
-0.020237988 0.10017805 0.024313718
-0.019088991 0.099463686 0.024177581
-0.018144812 0.099796474 0.024111778
-0.017112393 0.099654526 0.023829043
-0.016320266 0.10098165 0.023443848
-0.015376173 0.10148275 0.022851527
-0.014267018 0.10088821 0.02147761
-0.013285914 0.10117734 0.020904303
-0.012195244 0.10061077 0.019725084
-0.011186238 0.10067616 0.01735574
-0.010316092 0.10212931 0.01603812
-0.009441047 0.10385153 0.014314711
-0.0084559023 0.10464179 0.014394313
-0.0074124974 0.10483389 0.011260092
-0.0063371225 0.10456253 0.011342943
-0.0052716369 0.10437842 0.012997121
-0.004208188 0.10415266 0.01427874
-0.0031109273 0.1026606 0.01469025
-0.00205954 0.10194723 0.015215248
-0.0010143305 0.10041873 0.017899156
0 0.10121009 0.018960506
0.0010358755 0.10255168 0.020507514
0.002034799 0.10072255 0.022170991
0.0030574803 0.10089686 0.022830844
0.004066613 0.10064868 0.023875207
0.0050192117 0.099380396 0.024372607
0.0060185976 0.099306867 0.024957836
0.0070272279 0.09938509 0.025400907
0.0080790529 0.099978283 0.024990588
0.008961725 0.09857899 0.024998605
0.010114314 0.10013171 0.024231434
0.0110808 0.099727206 0.021765202
0.012133475 0.10010117 0.0099108517
-0.025530268 0.10212107 0.01802507
-0.024454467 0.10189361 0.021784127
-0.023248577 0.10108078 0.023787737
-0.022212114 0.10096416 0.024248123
-0.021102173 0.10048654 0.024395794
-0.020113904 0.10056952 0.024603784
-0.019086819 0.10045695 0.024207741
-0.018105488 0.10058605 0.024140149
-0.017365644 0.10215085 0.023824185
-0.016254926 0.10159329 0.023206353
-0.015287377 0.10191585 0.021907747
-0.014334822 0.10239159 0.020904303
-0.013299664 0.10230511 0.019468307
-0.012437875 0.10364897 0.016933709
-0.011671453 0.10610412 0.014617443
-0.010717514 0.10717514 0.009103924
-0.0095802993 0.10644778 0.0055972338
-0.0032292465 0.10764156 0.0066995323
-0.002122221 0.10611105 0.011536121
-0.0010412438 0.10412438 0.014654219
0 0.10387623 0.016602576
0.0010156889 0.10156889 0.018879116
0.0020501709 0.10250855 0.020773917
0.0030776956 0.10258985 0.022392869
0.0041075321 0.10268831 0.023491144
0.0050411164 0.10082234 0.024322897
0.0060118809 0.10019802 0.024989992
0.0070591355 0.10084479 0.025551617
0.0080525596 0.100657 0.025312483
0.0090592084 0.10065788 0.025403976
0.01007587 0.10075871 0.024662644
0.011090579 0.10082345 0.023672104
0.012206558 0.10172132 0.016200185
0.013755463 0.10581126 0.0056249201
-0.027005924 0.10490762 0.0089815855
-0.025509344 0.10305775 0.01937291
-0.024415992 0.10275064 0.022271544
-0.023245748 0.10207915 0.023912102
-0.022178248 0.10181832 0.024310887
-0.021148017 0.10171189 0.024556339
-0.020072527 0.10136627 0.024647564
-0.019232662 0.10223678 0.024324894
-0.018369108 0.10307111 0.024140149
-0.017409632 0.1034337 0.023707926
-0.016061023 0.10138521 0.022716522
-0.015335077 0.10325619 0.021209806
-0.014379306 0.10373642 0.020004243
-0.01350998 0.10496216 0.016933084
-0.012843256 0.1080974 0.014086723
-0.01178158 0.10817633 0.0052984655
-0.0010625622 0.10731879 0.0073420703
0 0.10800578 0.013883322
0.0010282136 0.10384957 0.016472161
0.0020373727 0.10288732 0.019007117
0.0031047869 0.10452782 0.021261245
0.0040466986 0.10217913 0.022623152
0.005108783 0.10319742 0.024176061
0.0060668532 0.10212536 0.024897963
0.0069837971 0.10076621 0.0255014
0.0080232155 0.1012931 0.025633037
0.0090097087 0.10110896 0.025685787
0.010012593 0.1011272 0.024999499
0.011073632 0.10167608 0.024090707
0.012205028 0.10272565 0.021068037
0.013570666 0.10543364 0.0080848038
-0.026778318 0.10505341 0.013580978
-0.025296628 0.10321024 0.020953655
-0.024162248 0.10268956 0.023600161
-0.023253651 0.10312489 0.024031729
-0.022008013 0.10203715 0.024556339
-0.021166429 0.10280837 0.024660259
-0.020224659 0.10314576 0.024715036
-0.019236928 0.10327193 0.024395794
-0.018231746 0.10331323 0.024079204
-0.017246729 0.10348038 0.023324311
-0.016242286 0.10354457 0.021907747
-0.015458805 0.10511987 0.020289272
-0.01470226 0.10711647 0.017019928
-0.013895779 0.10902842 0.0096423924
0 0.10900413 0.0050105453
0.0010700237 0.10914242 0.014016688
0.0020893344 0.10655605 0.017165035
0.0030212249 0.10272165 0.019919693
0.0041258205 0.10520842 0.022057414
0.0050510895 0.10304223 0.0236893
0.0060334634 0.10256888 0.024939924
0.0070056897 0.10208291 0.025513411
0.0080434848 0.10255443 0.025596052
0.0090479376 0.10254329 0.025563717
0.010036755 0.1023749 0.025237978
0.011029355 0.10227221 0.024516165
0.012076571 0.10265085 0.02179265
0.013548002 0.10629971 0.01135233
0.014963501 0.10901979 0.0051372349
-0.02659221 0.10534607 0.014745176
-0.02530653 0.1042629 0.021429628
-0.024183147 0.10378601 0.02358976
-0.022959022 0.10281648 0.024174839
-0.022067469 0.10331588 0.024682105
-0.021003891 0.10301908 0.024919778
-0.020121703 0.10362677 0.02493915
-0.019347554 0.1048841 0.02443701
-0.018287705 0.10464632 0.023985267
-0.017117025 0.10370904 0.022967488
-0.016353382 0.10527489 0.02065134
-0.01554601 0.10674927 0.018781245
-0.01492808 0.10982802 0.0096724629
0.0010676093 0.10996375 0.0050216317
0.0021329559 0.10984723 0.013883322
0.0031117008 0.10683506 0.01768443
0.0041257031 0.10623685 0.021150917
0.0050430358 0.10388654 0.022751868
0.0061368244 0.10534882 0.024798483
0.0070295846 0.10343532 0.025586754
0.0079966178 0.10295645 0.025598764
0.0090265628 0.103304 0.025596052
0.0099752368 0.10274494 0.025554836
0.010922088 0.10227046 0.024556667
0.012026822 0.10323022 0.02214095
0.013532194 0.10721662 0.012049705
0.014852894 0.10927487 0.0056068301
-0.026710913 0.10684365 0.014745176
-0.025272103 0.10513195 0.022466689
-0.023996036 0.10398283 0.024204999
-0.023067117 0.10430349 0.024609953
-0.022098213 0.10446428 0.02528283
-0.020902079 0.10351505 0.025287032
-0.020139009 0.10472285 0.025300473
-0.01916784 0.1049187 0.024846137
-0.018125948 0.1047277 0.02402243
-0.017129723 0.10479359 0.021930873
-0.016569927 0.10770453 0.019879311
-0.016092142 0.11157218 0.014382005
-0.014941337 0.11099279 0.0055585802
0.0021242276 0.11045983 0.0067045689
0.0032016968 0.11099216 0.014530331
0.0040243007 0.10463181 0.018795907
0.0050804014 0.10567234 0.022067159
0.0060700858 0.10521483 0.024759322
0.0069988901 0.10398351 0.025540769
0.0080314223 0.10440849 0.025561273
0.008987641 0.10385719 0.02559185
0.01005061 0.10452634 0.025506496
0.011037471 0.10435427 0.02516818
0.012102359 0.10488711 0.023174167
0.013426618 0.10741294 0.012536049
0.014853811 0.1103426 0.005666256
0.016095679 0.11159671 0.005206883
-0.02692268 0.10872621 0.015261561
-0.025203731 0.10585567 0.023389161
-0.02433469 0.10646427 0.024333268
-0.023235906 0.10607696 0.024780065
-0.022150824 0.10571984 0.025332063
-0.021160224 0.10580112 0.025475591
-0.020160893 0.10584469 0.025489032
-0.019315103 0.10674136 0.024707764
-0.0182411 0.10640642 0.023943245
-0.017443845 0.10774139 0.020956576
-0.016783291 0.11014035 0.015226632
-0.015883401 0.11118381 0.006267488
0.0031912471 0.11169365 0.010821909
0.0041624368 0.10926396 0.017452687
0.0051327311 0.10778736 0.021355569
0.0060281632 0.10549286 0.024357736
0.0071403263 0.10710489 0.02555716
0.0080024572 0.10503225 0.025561273
0.0089598624 0.10453174 0.025556803
0.010095175 0.10599934 0.025467336
0.010969119 0.10470523 0.025429755
0.01207516 0.10565765 0.023122132
0.01357705 0.10966078 0.015758961
0.014817512 0.11113134 0.0061305165
0.016016014 0.11211209 0.0053560138
0.017013367 0.11165022 0.0050952733
-0.027082039 0.11041139 0.014674842
-0.025155894 0.10666099 0.02342546
-0.023996346 0.10598386 0.024645418
-0.023158014 0.10672823 0.024829298
-0.022179939 0.10686698 0.025520742
-0.02109159 0.10646231 0.026044816
-0.020274486 0.10745478 0.026072443
-0.019421807 0.10835323 0.024707764
-0.0182267 0.10733502 0.023797452
-0.01763835 0.10998029 0.020539433
-0.017126344 0.11346203 0.0098925531
-0.015950494 0.11271682 0.0051885843
0.0042808135 0.11344156 0.014766544
0.005000202 0.10600428 0.020741045
0.0060888059 0.1075689 0.024178207
0.007100862 0.10752733 0.025814891
0.0079918699 0.10589227 0.025814891
0.0090376073 0.10644294 0.0257442
0.010001751 0.10601855 0.025326163
0.010893014 0.10496905 0.025338829
0.012083985 0.10674187 0.023087084
0.013360376 0.10893845 0.017671168
0.014885086 0.11270136 0.0072684884
0.01595491 0.11274803 0.0058454871
0.016994417 0.112588 0.0053448081
0.021131668 0.11199784 0.0050233305
-0.026975095 0.1110129 0.015155405
-0.025268205 0.10814792 0.023888946
-0.024042172 0.10718802 0.024512887
-0.023320872 0.10849275 0.025521785
-0.021872442 0.10637961 0.025906265
-0.020900618 0.10649363 0.025686324
-0.020204257 0.10809278 0.025987983
-0.019083306 0.10746914 0.025147617
-0.01826624 0.10858266 0.023886859
-0.018165696 0.11433703 0.019205093
-0.016953737 0.11337811 0.0066642761
0.0042421059 0.11347634 0.012487561
0.0051328605 0.10984322 0.019806534
0.0061747842 0.110117 0.023749739
0.0070329611 0.10750384 0.025929689
0.0080000972 0.1070013 0.026016504
0.0089880023 0.10685737 0.025814891
0.0099696275 0.10667503 0.025635839
0.010959443 0.1066055 0.025326163
0.012102625 0.10791509 0.02495265
0.013233448 0.10892146 0.018004954
0.014913761 0.11398375 0.0073594153
0.015920285 0.11356471 0.0058775544
0.017005533 0.11372451 0.0054459274
0.018063642 0.11369469 0.0050206184
0.021340968 0.11417419 0.0051957667
0.021964304 0.11191336 0.0051457286
-0.026886471 0.11168227 0.015277177
-0.025102593 0.10844321 0.023965448
-0.024127305 0.10857288 0.025697917
-0.023102175 0.10847978 0.025931776
-0.021975175 0.10787813 0.026393622
-0.02102584 0.10813289 0.026297271
-0.020326868 0.1097651 0.026393622
-0.019121656 0.10869151 0.026203185
-0.01825482 0.10952892 0.023812145
-0.018052345 0.11468549 0.018808007
-0.016858425 0.11379438 0.0063586235
0.0042495737 0.11473849 0.0090332627
0.0051976326 0.11226887 0.019616514
0.0060670855 0.10920755 0.022926092
0.0071352688 0.11008701 0.025814891
0.0079715457 0.10761587 0.025814891
0.0089092795 0.10691136 0.025699645
0.010077558 0.10883763 0.025625199
0.010975239 0.10775689 0.025306642
0.012071749 0.10864574 0.024920464
0.013344493 0.11086194 0.018088996
0.014788291 0.11408111 0.0072517693
0.015989745 0.11512617 0.0060096383
0.017097486 0.11540803 0.005400449
0.01798935 0.11428529 0.0052023828
0.018899519 0.11339712 0.0050326884
0.020357402 0.11571576 0.0050799847
0.020868996 0.11269259 0.0053404868
0.02216047 0.11396813 0.0053216219
0.022958057 0.1127032 0.0052364767
-0.02700695 0.11322145 0.014881253
-0.024966417 0.10885358 0.024749517
-0.023950022 0.10877302 0.025925279
-0.0229147 0.10859576 0.026393622
-0.022100922 0.10950003 0.026685894
-0.020853428 0.10823923 0.026430428
-0.020138953 0.1097573 0.026552588
-0.019481437 0.11176193 0.0262779
-0.017999986 0.10899992 0.023996562
-0.018194852 0.11666112 0.018239737
-0.016907053 0.1151793 0.0066642761
-0.015736263 0.11435018 0.0051993728
0.0042170058 0.11491342 0.0086559057
0.0051931748 0.11321121 0.020350158
0.006102785 0.11086727 0.023842305
0.0071192347 0.11085666 0.026248813
0.0079232221 0.10795391 0.026247442
0.0090010567 0.1090128 0.026156247
0.0099982694 0.10898114 0.025948554
0.010967666 0.10867961 0.025336087
0.012090947 0.10982611 0.024941027
0.013307026 0.1115743 0.019280523
0.014827531 0.11544292 0.007444948
0.015927631 0.11574079 0.006624341
0.016964428 0.11557017 0.0060531199
0.018210841 0.11676363 0.0057570338
0.019224036 0.11641223 0.0052443445
0.020312192 0.11652784 0.005176574
0.021208422 0.1155859 0.0056840181
0.022345163 0.11598203 0.0055847764
0.023160731 0.11475091 0.0053198934
0.024054965 0.11399961 0.0050090551
-0.026606897 0.11256764 0.014141709
-0.025129579 0.11057014 0.024851918
-0.023986951 0.10994019 0.026301771
-0.023001425 0.11000682 0.026837975
-0.021884108 0.10942055 0.027549773
-0.020746477 0.10867202 0.027456522
-0.020254184 0.11139801 0.027456522
-0.018893261 0.10938203 0.026453644
-0.017931458 0.10958114 0.024069518
-0.018228233 0.11794738 0.019143194
-0.016958347 0.11658864 0.0075823963
-0.01590693 0.11665083 0.0058990121
-0.014920109 0.11722943 0.0052032173
0.0031990793 0.11729958 0.0051340461
0.0042519476 0.11692857 0.0093466938
0.0050993352 0.11218537 0.02052772
0.0061020767 0.11187141 0.024579197
0.007089193 0.11140161 0.027168095
0.0079680281 0.10956039 0.027168095
0.0089355512 0.1092123 0.027086407
0.0099008065 0.10890888 0.026441604
0.011010471 0.11010472 0.025915325
0.012046588 0.11042706 0.025130659
0.013275648 0.1123324 0.020315737
0.014799182 0.1162793 0.0076180995
0.015901644 0.11661205 0.0070356131
0.016859649 0.11591008 0.006252259
0.018101405 0.11712673 0.005984813
0.018989796 0.11604876 0.0057504177
0.020216715 0.11704414 0.0053062141
0.021190256 0.11654641 0.005776614
0.021990649 0.11518911 0.0055944026
0.023050452 0.11525226 0.0052727163
-0.0270229 0.115367 0.014228761
-0.024896516 0.11054052 0.025003582
-0.024008218 0.11103801 0.026887208
-0.022793764 0.11000469 0.027732491
-0.021919161 0.11059213 0.028251648
-0.021074545 0.11139403 0.028258026
-0.019825717 0.11003274 0.028349042
-0.019125393 0.11173255 0.02787295
-0.018306695 0.11289129 0.024609387
-0.017719552 0.11569825 0.021165818
-0.017235877 0.11957389 0.0081163049
-0.01597601 0.11822247 0.0061169267
-0.014842315 0.11767835 0.0054116547
0.0021383155 0.11867651 0.005212456
0.0031788724 0.11761828 0.0070084631
0.0041970485 0.1164681 0.01331386
0.005155697 0.11445647 0.021620005
0.0060403538 0.11174655 0.02720359
0.0071504437 0.1133856 0.02805084
0.007945531 0.11024424 0.02805084
0.0089076189 0.10986064 0.027863711
0.0099391006 0.11032402 0.027393997
0.010895518 0.10994568 0.026210934
0.011998694 0.11098793 0.025416195
0.013348828 0.11397846 0.020417243
0.01468447 0.11642687 0.0081038177
0.015694167 0.11613683 0.0071002543
0.016920242 0.11738418 0.0064809322
0.017927136 0.11705366 0.0059736669
0.019235449 0.1186186 0.0056893826
0.020143554 0.11768076 0.0053216219
0.020914951 0.11607798 0.0059422255
0.022150332 0.11708032 0.0056369901
0.022956967 0.11582834 0.0050789714
-0.026769331 0.11531404 0.014228761
-0.025076829 0.11234419 0.025209665
-0.023883011 0.11145405 0.027436197
-0.022868073 0.11135757 0.028189182
-0.02194244 0.11170697 0.029126018
-0.020867616 0.11129395 0.029157877
-0.01978947 0.11082104 0.029194713
-0.019203326 0.11319855 0.029093206
-0.018002391 0.11201488 0.027772576
-0.016900258 0.11134287 0.023510009
-0.017038872 0.11927211 0.0095070601
-0.015878556 0.11855988 0.0062277615
-0.014918176 0.11934541 0.0050776601
0.0020920739 0.11715613 0.0057328343
0.0032092284 0.1198112 0.0077712834
0.0042833467 0.11993371 0.016711563
0.0051115588 0.11449892 0.022532642
0.0059864279 0.11174665 0.028915554
0.0070611644 0.11297863 0.029255062
0.0079032946 0.11064612 0.029130578
0.0088780876 0.11048288 0.028960884
0.0099444194 0.11137751 0.028566152
0.010865881 0.11063442 0.02705422
0.012081802 0.11276349 0.025477856
0.013115138 0.11299195 0.020417243
0.014831911 0.11865529 0.0084160566
0.015877675 0.11855331 0.0072356164
0.016825769 0.11778039 0.0067158639
0.017915569 0.11803198 0.006396234
0.019137505 0.11907782 0.0057732761
0.019972306 0.11773148 0.0053734779
0.021042222 0.11783645 0.005803138
0.022272745 0.11878797 0.0056052804
-0.026727598 0.11616226 0.013639599
-0.025082517 0.11337297 0.025848955
-0.024024975 0.11311759 0.027137101
-0.022784498 0.11194123 0.028802663
-0.021846971 0.11221399 0.029456288
-0.020745756 0.11163192 0.029295117
-0.019916106 0.11252601 0.029563308
-0.018995939 0.11297584 0.029562533
-0.018271381 0.11470368 0.029478163
-0.01690023 0.11233682 0.026837975
-0.017311119 0.12225977 0.022850543
-0.015745081 0.11861294 0.0077426434
-0.01499632 0.12104172 0.0062479377
-0.013744015 0.11946721 0.0053297579
0.0010507045 0.11872961 0.0050005913
0.0021231016 0.11995523 0.0064976215
0.0032096028 0.12089504 0.0099667311
0.0042645973 0.12047487 0.02180934
0.0050005619 0.1130127 0.027058393
0.0061134873 0.11513735 0.02973932
0.0069000907 0.11138718 0.029933393
0.0079483679 0.1122707 0.029868871
0.008889731 0.11161552 0.029543608
0.0098704845 0.11153647 0.029095083
0.010849775 0.11145678 0.028288543
0.011990179 0.11290752 0.025835395
0.013237746 0.11506655 0.02035138
0.01475165 0.11906689 0.0084773302
0.015917486 0.11991172 0.0075216293
0.016937727 0.1196227 0.0072245002
0.018223863 0.12113509 0.0070313811
0.019275963 0.12101022 0.0062254667
0.020076266 0.11940095 0.0057201087
0.02090312 0.11810263 0.0060340762
0.022067517 0.11874426 0.0058688521
0.023357837 0.11997434 0.0050983131
-0.027044896 0.11858147 0.013508499
-0.025003191 0.11401455 0.025355399
-0.023940414 0.11371696 0.027172178
-0.022948697 0.11374571 0.02925095
-0.021928007 0.11362694 0.029522449
-0.020895749 0.11343406 0.030228019
-0.01985855 0.11319374 0.030498564
-0.018825451 0.1129527 0.030542642
-0.018240429 0.11552272 0.030395716
-0.017356308 0.11638936 0.029341877
-0.016447537 0.11718869 0.025107384
-0.016139997 0.12266397 0.019115895
-0.014612339 0.11898619 0.0071615875
-0.013790627 0.12093319 0.0063481331
-0.012644914 0.12012668 0.0052296519
0 0.12076494 0.005022645
0.0010556444 0.12034345 0.0060614347
0.0021052889 0.12000147 0.0083302259
0.0033084727 0.12572196 0.020829529
0.0040178653 0.11450916 0.026043892
0.0049931761 0.11384442 0.029563069
0.0060155434 0.11429533 0.030672163
0.0069649257 0.11342879 0.030684382
0.0078732669 0.11219405 0.030654401
0.008924528 0.11304402 0.03028512
0.0099964999 0.11396009 0.029378921
0.010865228 0.11260328 0.028800428
0.011961215 0.11363155 0.025324553
0.013279355 0.11644973 0.020214915
0.014745262 0.12006856 0.0082544684
0.01582706 0.12028565 0.0074481964
0.016951941 0.12078258 0.0070932508
0.017927051 0.12021668 0.0069127679
0.019239081 0.12184752 0.0062478781
0.020085378 0.12051226 0.0058780611
0.021243213 0.12108631 0.0062500238
0.022495829 0.12212021 0.0058688521
0.023126118 0.11983533 0.0050792992
-0.026982984 0.11934781 0.013067871
-0.025187068 0.11586051 0.024465293
-0.024027135 0.11513002 0.027099431
-0.022724973 0.11362486 0.029157877
-0.021953458 0.11475672 0.029563308
-0.020794703 0.11387575 0.030287951
-0.019892277 0.11438059 0.030786753
-0.018928707 0.11456848 0.030814409
-0.017823715 0.11387374 0.030794919
-0.016999448 0.11499625 0.029336929
-0.016237108 0.11670422 0.026611596
-0.016077511 0.12326091 0.022435963
-0.015090566 0.12395822 0.0078213811
-0.013642171 0.12068074 0.0065022409
-0.012728644 0.12198283 0.0053371191
-0.011604902 0.12132398 0.0050412118
-0.010595661 0.1218501 0.0050467551
0 0.12195265 0.005684942
0.0010540673 0.12121774 0.0063054562
0.0021660142 0.12454581 0.0097603202
0.003104642 0.11901128 0.022006363
0.0040135682 0.11539008 0.02734673
0.0050138999 0.11531969 0.030282021
0.0059609404 0.11425135 0.031306237
0.0069693453 0.11449638 0.031270325
0.0079519656 0.1143095 0.031137556
0.0088991206 0.11371098 0.030865252
0.0098744808 0.11355653 0.030121058
0.0109212 0.11417618 0.029130578
0.012020794 0.11519927 0.025403619
0.013221088 0.11695577 0.020230621
0.014751102 0.12116977 0.0082544684
0.015967702 0.12241905 0.0075764656
0.016889216 0.12139124 0.007145226
0.01801376 0.12185778 0.0070708096
0.019178962 0.12253226 0.0067647099
0.02041693 0.12357615 0.0060811937
0.021031354 0.12093028 0.0064144135
0.022414623 0.12274674 0.005974412
0.023092844 0.12071259 0.0051224232
-0.027469613 0.12255674 0.013067871
-0.025510866 0.11837041 0.025253147
-0.024196405 0.11694929 0.027698696
-0.023005757 0.11602904 0.029108465
-0.021733023 0.11459231 0.030241221
-0.020870551 0.11528495 0.030584306
-0.019928193 0.11558352 0.030947596
-0.018799411 0.11477536 0.030975252
-0.017655998 0.11378311 0.030941606
-0.017026937 0.11618381 0.030234098
-0.015878938 0.1151223 0.027831525
-0.014941382 0.1155467 0.023908556
-0.014774883 0.12242047 0.012320787
-0.014390234 0.12840517 0.0071715415
-0.012642901 0.12221472 0.006257683
-0.011674454 0.12311243 0.0051852763
-0.010387795 0.12049843 0.0050251782
-0.0010544193 0.12231264 0.0050624013
0 0.12244207 0.0061572492
0.0011006253 0.12767252 0.0077843666
0.0020689983 0.1200019 0.016089857
0.0029969884 0.11588355 0.02557537
0.0039865337 0.11560949 0.028718024
0.0049200878 0.11414604 0.030965775
0.0059088371 0.11423752 0.03166151
0.006951178 0.11519095 0.031502068
0.0079433918 0.11517918 0.031533688
0.0088410284 0.11395103 0.03129068
0.0098175583 0.11388368 0.030597568
0.010915862 0.11511274 0.029796243
0.011937629 0.11539709 0.026171952
0.013229031 0.11804367 0.020214915
0.014865838 0.12317409 0.0082784593
0.015799941 0.12218622 0.0076577365
0.016809633 0.12186985 0.0072190166
0.018031623 0.12303932 0.007083714
0.0191462 0.12338664 0.0068370104
0.020188833 0.12325814 0.0060340762
0.021246679 0.12323074 0.0063387752
0.022445176 0.12398288 0.0057442486
0.023350263 0.12311958 0.0050130785
-0.027395062 0.12327778 0.010240763
-0.025191495 0.1178962 0.024587452
-0.024161993 0.11778972 0.026545525
-0.022925857 0.11662284 0.029287785
-0.021767337 0.11576267 0.030370027
-0.020678604 0.11520936 0.030696869
-0.019790925 0.11577693 0.030984133
-0.018755721 0.11549576 0.031068593
-0.017890444 0.11628789 0.03101179
-0.016790872 0.11556071 0.030824065
-0.01582058 0.11568799 0.029185683
-0.015037522 0.11729267 0.024892151
-0.013997704 0.11698081 0.020555198
-0.013097734 0.11787961 0.0077986717
-0.01341925 0.13083769 0.0068143308
-0.012194967 0.12971011 0.0056908429
-0.010606079 0.12409113 0.0055666268
-0.0095007056 0.12350918 0.0051023066
-0.00848387 0.1240766 0.0051420331
-0.0074298512 0.12418466 0.0050624013
-0.0052518095 0.12289234 0.0052578747
-0.0042282422 0.12367608 0.0057739615
-0.0032017936 0.12486996 0.0053362548
-0.0021289419 0.1245431 0.0054929554
-0.0011117083 0.13006988 0.0059912801
0 0.12850909 0.0070833266
0.001031707 0.12070972 0.0084311068
0.0019824007 0.11597045 0.017576694
0.0029967329 0.11687259 0.027433574
0.0039810501 0.11644572 0.030388772
0.0049182498 0.11508705 0.031393677
0.005880998 0.11467947 0.031715631
0.0069035068 0.11538719 0.031741828
0.0079235528 0.11588196 0.031747073
0.008926725 0.11604743 0.031637818
0.0099847391 0.11682145 0.030676723
0.010973539 0.11671856 0.030121058
0.011917693 0.11619751 0.026204467
0.01328328 0.11954952 0.020456821
0.014761706 0.12336569 0.0081086755
0.015791984 0.12317748 0.0075994432
0.016926561 0.12377547 0.0071682036
0.017928092 0.12338745 0.0071181953
0.018920785 0.12298511 0.0064310431
0.020346377 0.12529084 0.0059035718
0.021163477 0.12380635 0.0062912703
0.022379829 0.12468761 0.0057299435
0.023398925 0.12443974 0.0050904751
-0.027238516 0.12362096 0.01045537
-0.025243128 0.11914756 0.024869561
-0.024226993 0.11911605 0.02680555
-0.023191115 0.1189805 0.029476821
-0.021756524 0.11669409 0.030563772
-0.020714955 0.11639832 0.030945599
-0.019707482 0.11627415 0.031149745
-0.01892845 0.11755563 0.031264454
-0.017731134 0.11623745 0.031187296
-0.016821265 0.11675937 0.030958176
-0.015633179 0.11529469 0.029473573
-0.014894115 0.11716704 0.027853072
-0.01405372 0.11845279 0.023213029
-0.013147405 0.11933798 0.011982381
-0.011787582 0.11591123 0.0073985755
-0.0111179 0.11926475 0.0066363513
-0.010897097 0.12858576 0.0064372122
-0.0099442182 0.13037975 0.0058312416
-0.0090142209 0.13295975 0.0057988763
-0.00777358 0.13104035 0.0054664314
-0.0065731448 0.12927185 0.005461365
-0.0054336414 0.12823394 0.0057738721
-0.0044167358 0.1302937 0.0062385499
-0.0033754283 0.13276684 0.0059912801
-0.0022573357 0.13318281 0.0060763657
-0.0010656322 0.1257446 0.0067282617
0 0.11776729 0.0079148114
0.0010108914 0.11928518 0.010021895
0.0020118232 0.11869758 0.025921911
0.0029718997 0.11689473 0.028930128
0.0039704069 0.11712701 0.031321853
0.0048690196 0.11490887 0.03169769
0.0059110587 0.11625082 0.032324404
0.0068845158 0.11605327 0.032270789
0.0078784386 0.11620697 0.032144547
0.0088854376 0.11649796 0.031747073
0.0099680554 0.11762305 0.031056434
0.01096227 0.11759527 0.030494034
0.012002949 0.118029 0.029073715
0.013596519 0.12341456 0.020499945
0.014859758 0.12524654 0.0079987943
0.016043458 0.12620854 0.007471174
0.016981527 0.12523876 0.0070953071
0.018088846 0.12555787 0.0069415867
0.019124679 0.1253729 0.0064144135
0.020005191 0.12424277 0.0059627891
0.02112584 0.12464246 0.0060136616
0.022113288 0.12425562 0.0054847002
-0.027579483 0.12622918 0.0080469549
-0.025955249 0.12354699 0.023617029
-0.024357595 0.12077308 0.026441544
-0.023270674 0.12040044 0.029409319
-0.022079445 0.11942974 0.030478835
-0.0208725 0.1182775 0.030941606
-0.019718615 0.11732577 0.031072587
-0.01884127 0.11800585 0.03149119
-0.017819986 0.11780991 0.03149119
-0.016734388 0.11714072 0.031380773
-0.015681421 0.11663058 0.030888855
-0.014861212 0.11789896 0.028754085
-0.013929679 0.11840227 0.024651617
-0.012997216 0.11897451 0.021011323
-0.012229633 0.1212772 0.0089214742
-0.011060211 0.11965138 0.006901592
-0.0098748021 0.11751015 0.0066363513
-0.0090939496 0.12024223 0.0063175559
-0.008058195 0.11986565 0.0055846274
-0.0070847659 0.12044103 0.0056938827
-0.0061493204 0.12196152 0.0058135986
-0.0052651432 0.12531041 0.0061069429
-0.0040913667 0.12171816 0.006567955
-0.0030145855 0.11957856 0.0066945255
-0.0020219088 0.12030358 0.0067171454
-0.0010065214 0.11977604 0.0078470707
0 0.12119518 0.0088268816
0.00099588453 0.11851026 0.017823964
0.001960777 0.11666624 0.028141856
0.002964091 0.11757562 0.030661076
0.0039045881 0.1161615 0.03168276
0.0049370034 0.11750069 0.031947881
0.0059754085 0.11851227 0.032539666
0.0068192915 0.11592796 0.032372564
0.0079474049 0.11821765 0.032204419
0.0089551192 0.11840658 0.031939924
0.0099022631 0.11783693 0.031270325
0.011173963 0.12088196 0.030796409
0.01230114 0.1219863 0.0286116
0.01365486 0.12499449 0.019480646
0.014787506 0.12569381 0.0084570944
0.015810024 0.12542619 0.0079294741
0.016837297 0.12522741 0.0075520873
0.017884959 0.12519471 0.0071591139
0.019153725 0.12662742 0.0067830384
0.020204587 0.12654452 0.0058505535
0.021364851 0.12712087 0.0063600242
0.021913182 0.1241747 0.0057389736
0 0 0 1 0 0 0 1 0 0 0 1 0 0 0 0 0 972 1 0 0
