ply
format ascii 1.0
comment PCL generated
element vertex 1289
property float x
property float y
property float z
element camera 0
property float view_px
property float view_py
property float view_pz
property float x_axisx
property float x_axisy
property float x_axisz
property float y_axisx
property float y_axisy
property float y_axisz
property float z_axisx
property float z_axisy
property float z_axisz
property float focal
property float scalex
property float scaley
property float centerx
property float centery
property int viewportx
property int viewporty
property float k1
property float k2
end_header
0.0071895346 0.0082166111 0.020721108
0.0082557229 0.0082557229 0.020813107
0.0092186285 0.0081943367 0.020783246
0.010211231 0.0081689851 0.020721108
0.011289937 0.0082108639 0.018903017
0.012341006 0.0082273372 0.00687626
-0.02166895 0.0092866924 0.016958177
-0.020654341 0.0092944531 0.020301223
-0.019419232 0.0091985837 0.020868927
-0.018503424 0.0092517119 0.021627069
-0.017467011 0.0092472406 0.02152136
-0.016411994 0.0092317462 0.021263748
-0.015369455 0.009221673 0.021082938
-0.014475768 0.0093058506 0.020948052
-0.013286087 0.0091980593 0.020394444
-0.012426632 0.0093199732 0.019689769
-0.011407314 0.0093332566 0.019363165
-0.010358167 0.0093223499 0.019183487
-0.0093316799 0.0093316799 0.019050926
-0.0083435373 0.0093864789 0.018752843
-0.0073534152 0.009454391 0.018235713
-0.0061492152 0.0092238225 0.017652482
-0.0052132122 0.0093837818 0.017481714
-0.0041445973 0.0093253441 0.017240852
-0.0031271693 0.0093815085 0.01690802
-0.0020589654 0.0092653437 0.017350614
-0.0010404651 0.0093641859 0.017555475
0 0.0092972806 0.018060207
0.0010402822 0.0093625393 0.018490285
0.0020883477 0.0093975645 0.018685997
0.0031238776 0.0093716327 0.019291461
0.0041572768 0.0093538724 0.019670725
0.0051623145 0.0092921657 0.020130247
0.0061078887 0.0091618327 0.020538568
0.0071511804 0.0091943741 0.021203488
0.0082138404 0.0092405695 0.021474332
0.009190714 0.009190714 0.022049993
0.010300882 0.0092707938 0.022035956
0.011206221 0.0091687264 0.021203488
0.01233377 0.009250327 0.020313352
0.013260741 0.0091805123 0.0067285001
-0.022758016 0.010344553 0.016584903
-0.021584576 0.010278368 0.020450652
-0.020500919 0.010250459 0.021372557
-0.019606652 0.01031929 0.021762818
-0.018469445 0.010260803 0.022010475
-0.017543625 0.01031978 0.021825731
-0.016554276 0.010346422 0.021765083
-0.015198596 0.010132397 0.021303922
-0.014399003 0.010285002 0.020924896
-0.013430239 0.010330953 0.020347714
-0.012415659 0.010346382 0.019578964
-0.011403286 0.010366623 0.019215435
-0.010280161 0.010280161 0.018621206
-0.009367873 0.010408748 0.018491268
-0.0083747339 0.010468417 0.017487645
-0.0073179957 0.010454279 0.01706785
-0.0062819645 0.01046994 0.016356409
-0.0052717212 0.010543442 0.016342521
-0.0041894568 0.010473642 0.015988797
-0.0031304583 0.01043486 0.015896916
-0.0021009026 0.010504513 0.015818417
-0.0010477181 0.010477181 0.016356826
0 0.010416867 0.016818523
0.0010443655 0.010443655 0.01740402
0.0020653044 0.010326521 0.017938495
0.0031545963 0.010515321 0.019074231
0.0041363053 0.010340763 0.01950556
0.0051351893 0.010270379 0.020200759
0.0061444617 0.010240769 0.020725995
0.0071806209 0.01025803 0.021363348
0.0082557695 0.010319712 0.02229014
0.0092406273 0.010267364 0.022331208
0.010228365 0.010228365 0.022429615
0.01119215 0.010174682 0.022363633
0.012326458 0.010272048 0.022035956
0.013413607 0.010318159 0.019883513
0.014399856 0.010285611 0.0056359768
-0.023870161 0.011416163 0.0076800287
-0.0229172 0.0114586 0.020190179
-0.021549931 0.011288059 0.021470428
-0.020588456 0.011323651 0.022145271
-0.01942491 0.011245999 0.022388726
-0.018531807 0.011324993 0.022354603
-0.017317824 0.011205651 0.022162825
-0.016363172 0.011249681 0.022011101
-0.01555575 0.011407549 0.02172178
-0.014537923 0.011422654 0.021020353
-0.013453119 0.011383408 0.019975245
-0.012397298 0.01136419 0.019180238
-0.011395166 0.011395166 0.01881814
-0.010358091 0.011393901 0.017861038
-0.0093475152 0.011424741 0.017215014
-0.0083234813 0.011444787 0.016258448
-0.0072526722 0.011397056 0.015891701
-0.0062603438 0.011477296 0.01529789
-0.0052253604 0.011495793 0.015239835
-0.0041443235 0.011396889 0.015140593
-0.0031189159 0.011436025 0.014941692
-0.0020795537 0.011437546 0.015067637
-0.001046979 0.011516768 0.015318394
0 0.011410869 0.015468866
0.001052038 0.011572418 0.016481638
0.0020961326 0.011528729 0.017017752
0.0031019107 0.011373673 0.018046677
0.0041357907 0.011373424 0.018943459
0.005210428 0.011462942 0.019815236
0.0062596123 0.011475956 0.020481348
0.0071345032 0.011211362 0.021874726
0.0082581528 0.011354961 0.022282243
0.0091923084 0.011235044 0.022499621
0.010199665 0.011219631 0.022602051
0.011216216 0.011216216 0.022637606
0.012221834 0.011203348 0.022251427
0.01325671 0.011217216 0.021313727
0.014398062 0.011312762 0.015402704
-0.023619341 0.012323134 0.018988222
-0.022457676 0.012249641 0.021253914
-0.021516433 0.012295104 0.02214393
-0.02046402 0.012278412 0.022516191
-0.019438555 0.012276981 0.022537589
-0.018548014 0.012365343 0.022542655
-0.017393189 0.012277544 0.02222681
-0.016361024 0.012270768 0.022088587
-0.015326239 0.012260991 0.021367252
-0.014318575 0.012273064 0.02071628
-0.013426021 0.01239325 0.019419342
-0.012412491 0.012412491 0.018517017
-0.011501576 0.012547174 0.017689019
-0.010422543 0.012507051 0.016835332
-0.0093188761 0.012425168 0.016027242
-0.0084291575 0.012643736 0.015365601
-0.0073468504 0.012594601 0.014873743
-0.0063026752 0.01260535 0.014150798
-0.0052258992 0.012542157 0.013778836
-0.0042405631 0.012721688 0.013424367
-0.0031536142 0.012614457 0.01361084
-0.0020903747 0.012542249 0.013847291
-0.0010528157 0.012633788 0.014130861
0 0.012572392 0.014814764
0.0010448925 0.01253871 0.015314996
0.002058926 0.012353556 0.016055465
0.0031223488 0.012489395 0.017006129
0.0041406127 0.012421838 0.018226922
0.0051536812 0.012368835 0.019338876
0.0062353956 0.012470791 0.02023825
0.0071941377 0.012332807 0.021476448
0.0082044248 0.012306637 0.022209138
0.0092163263 0.012288435 0.022528768
0.010276313 0.012331575 0.022495151
0.011189944 0.012207211 0.022575498
0.012305027 0.012305027 0.022472084
0.01330565 0.012282139 0.021894813
0.014374856 0.012321305 0.021604031
0.015402979 0.012322383 0.0067709386
-0.024861209 0.013466489 0.0075519681
-0.023707064 0.013399645 0.02073285
-0.022605868 0.013358013 0.021827281
-0.02147386 0.013293342 0.02232942
-0.020519642 0.013337768 0.022783339
-0.019459017 0.013314064 0.022852838
-0.018347122 0.013250699 0.022741199
-0.017317304 0.013242645 0.022541106
-0.016455231 0.013369876 0.022077411
-0.015458418 0.013397295 0.021243572
-0.01457497 0.0135339 0.020186454
-0.013393299 0.013393299 0.018702716
-0.012571611 0.013619246 0.017875135
-0.011408872 0.013483212 0.016680658
-0.010540533 0.013702693 0.015663534
-0.0094382381 0.013633011 0.014785618
-0.0084640831 0.013754135 0.013699144
-0.0073074624 0.013571002 0.0127092
-0.0063058394 0.013662652 0.012050599
-0.0052797268 0.01372729 0.012070924
-0.0041965987 0.013638945 0.012025476
-0.0031579391 0.013684402 0.012087256
-0.0021240958 0.013806622 0.012634486
-0.0010444452 0.013577788 0.012752146
0 0.013674486 0.013523638
0.0010502958 0.013653846 0.014612496
0.0020846049 0.013549931 0.015217602
0.0031146095 0.013496641 0.016186029
0.0041946485 0.013632608 0.017167687
0.0051621152 0.013421499 0.018827766
0.0062199188 0.013476491 0.01986891
0.0072447611 0.013454556 0.021043271
0.0082632536 0.013427787 0.022076994
0.009229864 0.013332027 0.022337079
0.010215197 0.013279756 0.022637725
0.011244021 0.013288389 0.022705555
0.012209771 0.013227252 0.022262514
0.013348163 0.013348163 0.022248745
0.014344745 0.01332012 0.022055507
0.015268408 0.01323262 0.017484605
-0.024761312 0.014444098 0.016548187
-0.023636509 0.01438744 0.021021158
-0.022625387 0.014397973 0.022130698
-0.021203687 0.014135791 0.022604764
-0.020517917 0.014362542 0.022879422
-0.019488607 0.014360026 0.022820234
-0.018375162 0.014291794 0.022762656
-0.017469032 0.014386262 0.022596925
-0.016242439 0.014212134 0.021762729
-0.015666291 0.014621872 0.020532995
-0.014496154 0.014496154 0.019135118
-0.013525192 0.014565591 0.018157333
-0.012362238 0.014422611 0.016820163
-0.011649806 0.014827027 0.015430063
-0.010335565 0.014469791 0.014139265
-0.0094906297 0.014763203 0.012558371
-0.0084526474 0.014792133 0.010898232
-0.0073883091 0.014776618 0.010367364
-0.0063524689 0.014822428 0.010000229
-0.0052832426 0.01479308 0.01023829
-0.0042106262 0.014737191 0.01023829
-0.0031596837 0.014745191 0.01023829
-0.0021203824 0.014842677 0.010804981
-0.0010519745 0.014727643 0.011622667
0 0.0147038 0.01192984
0.0010438698 0.014614176 0.013090283
0.0020912543 0.014638781 0.013958544
0.0031410372 0.014658174 0.015208244
0.0041450597 0.014507709 0.016255707
0.0051814835 0.014508154 0.018199474
0.0062537603 0.014592107 0.019275278
0.0071938238 0.014387648 0.020893216
0.008271818 0.014475682 0.022027999
0.0092208628 0.014343565 0.022550881
0.010233831 0.014327363 0.022640705
0.01118813 0.014239438 0.022640705
0.01223067 0.014269115 0.022446692
0.01326232 0.014282499 0.022262514
0.014277886 0.014277886 0.02219975
0.01543428 0.014405328 0.020632058
0.017051054 0.014919672 0.0055623353
-0.024878778 0.015549236 0.018506587
-0.023672154 0.01543836 0.02144742
-0.022528309 0.015360212 0.022542238
-0.021426672 0.015304766 0.022787094
-0.020391917 0.015293939 0.02328828
-0.019301819 0.015238278 0.023285329
-0.018540047 0.01545004 0.023095042
-0.017453998 0.015400588 0.022669822
-0.016414369 0.015388471 0.021711916
-0.015310497 0.015310497 0.020431519
-0.014482909 0.015517402 0.018922627
-0.01343213 0.015498611 0.017511815
-0.012541642 0.015677053 0.015578091
-0.011508721 0.015693711 0.013867676
-0.010413819 0.015620729 0.011800081
-0.0094979946 0.015829992 0.0099943578
-0.0085844453 0.016095834 0.0089657605
-0.0075944755 0.016273877 0.0082553029
-0.0021712517 0.016284388 0.0075828731
-0.0010697935 0.016046902 0.0086356401
0 0.015895231 0.010420591
0.001054865 0.015822975 0.011929393
0.0021128787 0.015846591 0.01262629
0.003123753 0.015618765 0.013945192
0.0041822172 0.015683314 0.015373707
0.0051380601 0.01541418 0.01746887
0.0062455176 0.015613794 0.019125581
0.0071645998 0.015352714 0.020486504
0.0082759438 0.015517394 0.021703601
0.0092046764 0.015341128 0.022334784
0.010201838 0.015302758 0.022604465
0.011223298 0.015304497 0.022439033
0.012253681 0.015317102 0.022247046
0.013309415 0.015357018 0.022233397
0.014201571 0.01521597 0.021871924
0.01534703 0.01534703 0.02106154
0.01710991 0.016040541 0.0060430765
-0.024714362 0.016476242 0.018791944
-0.023411054 0.01628595 0.021781147
-0.022562275 0.016408928 0.022823185
-0.021338997 0.016258283 0.023287833
-0.020404555 0.016323645 0.023572952
-0.019326553 0.016274991 0.023734152
-0.018422127 0.016375225 0.023310691
-0.017303299 0.016285457 0.022432148
-0.016424472 0.016424472 0.021973103
-0.0153492 0.016372479 0.020260394
-0.014582952 0.016666232 0.018087149
-0.01338175 0.016469847 0.016029656
-0.012498775 0.016665034 0.014270514
-0.011622169 0.016904974 0.010877222
-0.010758768 0.01721403 0.009372741
0.001072188 0.017155008 0.0085577071
0.0020995142 0.016796114 0.011354178
0.003164941 0.016879685 0.012527645
0.0042052073 0.016820829 0.014206052
0.0051981811 0.016634181 0.016000062
0.00615134 0.016403574 0.018188655
0.0072671007 0.016610516 0.01976341
0.0081776809 0.016355362 0.021495372
0.0093172658 0.016564028 0.022242457
0.010267242 0.016427588 0.022739112
0.011173308 0.016252084 0.022669494
0.012231305 0.016308406 0.022577941
0.013278047 0.016342212 0.022495627
0.014347675 0.016397342 0.02243349
0.015377511 0.016402679 0.021682203
0.016785847 0.016785847 0.011123329
-0.024519177 0.01736775 0.020816088
-0.02365765 0.01748609 0.022374302
-0.022384649 0.017297231 0.023326516
-0.021262707 0.017212668 0.023641318
-0.020469386 0.01739898 0.023829818
-0.019291038 0.017260402 0.023788124
-0.018362174 0.017342053 0.023585498
-0.017442241 0.017442241 0.022971004
-0.016363375 0.017386084 0.022203952
-0.015575916 0.017652703 0.020260394
-0.014607024 0.017737102 0.017391354
-0.013516521 0.017675452 0.014839858
-0.012707938 0.018002914 0.010568619
-0.012002131 0.018548749 0.0084578395
0.0022001814 0.018701542 0.0073349178
0.0031892871 0.018072627 0.011064112
0.0041950275 0.017828867 0.012802035
0.005261912 0.017890502 0.015506804
0.0062519461 0.017713847 0.017769277
0.0072062337 0.017500853 0.019356668
0.0082421321 0.017514531 0.021123111
0.0092395665 0.017452516 0.022185922
0.010221118 0.017375901 0.022678554
0.011234455 0.017362341 0.022650629
0.012165745 0.017234806 0.022498876
0.01322444 0.017293498 0.022525668
0.014229426 0.017278589 0.022468865
0.015276396 0.017313249 0.021609485
0.016846454 0.017899359 0.012600273
-0.02468433 0.018513247 0.0207946
-0.023566958 0.018443706 0.022606164
-0.022404961 0.018331332 0.023459822
-0.021291053 0.018249473 0.023675174
-0.020356432 0.01832079 0.023862928
-0.019271594 0.018257299 0.023745596
-0.018366747 0.018366747 0.023386538
-0.017392751 0.018415852 0.022946119
-0.016334323 0.018376112 0.021873087
-0.015685612 0.018822733 0.019736141
-0.014433271 0.018557062 0.015817642
-0.013887828 0.0192293 0.012629569
-0.013112056 0.019668084 0.0084139705
0.0032634959 0.019580975 0.0067614019
0.0042988495 0.019344822 0.011477083
0.0052546374 0.018916694 0.01320079
0.006262227 0.01878668 0.016062677
0.0072097108 0.018539255 0.018733531
0.0082880054 0.018648012 0.020734549
0.0092314333 0.018462867 0.022214532
0.010258975 0.018466156 0.023094773
0.011192373 0.018314792 0.02294302
0.012127886 0.018191827 0.022881985
0.013173928 0.018240822 0.022822201
0.014218498 0.018280925 0.022798955
0.015310341 0.018372409 0.022139847
0.016609922 0.01868616 0.012942046
-0.024577891 0.019457499 0.021108776
-0.023312509 0.01925816 0.022622794
-0.022471957 0.0194076 0.023709118
-0.021366516 0.01933161 0.023861408
-0.02039667 0.019376839 0.024096668
-0.019269377 0.019269377 0.023952752
-0.018446771 0.019471593 0.023565114
-0.017385574 0.019430937 0.02324447
-0.016529135 0.019628348 0.02208969
-0.015474736 0.019601332 0.019099474
-0.014740096 0.020004418 0.015589595
-0.014064286 0.020555494 0.0085042417
0.0043166252 0.02050397 0.0067614019
0.0052972725 0.020129636 0.01205951
0.0062881792 0.019912567 0.015513182
0.0072174049 0.019590098 0.018722147
0.0082066683 0.019490838 0.020751745
0.0092643462 0.019558065 0.022373885
0.010196296 0.019372964 0.023366481
0.011079908 0.019138025 0.023190916
0.012261639 0.019414263 0.022944361
0.013157372 0.019230006 0.022944361
0.014081364 0.019110423 0.022984385
0.015244668 0.019309914 0.022050768
0.016659617 0.019783296 0.014905542
-0.024624519 0.020520432 0.02131322
-0.023327863 0.020285096 0.023154706
-0.022376927 0.020342661 0.024073124
-0.021354986 0.020338081 0.024258465
-0.020378385 0.020378385 0.024415582
-0.019276286 0.020290826 0.024263382
-0.018345976 0.020384418 0.023953289
-0.017341055 0.020401241 0.023351967
-0.016365509 0.020456886 0.022004157
-0.015619827 0.020826435 0.018462032
-0.015044201 0.021491716 0.013900459
0.0054449071 0.021779628 0.0085577071
0.0063476986 0.021158995 0.012959629
0.0071986257 0.020567501 0.018362522
0.0082724039 0.020681009 0.020678461
0.0091174627 0.020261029 0.022341162
0.010304643 0.020609286 0.023741931
0.01121584 0.020392435 0.023485512
0.012133779 0.020222966 0.023319811
0.013132826 0.020204348 0.023319811
0.014236436 0.020337764 0.023401678
0.015312195 0.02041626 0.022244096
0.016679013 0.020848766 0.015497088
-0.024752676 0.021658592 0.021532536
-0.023438146 0.021400047 0.023757726
-0.022406178 0.021387717 0.024315268
-0.021471024 0.021471024 0.024433792
-0.020172663 0.021181297 0.024739414
-0.019276138 0.021305205 0.024521232
-0.018479411 0.021559315 0.024254292
-0.017266449 0.021329142 0.023508787
-0.016596084 0.021782361 0.022431463
-0.015882527 0.022235539 0.017036259
-0.014989459 0.022484189 0.0086473823
0.0064678043 0.022637317 0.010995835
0.0072914655 0.021874396 0.017120659
0.008272321 0.021714842 0.020400077
0.0091793062 0.021418383 0.021980941
0.010249758 0.021524495 0.023793757
0.01107447 0.021142172 0.023515463
0.01219066 0.021333657 0.023461848
0.013156468 0.021252757 0.023515463
0.014234619 0.02135193 0.023622364
0.015291073 0.021407504 0.022107571
0.016760604 0.021998294 0.015520126
-0.024739161 0.022677565 0.021678299
-0.023328766 0.02231447 0.023733437
-0.022460693 0.022460693 0.02446273
-0.021185981 0.022194836 0.02457568
-0.020326851 0.022359537 0.024784654
-0.019376401 0.022435833 0.024565458
-0.018422199 0.022516023 0.024379015
-0.017351002 0.022454238 0.023573548
-0.016393354 0.02254086 0.022331148
-0.016004518 0.023473291 0.016352385
0.006432239 0.023584874 0.00663957
0.0073399185 0.023068314 0.015864164
0.0082492996 0.022685574 0.020734549
0.0092564141 0.022626791 0.022329062
0.01023743 0.022522347 0.024648577
0.01109374 0.022187481 0.024325758
0.012187568 0.022343874 0.024189234
0.013196634 0.022332765 0.024189234
0.014088752 0.022139467 0.024325758
0.015195941 0.022287378 0.023343533
0.016608467 0.022836642 0.016794205
0.017970422 0.02325584 0.0051215291
-0.024699247 0.023670113 0.021710187
-0.023385614 0.023385614 0.024034739
-0.022231562 0.023242088 0.024856806
-0.021480475 0.023526235 0.0249089
-0.020286312 0.02332926 0.025000393
-0.019205015 0.023248175 0.024837732
-0.018403202 0.023515204 0.02464208
-0.017355813 0.023481395 0.023863882
-0.016200306 0.023287941 0.023011744
-0.016198462 0.024837643 0.015716642
0.0074483873 0.024473274 0.018129587
0.0082758972 0.023793206 0.021133661
0.0090935351 0.023239035 0.023644596
0.010185486 0.023426618 0.024964094
0.011116954 0.023244541 0.02475819
0.012134019 0.02325687 0.024645388
0.013106198 0.023187891 0.024621665
0.01416599 0.023272699 0.0243029
0.015176477 0.023270598 0.023717016
0.016658695 0.023946874 0.016830564
0.018335992 0.02480752 0.0053707063
-0.024861878 0.024861878 0.021260381
-0.023352852 0.024368191 0.023961872
-0.022428874 0.024467863 0.024950743
-0.02138033 0.02443466 0.025118619
-0.020386694 0.024464034 0.025160968
-0.019166399 0.024210187 0.024978161
-0.018468373 0.024624499 0.024767518
-0.017368784 0.024520636 0.024135113
-0.016212536 0.024318803 0.023108482
-0.016164163 0.02586266 0.017301679
0.0075278115 0.025809638 0.019079
0.0082177268 0.02465318 0.021868557
0.009162304 0.024432812 0.024141341
0.010194341 0.024466418 0.025667459
0.011011589 0.024025286 0.025461555
0.012200871 0.024401741 0.02528581
0.013209465 0.024386704 0.025232196
0.014103455 0.024177352 0.024828672
0.015086673 0.024138678 0.024142444
0.016524896 0.024787344 0.017193675
0.01825578 0.025772864 0.0054936409
-0.026881481 0.026881481 0.0051457584
-0.024702096 0.025731351 0.021326363
-0.023353493 0.025384231 0.024009287
-0.022393379 0.025447024 0.024976939
-0.021218823 0.025260504 0.025207251
-0.02012345 0.025154313 0.02531442
-0.019202752 0.025266778 0.025393099
-0.018116474 0.025161771 0.025007814
-0.017430225 0.025632683 0.024471551
-0.016352115 0.025550181 0.023476362
-0.01568005 0.026133418 0.021555185
-0.015049 0.026873214 0.005341053
0.0076003498 0.027144108 0.019148827
0.0081595229 0.025498511 0.023660898
0.0092748031 0.025763342 0.025254846
0.010079628 0.025199071 0.026207894
0.011118986 0.025270425 0.02600947
0.012185873 0.025387237 0.025671244
0.013209824 0.025403509 0.025586098
0.014085979 0.025153534 0.025412917
0.015175597 0.025292663 0.024328947
0.016493192 0.025770612 0.018942446
0.018123794 0.02665264 0.0056000054
-0.024553875 0.026600029 0.021196693
-0.023611074 0.026690777 0.023877472
-0.022209391 0.026247462 0.024652839
-0.021281818 0.026348917 0.025184453
-0.020443568 0.026576638 0.025681615
-0.019213567 0.02629225 0.025924236
-0.018224113 0.026323719 0.025572509
-0.017335484 0.026513092 0.02510339
-0.016399136 0.026648596 0.02408886
-0.015206026 0.026357112 0.022369951
-0.014940196 0.027746078 0.00759691
0.0065565254 0.02841161 0.0068199635
0.0075084344 0.027888471 0.02149722
0.0081723426 0.026560115 0.024609923
0.0092366496 0.026683655 0.025816649
0.010042748 0.026111148 0.026601642
0.011063029 0.026148979 0.026405483
0.012184669 0.026400117 0.026021987
0.013093884 0.026187768 0.025735259
0.014191867 0.026356323 0.025608718
0.015090193 0.026156334 0.024568051
0.016488632 0.026794026 0.019476354
0.018155029 0.027766515 0.0065614581
-0.024581905 0.027654646 0.021142811
-0.023443749 0.027520923 0.023628205
-0.022209749 0.027257422 0.024583608
-0.021162217 0.027208567 0.02541095
-0.020409824 0.027553266 0.026118279
-0.019133048 0.027189068 0.026243508
-0.01822768 0.02734152 0.026085854
-0.017084638 0.027134424 0.025970519
-0.016305981 0.027516345 0.025401652
-0.015226319 0.027407376 0.023831725
-0.015513999 0.029919857 0.021698117
0.0066401204 0.029880544 0.01873526
0.007186573 0.027719639 0.023941517
0.0081607774 0.027542623 0.025468469
0.0089992005 0.026997603 0.026143193
0.010081843 0.027220976 0.0271644
0.011001 0.027002456 0.026758581
0.012091448 0.027205758 0.026482552
0.013178679 0.027371103 0.025880545
0.014139309 0.027268669 0.025662839
0.015251854 0.027453337 0.025142521
0.016497588 0.027839679 0.019303352
0.018223338 0.028942948 0.0064364076
-0.024398476 0.028464889 0.021032244
-0.02341461 0.028504742 0.023581982
-0.022264753 0.028336959 0.024749696
-0.021210909 0.02828121 0.02583313
-0.02031886 0.028446404 0.026323706
-0.019381445 0.028562129 0.026592493
-0.018293474 0.028456517 0.02654314
-0.017079655 0.028131196 0.026912063
-0.016210815 0.028368926 0.026549995
-0.01534316 0.028640566 0.025687128
-0.014845822 0.029691644 0.023836732
-0.01428052 0.030758046 0.011167258
0.0056071831 0.031400226 0.017037898
0.0062007159 0.028936675 0.024019301
0.0071414947 0.028565979 0.025284678
0.0081355423 0.028474398 0.02648586
0.0089741275 0.027919509 0.027237803
0.01009228 0.028258385 0.027516365
0.010992431 0.027980734 0.027254671
0.012050712 0.028118329 0.026934266
0.013087909 0.028189342 0.026312858
0.014209232 0.028418465 0.025655001
0.015180866 0.028337616 0.024536848
0.016342096 0.028598668 0.018663228
0.018257421 0.030071044 0.0063072145
-0.024346087 0.029418191 0.018272817
-0.023667425 0.029841537 0.023077279
-0.022327617 0.029431861 0.024624884
-0.021204611 0.029282557 0.025459766
-0.02030798 0.029446572 0.02629897
-0.019055994 0.029085465 0.026582211
-0.018155728 0.029250897 0.026923418
-0.017168567 0.029287554 0.027031779
-0.016024185 0.029043837 0.027055264
-0.015237434 0.029459041 0.026297957
-0.014242455 0.02950223 0.026106745
-0.01434437 0.031998981 0.023257792
-0.013214264 0.031934474 0.0093697011
0.0043909387 0.031834308 0.010865599
0.0053489581 0.031023959 0.023180783
0.0060876072 0.029423436 0.02498883
0.0071219271 0.029505128 0.026824683
0.0080985921 0.029357396 0.02761355
0.0090119364 0.029038465 0.027785689
0.010043071 0.029124908 0.027804494
0.011106842 0.029281678 0.027102143
0.012068274 0.029164998 0.026430249
0.013181207 0.02940423 0.026098818
0.014276492 0.029572735 0.025106579
0.015137158 0.029265173 0.023119867
0.016593942 0.030076521 0.015948772
0.018159159 0.030977389 0.0061337948
-0.024646092 0.030807616 0.0083599985
-0.023597479 0.030779319 0.02184394
-0.022455769 0.030621504 0.023963869
-0.021253014 0.030361447 0.025084525
-0.020430582 0.030645872 0.026028872
-0.019022504 0.030035531 0.026391059
-0.018235503 0.030392505 0.026840866
-0.017102424 0.030180749 0.027144641
-0.016040694 0.030076299 0.027222395
-0.015219149 0.030438298 0.026875496
-0.013969309 0.029934233 0.02695623
-0.013363662 0.030839222 0.026088893
-0.012941262 0.032353155 0.024039149
-0.012557011 0.034246396 0.010993719
0.0034391468 0.03439147 0.016943812
0.0042099175 0.031574383 0.023668855
0.0051090331 0.030654199 0.025155365
0.0060084262 0.030042132 0.027143002
0.0070150797 0.030064628 0.027839601
0.0080066482 0.030024929 0.028019875
0.0090688253 0.030229419 0.0276438
0.010082565 0.030247696 0.027569413
0.010993151 0.029981323 0.027032822
0.012098154 0.030245386 0.02617985
0.013099787 0.030230276 0.025500953
0.014194759 0.03041734 0.024713784
0.015176312 0.030352624 0.019170761
0.016461615 0.030865528 0.010657907
0.018080443 0.031906664 0.0060568154
-0.024698239 0.031901892 0.0066713095
-0.023507867 0.031684518 0.016746402
-0.022382084 0.031538393 0.022839427
-0.021338241 0.031499308 0.024512351
-0.020100057 0.031155091 0.025752723
-0.019015446 0.031025201 0.026269227
-0.018118363 0.031203851 0.026828885
-0.017094027 0.031171462 0.027065367
-0.016041545 0.031080496 0.027222395
-0.014992098 0.030983672 0.027016968
-0.014027908 0.031061796 0.027443677
-0.013017528 0.031041797 0.027013332
-0.01210826 0.031279672 0.026653945
-0.011694973 0.032958563 0.025704235
-0.010931497 0.033887643 0.020734698
-0.010102035 0.034795903 0.0050188005
0.0011561027 0.035839185 0.0060756505
0.0022124844 0.034293506 0.018300831
0.003106026 0.032095604 0.024371117
0.0040697884 0.031540859 0.0255934
0.00499591 0.030974643 0.027434856
0.005984311 0.030918943 0.027880102
0.0070303455 0.031134387 0.028045177
0.0079988101 0.030995389 0.028016239
0.009047416 0.031163324 0.027643025
0.010051484 0.031159604 0.027498573
0.010936255 0.030820355 0.026728213
0.012181908 0.03146993 0.025836438
0.013215792 0.031514581 0.024694502
0.014152944 0.031338662 0.020801097
0.015272768 0.031563722 0.015629828
0.016500292 0.031969316 0.0088177025
0.01803056 0.032879256 0.0060278475
-0.023550738 0.032766242 0.0090814233
-0.022505896 0.032735851 0.019689351
-0.021284364 0.032433316 0.023451149
-0.020263685 0.032421894 0.024855405
-0.019161696 0.032272328 0.025826573
-0.018133407 0.032237168 0.026185542
-0.017006034 0.03201136 0.026718318
-0.016058819 0.032117639 0.027253896
-0.015113988 0.032243174 0.027363807
-0.014106806 0.032244127 0.028008282
-0.012908367 0.031774443 0.028017253
-0.01202351 0.032062694 0.028017253
-0.011135288 0.032393564 0.027678639
-0.010203855 0.032652337 0.026663333
-0.0094711315 0.033675134 0.024926245
-0.0088752406 0.035500962 0.011596799
-0.0080805728 0.036939759 0.0092767775
-0.0068127136 0.036334474 0.0065890253
-0.0058066053 0.037162278 0.0059094727
-0.0045914436 0.036731549 0.0050161183
-0.0022860824 0.036577318 0.0063451529
-0.0011329622 0.03625479 0.010768861
0 0.034973141 0.016764909
0.0010372924 0.033193357 0.024260163
0.0020366386 0.032586217 0.025144994
0.0030488928 0.032521524 0.026877671
0.0040018926 0.032015141 0.028123796
0.0049976679 0.031985074 0.028230995
0.0060145003 0.032077335 0.028009713
0.0070111034 0.032050759 0.02782172
0.008095935 0.03238374 0.027746737
0.0090057235 0.032020349 0.027278572
0.0099383229 0.031802636 0.026805729
0.011091177 0.032265246 0.025941283
0.012105893 0.032282382 0.024465829
0.013123178 0.032303207 0.023029804
0.014231819 0.032529872 0.016758531
0.01519872 0.032423936 0.010397822
0.016630197 0.033260394 0.0077295899
0.018016713 0.033913814 0.0057596862
-0.023900433 0.034291923 0.007284224
-0.022370549 0.033555821 0.011018723
-0.021496732 0.033780579 0.0205715
-0.020299664 0.033494446 0.023565084
-0.019222425 0.033386316 0.025159448
-0.018204061 0.033374116 0.025685936
-0.017186332 0.033361703 0.026351988
-0.01602741 0.033056531 0.026928812
-0.01513827 0.033304192 0.027324408
-0.013933914 0.032844227 0.0279302
-0.01308737 0.033221785 0.028081059
-0.012075756 0.033208326 0.028034568
-0.010891151 0.032673452 0.02824229
-0.0099976771 0.032992333 0.028148413
-0.009088113 0.033323079 0.028155446
-0.0080641666 0.033264685 0.027966797
-0.0070730611 0.033344429 0.027830452
-0.0061554704 0.033855088 0.026840001
-0.005201132 0.034327473 0.024097055
-0.004214739 0.034771595 0.024153024
-0.0031510962 0.034662057 0.024471462
-0.0020446135 0.033736121 0.025240511
-0.0010191563 0.033632156 0.027437031
0 0.033215143 0.028027296
0.0010060302 0.033198997 0.028919816
0.0020088817 0.033146545 0.029106319
0.0029678824 0.032646708 0.029150397
0.0039942795 0.032952804 0.02876842
0.0050267382 0.033176474 0.02872318
0.0059965164 0.032980841 0.02845329
0.0069663059 0.032841157 0.027796835
0.0080354884 0.033146389 0.027498364
0.0089793019 0.032924108 0.02684629
0.010065717 0.033216864 0.026245534
0.011147743 0.033443227 0.025090575
0.012043683 0.033120129 0.023110956
0.013081053 0.033205751 0.018503428
0.014381996 0.033900421 0.012433648
0.015585523 0.034288149 0.0094442368
0.017007688 0.035078358 0.0068923831
0.018080175 0.035096809 0.005353719
-0.024703251 0.036517847 0.0058334768
-0.023109306 0.03571438 0.0084193647
-0.021738185 0.035195153 0.011070758
-0.020359775 0.03461162 0.020425856
-0.019363726 0.034650877 0.023251832
-0.018117253 0.034221478 0.024876237
-0.017073382 0.034146763 0.025586575
-0.016120246 0.03425552 0.026680171
-0.015028573 0.034064766 0.027076781
-0.014078083 0.03418963 0.027842551
-0.013077547 0.034202814 0.027971983
-0.012030979 0.034087773 0.028089046
-0.011091982 0.034284309 0.028312415
-0.0099785933 0.033927217 0.028300494
-0.0090014897 0.034005627 0.028626561
-0.0080172969 0.034073509 0.028595895
-0.006969111 0.033849966 0.028651446
-0.0059934473 0.033962868 0.028838217
-0.0049959249 0.033972289 0.029403031
-0.0039662318 0.033712972 0.029330879
-0.0029789307 0.033761214 0.029903561
-0.0020091932 0.034156285 0.029839844
-0.00099591783 0.033861205 0.029519707
0 0.03396666 0.029631138
0.00099233317 0.033739328 0.029640198
0.0020002013 0.034003422 0.029631138
0.0030000731 0.034000833 0.029150873
0.0039915051 0.033927795 0.028910309
0.0050323764 0.034220159 0.028616071
0.0060113077 0.034064077 0.028347939
0.0070409747 0.034199022 0.027513623
0.0079891114 0.033953723 0.027091444
0.0090091433 0.034034543 0.026098549
0.010104927 0.034356754 0.02520293
0.011070604 0.034218233 0.023703754
0.01229916 0.034847621 0.016880721
0.013463574 0.035212424 0.013012886
0.014702038 0.035704948 0.0098444819
0.015857322 0.035943262 0.007948637
0.016783666 0.035665289 0.006293118
-0.023327213 0.037111476 0.0072020292
-0.022108065 0.036846772 0.0088612139
-0.02110165 0.03692789 0.01093781
-0.019598229 0.036101997 0.017881393
-0.018343855 0.035668608 0.022332609
-0.01731322 0.035644863 0.024083912
-0.016003178 0.035006952 0.025332987
-0.014925206 0.034825478 0.026299596
-0.014012183 0.035030458 0.027191848
-0.012950051 0.034865521 0.027499318
-0.012112195 0.035327233 0.027899683
-0.010971387 0.034908958 0.028139144
-0.0099509545 0.034828339 0.028274924
-0.0090613244 0.035238486 0.028653324
-0.0080121802 0.03505329 0.028674483
-0.0069667692 0.034833845 0.028830856
-0.0060052839 0.035030823 0.029417843
-0.0049842265 0.034889586 0.02956146
-0.0039746156 0.034777887 0.029679805
-0.0029932356 0.034921084 0.029867858
-0.001997465 0.034955636 0.029809117
-0.0009906023 0.034671079 0.029640198
0 0.035019852 0.029399216
0.00099017704 0.034656193 0.029400557
0.0019966147 0.034940757 0.029333502
0.0030182006 0.035212342 0.028918177
0.0039359848 0.034439865 0.028675467
0.0049711675 0.034798175 0.028334647
0.0060111149 0.035064839 0.027498662
0.0069327583 0.034663789 0.026821613
0.0080928318 0.035406139 0.026004553
0.0090995831 0.03538727 0.024218231
0.010204176 0.035714619 0.022078633
0.011341419 0.036086332 0.016537458
0.012700172 0.037042167 0.012785196
0.01357277 0.036542073 0.0099562407
0.014729492 0.036823731 0.0082223415
0.015818425 0.036909655 0.0066282749
0.017104436 0.037415951 0.0054899752
-0.02229807 0.03822526 0.0073876381
-0.021160096 0.038088173 0.0085551441
-0.02006072 0.038009785 0.01063171
-0.018812684 0.037625369 0.012554377
-0.017424941 0.036899872 0.0212695
-0.016242389 0.036545373 0.023898244
-0.015233252 0.036559805 0.025063932
-0.013938576 0.03584205 0.026522517
-0.013138948 0.036384776 0.027317405
-0.012013377 0.036040127 0.027552933
-0.01096096 0.035872232 0.028105587
-0.010000978 0.036003519 0.028263062
-0.0090440307 0.036176123 0.028621376
-0.0079900166 0.035955075 0.028667957
-0.0069257072 0.035617922 0.028819263
-0.0060433112 0.036259867 0.029251546
-0.004973717 0.035810765 0.029459596
-0.0039982744 0.035984468 0.029511243
-0.0029923944 0.035908733 0.029800653
-0.0019990902 0.035983622 0.02976051
-0.00099736813 0.035905249 0.02949065
0 0.035872567 0.029373586
0.001003684 0.036132623 0.029333502
0.0020077138 0.036138847 0.028910309
0.0029769088 0.035722904 0.028598666
0.0040388401 0.036349561 0.028374553
0.0050046872 0.036033746 0.02768749
0.0060017765 0.036010657 0.026334971
0.0070396196 0.036203757 0.024274915
0.0081469128 0.036661103 0.023438334
0.0092527689 0.037011076 0.018377036
0.010563164 0.038027391 0.014334142
0.011445101 0.037456695 0.011789948
0.012553876 0.037661631 0.010613143
0.013732336 0.038028002 0.0083224177
0.014730502 0.037878431 0.006862551
0.015793098 0.037903432 0.0056764483
-0.022361798 0.039399359 0.005243808
-0.021208687 0.039236072 0.0072053075
-0.020005489 0.038958058 0.0083977878
-0.019049723 0.039157767 0.010391146
-0.017897448 0.038953267 0.011703521
-0.016883262 0.039042544 0.016830117
-0.015287149 0.037708301 0.02339986
-0.014182637 0.037482683 0.024460882
-0.01311389 0.037324149 0.026365846
-0.011948031 0.036839765 0.027127266
-0.011020571 0.037069198 0.027552933
-0.0099720089 0.036896437 0.02807188
-0.0090512736 0.037210796 0.028397948
-0.0079954946 0.036979165 0.028637528
-0.0069776843 0.036882047 0.028904647
-0.0059869415 0.036919475 0.029239953
-0.0049874666 0.036907256 0.029310048
-0.0039959131 0.036962196 0.0294981
-0.002976964 0.036715891 0.02976051
-0.0020212242 0.03739265 0.02976051
-0.00099416741 0.036784194 0.02949065
0 0.036923591 0.029307902
0.00099714252 0.036894273 0.028961897
0.0019991237 0.036983792 0.0286026
0.0030008247 0.037010174 0.028316975
0.0040354985 0.037328362 0.02730462
0.0049977875 0.036983632 0.025980264
0.0060994974 0.037613571 0.023433536
0.0072466782 0.038303871 0.019390851
0.0083067864 0.038418889 0.015230328
0.0094030974 0.038657185 0.012968004
0.010449093 0.038661648 0.011030555
0.011593399 0.038995977 0.010267735
0.012645717 0.03899096 0.008759886
0.013784456 0.039232682 0.006865561
0.014733971 0.038939781 0.0055659115
0.016037082 0.039558135 0.0051369369
-0.021514183 0.040876947 0.0052974522
-0.020071128 0.040142257 0.0069131553
-0.019105341 0.040333498 0.0082257092
-0.017962376 0.04015119 0.010171086
-0.016835675 0.039984725 0.010582179
-0.015768578 0.039947066 0.012730986
-0.014482551 0.039309781 0.017336309
-0.013216534 0.038632948 0.023694992
-0.012107625 0.038340814 0.026254386
-0.011047383 0.038163688 0.027095884
-0.0099690873 0.037882533 0.027424514
-0.0090109399 0.038046192 0.028161198
-0.0080742342 0.038352612 0.02836895
-0.0069594951 0.037780117 0.028645486
-0.0060299803 0.038189877 0.029135108
-0.0050057317 0.038043562 0.029189616
-0.003989886 0.03790392 0.029184818
-0.0029871985 0.037837848 0.029453069
-0.0020029084 0.03805526 0.029437274
-0.00099423993 0.037781119 0.029271185
0 0.038081106 0.028813928
0.00099569687 0.037836481 0.028365523
0.0019987805 0.037976831 0.028202146
0.0030012205 0.038015459 0.02721107
0.0040076105 0.038072299 0.025923163
0.0051392661 0.039058425 0.020047873
0.0063052955 0.039933536 0.015412956
0.007351208 0.039906558 0.014030337
0.0084937252 0.040345196 0.012546897
0.0094500706 0.039900303 0.010561377
0.010473974 0.039801102 0.0096723139
0.011593378 0.040049855 0.0083710253
0.012709767 0.040247597 0.006770283
0.013752863 0.040200677 0.0056230426
0.014910607 0.040471647 0.0050221086
-0.020118184 0.041295219 0.0050449669
-0.01912153 0.041429982 0.006788969
-0.018009638 0.041316226 0.0077962875
-0.016785096 0.040913671 0.0090420246
-0.015894001 0.041324403 0.010017872
-0.014663361 0.040847935 0.011468649
-0.013632096 0.040896289 0.012905061
-0.012350053 0.040137671 0.019279271
-0.011130835 0.03946387 0.024677336
-0.010029202 0.03911389 0.026699573
-0.0090928841 0.0394025 0.027300328
-0.0080135763 0.039066184 0.028169811
-0.0070122047 0.039067999 0.028345168
-0.0060147075 0.039095599 0.028854936
-0.0050069652 0.03905433 0.029163659
-0.0040170928 0.039166655 0.029239953
-0.0030243546 0.03931661 0.029474229
-0.0020009745 0.039019004 0.0293369
-0.0010034095 0.039132971 0.028719813
0 0.039163858 0.028394908
0.0010032882 0.039128236 0.027463675
0.0020205157 0.039400056 0.026701272
0.003053484 0.039695293 0.023416609
0.0041705039 0.040662412 0.016171783
0.0052196598 0.040713347 0.014045954
0.0063332827 0.041166339 0.012851238
0.0073473328 0.04093514 0.011536777
0.0083912229 0.040907212 0.01042673
0.0094423592 0.04091689 0.0089945197
0.010560662 0.041186586 0.0080147386
0.011591284 0.041096371 0.0067449212
0.012777348 0.041526381 0.0055054128
-0.019055767 0.04234615 0.0054957867
-0.01799906 0.042350728 0.0063451231
-0.01678779 0.041969474 0.0075441897
-0.015783714 0.042089902 0.0087885261
-0.014770988 0.042202823 0.0097055733
-0.013629556 0.041937094 0.010948092
-0.012499864 0.041666213 0.011505753
-0.011586449 0.042132545 0.013329595
-0.010190518 0.040762071 0.023295671
-0.0091124987 0.040499996 0.0252738
-0.0080868378 0.040434185 0.026796311
-0.0070423391 0.040241938 0.026973873
-0.0060186982 0.040124655 0.027580827
-0.0050712638 0.04057011 0.02788651
-0.00402509 0.040250901 0.027915061
-0.0029950391 0.039933853 0.027899265
-0.0020175949 0.040351897 0.027862549
-0.0010083214 0.040332858 0.027182549
0 0.040311139 0.026646793
0.001013782 0.040551279 0.02417618
0.0020776603 0.041553203 0.01746434
0.0031453825 0.041938432 0.014990389
0.0041512838 0.041512836 0.013428301
0.0052265744 0.041812595 0.012244701
0.006258572 0.041723814 0.010651976
0.0073820567 0.042183179 0.010205328
0.0083289957 0.041644979 0.0081290603
0.009521394 0.042317305 0.0072165132
0.010639966 0.042559862 0.006188482
0.011825291 0.043001056 0.0052097142
-0.01807389 0.043589972 0.0050666928
-0.016930023 0.043383185 0.0061789751
-0.015997982 0.043727819 0.0072700083
-0.014857254 0.04351053 0.0084664822
-0.013708111 0.043233275 0.0092126727
-0.012526565 0.0427991 0.0099055469
-0.011590887 0.0432024 0.010992348
-0.01045781 0.042877026 0.012498289
-0.0094109438 0.042872082 0.016450554
-0.0081255659 0.04164353 0.023255974
-0.0070494907 0.041289877 0.024696589
-0.0060626785 0.041428305 0.026015908
-0.0050360272 0.041295428 0.026455253
-0.0040388815 0.041398536 0.026488185
-0.0030306824 0.041419331 0.026488185
-0.0020229125 0.041469708 0.025356144
-0.0010064311 0.041263673 0.023884684
0 0.042077042 0.019431025
0.0010422798 0.042733472 0.015535414
0.0020981273 0.043011609 0.013580441
0.0031351324 0.04284681 0.012465745
0.0041512144 0.042549949 0.010885537
0.0052249618 0.04284469 0.010367483
0.0063050399 0.043084443 0.0092682242
0.00735049 0.043052871 0.0079200864
0.0084952638 0.043538228 0.0063712597
-0.017086625 0.044852395 0.0050666928
-0.015964795 0.044701423 0.0058878064
-0.014739749 0.044219248 0.0070412159
-0.013672293 0.044172026 0.0081381202
-0.012649921 0.044274725 0.0091019571
-0.011394539 0.043506421 0.009319663
-0.01049999 0.04409996 0.010249108
-0.0094630942 0.044161111 0.011368662
-0.0084339092 0.044278022 0.012684613
-0.0072115134 0.043269083 0.014312744
-0.0061073275 0.042751294 0.01663816
-0.0050517139 0.042434402 0.018898547
-0.0040652542 0.04268517 0.018978387
-0.0030157152 0.042220011 0.01808992
-0.0020388879 0.042816646 0.016644806
-0.0010418304 0.043756876 0.015420943
0 0.043998975 0.013709962
0.0010463785 0.043947902 0.012326866
0.002082671 0.043736093 0.010745198
0.003117773 0.043648824 0.01009655
0.0042391676 0.044511259 0.0097253323
0.0052612168 0.044194221 0.0078594685
0.0062892339 0.044024639 0.0061616004
0.0074763587 0.044858154 0.005258292
-0.014967456 0.045971476 0.0057192743
-0.013804983 0.045662638 0.0065464079
-0.012524433 0.04487922 0.0075468421
-0.011644872 0.045520864 0.0085844696
-0.010485718 0.045088589 0.009323895
-0.0095369816 0.045565579 0.0096617341
-0.0084283007 0.045302115 0.010767579
-0.0073895315 0.045392834 0.010983944
-0.0063199536 0.045293 0.010983944
-0.0051416233 0.044217963 0.011556268
-0.0040624891 0.043671761 0.011439145
-0.0030973121 0.044394806 0.011999935
-0.0021121944 0.045412183 0.011974186
-0.0010533183 0.045292683 0.011518717
0 0.044547245 0.011062324
0.001049135 0.045112807 0.010200709
0.0020664828 0.04442938 0.0099534392
0.0031764272 0.045528792 0.0084947646
0.0042014378 0.045165457 0.0065113604
0.0053213662 0.045763753 0.0052914321
-0.013849316 0.046874605 0.0058562756
-0.012891111 0.047267407 0.0061368644
-0.011611088 0.046444353 0.0068212152
-0.010455636 0.046004802 0.0082157552
-0.0094417101 0.046159472 0.0091607571
-0.0084546395 0.046500515 0.0095690489
-0.0073591247 0.046257354 0.0096606612
-0.0063767987 0.046763189 0.010087162
-0.0052405437 0.046116784 0.010429889
-0.0041457629 0.045603395 0.010516346
-0.0031508454 0.046212398 0.010547578
-0.0021083541 0.046383791 0.01034838
-0.0010522472 0.04629888 0.010280937
0 0.046243019 0.0098800659
0.0010506714 0.046229541 0.0091665387
0.0020855651 0.04588243 0.0073680878
0.0031928471 0.046828423 0.006082952
-0.012823615 0.048088562 0.0051307082
-0.01179779 0.048263691 0.0055921674
-0.010649028 0.047920633 0.006041199
-0.0094963638 0.047481824 0.0068592429
-0.0084368093 0.047457054 0.0083861649
-0.0073872143 0.047489237 0.0088247657
-0.0063354238 0.047515679 0.0091344118
-0.0052672783 0.047405507 0.0090226531
-0.0042015794 0.047267769 0.0093165636
-0.0031388921 0.047083382 0.0090226531
-0.0021001403 0.047253158 0.0089510381
-0.0010511705 0.047302678 0.0080248713
0 0.047575492 0.0071722269
0.0010625015 0.04781257 0.0060400665
0.0021277706 0.047874838 0.0051745176
-0.010652702 0.049002435 0.0057629943
-0.0095645562 0.048885513 0.0061525404
-0.0084959753 0.048851859 0.006323427
-0.0073711504 0.048438989 0.0069307685
-0.0063885222 0.048978671 0.0072099268
-0.0052558053 0.048353411 0.0074509382
-0.0042018541 0.048321322 0.0071718991
-0.0031530939 0.04834744 0.0068245828
-0.0021043967 0.048401129 0.0063540041
-0.0010569937 0.04862171 0.0055488348
0 0.048752829 0.0051995218
-0.03296788 0.049983557 0.0052660704
-0.031817965 0.049848147 0.0054875612
-0.030882044 0.05005021 0.0051038861
-0.0096544474 0.050417673 0.005145818
-0.0085768532 0.05038901 0.0053384304
-0.007501279 0.050365731 0.0058598816
-0.0063895974 0.050051849 0.0058661699
-0.0053033479 0.049851473 0.0059430003
-0.0042161513 0.049539778 0.005920589
-0.0031847092 0.049893778 0.0055735409
-0.033945367 0.05091805 0.0055591166
-0.032874078 0.050901797 0.0057743788
-0.032060463 0.051296741 0.0062595606
-0.031013146 0.051332101 0.0062521994
-0.029839037 0.051152635 0.0053493381
-0.035217736 0.052292999 0.0053688288
-0.033861928 0.051851075 0.0061588287
-0.033350699 0.052715614 0.0064533651
-0.032049127 0.052346908 0.0071044862
-0.030564519 0.051643491 0.0068607628
-0.029667873 0.051918779 0.0062147677
-0.028622912 0.051945284 0.0058974028
-0.027510751 0.051847186 0.0055217147
-0.026690859 0.052314084 0.0054389834
0.025493676 0.052049588 0.0051212907
-0.036094341 0.053079914 0.0054483116
-0.034749374 0.052650567 0.0061228275
-0.034015734 0.053149585 0.0069777668
-0.032628082 0.052625936 0.0071491003
-0.031637568 0.052729283 0.0077991784
-0.03095603 0.053372465 0.0074902773
-0.029611558 0.05287778 0.0070135891
-0.028689211 0.053128168 0.0067872405
-0.027678227 0.053227361 0.0067103803
-0.026417049 0.052834097 0.006580919
-0.025287349 0.052681979 0.0062843561
-0.024517853 0.05329968 0.0061926842
-0.023424527 0.053237565 0.0059612095
-0.022131789 0.052694738 0.0053738952
-0.018306864 0.053843722 0.005138725
0.025483038 0.053089663 0.0052442551
-0.035691801 0.0535377 0.0062361956
-0.034557618 0.053407229 0.007029146
-0.033991728 0.054174319 0.0074294209
-0.032487135 0.05344658 0.0080510378
-0.031548172 0.053631894 0.0086359382
-0.030899229 0.05434002 0.0087241232
-0.029479066 0.053694014 0.0084225833
-0.028497839 0.053829249 0.0078913271
-0.027446814 0.053837981 0.0080822706
-0.026496412 0.054052681 0.0077513456
-0.025469353 0.054122377 0.0070583522
-0.024519982 0.054370396 0.0069485009
-0.023329575 0.0540822 0.0067972243
-0.022245441 0.05402464 0.0064701438
-0.021072807 0.053735659 0.0062603951
-0.020261483 0.054386087 0.0059981346
-0.019230986 0.054487798 0.0058753192
-0.018126538 0.054379616 0.0058586299
-0.016914045 0.053913523 0.0055245459
-0.015944561 0.054211512 0.0054678619
-0.015036942 0.054777429 0.0051540732
0.024206087 0.053674366 0.0052367449
0.025559198 0.054313298 0.0054255426
0.026589984 0.054243568 0.0050326884
-0.036758121 0.054612067 0.0055980682
-0.035737943 0.054658026 0.0067843795
-0.03480529 0.054844704 0.0073645115
-0.033830579 0.054974694 0.0089123249
-0.032491866 0.05450248 0.0091485679
-0.031567182 0.054716453 0.0097670257
-0.030599155 0.054867446 0.0094965398
-0.029032324 0.053917173 0.0091114938
-0.028477453 0.054845463 0.0086977482
-0.027508762 0.055017523 0.0087175071
-0.026433742 0.054982178 0.0085850954
-0.025322251 0.05486488 0.0084934831
-0.024204005 0.054722097 0.0082406402
-0.023318227 0.055115812 0.0082795918
-0.022300551 0.05522041 0.0079241097
-0.021162778 0.055023227 0.0075179935
-0.020126555 0.0550832 0.0067857206
-0.019105306 0.055193108 0.0065600276
-0.018053029 0.055221025 0.0064842403
-0.016989904 0.055217188 0.0061331987
-0.015985748 0.055417258 0.005946666
-0.014747922 0.054777998 0.0055212677
-0.013812697 0.05525079 0.0051881969
0.024476146 0.055337373 0.00542292
0.025280241 0.054773856 0.0058683455
0.026243635 0.054586757 0.0054340959
0.027530726 0.055061452 0.0051078498
-0.036699984 0.055574261 0.0059147179
-0.035718307 0.055678535 0.0074026287
-0.034483992 0.055383381 0.0090474486
-0.033732966 0.055870224 0.0097252429
-0.032402974 0.055398628 0.010340512
-0.031385262 0.055447292 0.010714382
-0.03043722 0.055626642 0.010714382
-0.029821651 0.056448124 0.009786278
-0.028018862 0.054999985 0.0096731782
-0.02731015 0.05567069 0.0097848773
-0.026401112 0.055970356 0.0093177557
-0.025162054 0.055566203 0.0088853836
-0.024273952 0.055935629 0.0088509321
-0.023095613 0.055639431 0.0086237192
-0.022077873 0.055720344 0.0084994137
-0.021116124 0.055957731 0.0083864331
-0.020154495 0.056220427 0.0083728731
-0.018894807 0.055634711 0.0079280436
-0.018080071 0.056367274 0.0076993108
-0.016864602 0.055863988 0.0075524151
-0.015906299 0.056202251 0.0070073009
-0.014974061 0.056687515 0.006008178
-0.0136009 0.055449821 0.0059491098
-0.012758653 0.056350715 0.0055299699
-0.011710215 0.056421947 0.0051940084
-0.010550859 0.055919554 0.0050202906
0.022256617 0.056171458 0.0050119758
0.023493974 0.056599118 0.0056118369
0.024502978 0.056463383 0.0059513152
0.025564646 0.056455262 0.0064573586
0.026741987 0.05669301 0.0061003268
0.027754001 0.056575462 0.0059020817
-0.036626916 0.056510102 0.0060400963
-0.03552445 0.056421187 0.0081910193
-0.034431007 0.056341652 0.0095736086
-0.032956686 0.055614412 0.010172099
-0.032528739 0.056662966 0.010685325
-0.031778157 0.057200685 0.011055261
-0.030387076 0.056582831 0.011264443
-0.029141802 0.05620205 0.010741055
-0.02843784 0.05687568 0.010455281
-0.027468981 0.057050966 0.010494024
-0.026249234 0.056698345 0.0099199712
-0.025328992 0.056990232 0.0096490085
-0.024117535 0.056623779 0.0097607374
-0.022951324 0.056335073 0.0096030235
-0.022014882 0.056609701 0.0093909204
-0.021133346 0.057060037 0.0092657506
-0.020050406 0.056985367 0.0090691149
-0.018921211 0.056763638 0.0090420842
-0.017980743 0.057115305 0.00905478
-0.016827188 0.056791764 0.0090073347
-0.015920103 0.057312373 0.0086059868
-0.014731572 0.056821778 0.008120656
-0.013664745 0.05676125 0.0078311563
-0.012762439 0.057430979 0.0072720647
-0.011560191 0.056750033 0.0067774951
-0.010616262 0.057327822 0.0056782663
-0.0095323566 0.057194144 0.0053010285
-0.0084166164 0.05681216 0.0050448477
0.021219049 0.057291433 0.0051249564
0.022038963 0.056671619 0.0053776503
0.023099998 0.056699995 0.005546391
0.024046769 0.056457631 0.0059677362
0.025423091 0.057201959 0.0064452589
0.0265131 0.057268295 0.0060496926
0.02736707 0.056839302 0.0056063235
-0.03535302 0.057188712 0.0080195069
-0.03440566 0.057342764 0.0095736086
-0.033697262 0.05791717 0.010142535
-0.032534733 0.057722911 0.010587841
-0.031182043 0.057167079 0.011055261
-0.030322799 0.057508755 0.011264443
-0.029049424 0.05706137 0.010955006
-0.028174505 0.057392508 0.010692924
-0.027240407 0.057623938 0.010546446
