ply
format ascii 1.0
comment PCL generated
element vertex 1302
property float x
property float y
property float z
element camera 0
property float view_px
property float view_py
property float view_pz
property float x_axisx
property float x_axisy
property float x_axisz
property float y_axisx
property float y_axisy
property float y_axisz
property float z_axisx
property float z_axisy
property float z_axisz
property float focal
property float scalex
property float scaley
property float centerx
property float centery
property int viewportx
property int viewporty
property float k1
property float k2
end_header
0.0071196663 0.039666712 0.023398101
0.0081058033 0.039515793 0.022427678
0.009182984 0.039792929 0.021128207
0.010264598 0.040031932 0.018673688
0.011228263 0.039809298 0.015204936
0.012492727 0.040601365 0.01400131
0.013593459 0.040780377 0.013382733
0.014713459 0.040987492 0.012768328
0.015709335 0.040844273 0.012444347
0.016818084 0.040994078 0.011829942
0.017868422 0.040992264 0.011641562
0.019080061 0.041340131 0.011035651
0.020017978 0.041089535 0.011021942
0.020816868 0.040592894 0.011457771
0.022039488 0.040930476 0.011967987
0.022951275 0.04068635 0.011226714
0.024133326 0.040921729 0.0110659
0.025046645 0.040700797 0.010370404
0.025866743 0.040352117 0.009580791
0.027051492 0.040577237 0.0086835027
-0.039929762 0.042031329 0.0067438781
-0.038335767 0.041444071 0.0080066919
-0.038019415 0.042243794 0.0089680851
-0.037024271 0.042313453 0.0094742775
-0.035741784 0.042049155 0.0097759366
-0.035052892 0.042488355 0.0099609792
-0.03383103 0.042288788 0.0098851025
-0.032641388 0.04211792 0.0098851025
-0.031870268 0.042493694 0.010173261
-0.03076965 0.042440891 0.010257691
-0.029464712 0.042092446 0.010590613
-0.02857903 0.042339303 0.010945588
-0.027255852 0.041932076 0.011817843
-0.026172306 0.041875686 0.012482911
-0.02517863 0.041964382 0.012651443
-0.02411212 0.041934121 0.013892204
-0.022799073 0.041452862 0.014778852
-0.021605318 0.041152984 0.016433686
-0.020735439 0.041470878 0.017113894
-0.019590495 0.041243147 0.018713713
-0.018520076 0.041155726 0.019773632
-0.01744567 0.041048635 0.020275921
-0.01631346 0.040783647 0.021051466
-0.015277143 0.040739045 0.022138596
-0.014366908 0.041048307 0.023118407
-0.013250366 0.040770356 0.024588943
-0.012000627 0.040002089 0.026590526
-0.010955323 0.039837539 0.028636247
-0.0098375101 0.03935004 0.03118071
-0.0088624684 0.039388746 0.032599479
-0.007919413 0.039597064 0.03341645
-0.0068847956 0.039341688 0.032689452
-0.0059597301 0.039731536 0.029069662
-0.0050870371 0.040696297 0.027914762
-0.0040350403 0.0403504 0.027590394
-0.0030414527 0.040552702 0.026968062
-0.002031428 0.04062856 0.026340067
-0.001013236 0.040529437 0.025730908
0 0.040650908 0.025267839
0.0010179078 0.040716309 0.025025874
0.0020354325 0.040708646 0.024717599
0.0030505534 0.040674046 0.024095029
0.0040364959 0.040364958 0.02380088
0.0050991708 0.040793367 0.0232853
0.0060925893 0.040617261 0.022986114
0.0071353368 0.040773351 0.022408694
0.0081319688 0.040659845 0.02112776
0.0092588058 0.04115025 0.019481212
0.010234189 0.040936757 0.015827268
0.011300908 0.04109421 0.015126556
0.012604661 0.042015538 0.01400131
0.013553875 0.04170423 0.013507515
0.014697133 0.041991808 0.013135135
0.015749153 0.041997742 0.012690485
0.016756751 0.041891873 0.012142211
0.017843451 0.041984592 0.011921346
0.018904116 0.042009145 0.011375695
0.019800069 0.041684356 0.011255503
0.020815428 0.041630857 0.011646748
0.021953955 0.041817054 0.012198895
0.022769751 0.041399546 0.011767417
0.023990912 0.041723326 0.011303067
0.025015831 0.04169305 0.010588884
0.026049681 0.041679487 0.010046154
0.027043333 0.041605126 0.0087529421
-0.039956562 0.04311103 0.0075310767
-0.038817924 0.043014456 0.0086809993
-0.037842494 0.043098398 0.0092154741
-0.036938924 0.043271314 0.0099000931
-0.035901405 0.043292869 0.01008144
-0.034826715 0.043269556 0.010367692
-0.034043189 0.043617841 0.010248393
-0.032663256 0.043199789 0.010193706
-0.031374179 0.042878047 0.010315984
-0.030500555 0.043121476 0.010448366
-0.029557329 0.043280378 0.010822475
-0.028464053 0.043223195 0.011031717
-0.0274505 0.043287329 0.011610121
-0.026373129 0.043251932 0.011963427
-0.025195597 0.043042481 0.012127489
-0.024196634 0.043133132 0.013029695
-0.023071866 0.042997573 0.013917267
-0.021809813 0.042581066 0.014671117
-0.020835672 0.042713128 0.016385347
-0.019567179 0.042223915 0.017042488
-0.018571073 0.042300783 0.018692017
-0.017527852 0.042273056 0.019475847
-0.016330713 0.041847456 0.020224303
-0.015453351 0.042239159 0.02109623
-0.014305602 0.04189498 0.022150666
-0.013257295 0.04181147 0.023486227
-0.012128585 0.041439336 0.024274707
-0.011126664 0.041472115 0.024446577
-0.0098556643 0.040408228 0.026152432
-0.0088187689 0.040174395 0.026511252
-0.0079237372 0.040609155 0.026842892
-0.0070651984 0.041381881 0.026622534
-0.0060826931 0.041565072 0.026409924
-0.0050260196 0.041213363 0.026222259
-0.0040461603 0.041473143 0.025730908
-0.0030243136 0.041332286 0.02554369
-0.0020335882 0.041688561 0.025358617
-0.0010076442 0.041313417 0.025004447
0 0.041619442 0.024418414
0.0010177133 0.04172625 0.024232596
0.0020334669 0.041686073 0.023953021
0.0030550661 0.041752573 0.023494035
0.0040493142 0.041505475 0.023155361
0.0050633214 0.041519236 0.022637129
0.0061154449 0.041788876 0.02186507
0.007141191 0.041826978 0.021018863
0.0082376394 0.042217907 0.019038826
0.0092035467 0.041927271 0.017185122
0.01033835 0.04238724 0.015071779
0.011455488 0.042697731 0.014793009
0.01256731 0.042938311 0.014000028
0.013708111 0.043233275 0.013602108
0.014708731 0.043075573 0.013306141
0.015588826 0.042609461 0.013003618
0.016708918 0.042816605 0.012462884
0.017714329 0.042722795 0.012345523
0.018772863 0.042760413 0.012222826
0.019840017 0.042812668 0.012099326
0.021107083 0.043269522 0.012385666
0.022118928 0.043184575 0.012934864
0.022903975 0.042684682 0.012695432
0.024270456 0.043264728 0.012441427
0.025043011 0.042781811 0.011785239
0.026191507 0.042954072 0.011093169
0.027131015 0.042783525 0.010273606
-0.03983628 0.044029575 0.0083790421
-0.038524289 0.04373027 0.0090978444
-0.038091619 0.044440221 0.0098281205
-0.036798418 0.044158105 0.010206163
-0.035847057 0.044281658 0.010635525
-0.035049196 0.044608071 0.010772914
-0.033734672 0.044276759 0.010644585
-0.032398138 0.043894254 0.010513753
-0.031665519 0.044331729 0.010589689
-0.03056469 0.044266101 0.010785311
-0.029233027 0.043849543 0.010934353
-0.028499257 0.044332176 0.011126816
-0.027451351 0.044344492 0.011798352
-0.026192378 0.044003196 0.011903733
-0.025331531 0.04433018 0.012105018
-0.024201587 0.044194203 0.012704611
-0.02314323 0.044182532 0.013331294
-0.022117086 0.044234172 0.013943195
-0.020912711 0.043916695 0.014941782
-0.019533398 0.043179087 0.016559303
-0.018589219 0.043374848 0.017610967
-0.017548082 0.043354083 0.018623352
-0.01638858 0.043020021 0.019736826
-0.015422121 0.043181937 0.020324349
-0.014273087 0.042819262 0.021449476
-0.01321135 0.042682823 0.022898197
-0.012313141 0.043095998 0.023419321
-0.011059797 0.042228319 0.024068415
-0.010080475 0.042337999 0.024451941
-0.0090456773 0.042213164 0.025284529
-0.0081045656 0.042548969 0.025609016
-0.0071126209 0.042675726 0.025462002
-0.0061211521 0.042848065 0.025458008
-0.005098708 0.042829152 0.025309294
-0.0040640417 0.042672437 0.02499336
-0.0030349987 0.042489983 0.024660707
-0.0020295491 0.042620532 0.024515063
-0.0010214546 0.042901095 0.024235338
0 0.042435132 0.02380228
0.0010142382 0.042598005 0.023259163
0.0020238489 0.042500827 0.023083717
0.0030229921 0.042321891 0.022231787
0.004109642 0.043151245 0.021496505
0.0051096226 0.042920832 0.021031797
0.0060818605 0.042573027 0.020377576
0.0071818028 0.04309082 0.018816531
0.008274815 0.043442782 0.017640144
0.009375792 0.043753698 0.015602827
0.010430879 0.043809693 0.014792204
0.011515899 0.043969799 0.014439493
0.012620825 0.04417289 0.013893604
0.013582468 0.043881822 0.013578445
0.014637084 0.043911252 0.013400644
0.015575741 0.043612078 0.013260931
0.016824858 0.044165254 0.01281786
0.017703611 0.043738335 0.012796134
0.019010141 0.044356998 0.012568355
0.019943124 0.044084799 0.012561977
0.021026576 0.044155814 0.012766153
0.021820765 0.04364153 0.012937874
0.023064634 0.044032484 0.012995392
0.023811689 0.043482214 0.012934864
0.025112154 0.04394627 0.012120754
0.025749028 0.043258365 0.011375397
0.026749609 0.043210909 0.010081142
-0.039534625 0.044736549 0.0085173845
-0.038858254 0.045159589 0.0092578828
-0.038133867 0.045548785 0.010013878
-0.036666214 0.045047063 0.010555983
-0.035716522 0.045170896 0.010960072
-0.035201568 0.04586871 0.011187822
-0.033642709 0.045207392 0.010884404
-0.032711986 0.045374688 0.010659099
-0.031816863 0.045604166 0.010819644
-0.030465517 0.045173008 0.010929942
-0.029611491 0.04547479 0.010973275
-0.028447708 0.04530561 0.010979235
-0.02732777 0.04519593 0.011793196
-0.026037278 0.044784114 0.01175499
-0.02519273 0.045136973 0.011870086
-0.024057431 0.044976935 0.012465686
-0.023233058 0.045410067 0.012884527
-0.021921849 0.044887595 0.013318956
-0.020821249 0.044765688 0.014087021
-0.019894173 0.045023654 0.015387416
-0.018605059 0.044445422 0.016270816
-0.017536273 0.044356454 0.017677695
-0.016431773 0.044160392 0.01900503
-0.015338105 0.043969236 0.019613087
-0.014388098 0.044192016 0.020372629
-0.013259086 0.043856978 0.022141874
-0.012139749 0.043500766 0.022880644
-0.011273554 0.044069346 0.023107916
-0.010156013 0.043670855 0.023847729
-0.0091545852 0.043738578 0.024246365
-0.0081315329 0.043706991 0.024594218
-0.0071141473 0.043701191 0.024653256
-0.0061082696 0.043775935 0.024607867
-0.0050934292 0.043803491 0.024580866
-0.0040673395 0.043723896 0.024376452
-0.003042568 0.043610141 0.024269938
-0.0020481739 0.04403574 0.024027854
-0.0010252483 0.044085678 0.023664564
0 0.043371517 0.023104519
0.0010202769 0.043871909 0.02241081
0.0020208925 0.04344919 0.022233725
0.0030818528 0.044173226 0.020737767
0.0040709767 0.043763001 0.019887686
0.0051088873 0.043936435 0.019013494
0.0062148394 0.044539683 0.018197834
0.0073398855 0.04508787 0.017318785
0.0082978588 0.04460099 0.015839964
0.0093466016 0.044655986 0.015251368
0.010422686 0.044817552 0.014793009
0.011402882 0.044574901 0.01453045
0.012515706 0.044847947 0.014020741
0.013526914 0.044742867 0.013752699
0.014632397 0.04494236 0.013658315
0.015648901 0.044860188 0.013524473
0.01671092 0.044910599 0.013286799
0.017744279 0.044882588 0.013257176
0.018804563 0.044922013 0.013038009
0.019695116 0.044573158 0.012954831
0.020666238 0.044432413 0.012990773
0.021904049 0.044851147 0.013490379
0.022701675 0.044371456 0.013143808
0.023866709 0.044620369 0.013084054
0.024864478 0.044548854 0.012859255
0.02597828 0.044682641 0.011785239
0.026833847 0.044379056 0.010103554
-0.039916199 0.046218753 0.0084336102
-0.038606718 0.045910686 0.0097013116
-0.037865084 0.046279546 0.0104132
-0.036565568 0.045968141 0.011223555
-0.035663873 0.046153247 0.011441946
-0.034887176 0.046516236 0.011471897
-0.033670463 0.046296883 0.011322945
-0.03289995 0.046696704 0.011159271
-0.031469282 0.046154942 0.01133889
-0.030525746 0.046314921 0.011358082
-0.029488452 0.046338994 0.011379451
-0.028157627 0.045886502 0.011160254
-0.027249694 0.046114866 0.011477262
-0.026417464 0.046494737 0.011686265
-0.025088698 0.045995947 0.011719197
-0.024287587 0.046463206 0.012180656
-0.023201536 0.046403073 0.012598306
-0.021923602 0.045935165 0.012830615
-0.020934319 0.046055503 0.013522506
-0.019965911 0.046236847 0.013946205
-0.018690532 0.04568797 0.015218616
-0.017655104 0.045695562 0.016361445
-0.016461283 0.045268528 0.01802969
-0.015402128 0.045179576 0.018888384
-0.014303676 0.044954408 0.019581318
-0.013131098 0.044443715 0.02050963
-0.012454187 0.04566535 0.021966994
-0.011243202 0.044972807 0.022403389
-0.010188429 0.044829089 0.023081571
-0.0091188606 0.044581097 0.023411632
-0.0081356512 0.044746082 0.02416876
-0.0071258117 0.044790816 0.024207383
-0.0060982658 0.044720612 0.024203539
-0.0050678183 0.044596802 0.024172604
-0.004053398 0.044587374 0.023952425
-0.0030475687 0.044697676 0.023794025
-0.0020470177 0.045034386 0.022973984
-0.0010222454 0.044978797 0.02258268
0 0.044768255 0.021633506
0.0010189725 0.044834789 0.020791769
0.0020357443 0.044786371 0.020361751
0.0030948431 0.045391034 0.019101262
0.0041021258 0.045123383 0.018110067
0.0052102408 0.04585012 0.017457783
0.006231714 0.045699239 0.016824603
0.0072076838 0.045305438 0.015842944
0.0083528347 0.045940589 0.015481949
0.0093386387 0.045655567 0.014947265
0.010381109 0.045676883 0.014721513
0.011466467 0.045865867 0.014563352
0.012484721 0.04577731 0.014235944
0.013558721 0.045891054 0.014045686
0.014631862 0.045985851 0.013926029
0.015666507 0.045955088 0.013783127
0.016614385 0.045689557 0.013665468
0.017606718 0.045570329 0.013571769
0.018624051 0.045525458 0.01357311
0.019662229 0.045533583 0.013490379
0.020847147 0.045863725 0.013689756
0.021913433 0.045913856 0.014080167
0.022626357 0.045252714 0.01371634
0.023917379 0.045754984 0.013672531
0.024924615 0.045695126 0.013061583
0.026146756 0.046018291 0.013014168
0.027084574 0.045835432 0.011218995
-0.039724234 0.047041859 0.0086915195
-0.038614064 0.046963051 0.010046959
-0.038026404 0.047533009 0.011186212
-0.036468972 0.046888679 0.011633754
-0.035771161 0.047344189 0.011879236
-0.034819864 0.047481637 0.011803031
-0.033616815 0.047273647 0.011656463
-0.032621279 0.047353469 0.011396885
-0.031397235 0.047095854 0.011383057
-0.030675143 0.04759936 0.011385322
-0.029585328 0.047547851 0.011385322
-0.028184205 0.046973675 0.01139456
-0.02730041 0.04725071 0.01152724
-0.026088199 0.046958759 0.011775941
-0.025260385 0.047363225 0.01175347
-0.024148757 0.04724757 0.012287945
-0.023224467 0.047504593 0.012601733
-0.021879474 0.046884589 0.012684077
-0.020934634 0.047102932 0.013255566
-0.01995929 0.047272004 0.013709784
-0.018767128 0.046917826 0.01436165
-0.017827282 0.047189862 0.015698463
-0.016707668 0.04699032 0.016182095
-0.015508713 0.046526141 0.017446935
-0.014228537 0.045734584 0.018340975
-0.013281019 0.045972764 0.019515991
-0.012338841 0.046270657 0.020162016
-0.011266767 0.046091322 0.021043479
-0.010218343 0.045982543 0.021991581
-0.0091430712 0.045715362 0.022403389
-0.0081353569 0.045761384 0.022748441
-0.0071658394 0.046066113 0.023054659
-0.0061016805 0.045762606 0.023041099
-0.0051203505 0.046083156 0.022906542
-0.0040847613 0.045953564 0.022935212
-0.0030420059 0.04563009 0.022525847
-0.0020396691 0.045892555 0.021145314
-0.0010245095 0.046102934 0.020364463
0 0.046217598 0.019852877
0.0010344469 0.04655011 0.018699199
0.0020563926 0.046268832 0.01804179
0.0030950841 0.046426266 0.017445505
0.004115541 0.046299841 0.016794264
0.0051212595 0.046091337 0.016270548
0.0062445435 0.046834081 0.015983939
0.0072799195 0.046799485 0.015072495
0.0083413329 0.046920002 0.015063673
0.0093393447 0.04669673 0.014512807
0.010415817 0.046871178 0.014413178
0.011366042 0.046497449 0.014540792
0.012500918 0.046878442 0.014596283
0.013659713 0.047283623 0.014072359
0.014605805 0.046947233 0.013967007
0.015552311 0.046656936 0.013876647
0.016579796 0.046630681 0.0139319
0.017631739 0.046672255 0.0139319
0.018829234 0.047073089 0.013911158
0.01993859 0.047222979 0.013898015
0.0204989 0.046122529 0.014448702
0.022077708 0.047309376 0.014612079
0.023074055 0.047196936 0.014182657
0.023703517 0.046376448 0.013720363
0.025029572 0.046930451 0.013347924
0.02608064 0.046945151 0.012977839
0.027047291 0.046812624 0.012038022
0.028646162 0.047743604 0.0059072673
-0.039807141 0.048187595 0.0091380179
-0.038679197 0.048087649 0.011175692
-0.038159173 0.048758946 0.01147902
-0.036604553 0.048108842 0.01214233
-0.035636004 0.048213419 0.012075394
-0.03493169 0.048692659 0.012289435
-0.033472173 0.048116248 0.012166888
-0.032814387 0.048692316 0.011766225
-0.031535264 0.048354074 0.011885375
-0.030465078 0.048323914 0.011674434
-0.029198043 0.047968213 0.011570603
-0.028401531 0.048387796 0.011443824
-0.02724877 0.048209365 0.011550814
-0.026321232 0.048431065 0.011908799
-0.025157537 0.048218615 0.011881948
-0.024142001 0.048284002 0.01244998
-0.023292486 0.048702471 0.012733728
-0.021784423 0.04771826 0.012866616
-0.020975962 0.048244715 0.013259321
-0.019911163 0.048205975 0.013553709
-0.018768406 0.047963709 0.014134288
-0.017750263 0.048030123 0.014803678
-0.016712669 0.048048925 0.015798002
-0.015732277 0.04824565 0.0161722
-0.014416096 0.047367174 0.017446935
-0.013422118 0.047493652 0.017974049
-0.012264175 0.047012676 0.018815726
-0.011431461 0.047804296 0.019437462
-0.010157341 0.046723772 0.020361841
-0.0091083487 0.046553783 0.021323264
-0.008153908 0.046884969 0.022060454
-0.0071362713 0.046895497 0.02153936
-0.0061588418 0.04721779 0.021561235
-0.0050544045 0.046500523 0.021571368
-0.0040816762 0.04693928 0.021402985
-0.0030511466 0.046784252 0.020172745
-0.00206054 0.04739242 0.018827647
-0.0010317335 0.04745974 0.01830557
0 0.047554627 0.017846555
0.0010348229 0.047601853 0.017444164
0.0020625996 0.047439791 0.017284304
0.0031180209 0.047809657 0.016446948
0.0041216547 0.047399029 0.016055584
0.005199777 0.04783795 0.015954167
0.0062366133 0.047814038 0.015326649
0.0073143388 0.048065655 0.014949352
0.0083152512 0.047812693 0.015119672
0.0094479155 0.048289351 0.014644474
0.010395332 0.04781853 0.014647812
0.011353529 0.047478396 0.014829129
0.012637645 0.048444305 0.014865339
0.013511847 0.047811151 0.014830291
0.014459321 0.047509197 0.014777541
0.015579729 0.047777839 0.014719546
0.016488956 0.04740575 0.014744252
0.017829487 0.048244495 0.014470547
0.018701959 0.047793902 0.014833093
0.019792747 0.047919281 0.014928997
0.02086585 0.047991455 0.015029728
0.021767907 0.047682084 0.015676081
0.022910576 0.047903933 0.014881045
0.023993164 0.047986329 0.014681458
0.024804883 0.047542691 0.013746202
0.025743838 0.047368664 0.012909681
0.027064878 0.047884017 0.011867404
0.028525556 0.048599094 0.0075528622
-0.039443005 0.04878477 0.0094972849
-0.038677126 0.049130403 0.011801392
-0.037794374 0.049342658 0.012069523
-0.036573023 0.049112342 0.012515634
-0.035835132 0.049536798 0.01260978
-0.034465622 0.049087401 0.012801588
-0.033447184 0.049125552 0.012703419
-0.032632828 0.049475577 0.012310773
-0.031133125 0.04877523 0.012418479
-0.030547474 0.049507976 0.012242734
-0.02911021 0.048863567 0.012020767
-0.027992094 0.048726976 0.011848807
-0.027204851 0.049178001 0.012078166
-0.026182251 0.04922263 0.012292415
-0.025141645 0.04923572 0.012167603
-0.024275551 0.049606558 0.01267603
-0.022950588 0.049030803 0.012905687
-0.021906465 0.049028758 0.013034254
-0.021144159 0.049688775 0.013486415
-0.019956036 0.049364932 0.013520509
-0.018708589 0.048850205 0.013952851
-0.017901529 0.04949246 0.014540464
-0.016756294 0.049221613 0.015168697
-0.01557527 0.048802514 0.015657872
-0.014532285 0.048786957 0.016274035
-0.013467059 0.048688602 0.017249554
-0.012359451 0.048407849 0.017313421
-0.011309656 0.048323076 0.018064022
-0.010041825 0.047196582 0.018802732
-0.0091863833 0.047973335 0.018631995
-0.0081205703 0.047708351 0.019084275
-0.0071062515 0.047713403 0.01969108
-0.0061984942 0.048554875 0.01930961
-0.0051704315 0.048602056 0.019085735
-0.0041255597 0.048475325 0.019066811
-0.0031100421 0.048723992 0.018306673
-0.0020679431 0.048596662 0.018040985
-0.001029863 0.048403565 0.017881334
0 0.048338249 0.017389625
0.0010239889 0.048127476 0.016871631
0.0020733932 0.048724744 0.016389102
0.0031191257 0.048866302 0.016036302
0.0041204728 0.048415557 0.01534152
0.0051631643 0.048533749 0.015197277
0.0062529915 0.048981767 0.015168786
0.0072139092 0.048436247 0.014899075
0.0083521027 0.0490686 0.014974952
0.0093820002 0.048994891 0.014910161
0.010401435 0.048886746 0.014739811
0.011538059 0.049298983 0.015030742
0.012523614 0.049050823 0.015169621
0.013479649 0.048734117 0.015169621
0.014623796 0.04909417 0.015139252
0.015727773 0.049280357 0.015086442
0.016829876 0.049437761 0.015472263
0.017724613 0.04900334 0.015221059
0.018747792 0.048952568 0.015299261
0.019712377 0.048762195 0.015532702
0.020683266 0.04860568 0.015670627
0.021572454 0.048281204 0.016183674
0.022856135 0.048829019 0.015599757
0.023794407 0.04862335 0.015252262
0.024619341 0.048212878 0.014711678
0.02584075 0.048580609 0.013609588
0.026584202 0.048056059 0.012896121
0.028261282 0.049195562 0.0096695423
-0.041524328 0.051106866 0.0059295297
-0.039788865 0.050259616 0.011069059
-0.038583372 0.050054099 0.011968762
-0.037631433 0.05017525 0.012384623
-0.036661614 0.050278783 0.012883723
-0.035672937 0.05036179 0.013099015
-0.034616888 0.05035184 0.013665855
-0.033298403 0.049947605 0.013601869
-0.032512929 0.050342597 0.012675434
-0.031339597 0.050143354 0.012793064
-0.030680424 0.050781388 0.012396455
-0.029395977 0.050393101 0.012345523
-0.028342746 0.050387103 0.012066811
-0.027493803 0.050757788 0.012314439
-0.026073407 0.050060939 0.012446642
-0.025086448 0.050172895 0.012295783
-0.02441166 0.050946068 0.012858003
-0.022902662 0.049969446 0.013147205
-0.022057507 0.050417159 0.01307255
-0.02112831 0.050707944 0.01343289
-0.019770963 0.049947698 0.01343289
-0.018832672 0.05022046 0.013822764
-0.017767763 0.050167799 0.014118195
-0.016780436 0.050341304 0.014633566
-0.015783072 0.050505824 0.015428275
-0.014558531 0.049914964 0.015945524
-0.013705404 0.050604567 0.016527414
-0.012336229 0.049344916 0.017000109
-0.011478766 0.050089162 0.017222285
-0.010222271 0.049066905 0.017817855
-0.009281748 0.049502656 0.018010139
-0.0082595916 0.049557548 0.01805082
-0.0072304425 0.049580175 0.018496871
-0.006250435 0.05000348 0.0183146
-0.0051474278 0.049415305 0.018074781
-0.004123868 0.049486414 0.017806768
-0.0031044097 0.049670555 0.01745221
-0.0020875584 0.050101403 0.017301589
-0.0010402169 0.049930412 0.017103642
0 0.049773641 0.016699016
0.0010443942 0.050130922 0.016105205
0.0020807779 0.049938668 0.01596275
0.0031029568 0.049647309 0.015328407
0.0041722986 0.050067581 0.0152601
0.0052218875 0.050130121 0.015114874
0.0062413546 0.049930837 0.01510936
0.0072745099 0.049882352 0.014962584
0.0082930038 0.049758021 0.015100241
0.0093351323 0.049787372 0.015033841
0.010454678 0.050182454 0.015027553
0.01141153 0.049795765 0.015063673
0.012440071 0.049760286 0.015100241
0.013451324 0.049666423 0.01519537
0.014592414 0.050031133 0.015286386
0.015646948 0.05007023 0.015443325
0.016664287 0.049992859 0.015664876
0.01757136 0.049613249 0.015664786
0.01857575 0.049535338 0.015658796
0.019652616 0.049648717 0.016174465
0.020834442 0.050002661 0.016488343
0.021962283 0.050199501 0.016849875
0.023095502 0.050390188 0.016500175
0.023730468 0.049524453 0.016278058
0.024873236 0.049746472 0.015473425
0.025703304 0.04935034 0.014298469
0.026834065 0.049539812 0.013128698
0.02838189 0.050456688 0.010151982
-0.041411012 0.052029222 0.0069850981
-0.039062694 0.05037031 0.011771381
-0.03844706 0.050916374 0.012392849
-0.037539989 0.051096097 0.0125947
-0.036184356 0.050658099 0.013558894
-0.035641849 0.051366195 0.013665557
-0.034600649 0.051376719 0.013760686
-0.03325763 0.050925743 0.01386863
-0.032929793 0.052050315 0.013457775
-0.031306747 0.051134352 0.013489038
-0.030294921 0.051187966 0.012947828
-0.029179299 0.051063772 0.01270923
-0.028058769 0.050921466 0.012732893
-0.027078908 0.051033325 0.012914002
-0.026206093 0.051363938 0.01297909
-0.025189178 0.051427905 0.012695372
-0.024133386 0.051414602 0.013182849
-0.023030125 0.051294368 0.013375312
-0.022078861 0.051517338 0.013178378
-0.02104464 0.05155937 0.013682038
-0.019960344 0.051476676 0.013576478
-0.018831411 0.051263288 0.013858616
-0.017696675 0.051008061 0.014363229
-0.01658191 0.050782096 0.014884442
-0.015504382 0.050647646 0.015363991
-0.014718469 0.05151464 0.015532374
-0.013558977 0.051106911 0.016025871
-0.012297702 0.050215617 0.016451716
-0.011487984 0.051173747 0.016835958
-0.010371087 0.050818324 0.017341673
-0.0093176421 0.050729387 0.017263621
-0.0083161835 0.050936621 0.01749438
-0.0072765732 0.050936013 0.017786175
-0.0062017282 0.050647449 0.017752975
-0.0052009621 0.050969429 0.017595977
-0.0041499916 0.050837394 0.017529249
-0.0030994879 0.050624967 0.017174691
-0.0020791879 0.050940104 0.016959101
-0.0010446269 0.051186718 0.016834378
0 0.050851759 0.016423404
0.0010409351 0.051005814 0.016056329
0.0020802773 0.050966792 0.015934199
0.0030993065 0.050622005 0.015328407
0.0041565276 0.050917462 0.015301406
0.0051634409 0.050601721 0.015253603
0.0062525622 0.051062591 0.015663117
0.0072791148 0.050953802 0.015215814
0.0083108591 0.050904009 0.015396744
0.0094200214 0.051286787 0.015324593
0.010339624 0.050664157 0.015324593
0.011374848 0.050669774 0.015357703
0.012453057 0.050849982 0.01546222
0.013591219 0.051228441 0.015621245
0.014532171 0.050862595 0.015954226
0.015539764 0.050763227 0.01610285
0.0164687 0.05043539 0.016152263
0.017571261 0.050646573 0.015889794
0.018747609 0.051035162 0.016290337
0.019734059 0.050893094 0.016888231
0.020747231 0.050830718 0.017325759
0.021833893 0.050945748 0.017706782
0.022640573 0.050426729 0.016976804
0.023703946 0.050499707 0.016585499
0.024787534 0.050607882 0.01607424
0.025730386 0.050431557 0.014468789
0.026838647 0.050580524 0.013456225
0.028216925 0.051208489 0.010290235
-0.041332752 0.052990709 0.007653743
-0.039282087 0.051686954 0.012148589
-0.038598184 0.052159708 0.012787104
-0.037472233 0.052044772 0.013317078
-0.036519408 0.05217059 0.014102519
-0.035624918 0.052389584 0.014366895
-0.034544405 0.052340008 0.014208496
-0.033618134 0.052528337 0.014177382
-0.032532703 0.052472103 0.013891488
-0.031089095 0.05181516 0.013819605
-0.030551754 0.052675437 0.013493568
-0.029324247 0.052364729 0.013296604
-0.028177399 0.052180368 0.013331741
-0.027318729 0.052536018 0.013470083
-0.026075851 0.052151702 0.013471603
-0.025077164 0.052244097 0.013330638
-0.024146896 0.052493252 0.01354143
-0.022879586 0.051999059 0.013699472
-0.021890704 0.052120723 0.013538927
-0.020914966 0.052287418 0.013763398
-0.019800402 0.052106321 0.013833851
-0.018783255 0.052175712 0.014259756
-0.01783311 0.052450325 0.014478356
-0.016586538 0.051832933 0.014997661
-0.015533223 0.051777411 0.015376598
-0.014733462 0.052619506 0.015690386
-0.013435354 0.051674444 0.016058922
-0.012533451 0.052222718 0.016323447
-0.011420618 0.051911902 0.016664982
-0.010308652 0.051543266 0.017018825
-0.0093425689 0.051903166 0.017026454
-0.0082604177 0.051627614 0.017026454
-0.0072214231 0.051581595 0.01765272
-0.0062557403 0.052131169 0.017490864
-0.0051769926 0.051769931 0.01711154
-0.004131061 0.05163826 0.016948372
-0.0031177839 0.051963065 0.016520619
-0.0020911393 0.052278481 0.016502708
-0.0010369876 0.051849384 0.016352475
0 0.051813241 0.016168535
0.0010363221 0.05181611 0.015934974
0.002069358 0.051733948 0.015838206
0.003121051 0.052017521 0.015675187
0.0041506635 0.051883295 0.015657485
0.0052217627 0.052217629 0.015617788
0.0062408578 0.05200715 0.015721649
0.0072362446 0.051687464 0.015686005
0.0083170393 0.051981498 0.015774459
0.0092875836 0.051597692 0.015794814
0.010327403 0.05163702 0.015794814
0.011389349 0.051769771 0.015954226
0.012529823 0.0522076 0.016117096
0.013487241 0.051874008 0.016302258
0.014527749 0.051884819 0.016527414
0.015416226 0.051387422 0.016572356
0.01665812 0.052056622 0.016674697
0.017673822 0.051981829 0.01672408
0.018537367 0.051492687 0.017628342
0.019537438 0.051414311 0.017781675
0.020611607 0.051529016 0.018074423
0.021772698 0.051839758 0.018128246
0.022807812 0.051835939 0.01771155
0.02364951 0.051411979 0.017718405
0.024694484 0.051446844 0.016915709
0.025621427 0.051242854 0.016070008
0.02673474 0.051412962 0.013929099
0.028247487 0.052310161 0.011132896
-0.040944353 0.053542618 0.007691592
-0.039359238 0.052824244 0.012500584
-0.038278747 0.052762594 0.013385564
-0.037332725 0.052888028 0.014008224
-0.03615804 0.052687433 0.014530659
-0.035333183 0.052999776 0.014637858
-0.034119952 0.05273084 0.014918387
-0.033605833 0.053559292 0.014752209
-0.032303922 0.053145163 0.014278263
-0.031251404 0.053127386 0.014187813
-0.030523071 0.053678501 0.014020562
-0.028978962 0.052783113 0.013851613
-0.028057883 0.052998219 0.013948768
-0.02705447 0.053068385 0.013792783
-0.025886675 0.052808814 0.01381132
-0.025280971 0.053722065 0.013813019
-0.023981081 0.053175442 0.01411739
-0.022885785 0.053053413 0.01400286
-0.022017112 0.053470127 0.013937771
-0.020787662 0.053008541 0.014384419
-0.019840183 0.05325523 0.014382929
-0.018798096 0.053261276 0.014845222
-0.017772103 0.05331631 0.014901847
-0.016591065 0.052884016 0.015185565
-0.015495765 0.0526856 0.01533699
-0.014677267 0.053467188 0.015513033
-0.0134304 0.052688494 0.015955925
-0.012454108 0.05292996 0.01602596
-0.011408427 0.052893616 0.016328394
-0.010390711 0.052992631 0.016463071
-0.0094180396 0.053368893 0.016679466
-0.0082980078 0.0528998 0.016756058
-0.007280142 0.053041033 0.017094791
-0.0061964621 0.052669931 0.01685065
-0.0051944368 0.052983258 0.016740948
-0.0041612289 0.05305567 0.016879201
-0.0031151825 0.052958101 0.016520619
-0.0020816589 0.053082302 0.016502708
-0.0010424722 0.05316608 0.016371489
0 0.052771393 0.016246349
0.0010312824 0.052595399 0.015964419
0.0020623037 0.052588742 0.015879035
0.0031140936 0.05293959 0.01576975
0.0041382452 0.052762631 0.015759498
0.0051823403 0.052859876 0.015759498
0.0061518284 0.052290544 0.015910536
0.0072864918 0.053087298 0.015955687
0.0083144568 0.053004663 0.015954912
0.0092890551 0.052637979 0.016048133
0.010332058 0.052693497 0.016134202
0.011367856 0.052705515 0.016302109
0.012452657 0.052923795 0.01651299
0.013475983 0.052867319 0.016766131
0.01441153 0.052499149 0.016960829
0.015399658 0.052358836 0.017425269
0.016488561 0.052557286 0.017888486
0.017345754 0.052037261 0.017948627
0.018630596 0.052786693 0.018072307
0.019585336 0.052571166 0.018172085
0.020608844 0.052552551 0.018534809
0.021635298 0.052542865 0.018577784
0.02258151 0.052348047 0.018511921
0.023410236 0.051909655 0.01817885
0.024566565 0.052203953 0.017809153
0.025666324 0.052359302 0.016705066
0.026312154 0.051612303 0.015252262
0.028036699 0.052958205 0.011615187
-0.040776588 0.054368783 0.011553735
-0.039182182 0.05361772 0.012775749
-0.038186524 0.053667545 0.014095277
-0.037754633 0.054534473 0.014499873
-0.036174089 0.053744361 0.015153885
-0.035336416 0.054043926 0.015421778
-0.034401573 0.054208539 0.015388757
-0.033294354 0.054103322 0.015260309
-0.03223208 0.054066714 0.015042156
-0.031294025 0.054242976 0.015042156
-0.030419007 0.054544423 0.014528394
-0.028875247 0.053625461 0.01434961
-0.028177723 0.054268207 0.014532417
-0.027220089 0.054440178 0.014331073
-0.025792513 0.053648423 0.014552653
-0.02515276 0.054497648 0.014466971
-0.023873545 0.053974967 0.014735162
-0.022858638 0.054029506 0.014721543
-0.02190491 0.054240726 0.014544457
-0.020826995 0.05415019 0.014976799
-0.019777685 0.054128397 0.01494047
-0.018676901 0.053955495 0.015118659
-0.017584704 0.053788505 0.015228838
-0.016677657 0.054202385 0.015301377
-0.015592379 0.054053582 0.015704036
-0.014588023 0.054184083 0.015821904
-0.013394726 0.053578906 0.015895545
-0.012301487 0.053306442 0.015974581
-0.011385537 0.053822536 0.016307354
-0.01036929 0.053920306 0.016460836
-0.0092627201 0.053517941 0.016719282
-0.0082591092 0.053684209 0.016719282
-0.0072037769 0.053513773 0.016838402
-0.0062191691 0.053899467 0.01685065
-0.005226349 0.054354031 0.016775519
-0.0041608787 0.054091424 0.016952127
-0.0030811823 0.053407159 0.016592026
-0.0020895861 0.054329239 0.01652661
-0.0010295046 0.05353424 0.016423404
0 0.053918008 0.016358316
0.0010420817 0.054188248 0.016183704
0.0020536694 0.053395402 0.016037464
0.0031254427 0.054174338 0.015934974
0.0041749068 0.054273784 0.016079247
0.0051622586 0.053687494 0.016079247
0.0062289634 0.053984351 0.016201109
0.0072575235 0.053913031 0.01638332
0.0082799057 0.053819384 0.016390264
0.0093160393 0.053826004 0.016411841
0.010296146 0.053539965 0.016628116
0.011239926 0.053134196 0.016932726
0.012434213 0.053881589 0.01710555
0.013334231 0.053336926 0.017811537
0.014434046 0.053612173 0.018020928
0.015445547 0.053544562 0.018041193
0.01645338 0.053473487 0.018679291
0.017422436 0.053292155 0.018897474
0.018417032 0.05320476 0.018561393
0.019299138 0.052818689 0.018672645
0.020608375 0.053581774 0.019109458
0.021705819 0.05374774 0.019292146
0.022529218 0.053250883 0.018920898
0.0237222 0.0536328 0.018734157
0.024615314 0.053333182 0.01848942
0.025637107 0.05332518 0.017466813
0.02669608 0.053392161 0.016437173
0.02812071 0.054158401 0.012908936
-0.040857423 0.055524189 0.011815429
-0.038952399 0.054328345 0.01317966
-0.038205493 0.054726783 0.014802754
-0.037152998 0.054697473 0.015170723
-0.036210988 0.054833781 0.015467495
-0.035431594 0.055231601 0.016009688
-0.034086369 0.054744776 0.016186029
-0.033320319 0.055186775 0.015828073
-0.032231085 0.055104755 0.015310496
-0.031007299 0.054779559 0.015245259
-0.030283356 0.055345442 0.015044808
-0.029247573 0.055361476 0.014795691
-0.027727373 0.054427803 0.014795691
-0.027038822 0.055117596 0.014795691
-0.026031584 0.055186953 0.015088111
-0.024924552 0.055041719 0.015007675
-0.023857543 0.054976072 0.015101254
-0.022808794 0.05494846 0.015088111
-0.021885188 0.055234041 0.015134275
-0.020618649 0.054639421 0.015396118
-0.019892925 0.055490792 0.015195847
-0.018712195 0.055097021 0.015579283
-0.017715594 0.055230968 0.015730441
-0.016512832 0.054698754 0.015920758
-0.015580108 0.055049714 0.016064107
-0.014754166 0.055855054 0.01589489
-0.013335432 0.054367531 0.016022086
-0.012579567 0.055559751 0.016202003
-0.011375885 0.054811083 0.016408265
-0.01022394 0.054186881 0.016596377
-0.0093315281 0.054952331 0.016797394
-0.0082825543 0.05487192 0.01678884
-0.0071934154 0.05446443 0.016872466
-0.006226955 0.055004772 0.016934514
-0.0051687541 0.054788794 0.016760796
-0.004103445 0.054370645 0.016775519
-0.0031028558 0.054817118 0.016775519
-0.0020841975 0.055231232 0.016740948
-0.0010300188 0.054590996 0.016620159
0 0.055155016 0.016588449
0.0010406575 0.055154849 0.01652512
0.002057601 0.054526426 0.016230166
0.0030792821 0.054400649 0.016198903
0.0040998184 0.054322589 0.016634017
0.0051678475 0.054779187 0.016411901
0.0062099113 0.054854214 0.016606867
0.0072272611 0.054720692 0.016700566
0.0082733678 0.05481106 0.016686231
0.0092064328 0.054215662 0.016718239
0.010324856 0.054721735 0.017180055
0.011377214 0.054817487 0.017791331
0.012310574 0.0543717 0.017895043
0.013381771 0.054556452 0.018493861
0.014436163 0.054651186 0.018527746
0.015330029 0.054166101 0.018675655
0.01634468 0.054141749 0.019321114
0.017472267 0.054472361 0.019321114
0.0182698 0.05379441 0.019287109
0.019525813 0.054466739 0.019540697
0.020361461 0.053957872 0.019626677
0.021622777 0.05457177 0.020104647
0.02261227 0.054475013 0.019806415
0.023521638 0.054202035 0.019575387
0.024494445 0.054091901 0.01876089
0.025564013 0.054195706 0.018171757
0.026610654 0.054244794 0.017325878
0.027903242 0.054773029 0.014331728
-0.040644735 0.056277331 0.012190074
-0.039337505 0.055900667 0.014317989
-0.038115121 0.055627473 0.015622228
-0.037160393 0.055740591 0.015813828
-0.03598005 0.055512078 0.016736656
-0.035274681 0.056024496 0.016765475
-0.034216359 0.055990409 0.016966909
-0.032987531 0.055666458 0.016725034
-0.032272857 0.056217235 0.016214073
-0.031290039 0.056322072 0.015936911
-0.030229764 0.056289908 0.015157044
-0.028789029 0.055521701 0.015365005
-0.027820863 0.055641726 0.015033782
-0.027280839 0.056660205 0.015005052
-0.025985369 0.056128401 0.01567474
-0.025145132 0.05657655 0.015563697
-0.0237082 0.055662733 0.015862018
-0.022667253 0.055637807 0.015767574
-0.021776639 0.05599707 0.015779555
-0.020684319 0.055847663 0.016031206
-0.019684561 0.055945598 0.015978783
-0.018633258 0.05589978 0.016152591
-0.017606124 0.055925336 0.016259462
-0.016551856 0.055862516 0.016358763
-0.015570469 0.056053691 0.01637575
-0.014440728 0.055699952 0.016285509
-0.013389157 0.055616502 0.016486377
-0.012523253 0.056354638 0.016640544
-0.01121401 0.0550506 0.016818672
-0.010348046 0.055879455 0.016966969
-0.0092980172 0.055788107 0.017108947
-0.0082228025 0.05550392 0.01708293
-0.0072363075 0.055822946 0.016966969
-0.0061781448 0.055603307 0.017080069
-0.0051685674 0.055820528 0.016991436
-0.0041262675 0.055704612 0.016991436
-0.0031000238 0.05580043 0.017080069
-0.0020733613 0.055980753 0.01729992
-0.0010279282 0.055508122 0.017254144
0 0.056098912 0.017207593
0.0010261758 0.055413496 0.01720801
0.0020691312 0.055866547 0.016848713
0.0030782705 0.055408873 0.017276019
0.0041446364 0.05595259 0.01775983
0.0051362412 0.055471409 0.017192036
0.0061915582 0.055724025 0.017747343
0.0072456123 0.055894725 0.018006414
0.0082189357 0.05547782 0.017925769
0.0091854678 0.055112813 0.018006414
0.010331736 0.055791378 0.018573403
0.011278463 0.055367 0.01861459
0.012196364 0.05488364 0.018744648
0.013448829 0.055864371 0.019439787
0.014312216 0.055204265 0.019450605
0.015414675 0.05549283 0.019617945
0.016359607 0.055213671 0.020203203
0.017190449 0.054604955 0.020174086
0.018393118 0.055179358 0.020120859
0.019497624 0.0554143 0.020103633
0.020357201 0.054964449 0.020339429
0.021353373 0.054908674 0.020632863
0.022273006 0.054670107 0.020372987
0.023391832 0.054919954 0.020496517
0.024619617 0.055394139 0.019624829
0.025513429 0.055109005 0.019058943
0.026580002 0.055204622 0.01816228
0.027579933 0.055159867 0.015736729
-0.040291253 0.056821004 0.012150079
-0.038977094 0.056414213 0.014838696
-0.038380701 0.057052389 0.016133875
-0.037206549 0.056843344 0.01663506
-0.03596811 0.056521319 0.017094582
-0.035127897 0.056824539 0.017175227
-0.034139425 0.056899045 0.017372012
-0.03327525 0.057191841 0.017250001
-0.03225093 0.05721939 0.016869426
-0.030887466 0.05662702 0.016770124
-0.030072935 0.057034876 0.016159385
-0.028749077 0.0564714 0.016221106
-0.02775302 0.056533929 0.016159385
-0.026967689 0.057047036 0.015912622
-0.025939032 0.057065871 0.016212255
-0.024867572 0.056988187 0.01622957
-0.023693362 0.056658037 0.016563028
-0.022796378 0.056990948 0.016410083
-0.021830186 0.057174295 0.01640141
-0.020701552 0.056929268 0.016507894
-0.019777738 0.057251345 0.0164904
-0.018582504 0.056779876 0.016510367
-0.017653599 0.057114586 0.016823798
-0.016550194 0.056891296 0.016793221
-0.015378741 0.056388713 0.01711598
-0.014443511 0.056742366 0.016995966
-0.013256749 0.056086246 0.017025471
-0.012384299 0.056761373 0.017085046
-0.011295286 0.056476429 0.017538846
-0.010295673 0.056626204 0.017476261
-0.009257406 0.056573041 0.017879814
-0.0082818996 0.05693806 0.017940432
-0.0072195134 0.05672475 0.017659903
-0.006150349 0.056378201 0.018199652
-0.0051547587 0.056702349 0.018023252
-0.0041289949 0.056773681 0.018154442
-0.0030815904 0.056495827 0.01816988
-0.0020706141 0.056941886 0.018238723
-0.0010267992 0.056473956 0.018246442
0 0.056932621 0.018439949
0.0010338065 0.056859355 0.018653512
0.0020256718 0.055705972 0.018282861
0.0030924634 0.056695163 0.018700927
0.0041084578 0.056491293 0.018753469
0.0050982824 0.056081109 0.018520355
0.0061749923 0.056604099 0.01873669
0.0072267009 0.056781221 0.019022286
0.0081978282 0.05636007 0.019062489
0.0092606666 0.056592967 0.019183815
0.010412224 0.057267234 0.019226491
0.011231519 0.0561576 0.019439787
0.012294454 0.056349579 0.019541651
0.013329743 0.056395069 0.020059764
0.014326875 0.056284152 0.020258248
0.015366969 0.056345552 0.020361125
0.016151337 0.055520218 0.020529926
0.017338613 0.056095514 0.020574749
0.018322891 0.055986613 0.020751834
0.019335199 0.055970315 0.020828605
0.020374544 0.056029998 0.021128058
0.021489406 0.056281775 0.021261811
0.022203214 0.055508036 0.021069884
0.023575459 0.056376096 0.021287471
0.024339337 0.05577765 0.020700753
0.02549438 0.056087635 0.019822687
0.026343888 0.055727456 0.018813521
0.0277579 0.056543868 0.015840024
-0.040490992 0.058140915 0.0057251155
-0.038840577 0.057238746 0.014236987
-0.038060702 0.057605386 0.01593563
-0.037241627 0.057931419 0.016133875
-0.035821199 0.057313923 0.017066389
-0.035328802 0.058188614 0.016993046
-0.034080219 0.057833102 0.017274529
-0.033208136 0.058114238 0.017113775
-0.032301616 0.058351301 0.016733199
-0.030889658 0.057660695 0.01665175
-0.03014485 0.058210742 0.016008198
-0.029093564 0.058187127 0.016102731
-0.027699694 0.057451215 0.0158602
-0.026946016 0.058037572 0.015825331
-0.025640937 0.057435695 0.015954733
-0.024999471 0.058332101 0.016082674
-0.023805967 0.057962351 0.016460598
-0.022853645 0.058172915 0.016307652
-0.021694869 0.05785298 0.016251534
-0.020462923 0.057296187 0.0164904
-0.019670166 0.057975229 0.016217887
-0.01854796 0.057704765 0.016307265
-0.017584011 0.057923798 0.01637575
-0.016287766 0.057007182 0.016755968
-0.015522869 0.057952043 0.016821772
-0.014547597 0.058190387 0.016791135
-0.013247535 0.057066303 0.01689291
-0.012348943 0.057628401 0.017036438
-0.011417608 0.058126003 0.017565399
-0.010239651 0.057342052 0.017448902
-0.0092548011 0.057585429 0.017940432
-0.0082597621 0.057818338 0.017960131
-0.0071654958 0.057323966 0.017688006
-0.0061547775 0.057444591 0.018237591
-0.0051671951 0.05787259 0.018061191
-0.0040961904 0.057346668 0.018287748
-0.0030836216 0.057560939 0.018237591
-0.0020629046 0.057761334 0.018274575
-0.0010201696 0.057129499 0.018544525
0 0.058076538 0.018712074
0.0010190826 0.057068627 0.018801361
0.0020492577 0.057379212 0.018653512
0.0030897807 0.057675909 0.018860221
0.0040626172 0.056876637 0.018996745
0.0051258337 0.057409339 0.018695056
0.0061247083 0.057163946 0.018888205
0.0071942355 0.057553884 0.019246727
0.0081935916 0.057355143 0.019216686
0.0092015527 0.057254106 0.019289404
0.010293983 0.057646308 0.019439787
0.011162627 0.056827925 0.019625038
0.012257679 0.057202503 0.019624889
0.01325695 0.057106864 0.020120859
0.01433299 0.057331961 0.020420551
0.015245885 0.056917969 0.020456433
0.016146814 0.05651385 0.02073431
0.017398367 0.057312265 0.02109158
0.01846109 0.057434503 0.021104932
0.019383648 0.05713075 0.021026224
0.020487048 0.057363734 0.021261811
0.021431455 0.057150546 0.021502435
0.022215579 0.056548744 0.02124095
0.02349397 0.057202708 0.021524549
0.024416441 0.056971695 0.021299511
0.025449576 0.057007048 0.020435959
0.026460303 0.056991424 0.019358933
0.027720841 0.057495072 0.015803099
-0.038918607 0.058377907 0.012022793
-0.038107689 0.058706436 0.014772236
-0.03706 0.058678333 0.015485883
-0.036044646 0.058701281 0.016737998
-0.035128497 0.058891892 0.01687035
-0.033949371 0.058639824 0.016843259
-0.032846238 0.058507364 0.01658076
-0.031924792 0.058700416 0.016296864
-0.030627992 0.058193184 0.016208917
-0.030055894 0.059075374 0.015408307
-0.028823867 0.058677156 0.015621781
-0.027938962 0.058982249 0.015554458
-0.026891306 0.058954015 0.015282571
-0.025668247 0.058523599 0.015715718
-0.024986511 0.059342965 0.01579529
-0.023808839 0.059004512 0.016288579
-0.022534128 0.058383878 0.016288579
-0.021750677 0.059037548 0.016176611
-0.020473944 0.058350742 0.016365886
-0.019631295 0.058893878 0.016179353
-0.018516585 0.058635857 0.016278863
-0.017506164 0.058697138 0.016291499
-0.016444275 0.058582727 0.01619488
-0.015516598 0.058963072 0.016821772
-0.014381246 0.058552213 0.016758353
-0.013255504 0.058120288 0.016818672
-0.012417079 0.058981124 0.016884625
-0.011170051 0.057881176 0.017516017
-0.010228869 0.058304552 0.017443299
-0.0092477966 0.058569383 0.017826557
-0.0082013784 0.058434822 0.017960131
-0.0072128708 0.058733378 0.017688006
-0.0061769122 0.058680665 0.018221825
-0.0051427707 0.058627591 0.018061191
-0.0041080527 0.058539748 0.018192381
-0.003115332 0.059191305 0.018332958
-0.002053136 0.058514372 0.018274575
-0.0010250079 0.058425449 0.018548518
0 0.057727136 0.018712074
0.0010204201 0.058163948 0.018792182
0.002043236 0.058232225 0.018688679
0.0030412651 0.057784036 0.018705964
0.0040491386 0.05770022 0.018733174
0.0051159104 0.058321379 0.01856786
0.0061167944 0.058109548 0.018946677
0.0071816058 0.058478788 0.019205779
0.0081994478 0.05842106 0.01913172
0.0091934809 0.058225382 0.0192644
0.010301888 0.058720764 0.019301713
0.011225808 0.058170099 0.019625038
0.012265749 0.058262307 0.019595593
0.013250013 0.058096211 0.020048976
0.014274824 0.058118924 0.020415604
0.015244234 0.057928089 0.020366162
0.016393125 0.058400504 0.020542383
0.017309304 0.05803708 0.020761967
0.01840478 0.058281802 0.020989925
0.019296754 0.057890259 0.021006256
0.02023519 0.057670292 0.021178991
0.021296194 0.057803951 0.021378994
0.022377649 0.057978455 0.02119866
0.023308434 0.057764374 0.021514505
0.024416696 0.057989653 0.021082371
0.025522137 0.058190472 0.020134598
0.026327448 0.057717867 0.018703699
-0.037858702 0.059346072 0.012699485
-0.037179049 0.059899583 0.014821351
-0.035903696 0.059497558 0.016034395
-0.034921989 0.059572805 0.016312063
-0.033947427 0.059665177 0.016463965
-0.032954101 0.059729308 0.01635018
-0.032088947 0.060037382 0.016003996
-0.030682262 0.059319042 0.01549083
-0.029940637 0.059881274 0.015027702
-0.028539017 0.059116535 0.015194833
-0.028047845 0.060250927 0.015085578
-0.026906928 0.060023151 0.015057266
-0.025592992 0.059375744 0.015409052
-0.024824498 0.059992541 0.015288562
-0.023616189 0.059553869 0.015709698
-0.022723736 0.059908036 0.015663862
-0.02174937 0.060069688 0.01575622
-0.020477604 0.059385058 0.015813947
-0.019516742 0.059577424 0.015937597
-0.018484037 0.059559681 0.01600647
-0.017478488 0.059632491 0.01608485
-0.016382538 0.059386704 0.016101986
-0.015302192 0.05916848 0.016445279
-0.014295134 0.059222702 0.016434848
-0.013293966 0.059311543 0.016638547
-0.012345397 0.059669424 0.016722977
-0.011209251 0.059103329 0.016954899
-0.010335666 0.059946865 0.017063916
-0.0092049064 0.059320509 0.017322183
-0.0082366234 0.059715517 0.01731801
-0.007137266 0.059137348 0.017258734
-0.0061363629 0.059318177 0.017659873
-0.0050941976 0.059092697 0.017471999
-0.0040800562 0.059160817 0.017496973
-0.0031115199 0.060156055 0.017888904
-0.0020496373 0.059439484 0.018069804
-0.0010193367 0.059121534 0.018145114
0 0.05944721 0.018381387
0.0010191557 0.059111033 0.01860103
0.002043965 0.05927499 0.018093079
0.0030619181 0.059197087 0.018450499
0.0041039512 0.059507295 0.018381208
0.0050911806 0.059057701 0.018228024
0.0062040621 0.059972603 0.018583179
0.0072766407 0.060292166 0.018986881
0.0081111304 0.0588057 0.018946677
0.0092369411 0.059526958 0.019068807
0.01015891 0.058921687 0.019208282
0.011232476 0.059225786 0.019546688
0.012327302 0.059581961 0.019702107
0.013224183 0.059000205 0.02014792
0.014203103 0.05884143 0.020410925
0.01534742 0.059343357 0.020420551
0.016106619 0.05838649 0.020655036
0.017461065 0.059573047 0.020771265
0.018297395 0.058958277 0.021004587
0.019206371 0.058629975 0.021087408
0.02031849 0.058923624 0.021215051
0.021300107 0.058828868 0.02138254
0.022079486 0.058209557 0.021382958
0.023409722 0.059033211 0.021460325
0.024343073 0.058829095 0.020967156
0.025203006 0.058470976 0.019849181
0.026329177 0.05873432 0.01133734
-0.037096631 0.060797255 0.012470543
-0.035646945 0.060090564 0.014769554
-0.035169136 0.061028797 0.015327305
-0.033826232 0.060477205 0.015621781
-0.032611396 0.060127262 0.015417665
-0.03211109 0.06111465 0.015194833
-0.030510718 0.060004413 0.015027702
-0.030366195 0.061779499 0.014501214
-0.028857423 0.060806714 0.01489222
-0.027651077 0.060422726 0.014480412
-0.026779952 0.06076989 0.014456928
-0.025595909 0.060406346 0.015136421
-0.024818536 0.061012238 0.015136421
-0.023807231 0.061070725 0.01572302
-0.022557935 0.060496282 0.015641898
-0.021623952 0.06075301 0.015595257
-0.020452218 0.060334045 0.01575622
-0.019556712 0.06072874 0.015699416
-0.018468756 0.060536481 0.015765816
-0.017512202 0.060777642 0.01564151
-0.016309174 0.060140081 0.015533686
-0.015464005 0.060825087 0.01570487
-0.014285804 0.060204457 0.015718311
-0.013244536 0.06010982 0.016231626
-0.012299016 0.060470164 0.016135663
-0.011271574 0.060456626 0.016446918
-0.010219803 0.060296841 0.016638547
