ply
format ascii 1.0
comment PCL generated
element vertex 1260
property float x
property float y
property float z
element camera 0
property float view_px
property float view_py
property float view_pz
property float x_axisx
property float x_axisy
property float x_axisz
property float y_axisx
property float y_axisy
property float y_axisz
property float z_axisx
property float z_axisy
property float z_axisz
property float focal
property float scalex
property float scaley
property float centerx
property float centery
property int viewportx
property int viewporty
property float k1
property float k2
end_header
0.0090011312 -0.040005028 0.031373858
0.0099830804 -0.039932322 0.032148719
0.010997353 -0.039990373 0.032304764
0.011914752 -0.039715841 0.030991286
0.012879059 -0.039627872 0.030442387
0.013978108 -0.039937451 0.023980618
0.015318978 -0.040850606 0.008110106
0.01681398 -0.042034946 0.0060117543
-0.02474132 -0.040204644 0.0057362616
-0.023219164 -0.039371625 0.024267882
-0.022160726 -0.039284922 0.031632572
-0.021093866 -0.039174322 0.032633185
-0.020100426 -0.039195832 0.033550024
-0.0190954 -0.039195821 0.03379184
-0.017993139 -0.038985133 0.03357318
-0.017061329 -0.039140694 0.033335418
-0.015974948 -0.038938932 0.032878429
-0.014973401 -0.038930841 0.032583475
-0.013923782 -0.038787678 0.031729043
-0.013205502 -0.039616507 0.031085819
-0.012229945 -0.03974732 0.030338168
-0.011178215 -0.039631851 0.029978693
-0.010231229 -0.039901797 0.028915197
-0.0092102867 -0.03991124 0.028366446
-0.0081985164 -0.039967768 0.028166145
-0.0072173593 -0.040211 0.028081417
-0.0060558491 -0.039363019 0.02820918
-0.0050958665 -0.03974776 0.028230578
-0.0040814187 -0.039793834 0.028050929
-0.0030762411 -0.039991137 0.028078467
-0.0020139616 -0.039272249 0.027958691
-0.0010216765 -0.039845381 0.02794221
0 -0.038962681 0.028193533
0.0010230116 -0.039897453 0.028392226
0.0020378723 -0.03973851 0.028267473
0.0030299984 -0.039389979 0.028823853
0.0040850597 -0.039829332 0.029031456
0.0050521744 -0.039406963 0.030244172
0.0060329116 -0.039213926 0.030460536
0.0070015858 -0.039008833 0.031251341
0.0080422154 -0.039205801 0.031315535
0.0089924103 -0.038967114 0.032351047
0.0099903736 -0.038962457 0.032916158
0.01097802 -0.038922071 0.032952935
0.011969346 -0.038900375 0.03268671
0.012954749 -0.038864248 0.031207412
0.013947558 -0.03885391 0.030985922
0.014895168 -0.038727436 0.017508447
0.016498877 -0.04021601 0.0077245831
0.018209608 -0.041774984 0.0062828362
-0.025989514 -0.039504062 0.0050360858
-0.024213485 -0.03833802 0.019667983
-0.022888761 -0.037816212 0.029942751
-0.022013981 -0.03802415 0.032459259
-0.021069603 -0.038125951 0.033491641
-0.020133093 -0.038252879 0.033744723
-0.019010084 -0.038020167 0.034205467
-0.017975589 -0.037948471 0.034163564
-0.017003529 -0.038007889 0.033792198
-0.016182549 -0.038433556 0.033035278
-0.015066136 -0.038167544 0.03271237
-0.014113098 -0.038306981 0.032127887
-0.013075354 -0.038220268 0.031177878
-0.012055201 -0.038174804 0.030280322
-0.011292347 -0.039009929 0.029337674
-0.010046761 -0.038177695 0.028397769
-0.0091026975 -0.038433615 0.028213203
-0.0081543457 -0.038733143 0.027944744
-0.0071268864 -0.038688812 0.027774096
-0.0060999016 -0.03863271 0.027691305
-0.0051538339 -0.039169136 0.027736515
-0.0040950174 -0.038902666 0.027715743
-0.0030585825 -0.038742047 0.027767062
-0.0020387222 -0.038735721 0.027650177
-0.0010222236 -0.0388445 0.027608424
0 -0.039082207 0.028047353
0.0010177924 -0.038676113 0.028210431
0.0020294958 -0.038560417 0.028230935
0.0030503878 -0.038638249 0.02858454
0.0040656389 -0.038623571 0.029335618
0.0050045177 -0.038034335 0.030131668
0.0060707675 -0.038448196 0.030537993
0.0071064937 -0.038578108 0.031241268
0.0080154864 -0.038073558 0.031558812
0.0090764817 -0.038322922 0.032916158
0.0099363178 -0.037758008 0.033235848
0.010937917 -0.037785534 0.033484101
0.012011515 -0.038036466 0.033364266
0.012989384 -0.037968967 0.033214092
0.013822632 -0.037518576 0.033041477
0.014942389 -0.037854053 0.030858815
0.016084533 -0.038200766 0.012888044
0.01807888 -0.040411614 0.007487148
0.019678403 -0.041543297 0.0058520436
-0.028018827 -0.039872948 0.005030334
-0.025791006 -0.038170688 0.0063176751
-0.024098359 -0.037151638 0.027279079
-0.023075305 -0.037121143 0.031942099
-0.022063095 -0.037106119 0.033107519
-0.020878397 -0.036785748 0.033681691
-0.019884281 -0.036785923 0.034183234
-0.019170055 -0.03733116 0.034261823
-0.018017974 -0.037036948 0.034117848
-0.017094098 -0.037204806 0.033912271
-0.016089235 -0.037206355 0.032802939
-0.015074183 -0.037182987 0.032335728
-0.01426334 -0.037695974 0.031575352
-0.013032633 -0.037092879 0.030767679
-0.01222259 -0.037686322 0.030075103
-0.011055956 -0.037188217 0.029021114
-0.010133466 -0.037493825 0.028103918
-0.0092004165 -0.037823938 0.027985066
-0.0081965476 -0.037909035 0.027633816
-0.0070766984 -0.037405409 0.027550608
-0.0060546938 -0.037337281 0.027451009
-0.0051310495 -0.037969772 0.027185708
-0.0040677977 -0.037627131 0.026897341
-0.0031037361 -0.038279414 0.027207851
-0.0020523106 -0.037967749 0.02738443
-0.0010136573 -0.037505321 0.027053416
0 -0.037963726 0.027531713
0.0010159038 -0.037588444 0.027757257
0.0020248671 -0.037460044 0.027914464
0.0030749575 -0.03792448 0.028253108
0.0039927559 -0.036932994 0.028650641
0.0050782305 -0.037578911 0.029611975
0.0060765492 -0.037472054 0.03014046
0.0069929827 -0.036962911 0.031204522
0.008045515 -0.037210509 0.031678885
0.0089862635 -0.036943529 0.033171266
0.010017533 -0.037064873 0.033529311
0.010971167 -0.036903016 0.033814341
0.011974977 -0.03692285 0.033655465
0.012885898 -0.036675252 0.033670962
0.013971956 -0.036925886 0.033737928
0.014852116 -0.03663522 0.032689095
0.015807735 -0.036555387 0.024116099
0.018119168 -0.039435834 0.0089998543
0.019184014 -0.039433811 0.007026732
0.021055255 -0.041002341 0.0056676865
-0.028376516 -0.039290562 0.0056420565
-0.025454357 -0.036654271 0.010490119
-0.024118342 -0.036177512 0.029605299
-0.02280858 -0.035700385 0.032766163
-0.021822605 -0.035709716 0.03366521
-0.021009194 -0.03601576 0.034220964
-0.020004014 -0.036007222 0.03463614
-0.018827455 -0.035673071 0.034759015
-0.018051527 -0.036103055 0.03436631
-0.016986558 -0.035971534 0.033660799
-0.016121026 -0.036272306 0.032738298
-0.015032982 -0.036079157 0.032234311
-0.014130609 -0.036335852 0.031276941
-0.013140527 -0.03638915 0.030261993
-0.012113173 -0.036339518 0.02957952
-0.011206036 -0.036674298 0.028179348
-0.01003194 -0.036114983 0.027807772
-0.009176814 -0.036707256 0.027597874
-0.0081323395 -0.036595527 0.027326405
-0.0071828603 -0.036940426 0.027047664
-0.006145691 -0.036874145 0.026543349
-0.005081505 -0.036586836 0.026476473
-0.004076005 -0.036684044 0.026603013
-0.0030639935 -0.036767922 0.026612639
-0.0020193739 -0.036348727 0.026523232
-0.0010232391 -0.036836606 0.026625454
0 -0.036626834 0.027376592
0.0010284618 -0.037024625 0.027273834
0.002048281 -0.036869057 0.02777344
0.0030541555 -0.036649864 0.028021693
0.0040522004 -0.036469799 0.028331578
0.0050538746 -0.036387898 0.029301733
0.0060447687 -0.036268611 0.029624641
0.0070468453 -0.036240917 0.030748457
0.0080672503 -0.036302626 0.031530887
0.0089986771 -0.035994709 0.033214092
0.0099857999 -0.03594888 0.033797175
0.010941595 -0.035808854 0.034050822
0.011858949 -0.035576843 0.033928692
0.012899858 -0.03572268 0.033964664
0.013800073 -0.035485905 0.034073889
0.014824521 -0.035578847 0.03344965
0.015901599 -0.035778597 0.030473471
0.017526027 -0.037113938 0.011862159
0.019256053 -0.038512107 0.0077342689
0.020563247 -0.038961936 0.0066092908
0.021697499 -0.039055496 0.0056070685
-0.029047374 -0.037654001 0.0055623353
-0.027837431 -0.037473466 0.0065807104
-0.025705475 -0.035987664 0.023164958
-0.023899524 -0.034853473 0.031903505
-0.022930751 -0.034894619 0.033411652
-0.021874096 -0.034799699 0.034183234
-0.020739924 -0.03456654 0.034907967
-0.01989799 -0.034821484 0.034921885
-0.019028727 -0.035052914 0.035092175
-0.018026 -0.035050556 0.034678638
-0.016999578 -0.034999128 0.033733517
-0.015992496 -0.034983587 0.032775432
-0.014965269 -0.03491896 0.032295376
-0.014183011 -0.035457529 0.031294823
-0.013233392 -0.035628363 0.02996248
-0.012147168 -0.035429239 0.029199988
-0.011189799 -0.035603907 0.02773428
-0.010061473 -0.035215154 0.02748695
-0.009171729 -0.035667833 0.027256995
-0.0082094362 -0.035916284 0.026814669
-0.0071959193 -0.035979595 0.026299655
-0.0061313733 -0.035766345 0.026242882
-0.0051451847 -0.036016293 0.026063621
-0.0041191783 -0.036042806 0.026121944
-0.0030894508 -0.036043592 0.026121944
-0.0020659829 -0.036154699 0.026125848
-0.0010235251 -0.035823379 0.026293546
0 -0.035791598 0.02676475
0.001019516 -0.035683062 0.02694732
0.002039013 -0.035682727 0.02691564
0.0030130984 -0.035152812 0.027762055
0.0040861354 -0.035753682 0.028182715
0.0050060926 -0.035042647 0.028893918
0.0061339247 -0.035781227 0.029659688
0.0070934612 -0.035467304 0.030797064
0.0080437604 -0.035191454 0.031392187
0.0089733293 -0.034896281 0.033439964
0.010045684 -0.035159897 0.034012735
0.010958028 -0.034866452 0.034445822
0.011917659 -0.034759842 0.034304619
0.012920848 -0.034786899 0.034331828
0.013799709 -0.034499273 0.034415722
0.014805928 -0.034547165 0.034181863
0.01592743 -0.034841254 0.033525944
0.017789872 -0.036626205 0.017758161
0.01953117 -0.037977275 0.0090370774
0.020279555 -0.037357073 0.0074103773
0.021485073 -0.037598878 0.0064938366
-0.030080382 -0.036526177 0.005030334
-0.029300712 -0.036897194 0.0061474144
-0.028231153 -0.03691766 0.0074854195
-0.025671542 -0.034913294 0.024636894
-0.02382311 -0.033749409 0.032500207
-0.023168627 -0.034249272 0.034052163
-0.021759983 -0.033629067 0.034759015
-0.02088196 -0.033808887 0.035149038
-0.019958064 -0.033928711 0.035224199
-0.018835614 -0.033705834 0.03546387
-0.017931525 -0.03387066 0.034860551
-0.01707235 -0.0341447 0.034104824
-0.016046423 -0.034098651 0.032837272
-0.015345502 -0.034783136 0.032467723
-0.014167341 -0.034406401 0.031192541
-0.013158068 -0.034413408 0.029642761
-0.011990897 -0.033974208 0.028243661
-0.011240962 -0.034744792 0.027343959
-0.010171738 -0.034583915 0.027185559
-0.0092961453 -0.035118774 0.027100682
-0.0081096282 -0.034465916 0.026256055
-0.0071328245 -0.034645148 0.026041359
-0.0061545554 -0.034875814 0.026005954
-0.005084015 -0.034571305 0.026022524
-0.0041178726 -0.035001919 0.025945991
-0.0030757131 -0.034858081 0.026037663
-0.0020411506 -0.034699559 0.026125848
-0.0010171218 -0.034582142 0.026266843
0 -0.034960274 0.026603967
0.0010119574 -0.034406554 0.02694273
0.0020475907 -0.034809042 0.026925385
0.0030631367 -0.034715552 0.027205259
0.0040746164 -0.034634236 0.02774018
0.0050502978 -0.034342028 0.028675467
0.0060885819 -0.034501962 0.029503196
0.0070473533 -0.034230001 0.030620396
0.0081271222 -0.03454027 0.031350076
0.0089774365 -0.03391476 0.033523262
0.010061803 -0.034210134 0.034224987
0.011061919 -0.034191389 0.035006791
0.011864822 -0.033616997 0.035004258
0.012816248 -0.033519421 0.035112232
0.013874066 -0.033694163 0.035146326
0.014851895 -0.033664297 0.034669787
0.015683144 -0.033326682 0.034413755
0.017667776 -0.035335552 0.021058708
0.019422812 -0.036687538 0.0094946027
0.020404959 -0.036514137 0.0078157187
0.02129548 -0.036202315 0.0068033934
0.022584217 -0.03656492 0.0054058433
-0.030088304 -0.035461213 0.0050551593
-0.029244566 -0.035743356 0.0061946511
-0.028722622 -0.036455635 0.007505089
-0.025366019 -0.033483144 0.028111845
-0.02415707 -0.03321597 0.033026189
-0.022757597 -0.032652203 0.035127342
-0.021867285 -0.032800928 0.035348505
-0.020780513 -0.03265509 0.035904229
-0.01960047 -0.032340776 0.036162853
-0.019135926 -0.033236079 0.036528498
-0.017989883 -0.032981455 0.035127908
-0.017050089 -0.03309723 0.034350485
-0.015905967 -0.032806057 0.033201635
-0.015062666 -0.033137862 0.032271653
-0.013889701 -0.032740008 0.03069225
-0.013310823 -0.033789013 0.029559642
-0.012216434 -0.033595193 0.028194278
-0.011212559 -0.033637676 0.027274609
-0.010190255 -0.033627842 0.027115613
-0.0091537265 -0.033563666 0.026980132
-0.0081881108 -0.033775955 0.025844485
-0.0072214976 -0.034044202 0.025589615
-0.0061361482 -0.033748817 0.025797039
-0.0051424941 -0.033940461 0.025671184
-0.0041041444 -0.033859193 0.025620341
-0.0030858321 -0.033944152 0.025626749
-0.0020446135 -0.033736121 0.025727719
-0.0010283932 -0.033936974 0.025958359
0 -0.033467818 0.02612102
0.0010135048 -0.033445656 0.026079684
0.0020617503 -0.034018878 0.026156873
0.0030679663 -0.033747628 0.026806682
0.0040727896 -0.033600513 0.02728951
0.0050665392 -0.033439159 0.028304994
0.0060803685 -0.033442024 0.029192954
0.0070390357 -0.033184025 0.030249238
0.0080743739 -0.033306789 0.03142643
0.0089563373 -0.032839905 0.033686042
0.010015294 -0.03305047 0.034712672
0.010998732 -0.032996196 0.036065757
0.011894258 -0.032709207 0.036074489
0.012922347 -0.03280288 0.036130965
0.013736656 -0.032379258 0.036111891
0.014702859 -0.03234629 0.035872161
0.015858361 -0.03270787 0.034689337
0.01722349 -0.033433832 0.027231842
0.019329591 -0.035437584 0.010042518
0.020478394 -0.035567734 0.0079415441
0.020764578 -0.034261554 0.0072694421
0.022541746 -0.035422742 0.0061798692
-0.029748004 -0.033997718 0.0055166781
-0.029106352 -0.034496415 0.0065024197
-0.028206402 -0.034715571 0.0089395046
-0.025371119 -0.032475032 0.028319329
-0.023729451 -0.03163927 0.034151971
-0.022815213 -0.031742904 0.036630124
-0.02174484 -0.031628858 0.037194878
-0.020639384 -0.031450488 0.037709475
-0.01974404 -0.031590465 0.037698418
-0.018694505 -0.031485483 0.037732363
-0.018113732 -0.032202195 0.036797941
-0.017029779 -0.032056056 0.035082787
-0.016170569 -0.032341138 0.033747822
-0.015084833 -0.032180976 0.032502234
-0.014108508 -0.032248016 0.030728191
-0.01314529 -0.032357637 0.029279679
-0.012162031 -0.032432083 0.027664781
-0.011260937 -0.032759089 0.027182877
-0.0102871 -0.032918721 0.026420623
-0.0092611229 -0.032928437 0.02596122
-0.0082811592 -0.033124637 0.025019646
-0.007163824 -0.032748912 0.024792284
-0.0062223491 -0.033185862 0.025051624
-0.0051970156 -0.033260901 0.024978012
-0.0041377936 -0.033102348 0.024973303
-0.0030859078 -0.032916352 0.024882942
-0.0020559668 -0.032895468 0.024902105
-0.0010303026 -0.032969683 0.024908036
0 -0.032821964 0.025369227
0.0010344966 -0.033103891 0.025599152
0.0020212003 -0.032339204 0.025904477
0.0030452462 -0.032482628 0.026329726
0.0040359288 -0.03228743 0.027284056
0.0050572292 -0.032366268 0.028455198
0.0061712982 -0.032913592 0.029371709
0.0070672571 -0.032307461 0.030686378
0.0080409991 -0.032163996 0.031490445
0.0089067351 -0.031668391 0.034341574
0.010097521 -0.032312069 0.035905898
0.010846563 -0.031553637 0.037452847
0.011800421 -0.031467792 0.037821531
0.01268487 -0.031224295 0.037659317
0.013753881 -0.031437442 0.03744477
0.014708556 -0.031378254 0.036966145
0.015611824 -0.031223647 0.036065757
0.017272383 -0.032512721 0.028412372
0.019303974 -0.034318175 0.011643916
0.02021143 -0.034040302 0.0087446272
0.021912461 -0.03505994 0.0075147152
0.022760428 -0.034682557 0.006665051
0.023453878 -0.034114733 0.0050860345
-0.030551895 -0.033825316 0.0057010651
-0.028990831 -0.033285771 0.0069733858
-0.028456381 -0.033928763 0.0090393126
-0.025565676 -0.031701438 0.029830396
-0.023699123 -0.03061137 0.036530286
-0.022755448 -0.030670386 0.037765294
-0.021614203 -0.030456377 0.038138807
-0.020492973 -0.030251531 0.038889974
-0.019777039 -0.030654412 0.039080262
-0.01844894 -0.030100903 0.039042085
-0.017919404 -0.030861199 0.038550526
-0.017074408 -0.031135688 0.037147671
-0.016015304 -0.031029653 0.034771502
-0.015231761 -0.031478975 0.033094347
-0.014250763 -0.031555261 0.030944467
-0.013164448 -0.031392146 0.029400527
-0.012339414 -0.031876821 0.027675956
-0.011298568 -0.03184142 0.027091086
-0.010208282 -0.031645674 0.025792867
-0.0092044054 -0.031704064 0.02526328
-0.008147602 -0.031571958 0.02440834
-0.0071716076 -0.031759977 0.02419883
-0.0061779767 -0.031919546 0.023996174
-0.0051585198 -0.031982824 0.024026483
-0.0040663839 -0.031514477 0.024035186
-0.0031021959 -0.032056026 0.024004251
-0.002046156 -0.031715415 0.023945332
-0.0010220539 -0.031683672 0.024448991
0 -0.032058809 0.024905801
0.0010207165 -0.031642213 0.025380313
0.0020450617 -0.031698454 0.025630206
0.0030967246 -0.031999491 0.025951982
0.0040493631 -0.031382564 0.027100235
0.0050323829 -0.031200776 0.028732419
0.006057255 -0.031295817 0.029970914
0.007066512 -0.031294554 0.031167328
0.0079890853 -0.030957706 0.032133013
0.0090988334 -0.031340428 0.035813779
0.010072755 -0.031225542 0.038097173
0.010672876 -0.030078106 0.039060116
0.011665639 -0.030136237 0.039468586
0.012804254 -0.030533222 0.039258748
0.013836525 -0.030638022 0.038611919
0.014603901 -0.030181397 0.038511425
0.015717896 -0.030453425 0.03682965
0.017123971 -0.031226065 0.030759484
0.019449858 -0.03349698 0.014420062
0.020274218 -0.033078991 0.0098332167
0.0215075 -0.033336628 0.0079017878
0.022565983 -0.033311691 0.0071319342
0.023351617 -0.032904554 0.0053917766
-0.031509764 -0.032596309 0.0055590272
-0.029730538 -0.031854149 0.0061663687
-0.028876727 -0.032085251 0.0073049366
-0.027982159 -0.032287106 0.0092079937
-0.025147211 -0.030176651 0.029806197
-0.023680292 -0.029600367 0.036972642
-0.022575445 -0.029446233 0.038191319
-0.021368511 -0.02913888 0.039468646
-0.020670267 -0.029528951 0.040089041
-0.019701829 -0.029552745 0.040246159
-0.018776702 -0.029647425 0.040331781
-0.017846256 -0.029743763 0.039868772
-0.017206732 -0.030364823 0.038533628
-0.015884185 -0.029782847 0.036737621
-0.015284773 -0.030569546 0.034280807
-0.014011847 -0.030025385 0.032212019
-0.013136129 -0.030314144 0.029644281
-0.012294345 -0.030735862 0.027853906
-0.011109488 -0.030298604 0.027122885
-0.010207784 -0.030623352 0.025853634
-0.0092192795 -0.030730933 0.025188148
-0.0082255015 -0.030845633 0.023908406
-0.0071878615 -0.03080512 0.023583591
-0.0061780526 -0.030890264 0.023599416
-0.0052169533 -0.031301722 0.023751438
-0.0041525206 -0.031143904 0.02360034
-0.0031035135 -0.031035135 0.023751438
-0.0020506785 -0.030760175 0.023735166
-0.0010320981 -0.030962942 0.023686439
0 -0.03093385 0.024371386
0.0010256527 -0.030769583 0.025327355
0.0020456924 -0.030685386 0.0255588
0.0030449599 -0.030449601 0.026503116
0.0040725055 -0.030543791 0.027654827
0.005086537 -0.030519225 0.029332161
0.0060678865 -0.030339433 0.030280352
0.0069993339 -0.029997146 0.031701058
0.0080436105 -0.030163538 0.035117954
0.0091465143 -0.030488383 0.037671149
0.009752498 -0.029257493 0.039789706
0.010600014 -0.028909128 0.041147113
0.011651075 -0.029127687 0.041072905
0.012752165 -0.029428074 0.040725678
0.013644324 -0.029237837 0.039852947
0.014737912 -0.029475825 0.039732665
0.015748089 -0.029527668 0.037828922
0.01699915 -0.029998498 0.033899486
0.019087251 -0.031812087 0.014747828
0.020042637 -0.03164627 0.0099293292
0.021606302 -0.032409456 0.0086386204
0.022732193 -0.032474559 0.0075134635
0.023056833 -0.031441137 0.0065713823
-0.032454394 -0.031372584 0.0053673387
-0.031142589 -0.031142589 0.0056618154
-0.030490192 -0.031579129 0.0069079399
-0.028922955 -0.031065397 0.0075865686
-0.027717449 -0.030915616 0.010760725
-0.02545226 -0.029524622 0.029945731
-0.023626341 -0.028548498 0.038139433
-0.022722013 -0.028649496 0.039270192
-0.021632927 -0.028516132 0.040118545
-0.020455956 -0.028248703 0.040408283
-0.019679923 -0.028535889 0.040629715
-0.018695882 -0.028535819 0.041101635
-0.017561911 -0.028294191 0.04083252
-0.016632468 -0.028373035 0.039977789
-0.016489908 -0.029887959 0.03854391
-0.016001357 -0.030935958 0.036542922
-0.013810196 -0.028606836 0.033323944
-0.013194639 -0.029434197 0.030442566
-0.011904144 -0.028768349 0.029027194
-0.011339558 -0.029895199 0.027291983
-0.010157369 -0.029456373 0.026138544
-0.0092932004 -0.029944759 0.025367677
-0.0081418836 -0.02951433 0.024419785
-0.0071317172 -0.029545685 0.024134099
-0.0061292006 -0.029624471 0.023766726
-0.005133382 -0.029773619 0.023892194
-0.0040683867 -0.029495806 0.023832262
-0.0030871155 -0.029842118 0.023646474
-0.0020506897 -0.029734999 0.023662746
-0.0010206716 -0.029599475 0.024444252
0 -0.029564295 0.024650097
0.001030402 -0.02988166 0.025595307
0.0020041051 -0.029059524 0.026163757
0.0030513566 -0.029496448 0.02747342
0.0040340885 -0.029247141 0.02871117
0.0049743606 -0.028851293 0.030256718
0.0061036604 -0.029501026 0.031522423
0.0072253593 -0.029933631 0.03416121
0.0086550694 -0.031374626 0.03878051
0.0088789659 -0.028610002 0.040180504
0.0097494209 -0.028273324 0.041791022
0.01069892 -0.028206246 0.0420596
0.011858188 -0.028657289 0.042305827
0.012677853 -0.028281366 0.041761518
0.013657033 -0.02828957 0.041156679
0.014693207 -0.028406868 0.04017067
0.015507903 -0.028108075 0.038573742
0.016754353 -0.028580958 0.03613767
0.019418821 -0.031285882 0.014747828
0.020114403 -0.030700931 0.011042506
0.021194791 -0.030732449 0.0095386803
0.022142021 -0.030577077 0.0083766282
0.0233937 -0.03083715 0.0072641969
0.024850238 -0.03133291 0.0056773126
-0.034535177 -0.030218281 0.0053107142
-0.033590313 -0.030339636 0.005366534
-0.032094352 -0.029954728 0.0056190789
-0.031257164 -0.030179327 0.0062460005
-0.030393628 -0.030393628 0.0072904229
-0.029132888 -0.030211883 0.0089655817
-0.028075853 -0.030235533 0.012728274
-0.025244271 -0.028273584 0.029925525
-0.023538709 -0.027461827 0.037724108
-0.022638034 -0.027559346 0.039270192
-0.021527182 -0.027398232 0.040322512
-0.020684078 -0.027578771 0.040688246
-0.019670038 -0.027538054 0.041758567
-0.018610297 -0.027425701 0.041955203
-0.01744142 -0.027131097 0.04160744
-0.016612682 -0.027362064 0.041349113
-0.015749872 -0.027562274 0.041191548
-0.015835512 -0.029559623 0.039871097
-0.015305393 -0.030610787 0.037397891
-0.013818966 -0.029763928 0.033238411
-0.012660653 -0.029541524 0.03024435
-0.011821796 -0.030091844 0.027720839
-0.010127549 -0.028357137 0.027122885
-0.0091585685 -0.028493326 0.025985807
-0.0083223647 -0.029128276 0.024926335
-0.0073156152 -0.029262461 0.024585575
-0.0062671313 -0.029246613 0.024208874
-0.0051777796 -0.028995566 0.024225146
-0.004081273 -0.028568909 0.023766726
-0.003092407 -0.028862465 0.023676068
-0.0020426591 -0.028597226 0.024123758
-0.0010347817 -0.028973887 0.024494857
0 -0.029036995 0.02546069
0.0010213999 -0.028599195 0.026101649
0.0020753834 -0.029055368 0.027109325
0.0032038994 -0.029903062 0.028635174
0.0042374684 -0.029662278 0.029873043
0.0053398702 -0.029903274 0.031247377
0.0065747583 -0.030682206 0.034660876
0.0071742753 -0.028697101 0.039277524
0.0078971488 -0.02764002 0.041931391
0.0086490298 -0.026908094 0.043104917
0.0096927723 -0.027139764 0.043108165
0.010625904 -0.027047757 0.043024451
0.011626818 -0.027129242 0.043002725
0.012673775 -0.027297361 0.042316973
0.013690939 -0.027381878 0.04135102
0.014678485 -0.027399838 0.040746659
0.015776128 -0.027608223 0.03859368
0.016532099 -0.027229339 0.034473091
0.018712392 -0.029108167 0.015742332
0.019962115 -0.029417854 0.011517286
0.021556972 -0.030179759 0.0096978247
0.022387024 -0.029849363 0.0090628266
0.023393823 -0.029773958 0.0074886978
0.024492878 -0.029817415 0.0063505769
-0.035457235 -0.029010467 0.0053530633
-0.034385804 -0.029013021 0.0056162775
-0.032879613 -0.028637083 0.0055428445
-0.032682221 -0.029414 0.0060783625
-0.031406775 -0.029240791 0.0070230365
-0.029567847 -0.028511854 0.0078194141
-0.029185373 -0.029185373 0.010329783
-0.028454728 -0.029549142 0.012872607
-0.024932835 -0.026927462 0.029864132
-0.023853166 -0.026834814 0.036920339
-0.0226391 -0.026576335 0.03902027
-0.021566937 -0.026468515 0.040113688
-0.020623816 -0.026516337 0.040639281
-0.019534858 -0.02637206 0.041696221
-0.018622711 -0.026463853 0.041704625
-0.017619433 -0.02642915 0.04160893
-0.016600018 -0.026364734 0.041656852
-0.015560954 -0.026259111 0.041351169
-0.01469923 -0.026458615 0.04114759
-0.014088237 -0.027170172 0.040855408
-0.013911442 -0.028892996 0.037610948
-0.013703397 -0.030832645 0.033807904
-0.012045242 -0.029565597 0.030407876
-0.0112307 -0.030322891 0.0284383
-0.0098930988 -0.029679298 0.027434528
-0.0088624554 -0.029910788 0.02558741
-0.0073177181 -0.028225485 0.024977714
-0.0063561643 -0.02860274 0.025063276
-0.0053629875 -0.028960135 0.024824411
-0.004284427 -0.028919883 0.024698973
-0.0032606593 -0.029345935 0.024720788
-0.0021134571 -0.028531671 0.024669021
-0.0010816207 -0.029203761 0.025579602
0 -0.029867461 0.026231378
0.0011116134 -0.030013561 0.027464002
0.0022932894 -0.030959407 0.028351307
0.0033812961 -0.030431665 0.030296057
0.0044231289 -0.029856119 0.03183043
0.0053030676 -0.028636567 0.037220567
0.0060514044 -0.027231321 0.040467054
0.0066841347 -0.025781663 0.043185264
0.0076746633 -0.02590199 0.043670565
0.0086937528 -0.02608126 0.043595731
0.0097333537 -0.026280057 0.043523699
0.010614343 -0.026053388 0.043308496
0.011744102 -0.026424229 0.04320699
0.012698074 -0.026372924 0.042338699
0.013619225 -0.026265649 0.041156679
0.014618982 -0.026314167 0.040412873
0.015475364 -0.026114678 0.03844884
0.016577287 -0.026328631 0.033693522
0.019123638 -0.028685458 0.01594311
0.020554373 -0.029208846 0.011431634
0.021205802 -0.028627833 0.0099436045
0.021885615 -0.028138649 0.0090920925
0.023230765 -0.028510487 0.0082469583
0.024086349 -0.028275279 0.00694713
0.02587178 -0.029105753 0.0057371259
-0.036464155 -0.027884353 0.0053049624
-0.036133442 -0.028468775 0.0060392916
-0.034696162 -0.028190631 0.0062644482
-0.033221643 -0.027863311 0.0061998069
-0.032336254 -0.028024754 0.0065200627
-0.031063452 -0.027849991 0.0070513487
-0.029999293 -0.027856486 0.0084176362
-0.0288902 -0.027820192 0.010029912
-0.028331526 -0.028331526 0.013011754
-0.024933893 -0.025931248 0.028507948
-0.023537841 -0.025499329 0.036014438
-0.022517076 -0.025454083 0.038083524
-0.021748256 -0.025702484 0.039606154
-0.020435801 -0.025301468 0.040554702
-0.019654753 -0.025551179 0.041709125
-0.018632703 -0.025497383 0.042065322
-0.017498694 -0.025275892 0.042111993
-0.016573815 -0.025348185 0.042053908
-0.01555087 -0.025270164 0.042132169
-0.014532919 -0.025190393 0.042497993
-0.013417997 -0.024919137 0.042683363
-0.012598178 -0.025196357 0.0424155
-0.011794936 -0.025555694 0.041510016
-0.011495916 -0.027172165 0.037748337
-0.010963689 -0.028505592 0.032212019
-0.0098334104 -0.028407631 0.029493183
-0.0085169123 -0.027679965 0.027714461
-0.0073776939 -0.027402863 0.026471913
-0.0064528529 -0.027962362 0.026454031
-0.0055135442 -0.02867043 0.026474386
-0.0042834301 -0.027842294 0.026298761
-0.0031640874 -0.027422091 0.026158154
-0.0021361972 -0.027770562 0.026158154
-0.0010831377 -0.02816158 0.026431262
0 -0.028205967 0.027573109
0.0011337624 -0.029477822 0.029428959
0.0021908372 -0.028480884 0.030956388
0.0032254199 -0.027953638 0.036062092
0.0039716642 -0.025815818 0.039390236
0.0047703534 -0.024805838 0.043791533
0.00582133 -0.025225764 0.044158995
0.0067584855 -0.025102947 0.044180721
0.0078005185 -0.025351685 0.044299185
0.0087209176 -0.025193762 0.044254392
0.0097167091 -0.025263444 0.044106573
0.010596019 -0.025045138 0.043417752
0.011695677 -0.025340633 0.043140441
0.012541256 -0.025082512 0.042295516
0.013506537 -0.02508357 0.040757805
0.014729014 -0.02553029 0.039821297
0.015450675 -0.025107346 0.037950993
0.016518006 -0.025262833 0.034183472
0.018899202 -0.027298849 0.016200155
0.019844089 -0.027155068 0.013028622
0.021552041 -0.028017655 0.010553837
0.022573171 -0.027947735 0.009442538
0.023290722 -0.027525399 0.0085891187
0.024681319 -0.027900621 0.0074927807
0.025552414 -0.027681783 0.0064393282
-0.037615173 -0.02686798 0.0053044856
-0.036230739 -0.026640249 0.0058575571
-0.035424601 -0.02683682 0.0064616501
-0.033711601 -0.02633719 0.0065771341
-0.033386763 -0.026924809 0.0065931678
-0.031975418 -0.026646182 0.0066540837
-0.031770699 -0.027388532 0.0078837574
-0.029961534 -0.026751369 0.0090730786
-0.028466878 -0.026358221 0.010436594
-0.027846526 -0.026775507 0.014327198
-0.025499672 -0.025499672 0.028281301
-0.023726726 -0.02471534 0.035769373
-0.022784747 -0.02476603 0.036594927
-0.02153914 -0.024476297 0.038437277
-0.020334385 -0.024207601 0.040218353
-0.019715 -0.024643751 0.041109562
-0.018587146 -0.024456771 0.041537613
-0.017556181 -0.024383588 0.041707963
-0.016587811 -0.02439384 0.041860044
-0.015340264 -0.023969162 0.041917324
-0.014616409 -0.024360683 0.042477667
-0.013650023 -0.024375042 0.042453527
-0.012490265 -0.024019742 0.042736024
-0.011457377 -0.023869535 0.0423235
-0.010631829 -0.024163248 0.042049199
-0.0095801484 -0.023950372 0.042042583
-0.0088175787 -0.024493277 0.041344047
-0.0079638464 -0.02488702 0.040139198
-0.0072233994 -0.025797855 0.037703782
-0.0061402563 -0.025584402 0.029610991
-0.0052509299 -0.02625465 0.028423309
-0.0042161969 -0.02635123 0.027670562
-0.0030944848 -0.025787374 0.027679324
-0.0020680123 -0.025850153 0.028481036
-0.001019045 -0.025476126 0.033599645
0 -0.025377311 0.039716989
0.00096482172 -0.024120543 0.042214364
0.0019223227 -0.024029033 0.043461382
0.002880153 -0.024001276 0.043461382
0.0037999568 -0.02374973 0.043884784
0.0048298333 -0.024149168 0.044361055
0.005737185 -0.02390494 0.044606745
0.006800022 -0.024285793 0.044297755
0.0077131656 -0.024103643 0.044287086
0.0086823283 -0.024117582 0.044179618
0.0096233431 -0.024058359 0.043436408
0.010587662 -0.02406287 0.043104917
0.011552271 -0.024067232 0.042739093
0.012612827 -0.024255438 0.041146576
0.013696854 -0.024458669 0.040350556
0.014575359 -0.024292266 0.038770318
0.015574741 -0.024335533 0.037084341
0.016759394 -0.024646167 0.033767462
0.0187665 -0.026064584 0.016061276
0.020086313 -0.026429361 0.013623536
0.021545731 -0.026932165 0.011072814
0.022570364 -0.026869481 0.010070443
0.023425421 -0.026619798 0.0089196265
0.024502164 -0.026632786 0.0085717738
0.025423784 -0.026483109 0.0074290037
0.026410755 -0.026410755 0.0059174001
-0.038383909 -0.025589274 0.0051811337
-0.037552956 -0.025750598 0.0057633519
-0.036512539 -0.025773557 0.0063124895
-0.035736248 -0.025989998 0.0068598986
-0.034167148 -0.025625361 0.0069500804
-0.032522701 -0.025178863 0.0069500804
-0.032074954 -0.025659963 0.0073432922
-0.031557217 -0.026116315 0.008520931
-0.02973317 -0.025485573 0.0098778605
-0.028690917 -0.025503036 0.010931283
-0.027918663 -0.025771074 0.014351755
-0.025313709 -0.02430116 0.027317643
-0.023985514 -0.023985514 0.034796476
-0.022870671 -0.023865048 0.035603106
-0.021765701 -0.023744402 0.037940741
-0.020854436 -0.02383364 0.03914851
-0.019810401 -0.02377248 0.040146917
-0.018625783 -0.023527304 0.041453987
-0.017523831 -0.023365108 0.041655242
-0.016397018 -0.02314873 0.041910499
-0.015551812 -0.023327718 0.042449445
-0.01450368 -0.023205888 0.042582631
-0.013588235 -0.023294115 0.042545378
-0.012648757 -0.02335155 0.042927116
-0.011516069 -0.023032138 0.043042272
-0.010635456 -0.023204632 0.043042272
-0.0095822178 -0.022997323 0.043362468
-0.0086097186 -0.022959251 0.043962717
-0.0076851323 -0.023055397 0.044333845
-0.0067529213 -0.023152873 0.044333845
-0.0057398863 -0.022959545 0.045012265
-0.0047861408 -0.022973478 0.044966221
-0.0038338895 -0.023003336 0.045580149
-0.0028590462 -0.02287237 0.04589653
-0.0019279721 -0.023135666 0.046131164
-0.00095328264 -0.022878783 0.046322972
0 -0.022855481 0.046372086
0.00094999588 -0.0227999 0.045803279
0.0019128774 -0.022954527 0.045300543
0.0028574029 -0.022859223 0.045142889
0.0038631037 -0.02317862 0.04470104
0.0048646522 -0.023350332 0.044858098
0.0057661775 -0.02306471 0.044698685
0.0067814626 -0.023250729 0.044328868
0.0077201845 -0.023160553 0.044345528
0.008732941 -0.023287844 0.043677002
0.0097568491 -0.023416439 0.04313603
0.010748563 -0.023451412 0.042804539
0.011728518 -0.023457035 0.042295516
0.012776872 -0.023588073 0.040202409
0.013800284 -0.023657629 0.039776713
0.014827565 -0.023724105 0.03820616
0.015883634 -0.02382545 0.036675394
0.016557256 -0.023374949 0.033232182
0.018990444 -0.025320591 0.01700896
0.020017751 -0.025285579 0.014001399
0.021117395 -0.025340876 0.01123789
0.022338934 -0.025530208 0.010270238
0.023305973 -0.025424698 0.0092318952
0.024100577 -0.025148429 0.0089052618
0.025713451 -0.025713451 0.0084681213
0.026493739 -0.025433987 0.0068019331
-0.038526993 -0.02461447 0.0054500699
-0.037460774 -0.024617082 0.0062855184
-0.036645714 -0.024789749 0.0068438649
-0.035885591 -0.025011173 0.0075444281
-0.034119692 -0.024523528 0.007812947
-0.032766383 -0.02431054 0.0076277852
-0.031558771 -0.02419506 0.007817775
-0.030718401 -0.02436287 0.0088199973
-0.0297358 -0.024425836 0.0099767148
-0.02880005 -0.024533376 0.012006789
-0.027336763 -0.024182523 0.014813751
-0.025747254 -0.023687474 0.023747206
-0.024034223 -0.023032798 0.033633739
-0.022992827 -0.022992827 0.035202742
-0.021814344 -0.022805907 0.036200732
-0.020880461 -0.022869075 0.037910074
-0.019906925 -0.022892965 0.038981497
-0.018662011 -0.022590855 0.040125251
-0.017608488 -0.022499738 0.041367203
-0.016625848 -0.022493793 0.041860044
-0.015471362 -0.022240082 0.042144418
-0.014453787 -0.022162475 0.042273223
-0.013645582 -0.022417743 0.042443067
-0.012567556 -0.022234906 0.042980075
-0.011650644 -0.022330403 0.043359548
-0.010659772 -0.022288615 0.043775082
-0.0095665799 -0.022003135 0.044392049
-0.0086547984 -0.022117818 0.044521183
-0.0077480939 -0.02227577 0.045880288
-0.0068327296 -0.022450399 0.04615134
-0.0057878387 -0.022186715 0.04641965
-0.0048516686 -0.022317676 0.04641965
-0.0038349375 -0.022050891 0.046375215
-0.0029047544 -0.022269785 0.046577126
-0.0019144968 -0.022016713 0.047219545
-0.00096517103 -0.022198934 0.047097892
0 -0.021991784 0.04682973
0.00096669293 -0.022233937 0.045886993
0.0019359244 -0.02226313 0.045751005
0.0028965366 -0.022206781 0.045089006
0.0038534426 -0.022157295 0.044932812
0.0048340163 -0.022236478 0.04445678
0.0058309333 -0.022351911 0.044368356
0.0067321798 -0.022120021 0.044148386
0.0077451728 -0.022267371 0.043448865
0.0087648928 -0.022399172 0.042955011
0.0097375847 -0.022396447 0.042314887
0.010756161 -0.022490155 0.041163325
0.011866776 -0.022744654 0.040422469
0.012974109 -0.022954192 0.039749414
0.013768231 -0.022619236 0.038550317
0.014841594 -0.022757111 0.037391007
0.01580615 -0.022721341 0.035300493
0.017017713 -0.023023965 0.031456083
0.018589294 -0.023752987 0.017730206
0.020527864 -0.024849521 0.014843971
0.021212894 -0.024394829 0.012833565
0.022023039 -0.024120472 0.011239558
0.023057975 -0.024106065 0.010219485
0.024299793 -0.024299793 0.0091300607
0.025463441 -0.024402466 0.0087294579
0.026670758 -0.024537098 0.0073906779
0.027418895 -0.024255177 0.0065249503
-0.0389769 -0.023175454 0.0050795972
-0.03825511 -0.023378123 0.0061398745
-0.03785659 -0.023795571 0.0067521632
-0.036285728 -0.023479002 0.0079895258
-0.035177745 -0.023451829 0.0084198117
-0.034543931 -0.023748953 0.0083016455
-0.033188701 -0.023553271 0.0082105994
-0.032182451 -0.023600465 0.0087355375
-0.030948095 -0.023477864 0.0094589293
-0.029806269 -0.023419211 0.01052931
-0.028548209 -0.023261502 0.013054341
-0.02761386 -0.023365572 0.014997393
-0.025714392 -0.022628665 0.023152649
-0.024122177 -0.022111995 0.033276081
-0.022860428 -0.021866497 0.03452608
-0.021956487 -0.021956487 0.035522342
-0.020980416 -0.021979483 0.036722958
-0.019992407 -0.02199165 0.037788302
-0.018885318 -0.02186721 0.038900703
-0.017828818 -0.021790778 0.040103495
-0.01694564 -0.02192965 0.041249394
-0.015602984 -0.021454103 0.041826278
-0.014709517 -0.021573957 0.042122096
-0.013700307 -0.021529054 0.042212665
-0.012546374 -0.021232324 0.042541027
-0.011595314 -0.021258077 0.043092906
-0.010609716 -0.021219432 0.043744534
-0.0095581813 -0.021027999 0.044191569
-0.0086499844 -0.021144407 0.044659257
-0.0077652493 -0.021354435 0.045983732
-0.0067991726 -0.021368828 0.046102762
-0.0058438038 -0.021427281 0.046822309
-0.0047939047 -0.02109318 0.047104001
-0.0038698118 -0.021283964 0.046681404
-0.0029104585 -0.021343363 0.047103822
-0.0019316905 -0.021248596 0.047305435
-0.0009641496 -0.021211291 0.047381461
0 -0.021484602 0.047195852
0.00096956821 -0.0213305 0.046510249
0.0019348565 -0.02128342 0.045983553
0.0028823311 -0.021137094 0.045737952
0.0038191592 -0.021005375 0.04519996
0.0048027323 -0.02113202 0.044369817
0.0058412468 -0.021417905 0.04389897
0.0067552817 -0.021230886 0.043417692
0.0078840712 -0.021681193 0.042435884
0.0088696573 -0.021681385 0.042019725
0.0098412018 -0.021650644 0.041171163
0.010903612 -0.021807224 0.040231913
0.011812937 -0.021657052 0.039917678
0.012902356 -0.021834755 0.038886547
0.014072566 -0.022114033 0.037644148
0.014911206 -0.021869767 0.036772072
0.015982594 -0.021976067 0.034331381
0.017088342 -0.022114325 0.031069219
0.018784577 -0.022958929 0.018247932
0.020204887 -0.02339513 0.01563707
0.021544224 -0.023698647 0.013579965
0.021916313 -0.022959946 0.012039542
0.02328321 -0.02328321 0.010869741
0.024375882 -0.023316061 0.0099353194
0.025303636 -0.023195 0.0091539323
0.026481556 -0.023303768 0.0086790025
0.027241061 -0.023050128 0.0069214404
-0.039661843 -0.022510776 0.0056979954
-0.038113914 -0.022233117 0.0064866841
-0.037519801 -0.022511881 0.007797122
-0.036131714 -0.022316646 0.0086398423
-0.035418738 -0.022539197 0.0091144145
-0.034290202 -0.022502944 0.0090810657
-0.032971047 -0.022335224 0.009003669
-0.032108407 -0.022475887 0.0092993677
-0.030825412 -0.02232185 0.0095725954
-0.029456476 -0.022092357 0.01143983
-0.028829237 -0.02242274 0.013512969
-0.027973013 -0.022593588 0.016042262
-0.025798349 -0.021670612 0.022064805
-0.023998482 -0.020998674 0.032471299
-0.02295856 -0.020962164 0.033656389
-0.022043688 -0.021041704 0.034538329
-0.020941081 -0.020941081 0.035365164
-0.020047382 -0.021049751 0.036917478
-0.019027675 -0.021030588 0.037740856
-0.01786405 -0.020841394 0.038612455
-0.016661424 -0.02058176 0.039439172
-0.015719943 -0.020632425 0.040833205
-0.014918678 -0.020886149 0.041336924
-0.013611833 -0.02041775 0.041710973
-0.012602646 -0.020358121 0.041858792
-0.011606362 -0.020311134 0.042492896
-0.010611806 -0.020258904 0.043169707
-0.0095472867 -0.020049304 0.044008642
-0.0086999051 -0.020299779 0.044422388
-0.0078023309 -0.020481119 0.045876741
-0.0067310422 -0.020193126 0.045983702
-0.0057949042 -0.020282166 0.046737164
-0.004804289 -0.020178014 0.046960533
-0.0038664334 -0.020298775 0.046537936
-0.0028953215 -0.02026725 0.04689163
-0.0019202583 -0.020162711 0.04693225
-0.00096092973 -0.020179525 0.046845466
0 -0.019743541 0.046732157
0.00096525304 -0.020270314 0.046271682
0.0019044266 -0.019996481 0.045711875
0.0028759586 -0.020131709 0.0451473
0.0039012616 -0.020481624 0.044489503
0.004843561 -0.020342957 0.043800712
0.0058376458 -0.020431761 0.043597788
0.006922822 -0.020768467 0.042974234
0.007837397 -0.020573167 0.042034954
0.0089628911 -0.020913413 0.04114005
0.0099794837 -0.020956917 0.040531099
0.010724291 -0.020473648 0.039874315
0.01195475 -0.020920813 0.039010882
0.012979245 -0.020966474 0.038123637
0.013866571 -0.020799857 0.037309259
0.014874865 -0.020824812 0.035691202
0.015831893 -0.020779362 0.033409566
0.016874475 -0.020844942 0.029406756
0.019160466 -0.02235388 0.018545538
0.020141717 -0.022261897 0.016108543
0.020745549 -0.021782827 0.014199287
0.022340642 -0.022340642 0.013302028
0.023227466 -0.022171672 0.011770904
0.024049163 -0.021957932 0.010577172
0.025772367 -0.022550821 0.0095757246
0.026472935 -0.022237265 0.0091138184
0.026961902 -0.021776922 0.0073123872
-0.040614311 -0.021375952 0.0052814186
-0.039256267 -0.021219602 0.0064774752
-0.038291246 -0.021272914 0.0081338286
-0.037772998 -0.021584569 0.0087325573
-0.036431327 -0.021430193 0.0094044805
-0.035176877 -0.02131932 0.0095438361
-0.033909921 -0.0211937 0.0094912648
-0.032866064 -0.021203911 0.0093944371
-0.031924836 -0.021283222 0.0097340643
-0.030255089 -0.020865576 0.011149734
-0.02968986 -0.021207042 0.012572199
-0.028834544 -0.02135892 0.013491958
-0.027357191 -0.021043992 0.015891016
-0.025862414 -0.020689931 0.020719349
-0.024122633 -0.020102194 0.030996174
-0.023108315 -0.020094186 0.032684475
-0.021988973 -0.019989975 0.033848941
-0.020984618 -0.01998535 0.034620434
-0.019985463 -0.019985463 0.035220534
-0.018861355 -0.019854058 0.036734998
-0.017709732 -0.019677479 0.037269801
-0.016889039 -0.019869458 0.037831336
-0.01580276 -0.019753449 0.039277852
-0.014865811 -0.019821079 0.040327877
-0.013720079 -0.019600114 0.040801227
-0.012833724 -0.019744191 0.041282684
-0.011812375 -0.019687291 0.041477084
-0.010797312 -0.019631477 0.042591304
-0.0098577794 -0.019715559 0.043100715
-0.0086210137 -0.019157808 0.044012249
-0.0077794595 -0.019448649 0.045637339
-0.0067749517 -0.019357003 0.045875818
-0.0057989336 -0.019329779 0.046771079
-0.0048536183 -0.019414473 0.046957821
-0.0038374534 -0.019187266 0.046853721
-0.0028889319 -0.019259544 0.04682973
-0.0019202601 -0.019202601 0.046644121
-0.00095953007 -0.0191906 0.046600997
0 -0.01912367 0.046485275
0.00097152719 -0.019430544 0.046087235
0.0019286642 -0.01928664 0.045354515
0.0029404513 -0.019603008 0.044842422
0.0038791068 -0.019395534 0.043864846
0.0049333908 -0.019733563 0.043387711
0.0058840616 -0.019613538 0.042846799
0.0068644602 -0.019612743 0.041933477
0.0079017216 -0.019754304 0.041014135
0.0088429358 -0.01965097 0.040205061
0.0098997867 -0.019799573 0.039841235
0.010883027 -0.019787321 0.038722932
0.011818949 -0.019698247 0.038123637
0.01289307 -0.019835493 0.037333399
0.013896459 -0.019852083 0.035891742
0.015153359 -0.020204479 0.034615219
0.01585144 -0.019814299 0.033061296
0.017103152 -0.020121355 0.028543711
0.018846432 -0.020940479 0.019298136
0.019901568 -0.020949017 0.017709076
0.021100972 -0.021100972 0.015054643
0.022121267 -0.021067873 0.01383549
0.023076583 -0.020978712 0.013312817
0.024362667 -0.021184927 0.011604518
0.025358381 -0.021131985 0.010389924
0.026284844 -0.021027874 0.009408772
0.027376149 -0.021058576 0.0088874698
0.028675411 -0.021241043 0.0057148933
-0.039904933 -0.019952467 0.005727917
-0.03875161 -0.019899474 0.0073836148
-0.038319889 -0.020224387 0.0086365342
-0.036985435 -0.020077808 0.0092213452
-0.036691591 -0.020504124 0.0096046627
-0.035074964 -0.020194676 0.010010302
-0.034069445 -0.020228732 0.0098597109
-0.033007458 -0.020230375 0.0098132491
-0.031850345 -0.020171886 0.010603398
-0.03083306 -0.02020097 0.0114474
-0.029671339 -0.020134123 0.013019294
-0.02822767 -0.019863915 0.014169782
-0.027622823 -0.02018591 0.016079634
-0.02626067 -0.019958109 0.019010454
-0.024073027 -0.019057814 0.030504793
-0.02328454 -0.019235054 0.032013088
-0.022078604 -0.019067885 0.033083588
-0.021030588 -0.019027675 0.034078687
-0.020164296 -0.019156082 0.035043091
-0.01901854 -0.01901854 0.035442472
-0.017777594 -0.018765239 0.036808282
-0.016865229 -0.018849373 0.037015706
-0.015850443 -0.018822402 0.037457824
-0.014801881 -0.018749049 0.038990587
-0.013739641 -0.018646656 0.03974849
-0.01270075 -0.018562635 0.040264934
-0.011737102 -0.018583745 0.040819168
-0.010787909 -0.018633662 0.041207701
-0.0096604833 -0.018354919 0.042263538
-0.008853876 -0.018691517 0.043100715
-0.0078481194 -0.018639283 0.044715673
-0.0067651179 -0.018362463 0.045389622
-0.0058244853 -0.018444205 0.045948148
-0.0047878255 -0.018193737 0.04675895
-0.0038632562 -0.018350467 0.046348482
-0.002897688 -0.018352024 0.046762079
-0.0019293859 -0.018329166 0.046440423
-0.00095580955 -0.018160382 0.046364516
0 -0.01831435 0.046130389
0.00096531096 -0.018340908 0.045414001
0.0019323094 -0.01835694 0.044827968
0.0029546954 -0.018713072 0.043623894
0.0038786042 -0.018423369 0.042876691
0.0048998855 -0.018619565 0.041742384
0.0058942772 -0.018665211 0.041512161
0.0068277814 -0.01853255 0.040612906
0.0079017067 -0.018766554 0.040078282
0.008988142 -0.018974967 0.039371967
0.0098498445 -0.018714705 0.038489848
0.01083345 -0.018712323 0.037782192
0.011891249 -0.018827811 0.036957055
0.012802836 -0.018711839 0.036212653
0.013938198 -0.018916126 0.035271645
0.015007298 -0.019009244 0.033935606
0.015795914 -0.018757649 0.031565905
0.017274885 -0.019307224 0.027402431
0.018733719 -0.019774484 0.019786865
0.019695915 -0.019695915 0.017760575
0.021079196 -0.020025237 0.015849441
0.021960456 -0.019868985 0.014840931
0.022874676 -0.019755403 0.014120251
0.024123671 -0.019928249 0.012941808
0.025457758 -0.020154059 0.011535674
0.026438478 -0.020093244 0.010292709
0.027520107 -0.020110847 0.0092447698
0.028252283 -0.019881235 0.0062943697
-0.040317371 -0.019097701 0.0063189268
-0.03926998 -0.019104313 0.0083127618
-0.038282778 -0.019141389 0.0091588199
-0.036785774 -0.018918397 0.009554565
-0.036076702 -0.019099429 0.010635495
-0.035225227 -0.01921376 0.010582507
-0.033999518 -0.019124728 0.011150777
-0.033255991 -0.019309929 0.01102531
-0.031700928 -0.019020556 0.01129812
-0.030507127 -0.018935457 0.012398034
-0.029315742 -0.018845834 0.013441265
-0.028245684 -0.018830454 0.015364975
-0.02730359 -0.018902484 0.01643917
-0.026000749 -0.018720537 0.020620257
-0.024116656 -0.018087491 0.029879004
-0.022980897 -0.017985048 0.031207711
-0.022058396 -0.018047778 0.032606602
-0.021142868 -0.018122459 0.033542305
-0.020096045 -0.018086441 0.034174711
-0.018811481 -0.017821401 0.034825593
-0.018075382 -0.018075382 0.035656542
-0.017013051 -0.018013818 0.036321998
-0.015896091 -0.017883103 0.036907583
-0.015130467 -0.01815656 0.037724048
-0.013648327 -0.017547848 0.038783818
-0.012787692 -0.017706035 0.039724201
-0.011943033 -0.017914549 0.040203035
-0.010794511 -0.017663745 0.040750831
-0.0098503707 -0.017730666 0.041182756
-0.0089327255 -0.017865451 0.042069942
-0.0078168698 -0.017587956 0.042440355
-0.0068741869 -0.01767648 0.043173552
-0.0057780156 -0.017334046 0.044012249
-0.0048407596 -0.017426735 0.044101745
-0.0038188715 -0.017184921 0.045060754
-0.0029022251 -0.017413352 0.045101166
-0.0019147457 -0.01723271 0.045143664
-0.0009653006 -0.01737541 0.045273244
0 -0.017538834 0.045135349
0.00097730057 -0.017591409 0.043753922
0.0019722478 -0.01775023 0.043368518
0.0029347523 -0.017608514 0.042837203
0.0039472715 -0.017762721 0.041490674
0.0049534417 -0.017832389 0.041309088
0.0059044585 -0.017713375 0.04055506
0.0068967827 -0.017734583 0.039804697
0.0078880023 -0.017748006 0.039155364
0.0088735325 -0.017747065 0.038194388
0.0098795993 -0.017783279 0.037649482
0.010937849 -0.017898297 0.036957055
0.012006599 -0.018009897 0.036212057
0.012858133 -0.017803567 0.035411119
0.013969634 -0.017960958 0.034467846
0.015222686 -0.018267224 0.033305556
0.016014902 -0.018016763 0.031020015
0.01724894 -0.018263584 0.027435809
0.018638391 -0.018638391 0.019889981
0.019732865 -0.018694291 0.018170983
0.020867474 -0.018780727 0.017304897
0.021890171 -0.018763002 0.016429424
0.023072667 -0.018877637 0.015351504
0.023842504 -0.01865935 0.014152408
0.025256382 -0.018942285 0.012596488
0.026321447 -0.01895144 0.01129505
0.027031755 -0.018714292 0.010309964
0.028237479 -0.018824983 0.0084251761
-0.039598085 -0.017714933 0.0078603923
-0.038944289 -0.017893322 0.0088013709
-0.038538121 -0.018198557 0.0092803538
-0.037189096 -0.018063277 0.010206372
-0.036161102 -0.018080551 0.011561096
-0.034898452 -0.017977992 0.011482269
-0.033727262 -0.017917607 0.011906087
-0.032333214 -0.017731115 0.011327833
-0.031390894 -0.017788174 0.012367964
-0.030589733 -0.017931912 0.013200879
-0.029693283 -0.018028066 0.014360696
-0.028442403 -0.01790818 0.015610278
-0.027374525 -0.017898727 0.016471118
-0.026152542 -0.017783729 0.020569175
-0.024031712 -0.017022463 0.029092252
-0.023249181 -0.017184177 0.030828893
-0.022047414 -0.017036639 0.0320611
-0.021129841 -0.01710511 0.032699496
-0.020196801 -0.017167283 0.033431888
-0.018927995 -0.016935574 0.033884108
-0.017897697 -0.016903382 0.034675777
-0.016785195 -0.016785195 0.035411716
-0.015989376 -0.016988713 0.03591758
-0.014889212 -0.016874442 0.036637425
-0.013783637 -0.016737275 0.037339777
-0.012940274 -0.016921896 0.038357317
-0.011764579 -0.016666489 0.039542139
-0.010843249 -0.016757749 0.039875776
-0.0098873777 -0.016808543 0.040408045
-0.008912323 -0.016834388 0.040877253
-0.0078713214 -0.016726559 0.041397601
-0.0068182284 -0.016558554 0.041949183
