ply
format ascii 1.0
comment PCL generated
element vertex 1285
property float x
property float y
property float z
element camera 0
property float view_px
property float view_py
property float view_pz
property float x_axisx
property float x_axisy
property float x_axisz
property float y_axisx
property float y_axisy
property float y_axisz
property float z_axisx
property float z_axisy
property float z_axisz
property float focal
property float scalex
property float scaley
property float centerx
property float centery
property int viewportx
property int viewporty
property float k1
property float k2
end_header
-0.025456136 0.068222441 0.023131996
-0.024242688 0.067677505 0.02398172
-0.023104694 0.067304976 0.02471453
-0.022360766 0.068098702 0.025386035
-0.02108356 0.067266598 0.02529487
-0.020101296 0.067339346 0.02524212
-0.01937242 0.068313271 0.024313539
-0.018201318 0.067749359 0.022492558
-0.017798698 0.070147805 0.020525455
-0.01696972 0.071060702 0.010437727
0.0053154789 0.071227424 0.011860549
0.0062008542 0.06924288 0.018665642
0.0071288184 0.068232976 0.021269053
0.0081102932 0.06792371 0.0240466
0.009037571 0.067279704 0.024368912
0.010010506 0.067070395 0.024287641
0.011049869 0.067303754 0.024368912
0.012101891 0.067568891 0.024167061
0.013065628 0.067338243 0.023776352
0.014265576 0.068270974 0.02184689
0.015937654 0.071188189 0.0071109533
-0.027507626 0.071943022 0.0079016089
-0.025405234 0.069102235 0.02296409
-0.024103163 0.068292297 0.023999006
-0.02313666 0.068404041 0.025354296
-0.022057142 0.06817662 0.025655895
-0.020882051 0.067618072 0.025603592
-0.020198744 0.068675727 0.025552183
-0.019226443 0.068810426 0.025222063
-0.018127928 0.068483286 0.023371071
-0.017557597 0.070230387 0.020786792
-0.017056957 0.07249207 0.0088652074
0.0052925618 0.071978845 0.011196792
0.0062491614 0.070823833 0.018956482
0.0071637612 0.069590822 0.02190572
0.0081487997 0.069264792 0.02447167
0.0090646977 0.068488829 0.024509847
0.010026234 0.068178393 0.0244838
0.011033444 0.068206742 0.024509847
0.012046459 0.06826327 0.024532646
0.013043873 0.068229489 0.02408579
0.014202539 0.068983763 0.021832734
0.015865346 0.071922906 0.0070624948
-0.027393337 0.072697699 0.0086541772
-0.025273262 0.069754206 0.023081452
-0.024058621 0.069168538 0.024784476
-0.023117412 0.069352232 0.025833219
-0.022099476 0.069311991 0.026155978
-0.021180872 0.069594294 0.026434004
-0.019878285 0.068580084 0.026391149
-0.019359877 0.07030692 0.02598837
-0.018307336 0.070178121 0.024667829
-0.017008368 0.069033958 0.021726131
-0.017365932 0.074890584 0.010458231
0.0053101885 0.073280603 0.011860549
0.0062105143 0.071420915 0.019908637
0.0070762523 0.069751628 0.022808969
0.0081430087 0.070233449 0.024583012
0.0089463098 0.068588383 0.024930388
0.0099974386 0.068982333 0.024904341
0.010954196 0.068712682 0.024930388
0.012043616 0.069250792 0.024573833
0.013125117 0.069664083 0.024325162
0.014295846 0.070458099 0.021870255
0.015830837 0.072821856 0.0068944693
0.01705852 0.073564872 0.0051512718
-0.027247807 0.073359482 0.0087801516
-0.02537955 0.071062736 0.023123085
-0.024032686 0.070095338 0.025542915
-0.022900812 0.069698125 0.026361763
-0.021962201 0.069879733 0.026818037
-0.021141734 0.070472442 0.027130723
-0.0200295 0.07010325 0.027248591
-0.019357435 0.071316868 0.027202398
-0.018158143 0.070615001 0.026168466
-0.017026713 0.070109993 0.023607284
-0.017475776 0.076456524 0.016343653
-0.015883595 0.074123442 0.0058460534
0.0053307726 0.074630819 0.012656003
0.0062439311 0.072845861 0.021019131
0.0070976513 0.070976511 0.02436322
0.008102105 0.070893414 0.026336998
0.0090473844 0.070368551 0.02651009
0.0099884234 0.069918968 0.026434511
0.010821454 0.068863802 0.026472032
0.01198307 0.069901243 0.025580645
0.013060279 0.070324577 0.024366647
0.014215874 0.071079366 0.021874636
0.015969126 0.074522585 0.0071222186
0.016895778 0.073919028 0.005256474
-0.027060186 0.073895119 0.008823663
-0.025214443 0.071609013 0.023218483
-0.02410732 0.071317486 0.025964946
-0.023046846 0.071144611 0.026659042
-0.022107154 0.071345814 0.027429402
-0.020947637 0.070822962 0.02783078
-0.019960999 0.070861548 0.027986705
-0.01888884 0.07058461 0.027836293
-0.018210858 0.071831718 0.027190864
-0.017184649 0.071771182 0.025338054
-0.016681243 0.074023008 0.022043556
-0.016104503 0.076227978 0.0077454448
0.0041740625 0.074089602 0.0058648288
0.0054299505 0.077105299 0.015879512
0.006139332 0.072648756 0.023447514
0.007024867 0.071252219 0.026487559
0.0080294954 0.071261764 0.027599692
0.0089765359 0.070814893 0.027493089
0.0099763563 0.070832133 0.027449131
0.011067698 0.071436957 0.027362466
0.012044927 0.071265817 0.026968658
0.013056264 0.071307287 0.025598586
0.01432405 0.072643399 0.021888196
0.015767924 0.074634843 0.0072655678
0.017091099 0.075841747 0.0053998232
-0.027433122 0.075968638 0.0087801516
-0.025191588 0.072551765 0.023157477
-0.024324086 0.072972253 0.025542915
-0.023089265 0.072279438 0.026656508
-0.021873496 0.07158599 0.027467281
-0.020952437 0.071836926 0.028053731
-0.020084241 0.072303273 0.028177768
-0.018943325 0.071785226 0.028230786
-0.018209463 0.072837852 0.027861595
-0.017372927 0.073579453 0.026775509
-0.016088778 0.072399497 0.024980694
-0.016150614 0.077522941 0.012432516
-0.014990423 0.077093601 0.0050337911
0.0042589074 0.076660328 0.011960626
0.0053939959 0.07767354 0.022112161
0.0060272259 0.072326712 0.02503702
0.0070848293 0.072872527 0.027644545
0.0080250604 0.072225541 0.027949184
0.0090250289 0.072200231 0.027921617
0.010026633 0.07219176 0.02773726
0.010859006 0.071077131 0.027697355
0.012005165 0.072030984 0.027429014
0.013023326 0.07212919 0.026623875
0.014076875 0.072395347 0.022003561
0.015849262 0.076076463 0.0072931349
0.016895663 0.076030478 0.0058332086
-0.026902849 0.075534925 0.0086155832
-0.025569748 0.074663669 0.023125619
-0.024227226 0.073691152 0.025937945
-0.022931783 0.072783485 0.026879042
-0.02202733 0.073090695 0.027933419
-0.021036366 0.073126413 0.028338373
-0.020071859 0.073262289 0.028419435
-0.01902725 0.073104702 0.028452158
-0.017939376 0.072754145 0.028245747
-0.017068835 0.073295586 0.027806967
-0.01614023 0.073639803 0.026505351
-0.01651849 0.080389991 0.024830103
-0.01503757 0.078410193 0.0087741315
0.0031932066 0.077701367 0.006434381
0.00438732 0.080068596 0.019977987
0.0050743348 0.074085295 0.024422407
0.0060443757 0.073539905 0.027303457
0.0070044729 0.073046654 0.028116733
0.0079692453 0.072719365 0.028338462
0.0089519862 0.072610557 0.028269082
0.010002448 0.07301788 0.028058559
0.01091427 0.072431073 0.028042823
0.011915721 0.07248731 0.027460515
0.013011386 0.07306394 0.026643962
0.014171422 0.073893845 0.021083415
0.015909757 0.077427492 0.0075176954
0.016979368 0.077468373 0.0059730709
-0.027177202 0.077350505 0.0070748031
-0.025443228 0.075311951 0.020530909
-0.024220807 0.074680828 0.024670362
-0.023119893 0.074385747 0.026680857
-0.021929324 0.073762275 0.028156936
-0.020837169 0.073426217 0.028342724
-0.019985111 0.073944919 0.028634578
-0.018936882 0.073754169 0.02907449
-0.017897997 0.07358066 0.0289931
-0.017073486 0.074319884 0.028834492
-0.016039129 0.074180976 0.028083652
-0.015054267 0.074267723 0.026801169
-0.01545455 0.081688344 0.023008853
-0.014017607 0.079792537 0.0079854131
0.0021097837 0.078061998 0.0062767267
0.0033822705 0.083429344 0.019981027
0.0041522649 0.076816902 0.024383157
0.005081973 0.075213209 0.027209818
0.006100324 0.075237334 0.027977556
0.0068981294 0.072923087 0.028305054
0.0079450849 0.073492035 0.028488368
0.0089933285 0.07394515 0.028405964
0.0099824229 0.073869936 0.028013408
0.01097997 0.073865257 0.027798623
0.012018311 0.074112922 0.027196467
0.012950297 0.073717073 0.026426166
0.014333757 0.075764142 0.019565284
0.015873939 0.078311428 0.0071840882
0.017125212 0.079204112 0.0055861175
-0.027381174 0.078984156 0.0057335794
-0.025116282 0.075348847 0.013637722
-0.02443107 0.076347098 0.02314344
-0.023058604 0.075191103 0.026355088
-0.021932652 0.074770413 0.027426332
-0.020883121 0.074582577 0.028322458
-0.019996494 0.07498686 0.029052585
-0.018952265 0.074811578 0.029230207
-0.018014975 0.075062402 0.029290378
-0.016944682 0.074755952 0.029165238
-0.015894907 0.074507378 0.028924346
-0.01507715 0.075385749 0.02807039
-0.014063173 0.075338431 0.027023673
-0.014321233 0.082622506 0.024622053
-0.013132177 0.08207611 0.0089584589
-0.011585928 0.078994974 0.006049335
0.0010729455 0.08047092 0.0061934888
0.0022307332 0.083652496 0.019838005
0.0030943451 0.077358633 0.024774939
0.0040331767 0.075622067 0.027190357
0.005055117 0.075826757 0.028002173
0.0058732219 0.073415279 0.028841823
0.0069835326 0.074823566 0.02897495
0.0079860911 0.07486961 0.028945863
0.009021638 0.075180322 0.028649956
0.010013283 0.075099632 0.028230846
0.011025117 0.075171255 0.027798623
0.012059635 0.075372718 0.027030677
0.013028577 0.075164869 0.024009317
0.014250168 0.076340184 0.0097460747
0.015876688 0.079383448 0.0066589415
0.017103145 0.080170996 0.0055595636
-0.025499506 0.0775185 0.0077796578
-0.02424632 0.076780014 0.0205217
-0.023287488 0.076949954 0.025036991
-0.022175355 0.076605774 0.026821911
-0.02076559 0.07515166 0.02808851
-0.020145362 0.076552376 0.028624654
-0.019006183 0.076024733 0.029115885
-0.017906602 0.075605661 0.029422015
-0.016910523 0.075599983 0.029366463
-0.015856072 0.07531634 0.029548198
-0.014838619 0.075182341 0.029138207
-0.014219379 0.077190913 0.028482914
-0.01313006 0.076760359 0.027017444
-0.012819384 0.081189439 0.025184929
-0.012326965 0.085168131 0.012413919
-0.010905815 0.0828842 0.0072029829
-0.0010740143 0.081625096 0.0052139163
0 0.085786499 0.0069474578
0.0011053439 0.084006146 0.022347391
0.0020098726 0.076375157 0.025741935
0.0030154816 0.076392204 0.027178138
0.0040529044 0.077005178 0.028756857
0.0048838984 0.07423526 0.028837591
0.0059539238 0.075416371 0.029141635
0.0069547771 0.075509012 0.028983474
0.0079791015 0.075801462 0.028922617
0.0089765666 0.075802125 0.028649956
0.0099081164 0.075301684 0.028183788
0.01093842 0.07557454 0.027669966
0.012010314 0.076065324 0.026603281
0.013091143 0.076532833 0.018561095
0.014292299 0.077586763 0.0081706047
0.015931426 0.080719218 0.0066739619
0.017079085 0.081125662 0.0056721568
-0.02560881 0.078875132 0.0058588088
-0.02437146 0.078191772 0.010321677
-0.023371654 0.078244232 0.022147417
-0.022203304 0.077711567 0.025770754
-0.020960726 0.076855987 0.027144283
-0.020124134 0.077477917 0.028366685
-0.018998574 0.076994225 0.028940707
-0.017919894 0.076657332 0.029315799
-0.016965792 0.076845057 0.029323697
-0.015649658 0.075313978 0.029541612
-0.014823708 0.076095037 0.029410422
-0.013921284 0.076567061 0.029063195
-0.013092114 0.077545598 0.028079271
-0.011921469 0.076496094 0.027411431
-0.011230316 0.078612216 0.026796907
-0.010496147 0.080820337 0.02245903
-0.01001115 0.085650951 0.008942306
-0.0089950394 0.086577252 0.0081029832
-0.0078940643 0.086834706 0.0072775185
-0.0066092676 0.084818937 0.0062342286
-0.0055123959 0.084890902 0.0058658719
-0.003380884 0.086776018 0.006806314
-0.0022798225 0.087773167 0.0078127682
-0.0011034571 0.08496619 0.016761124
0 0.078396529 0.024744958
0.0010048411 0.077372767 0.027000666
0.0020122984 0.077473491 0.027142584
0.0030144507 0.077370904 0.029032171
0.0039334437 0.075718798 0.029592812
0.0049804351 0.076698706 0.029198378
0.0059899744 0.076871336 0.029605031
0.0069846776 0.076831453 0.029211372
0.0079759015 0.076768056 0.029112071
0.0088964654 0.076114208 0.028649956
0.0099993236 0.076994792 0.028043181
0.010974858 0.076824002 0.026854157
0.012056491 0.077362493 0.021417439
0.013082778 0.0774903 0.010732621
0.01440803 0.079244167 0.0078421831
0.015801126 0.081112444 0.0064126253
0.017046332 0.082035482 0.0055779219
-0.026337631 0.082173407 0.0050057173
-0.024570905 0.079855442 0.0068330765
-0.023116151 0.078393899 0.011935174
-0.022014167 0.078050226 0.023001671
-0.02117062 0.078633726 0.026235968
-0.020005971 0.078023285 0.027979434
-0.018792082 0.077146441 0.028464884
-0.018041771 0.078181013 0.029239029
-0.01685725 0.077345029 0.029186577
-0.01591602 0.077590592 0.029581726
-0.015001605 0.078008346 0.029373467
-0.013718846 0.076433569 0.029579371
-0.012840278 0.077041663 0.029703796
-0.012073124 0.078475304 0.02940473
-0.011117152 0.078830712 0.028964996
-0.0099270511 0.077431001 0.027431935
-0.0089908615 0.077920802 0.026575208
-0.008225888 0.080202408 0.02413103
-0.0072758882 0.081074186 0.022622794
-0.0065027769 0.084536098 0.021298498
-0.0053072521 0.082793131 0.022164077
-0.0042744032 0.083350867 0.022627205
-0.0031256154 0.081266001 0.024198174
-0.0020124367 0.078485027 0.026959062
-0.0010092199 0.078719147 0.027330071
0 0.078023821 0.027227551
0.0010007813 0.07806094 0.029144496
0.0019673116 0.076725148 0.02979517
0.0029419458 0.076490588 0.030095339
0.0039469288 0.076965109 0.030114114
0.0049547721 0.077294447 0.029703885
0.0059462474 0.077301212 0.029768109
0.0069190054 0.07709749 0.02924028
0.0079712225 0.07771942 0.028939098
0.0088470802 0.0766747 0.028341442
0.010052097 0.078406356 0.026715159
0.010961184 0.077724762 0.022248209
0.01207743 0.078503296 0.01275295
0.013252423 0.079514533 0.0084846914
0.014675975 0.081766143 0.007463336
0.015804525 0.082183532 0.006044209
0.016876685 0.082273833 0.0053801835
-0.025433591 0.083718903 0.0058891177
-0.023816833 0.081805646 0.0081876814
-0.022379639 0.080363251 0.011935174
-0.0210377 0.079141825 0.023028046
-0.019891387 0.078570977 0.026356637
-0.019012565 0.079052247 0.027844757
-0.017861152 0.078390613 0.028618991
-0.016902138 0.078545228 0.029158264
-0.016007021 0.079034664 0.029493868
-0.014905757 0.078503653 0.029428273
-0.013935849 0.07863801 0.029982179
-0.012863755 0.07817205 0.03051126
-0.01183925 0.077941731 0.030744761
-0.010844189 0.077880993 0.030863315
-0.0099797752 0.078840226 0.030749559
-0.0090226792 0.079199076 0.030085772
-0.0080487998 0.079481892 0.029634684
-0.0070911655 0.080028869 0.029450834
-0.0060938108 0.080235176 0.029602587
-0.0050852224 0.08034651 0.029415339
-0.0040099067 0.079195656 0.029318422
-0.002999956 0.078998841 0.029220104
-0.0020107683 0.079425342 0.029415339
-0.00099659967 0.078731373 0.029634684
0 0.078301564 0.030704021
0.000991515 0.078329682 0.030810803
0.0019771499 0.078097418 0.030715466
0.0029882914 0.078691669 0.030514449
0.0039488929 0.077990636 0.030114293
0.0049709748 0.078541405 0.02969718
0.0059560002 0.078420669 0.029547602
0.0069978 0.078975171 0.028595448
0.0079617184 0.078621969 0.027743965
0.0089548593 0.078603767 0.026757449
0.010038979 0.079307944 0.022155493
0.011071781 0.079515517 0.012962639
0.012398924 0.081626251 0.0090636015
0.013584281 0.08255063 0.0076372921
0.014750239 0.083233483 0.0066784918
0.015887637 0.083674885 0.0059804022
-0.024452182 0.08505106 0.0059215724
-0.023084836 0.083944857 0.0086438954
-0.021732397 0.082790084 0.01131171
-0.02028561 0.08114244 0.023070991
-0.019153293 0.080645442 0.025822848
-0.018009612 0.08004272 0.026877612
-0.016895089 0.0795063 0.02846998
-0.015809154 0.079045765 0.029410422
-0.014841283 0.0791535 0.02922678
-0.013881512 0.079322927 0.029978126
-0.012766718 0.078564413 0.030520231
-0.011922529 0.079483524 0.030867338
-0.010938288 0.079551183 0.030973375
-0.0097490642 0.077992514 0.031062454
-0.0089274487 0.079355098 0.031096667
-0.0079206126 0.079206124 0.030959696
-0.0068651466 0.078458816 0.03110823
-0.0059251753 0.079002336 0.031200022
-0.0049109049 0.078574479 0.031061471
-0.0039525065 0.079050131 0.031092554
-0.0029551149 0.078803062 0.031059593
-0.0019874456 0.079497822 0.031061471
-0.00098823104 0.079058476 0.030903399
0 0.079187863 0.030897617
0.00099080207 0.079264164 0.031435996
0.0019830212 0.079320841 0.030746609
0.0029701821 0.079204857 0.030450553
0.0038989361 0.077978715 0.03004989
0.0049575386 0.079320617 0.029029906
0.0059671444 0.079561926 0.028760165
0.006960141 0.07954447 0.027227551
0.0079904357 0.079904348 0.026786655
0.0090038441 0.080034167 0.022248209
0.010306154 0.082449235 0.012962639
0.011625999 0.08455272 0.0099043548
0.012600272 0.084001817 0.0080326498
0.013762698 0.084693521 0.0074436367
0.014835224 0.084772706 0.0064975619
0.015874678 0.084664948 0.005925715
-0.023376981 0.086069793 0.0059215724
-0.022376172 0.086308084 0.0080879331
-0.020964662 0.084906876 0.010203868
-0.019375445 0.082600579 0.021734089
-0.018176097 0.081792437 0.024416476
-0.017009761 0.081046507 0.026116192
-0.015930511 0.080648214 0.027290702
-0.014706014 0.079412468 0.028980911
-0.013679978 0.079148442 0.0294137
-0.012758222 0.079493538 0.030661047
-0.01188953 0.080254331 0.031023353
-0.010812745 0.079621121 0.030867338
-0.0099206008 0.080356866 0.030953825
-0.0088672116 0.079804905 0.031239688
-0.0078546433 0.079528265 0.031106412
-0.0069597047 0.080533728 0.031269282
-0.0059746578 0.080657877 0.031270862
-0.0049656006 0.080442727 0.031132311
-0.0039780857 0.080556229 0.031130046
-0.0029665949 0.080098063 0.031061471
-0.0019790744 0.080152512 0.031061471
-0.00098894851 0.080104828 0.030903399
0 0.079916276 0.030897617
0.00098291249 0.079615913 0.030897617
0.0019560063 0.079218253 0.030735165
0.0029337863 0.079212226 0.030290574
0.0039166524 0.079312213 0.029990137
0.0049455813 0.080118418 0.028781742
0.0058954209 0.079588182 0.027072012
0.0070571639 0.081661463 0.026544094
0.0082141059 0.083167821 0.018159717
0.009463557 0.085172012 0.012852639
0.010544335 0.085409112 0.010054111
0.011580953 0.085277922 0.0082755983
0.012655117 0.085422039 0.0075297356
0.013801088 0.08599139 0.0065201521
0.014816354 0.085723184 0.0059697926
0.015790869 0.08527068 0.0056348145
-0.022297611 0.087066866 0.0056156218
-0.02119666 0.086906314 0.0080425441
-0.020140313 0.086921357 0.0089133978
-0.018961029 0.08637803 0.01359871
-0.017185099 0.082892835 0.022825003
-0.01608222 0.082421377 0.026058614
-0.014943275 0.081689902 0.027720809
-0.013876393 0.081276014 0.028832048
-0.01269766 0.080092937 0.029732794
-0.011898769 0.081308261 0.030652165
-0.010917152 0.081382409 0.030652165
-0.0098100575 0.080442473 0.030858368
-0.0088790013 0.080897577 0.03110674
-0.0078770816 0.080740087 0.031106412
-0.006865582 0.080425389 0.031269282
-0.005968512 0.081569672 0.031291574
-0.0049963221 0.08193969 0.031141579
-0.0039486648 0.08094763 0.031134456
-0.002943641 0.080459528 0.031059593
-0.0019846773 0.081371777 0.030994236
-0.00098948041 0.081137396 0.030844033
0 0.080804564 0.030750632
0.00098804687 0.081019841 0.030715466
0.0019515854 0.080015004 0.029959172
0.002974642 0.081306882 0.029252499
0.003984503 0.081682317 0.028830886
0.0049682502 0.081479304 0.026789755
0.0061681191 0.084297635 0.018197209
0.007289507 0.085391365 0.014751196
0.0083462568 0.085549138 0.011466116
0.0094530201 0.08612752 0.0092940927
0.010463344 0.085799433 0.0080396235
0.011489906 0.085652038 0.0075586438
0.012722734 0.086938687 0.0066784918
0.013676374 0.086266361 0.0059807599
0.014814133 0.086768493 0.0058894753
0.015973877 0.087323859 0.0056348145
0.022335194 0.087213621 0.0050550699
-0.021124188 0.087665386 0.0062823296
-0.019884484 0.086863801 0.0070524514
-0.018978512 0.087512031 0.0081486106
-0.017877351 0.087283544 0.0098990798
-0.016584 0.0860295 0.014636904
-0.015241075 0.084333949 0.024758905
-0.01385116 0.082117595 0.027548581
-0.012787582 0.081643797 0.028723389
-0.011812683 0.081704393 0.029981852
-0.010771266 0.0812741 0.030390292
-0.0098720584 0.081938088 0.030625403
-0.0088982508 0.082061648 0.030774742
-0.0079018408 0.081981599 0.030867338
-0.0068809921 0.081588909 0.031063288
-0.0059741577 0.082642518 0.031167805
-0.0049765394 0.082610562 0.031065077
-0.0039741751 0.082464136 0.031098962
-0.0029608125 0.081915818 0.030992448
-0.0019783229 0.082100399 0.030967683
-0.00098893151 0.082081318 0.030822068
0 0.082269862 0.030735165
0.00098678214 0.081902921 0.030503482
0.0019811885 0.082219325 0.029132634
0.0029812308 0.082480721 0.027830899
0.0040510702 0.084059708 0.021883041
0.0051645925 0.085732244 0.014941245
0.0063087018 0.087270379 0.012306511
0.0073230937 0.086830974 0.010368735
0.0083268508 0.086391076 0.0085242391
0.0094386777 0.087045595 0.0076514781
0.010531588 0.087412186 0.0066391528
0.011685776 0.088174492 0.0065395534
0.012655576 0.087534405 0.006095022
0.013782104 0.087993436 0.0059149861
0.014846913 0.088020988 0.0057723522
0.015954355 0.08828076 0.0055826306
0.017099444 0.088703372 0.0052144825
0.021963567 0.086808383 0.0051018
-0.020008208 0.088457346 0.0060656667
-0.018949727 0.088432059 0.0069446862
-0.017870454 0.08830107 0.0080114305
-0.016977377 0.089131229 0.0095481277
-0.015826525 0.088628538 0.010641456
-0.014275076 0.085650459 0.020973504
-0.01310375 0.084670387 0.026458919
-0.01200577 0.084040388 0.028672099
-0.010800662 0.082477778 0.029354364
-0.009854001 0.082773611 0.030395508
-0.0089093754 0.083154172 0.030604422
-0.0079628043 0.083609447 0.030766457
-0.0068679471 0.082415365 0.031098962
-0.0058884728 0.082438618 0.031237513
-0.0049385484 0.082967617 0.031098962
-0.0039609699 0.083180368 0.031134456
-0.0029410727 0.082350038 0.030977696
-0.0019847332 0.083358794 0.030775279
-0.00098974979 0.083138987 0.030044258
0 0.083018936 0.029632449
0.0009918384 0.083314434 0.028904021
0.0020350975 0.085474096 0.024036348
0.0031014723 0.086841226 0.015947163
0.004175547 0.087686494 0.012592345
0.0052882116 0.08884196 0.011333019
0.0062454036 0.087435655 0.0089130998
0.0073758177 0.088509813 0.0078632534
0.0085045407 0.089297675 0.006626308
0.0095714172 0.089333229 0.006044209
0.010618196 0.089192845 0.0059442222
0.011679937 0.089192256 0.0059442222
0.012756621 0.089296356 0.0058375299
0.0137853 0.089074247 0.0057255328
0.014928004 0.089568026 0.0056552291
0.015834576 0.088673621 0.0054213405
0.016855258 0.088490106 0.0053488016
0.017918095 0.088536464 0.0050745308
0.019199757 0.089598872 0.0051816702
0.020251714 0.089533895 0.005210191
0.021214977 0.089102909 0.0052089691
0.022379378 0.089517511 0.0056432188
0.023089413 0.088159576 0.0051918626
-0.020200746 0.090371765 0.005174458
-0.019208305 0.090705886 0.0063902438
-0.017922223 0.089611113 0.0069772601
-0.016919224 0.089883372 0.0079899728
-0.015747905 0.08923813 0.0086895227
-0.014653419 0.088967189 0.0099491179
-0.013687667 0.089496285 0.012161314
-0.012187146 0.086325616 0.022544712
-0.011000486 0.085003763 0.027332902
-0.01003625 0.085308127 0.029371202
-0.0089494176 0.084522277 0.02984035
-0.0079783406 0.084769875 0.030268431
-0.0069166571 0.083987981 0.030805767
-0.0060182498 0.085258543 0.031200022
-0.0049682576 0.084460385 0.031061471
-0.0039506182 0.083950639 0.03104493
-0.0030073996 0.08520966 0.030131519
-0.0019999528 0.084997997 0.029669702
-0.0009958701 0.084648959 0.028294265
0 0.085272782 0.027351588
0.0010312984 0.087660372 0.016623974
0.0020712861 0.08802966 0.01276952
0.0031553719 0.089402206 0.011945218
0.004242382 0.090150625 0.0094073713
0.005223216 0.088794678 0.0081962049
0.0064429878 0.091275662 0.0069437623
0.0074818786 0.090851381 0.0061350167
0.0085107395 0.090426601 0.0059971809
0.0095429681 0.090128034 0.0061062574
0.010566921 0.089818828 0.0058003366
0.011584188 0.089514181 0.0058003366
0.012761626 0.090394855 0.0057158768
0.013765165 0.090002999 0.005782932
0.014930482 0.090649351 0.0057221353
0.015958009 0.090428717 0.0055480301
0.017083237 0.090754703 0.0054688454
0.01806608 0.0903304 0.0053306222
0.019072089 0.090062648 0.0053481758
0.020103393 0.089936234 0.0052455664
0.020929053 0.088948481 0.0054656267
0.022336824 0.090410955 0.0059273541
0.023217976 0.089705817 0.0056499839
0.024627559 0.091014892 0.0054239929
-0.019047357 0.091004044 0.0058453083
-0.01811053 0.091617972 0.0063605011
-0.016825767 0.090438493 0.0069609582
-0.015818508 0.090692781 0.0077579618
-0.014782733 0.09080822 0.0082835853
-0.013569915 0.089770205 0.0092187226
-0.012554182 0.089971639 0.010357022
-0.011460283 0.089598574 0.013761312
-0.0099381553 0.085468143 0.024631947
-0.0089373384 0.085401237 0.02766946
-0.0079885703 0.085877135 0.027943254
-0.0069744573 0.085686192 0.029308707
-0.0060234014 0.086335421 0.029579043
-0.004990458 0.085835882 0.029308707
-0.0040189405 0.086407222 0.028422862
-0.0029938812 0.085824601 0.028029382
-0.0020011966 0.086051457 0.026658863
-0.0010287446 0.088472039 0.017774522
0 0.089656584 0.013837159
0.0010437671 0.089763969 0.012143791
0.0020829851 0.089568362 0.010984421
0.0031228215 0.089520887 0.0093816221
0.0042003947 0.090308487 0.0076615512
0.005360927 0.092207946 0.0066045523
0.00640429 0.091794826 0.0058799088
0.0074267373 0.091242775 0.0057999194
0.0084997164 0.091371953 0.0057802796
0.0095450683 0.091208436 0.0056037605
0.010597282 0.091136627 0.0055738688
0.011820157 0.092412144 0.0055738688
0.012797301 0.091713987 0.0055118501
0.013619488 0.090098158 0.0055191517
0.014811093 0.09098243 0.0055732131
0.0159034 0.091179498 0.0054540634
0.017095489 0.091888256 0.0054306686
0.018076103 0.091443814 0.0052135289
0.019050574 0.091019407 0.0052835345
0.020311514 0.09193632 0.0051599443
0.021267304 0.09144941 0.0054054558
0.022166664 0.090777762 0.0060122013
0.023123642 0.090392426 0.0058627129
0.024365868 0.091107152 0.0054656267
0.025011783 0.089625552 0.0051214099
-0.032758009 0.091933765 0.0052355826
-0.02021171 0.092548355 0.0050592124
-0.019208973 0.092843376 0.0054289103
-0.017967606 0.091951869 0.0060228705
-0.016900921 0.091898754 0.0065302849
-0.015774624 0.091492824 0.0067826211
-0.014781779 0.091858201 0.0075057447
-0.013512594 0.090430431 0.0079915226
-0.012712082 0.092162594 0.0089039207
-0.011413093 0.090267189 0.010101318
-0.01057037 0.091962218 0.010799646
-0.0092522483 0.089438409 0.01267767
-0.0079672914 0.086644292 0.018086433
-0.0070459205 0.087570727 0.023378879
-0.0059938403 0.086910687 0.025078207
-0.0050161807 0.087281547 0.025062472
-0.0039961319 0.086915866 0.018390268
-0.0030477457 0.088384628 0.01571998
-0.0020811947 0.090531968 0.013076782
-0.0010555022 0.091828689 0.012308329
0 0.08996284 0.01116702
0.0010385212 0.090351343 0.0096144974
0.0021097939 0.091776028 0.0085361004
0.0031771557 0.092137516 0.0073505938
0.0042566145 0.092581369 0.0064517856
0.0053203269 0.092573687 0.0056873858
0.006363451 0.092270039 0.005645901
0.00743458 0.092401206 0.0053554773
0.0084857987 0.092283063 0.0056002438
0.0096050119 0.09284845 0.0055160224
0.010691882 0.093019381 0.0054891407
0.011660093 0.092220739 0.0054891407
0.012702792 0.092095241 0.0054268837
0.013923685 0.093181588 0.0054314137
0.014909331 0.092650838 0.0055171549
0.015833573 0.091834716 0.0054276288
0.017025709 0.092577294 0.005404532
0.017855272 0.091376975 0.0051766634
0.019053614 0.092092469 0.0052797496
0.020238852 0.092672631 0.0052455664
0.021158751 0.092040569 0.0054456592
0.022261463 0.092226058 0.0059616864
0.023291061 0.09210556 0.0058275759
0.02429723 0.091906905 0.0056432188
0.025508542 0.092468463 0.005279839
0.026476832 0.092139371 0.0051540434
-0.033798467 0.092945777 0.0054107606
-0.032903012 0.093402088 0.0059326589
-0.031970322 0.093779609 0.0055542886
-0.030648204 0.09300144 0.0050672591
-0.020198926 0.093552925 0.0051324368
-0.019044762 0.09310773 0.0056014359
-0.018093789 0.093661964 0.0059790313
-0.016940674 0.093173698 0.0062644184
-0.015860137 0.093046136 0.0065345168
-0.014881562 0.09354125 0.0068720281
-0.013817384 0.093533061 0.0074260831
-0.012591166 0.092335217 0.0080323815
-0.011659252 0.093274012 0.0085775256
-0.010474367 0.092174433 0.009849757
-0.0094633652 0.092530683 0.010103762
-0.0084003983 0.09240438 0.010768294
-0.0070593343 0.088745914 0.011226267
-0.0060192947 0.088282987 0.011648804
-0.0050567356 0.088998549 0.011648804
-0.0041665002 0.091662996 0.011952698
-0.0031277984 0.091748752 0.011551142
-0.0020954728 0.092200801 0.010755122
-0.0010451255 0.09197104 0.0095207393
0 0.092684023 0.0090901256
0.0010611448 0.093380742 0.0078753233
0.0020978549 0.092305608 0.0071333647
0.0031763914 0.093174145 0.0063058138
0.0042355764 0.093182676 0.0057057738
0.0053467299 0.09410245 0.0054148436
0.0064562373 0.094691478 0.0052034855
0.0074715489 0.093928039 0.0052794516
0.0084618442 0.093080282 0.0054540634
0.0095239142 0.093122721 0.0053868592
0.010586291 0.093159355 0.0053868592
0.011662527 0.093300216 0.0054752529
0.012805459 0.093906701 0.0054007471
0.013688162 0.092658326 0.0054891407
0.01479324 0.092986077 0.0055458546
0.015889594 0.093218952 0.0054693222
0.016841654 0.092629097 0.0054681003
0.018095812 0.093672439 0.0053306222
0.019336047 0.094531782 0.005433023
0.020183103 0.093479633 0.0054138303
0.021253612 0.093515895 0.0054487884
0.02229609 0.093431227 0.0060122311
0.023114104 0.092456415 0.0057043135
0.024186129 0.09253823 0.0057072043
0.025159983 0.092253268 0.0054054558
0.025858261 0.091021076 0.0050290525
-0.034851246 0.093992747 0.0058446825
-0.033854812 0.094158694 0.0062838495
-0.03275881 0.094049476 0.0070020556
-0.031909034 0.094663464 0.0064690113
-0.03093344 0.094933651 0.0059098005
-0.029359706 0.093321919 0.0057827532
-0.028681375 0.094542302 0.0055063665
-0.021167528 0.0941955 0.0051914155
-0.020379214 0.095460527 0.0053236485
-0.019120367 0.094539598 0.0057948232
-0.018094378 0.094729386 0.0060715675
-0.016889885 0.093949988 0.0062381327
-0.015937438 0.094562128 0.0063656271
-0.01489538 0.094692051 0.0067813098
-0.013610577 0.093180098 0.0070939362
-0.01277444 0.094743766 0.0075341165
-0.011537922 0.093352273 0.007925421
-0.01052359 0.093659952 0.0086116493
-0.009461591 0.09356463 0.009373039
-0.0084269168 0.093749441 0.0095355213
-0.0073105604 0.092948548 0.0099581778
-0.0062492974 0.092697911 0.0095814168
-0.0052507692 0.093463689 0.0095555186
-0.0041945386 0.093328483 0.0095351934
-0.0031650749 0.093897223 0.0090901256
-0.0020921065 0.093098737 0.0085498691
-0.0010519552 0.093624003 0.0079545975
0 0.094429463 0.0074377656
0.0010620735 0.094524533 0.0068851709
0.0021306751 0.094815038 0.0063124895
0.0032168562 0.095433399 0.005471617
0.004226916 0.094048873 0.0054048598
0.0053108805 0.094533667 0.0053188503
0.0063849883 0.094710663 0.005273968
0.0074201208 0.094341539 0.0055185556
0.0084954705 0.094512105 0.0056920648
0.0096436795 0.095365271 0.0055319667
0.010678892 0.095042139 0.0056235492
0.011721832 0.094840273 0.0056374371
0.012802284 0.094950274 0.0055164993
0.013779172 0.094334327 0.0055465698
0.014958672 0.095094413 0.0056604743
0.015904427 0.09436626 0.0056919456
0.016891791 0.093960576 0.0055153668
0.017851744 0.093459129 0.0055315793
0.019047584 0.094179727 0.0054456592
0.019995127 0.093661375 0.0055320561
0.021111647 0.093946829 0.0056916475
0.02228811 0.094459124 0.0061891973
0.023026116 0.0931511 0.0061245561
0.024614898 0.095248953 0.0058017671
0.025316464 0.09388189 0.005563885
0.026403129 0.093995132 0.0050745308
-0.035671607 0.094424844 0.0059999824
-0.034594074 0.094347477 0.0071030259
-0.033447836 0.094072036 0.0071202815
-0.032603547 0.094655462 0.0076576173
-0.031908151 0.095724456 0.0074368119
-0.030748401 0.095426075 0.0069861412
-0.029392336 0.094475366 0.006698817
-0.028561989 0.095206633 0.0066599548
-0.02738188 0.094783433 0.0062745214
-0.02641584 0.095097028 0.0058306754
-0.025580956 0.095928594 0.0055954754
-0.024426972 0.095583804 0.0057174861
-0.023196848 0.094896205 0.0055063367
-0.022412261 0.09605255 0.0053841174
-0.021245409 0.095604353 0.0058840811
-0.019972082 0.094604604 0.0058840811
-0.019255692 0.096278466 0.0062073767
-0.018036256 0.095486067 0.006259203
-0.016978867 0.095506132 0.0063569546
-0.015846923 0.095081545 0.006409198
-0.014850833 0.095469646 0.0065738559
-0.013733192 0.09507595 0.0068180561
-0.012583545 0.094376601 0.0071744025
-0.011654104 0.095351771 0.0075109601
-0.010553077 0.094977699 0.00800547
-0.0095405923 0.095405929 0.008245647
-0.0083748484 0.094217047 0.0086064339
-0.0073587131 0.094612032 0.0090165734
-0.0063337656 0.095006488 0.0087954402
-0.0052714697 0.094886459 0.0088350475
-0.0042018224 0.094541013 0.0084079504
-0.0031580355 0.094741069 0.0081818998
-0.002103247 0.094646111 0.0078210533
-0.0010543693 0.094893239 0.0072709024
0 0.094459847 0.0069194734
0.0010541313 0.094871819 0.0060711503
0.0021174049 0.095283225 0.0054649413
0.0031653522 0.09496057 0.005271703
0.0042591668 0.095831253 0.0050247908
0.0053285742 0.095914342 0.0052032173
0.0063469703 0.095204562 0.0052475929
0.0074190847 0.095388234 0.005430162
0.00847477 0.095341161 0.0056305826
0.0095828781 0.095828786 0.0055185556
0.01057746 0.095197149 0.0055164993
0.011618781 0.095062762 0.005666852
0.01269058 0.095179349 0.0056569576
0.013836768 0.095793016 0.0056893528
0.015003985 0.096454196 0.0058396459
0.015882593 0.095295563 0.0057516098
0.017063513 0.095982268 0.0056938231
0.018081727 0.095726788 0.0055626035
0.019021414 0.095107086 0.0054700971
0.020088376 0.09515547 0.0054074824
0.020773632 0.093481354 0.0055918396
0.022215137 0.095207736 0.0064772367
0.023164177 0.094762549 0.0062266588
0.024079986 0.094226032 0.0060765445
0.02512344 0.094212905 0.0055204332
0.025945269 0.093402974 0.005235523
-0.036722708 0.095479049 0.0059725046
-0.035747234 0.095676422 0.0073795915
-0.034602966 0.095420301 0.0077553689
-0.033539966 0.095379278 0.0081885159
-0.032786444 0.096244074 0.00890553
-0.031795017 0.096444882 0.0087483823
-0.030888459 0.096925855 0.0080092549
-0.029517775 0.095932774 0.0076443553
-0.028609164 0.096423477 0.0076080859
-0.02728853 0.095509857 0.0073679686
-0.026555983 0.096663781 0.0070533454
-0.025449008 0.096494161 0.0070178211
-0.024322394 0.096232079 0.0067131817
-0.023354206 0.096601494 0.006401062
-0.022157082 0.09601403 0.0063172877
-0.021281516 0.096830904 0.0065963864
-0.020266045 0.09706369 0.0064382851
-0.019043276 0.096274354 0.0064458549
-0.018091206 0.096841156 0.0066135526
-0.016924119 0.096255921 0.006605655
-0.015694028 0.095210433 0.0066156387
-0.015004242 0.097527578 0.0067734122
-0.013696456 0.095875196 0.0069693625
-0.012588194 0.095460474 0.0071117282
-0.01154062 0.095472403 0.0072712004
-0.010585444 0.096327543 0.0078987777
-0.0095145982 0.096203163 0.0078836083
-0.0085363155 0.097100593 0.0079507828
-0.0074504665 0.096856073 0.0080393851
-0.0062822043 0.095280103 0.0080261827
-0.0052677426 0.095872924 0.0080222487
-0.0042461739 0.096600458 0.0078836083
-0.0031500941 0.095552854 0.0073952079
-0.0021356484 0.097172 0.0070714951
-0.0010599855 0.096458681 0.0068021119
0 0.09745992 0.0064821541
0.001064742 0.096891522 0.0058725774
0.0021288705 0.096863613 0.0055912137
0.0031978956 0.097002842 0.0052411258
0.0041950438 0.095437251 0.0054048598
0.0052264235 0.095120914 0.0057158768
0.0063749463 0.096686691 0.0056599379
0.0074230023 0.096499033 0.0056037605
0.0084459595 0.096072793 0.0056861937
0.0096456679 0.097528428 0.0056856573
0.010614569 0.096592583 0.0056037605
0.011660916 0.096467577 0.0056876242
0.012774331 0.096872017 0.0057162046
0.013762895 0.096340269 0.0058686733
0.014801257 0.096208178 0.0058937371
0.015820585 0.095978223 0.0056313872
0.016661759 0.094763756 0.0056313872
0.018005366 0.096381664 0.0056718588
0.019265667 0.097398654 0.005356133
0.020157712 0.096544832 0.0055747628
0.021234008 0.096614741 0.0061433911
0.022453858 0.097300053 0.0067728162
0.023065543 0.095407479 0.0067599416
0.024366084 0.096404947 0.0065168142
0.02521681 0.095613748 0.0058063865
0.026001096 0.094643988 0.0054577291
-0.037773497 0.096532278 0.0052823126
-0.036659386 0.096361816 0.006739676
-0.035846744 0.096997067 0.0077885985
-0.034822758 0.097081631 0.0089184344
-0.033580624 0.096544288 0.0091990232
-0.03267872 0.09698201 0.0098082423
-0.031552032 0.096759558 0.0097740889
-0.030515926 0.096809141 0.0091826916
-0.029395571 0.096585453 0.0088555515
-0.028284697 0.096377485 0.0088715553
-0.027096439 0.095879711 0.0081217587
-0.026347354 0.096958265 0.0078418553
-0.025378279 0.097283408 0.0077828467
-0.02435562 0.097422481 0.0076795816
-0.02339508 0.097833976 0.0071947575
-0.022158785 0.09707658 0.0071883202
-0.021210626 0.097568884 0.0070849657
-0.020264082 0.098120816 0.0068711638
-0.019068215 0.097459778 0.0069267452
-0.018029917 0.097573668 0.0070463121
-0.016823731 0.096736461 0.0070255995
-0.015969666 0.097947285 0.0069711208
-0.014760799 0.096999541 0.0071977079
-0.013682845 0.096832447 0.0072197914
-0.01273247 0.097615615 0.0071744025
-0.011705552 0.097900987 0.0071616769
-0.01060643 0.097579159 0.0075907707
-0.0095987245 0.098120302 0.0076781213
-0.008506489 0.097824618 0.0078218281
-0.0073790429 0.096981712 0.0078619123
-0.0064142644 0.09835206 0.0076256096
-0.0053379675 0.098218605 0.0076452196
-0.0042315079 0.097324684 0.007447958
-0.0031701315 0.097217366 0.0069452226
-0.0021133332 0.097213335 0.0067187846
-0.0010579834 0.097334474 0.0065450668
0 0.097165287 0.0060854554
0.0010638664 0.097875707 0.0056673884
0.0021248616 0.09774363 0.0055914819
0.0032328817 0.099141702 0.0053035915
0.0042374497 0.09746135 0.0055457652
0.005324895 0.09797807 0.0057653785
0.0063354769 0.097143985 0.0057822466
0.0073490976 0.096588142 0.0056687593
0.0084817726 0.097540386 0.0059183538
0.0095431171 0.097551867 0.0058306158
0.010567222 0.097218446 0.0057803392
0.01159643 0.096988328 0.0059927702
0.012770961 0.09791071 0.0060410202
0.013812562 0.097750448 0.0059971809
0.014890506 0.097851895 0.0060713589
0.016024893 0.098286018 0.005789727
0.017010894 0.097812645 0.0057676733
0.018002665 0.097426184 0.0056886971
0.018857701 0.09638381 0.0055445731
0.02011295 0.09738902 0.0060305595
0.021260483 0.097798228 0.0064091384
0.022182463 0.097180314 0.0073534846
0.023355916 0.097670197 0.0075033009
0.024432037 0.097728148 0.0066156685
0.025667299 0.098391317 0.0061964691
0.026507502 0.097547606 0.0055730939
-0.037827477 0.097720988 0.0059301853
-0.036745045 0.097636841 0.0074667037
-0.035503212 0.097111724 0.0090963244
-0.034747116 0.097923696 0.0098214447
-0.033268619 0.096686922 0.0099641383
-0.032708626 0.098125875 0.010240257
-0.031485055 0.097603671 0.010247082
-0.030348076 0.097323135 0.010240257
-0.02924845 0.097146638 0.0099376738
-0.028390855 0.097790726 0.0099281073
-0.027311254 0.097690254 0.009346962
-0.026233656 0.097589202 0.0091595948
-0.025422744 0.098513134 0.0091396272
-0.024158178 0.097683065 0.0087377131
-0.022990858 0.097188637 0.0080789924
-0.02215787 0.098127708 0.007818222
-0.021003257 0.097665153 0.0076837242
-0.019979073 0.097792298 0.0075255632
-0.019127196 0.098823845 0.0073776841
-0.018010961 0.098530553 0.0073068738
-0.016975937 0.098672636 0.0073074698
-0.015862096 0.098344997 0.0072597563
-0.014807556 0.09836448 0.0072236061
-0.013718561 0.098140478 0.0072100759
-0.012755411 0.098854437 0.0072449446
-0.011590725 0.09799432 0.0070790946
-0.010646332 0.0990109 0.0074321926
-0.0095389532 0.098569185 0.0072236061
-0.0084191654 0.097872801 0.0072712004
-0.0074032624 0.098357633 0.0075419843
-0.0063409093 0.098284096 0.0075760782
-0.0052967346 0.098519273 0.0073965788
-0.004257693 0.098991364 0.0069504082
-0.003188347 0.098838761 0.0067187846
-0.0021251212 0.098818138 0.0065615177
-0.0010633421 0.098890819 0.0064048171
0 0.098449245 0.0060593486
0.001064233 0.098973669 0.0060683787
0.0021222704 0.098685578 0.0059152842
0.0032047385 0.099346898 0.0058639348
0.0041997298 0.097643718 0.0059250593
0.0052783247 0.098176844 0.0061026216
0.0063287951 0.098096326 0.0064448118
0.0073949485 0.098247178 0.0062325001
0.0084989732 0.098800562 0.0063220859
0.0094881849 0.098044589 0.0064758062
0.010571521 0.09831515 0.0061075091
0.011501907 0.097243398 0.0063220859
0.012714805 0.09853974 0.0062325001
0.013785699 0.098620772 0.0061221719
0.014700358 0.097652376 0.0060012937
0.015887024 0.098499551 0.0058033168
0.016881933 0.09812624 0.0059740245
0.017965566 0.098282211 0.005826503
0.01914642 0.098923177 0.0058024228
0.020100811 0.098388188 0.0063589513
0.021168172 0.098432004 0.0069539249
0.022071924 0.097747095 0.0076287985
0.023112198 0.097701572 0.0074020326
0.024042251 0.097214311 0.0072417259
0.025207877 0.097680524 0.0065669417
0.026014313 0.096773244 0.0062561631
-0.037857771 0.098850854 0.0071607232
-0.036664806 0.098471195 0.0088647008
-0.035642572 0.098541223 0.0096208751
-0.034726042 0.098916613 0.009973526
-0.033106379 0.097249992 0.010354698
-0.032364 0.098135993 0.010637134
-0.031696815 0.099316694 0.010583222
-0.03030559 0.098231912 0.010686904
-0.029099666 0.09769173 0.010488838
-0.02875901 0.10012396 0.010478526
-0.027063608 0.097845353 0.010166913
-0.026154004 0.098339051 0.010039151
-0.025185429 0.09864293 0.0098903477
-0.02420754 0.098935165 0.0097890198
-0.023078568 0.098608427 0.0094137192
-0.022150608 0.099150337 0.0092734993
-0.021110229 0.099218078 0.0086960196
-0.019999573 0.098945253 0.008548528
-0.018999204 0.099218063 0.0082671344
-0.01782557 0.098564915 0.0081795156
-0.0169675 0.09968406 0.0078611374
-0.015831966 0.099213652 0.0078611374
-0.014657342 0.098413579 0.0079026222
-0.013828975 0.09999413 0.0077286661
-0.012589576 0.098618343 0.0076378882
-0.01174096 0.10033185 0.0075377822
-0.010625009 0.099875093 0.0077245533
-0.009404419 0.098223932 0.0075684786
-0.0084743267 0.099573337 0.0074748397
-0.0074103787 0.099510804 0.0075419843
-0.0063260016 0.099107362 0.0075760782
-0.0053193234 0.10000328 0.0072149634
-0.0042187716 0.099141136 0.0072054267
-0.0031554189 0.098869793 0.0068897605
-0.0021251312 0.099881165 0.0066528618
-0.0010590135 0.099547274 0.0068488717
0 0.10046265 0.0061585009
0.0010672644 0.10032285 0.0064189136
0.002123944 0.099825367 0.0065434873
0.0032083059 0.10052692 0.0065185726
0.0042377654 0.099587485 0.0066945553
0.0052703558 0.099082693 0.0066117644
0.0063495054 0.099475585 0.0067141056
0.0073322742 0.098461971 0.0066117644
0.0084444154 0.099221878 0.0067881942
0.0095032277 0.099255934 0.0067263544
0.010585251 0.099501371 0.0065395832
0.011628042 0.099366903 0.0067219436
0.012808871 0.10033616 0.0067539215
0.013723311 0.099230096 0.0065947771
0.014858332 0.099763088 0.0065464079
0.015913825 0.099726647 0.0062591136
0.016607821 0.097570941 0.0063641071
0.017855817 0.098732166 0.0064573586
0.01888819 0.098638333 0.0063746274
0.01994662 0.098683283 0.0071482658
0.020975051 0.098582745 0.0073712766
0.022291282 0.099780023 0.0082525611
0.022969028 0.098140396 0.0079331994
0.024477437 0.10003822 0.0076158643
0.025526753 0.099979781 0.0072014928
0.026343601 0.099051937 0.0064665079
-0.037792083 0.099729113 0.0087288618
-0.03666928 0.099530898 0.0096330941
-0.03536547 0.098815277 0.0103001
-0.034232542 0.098548226 0.010687381
-0.033417303 0.099207617 0.011612892
-0.032322161 0.099051781 0.011935532
-0.031049045 0.098321974 0.011822551
-0.030299023 0.099255413 0.011920094
-0.029164676 0.098951578 0.011875838
-0.027931038 0.098275878 0.011722773
-0.027327163 0.099849254 0.0112876
-0.026204571 0.099577367 0.010719121
-0.024962446 0.098809682 0.010728866
-0.024264887 0.10022452 0.010326803
-0.023141289 0.099928297 0.010128736
-0.021896875 0.099057287 0.0099541843
-0.021136375 0.10039778 0.0097817779
-0.019954631 0.099773154 0.0096138418
-0.018886182 0.099677071 0.0090997815
-0.017900262 0.10003087 0.0093367994
-0.016727541 0.099319771 0.0088087022
-0.015816011 0.10016806 0.0084137022
-0.014981183 0.10165803 0.0084350109
-0.013699456 0.10011141 0.0080581307
-0.012652989 0.10016949 0.0079188943
-0.011630022 0.10044111 0.0076929927
-0.010398447 0.098785244 0.0076843798
-0.0095827896 0.10115167 0.0075603724
-0.0085502556 0.10153428 0.00750494
-0.0074394536 0.10096402 0.0073642135
-0.006348446 0.10051706 0.0073087513
-0.0053264336 0.10120223 0.0071415603
-0.004213565 0.10007216 0.0070093274
-0.0031945875 0.10116193 0.0066635013
-0.0021154 0.1004815 0.0065718591
-0.0010514208 0.099884979 0.0066307783
0 0.10061232 0.0065757036
0.0010549804 0.10022314 0.0067256689
0.0021247733 0.10092673 0.0067860186
0.0031837313 0.10081816 0.006853193
0.0042555653 0.10106967 0.0068851709
0.0052694851 0.10012022 0.0068449974
0.0064014778 0.10135673 0.006853193
0.00739461 0.10035542 0.0069212317
0.0084795533 0.1006947 0.0071092844
0.0094776303 0.10004166 0.0071817935
0.010620851 0.10089809 0.0069315135
0.011607191 0.10024392 0.0072171092
0.01264445 0.1001019 0.0071519017
0.013802749 0.10086624 0.0071140826
0.014925568 0.10128064 0.006793052
0.015885375 0.10060737 0.0067346692
0.016948538 0.10063194 0.0067630708
0.018368829 0.10264933 0.0072378814
0.018818971 0.099322349 0.0071550906
0.020003049 0.10001525 0.0075029135
0.020753585 0.098579533 0.008110255
0.022127055 0.10009857 0.0085763335
0.023013566 0.099376768 0.0083552599
0.023942009 0.098890901 0.0083321631
0.025087528 0.099304795 0.0074289143
0.026004715 0.098817915 0.0068556368
0.027103953 0.099033676 0.0053234696
-0.037381783 0.099684753 0.0087490082
-0.036400594 0.099841632 0.010062218
-0.035317514 0.099720031 0.010756075
-0.034336213 0.099887162 0.011988521
-0.033345588 0.10003676 0.012838393
-0.03204925 0.099249288 0.013175756
-0.031358033 0.1003457 0.01311931
-0.030403784 0.100647 0.013151079
-0.029328827 0.10055597 0.012774587
-0.028062303 0.099777073 0.012720734
-0.027062558 0.09992329 0.012180895
-0.026209064 0.1006428 0.012043893
-0.025046421 0.10018568 0.012007266
-0.024174983 0.10090427 0.011857182
-0.023078766 0.10070734 0.011128604
-0.021929311 0.10024828 0.010967851
-0.02082007 0.099936336 0.010355115
-0.019849988 0.10029467 0.010240644
-0.018894732 0.10077191 0.0098394156
-0.017930457 0.10125435 0.0097267032
-0.016750343 0.10050206 0.0096386075
-0.015807092 0.10116539 0.0096898973
-0.014664123 0.10055398 0.0097132027
-0.013549974 0.10006135 0.0091466308
-0.012660788 0.10128631 0.0084436834
-0.011594123 0.10118508 0.0081203282
-0.010570402 0.10147586 0.0078165829
-0.0094557451 0.10086128 0.0077495277
-0.0084439423 0.1013273 0.0076378882
-0.0073788175 0.10119521 0.0077054501
-0.0063338364 0.10134138 0.0073268414
-0.0053139413 0.10202767 0.0072625875
-0.0042484202 0.10196208 0.0071071088
-0.0031625461 0.10120147 0.0067952573
-0.0021086324 0.10121435 0.0065718591
-0.0010632193 0.10206905 0.0067630112
0 0.1012497 0.0067256689
0.0010565193 0.10142586 0.0069725215
0.0020939282 0.10050855 0.0073292851
0.0031680602 0.10137793 0.0073292851
0.0042107124 0.10105709 0.0072179735
0.0052848901 0.10146989 0.0075091422
0.0063025332 0.10084053 0.0073599219
0.007360558 0.10094479 0.0074513555
0.0084135905 0.10096308 0.0074660182
0.0095843188 0.10223273 0.0075659454
0.01064983 0.10223837 0.0074000955
0.011668449 0.10183374 0.0075588524
0.012639453 0.10111562 0.0074692369
0.013679403 0.10101713 0.0073843002
0.01483917 0.1017543 0.0072372258
0.0158382 0.10136448 0.0072868466
0.016759822 0.10055893 0.0072978437
0.017872045 0.10092449 0.0076053739
0.018847818 0.1005217 0.0075874329
0.020126823 0.10169341 0.0083747804
0.021106703 0.10131218 0.0084972382
0.022281224 0.10185702 0.0087804794
0.023093095 0.10076987 0.0085236728
0.023853648 0.099563055 0.0085346699
0.025268033 0.10107213 0.0076753795
0.026346665 0.10117119 0.0069116652
-0.037488155 0.10100976 0.0077596307
-0.03620021 0.1003263 0.0096424222
-0.035351742 0.10085644 0.010614067
-0.034160834 0.10041215 0.012014419
-0.033207595 0.10066053 0.012701601
-0.032315023 0.10111475 0.013208807
-0.031184232 0.10082901 0.013089269
-0.030148268 0.10084075 0.013129145
-0.029095335 0.10079455 0.012842536
-0.027939413 0.10037492 0.012720555
-0.02721788 0.10154363 0.012537062
-0.02618975 0.10161623 0.012060732
-0.025062017 0.10129231 0.012085944
-0.023989789 0.10117432 0.012039363
-0.022865174 0.10081463 0.011849582
-0.022047343 0.10183772 0.011338204
-0.020969227 0.10170075 0.010507733
-0.020107504 0.1026541 0.010314792
-0.018806195 0.1013445 0.010134786
-0.017837724 0.10177995 0.010017455
-0.016792921 0.10180708 0.0099433064
-0.015729701 0.10171873 0.0097616017
-0.014688942 0.10177338 0.0098592043
-0.013489904 0.10065544 0.0096226335
-0.012505024 0.10108227 0.0091353655
-0.011482613 0.10125577 0.0086779594
-0.010532985 0.10216996 0.0084324181
-0.0093799774 0.10109532 0.0080137253
-0.0084230183 0.10212909 0.0080017447
-0.0074011581 0.1025589 0.0079098046
-0.0063757333 0.10307436 0.0078561604
-0.0053283935 0.10337084 0.0078643262
-0.0042557176 0.10320114 0.0075904429
-0.0031685662 0.1024503 0.0074259937
-0.0021154899 0.10260126 0.0071472228
-0.0010604803 0.10286658 0.0072388649
0 0.1031198 0.0071796775
0.001055147 0.10234927 0.0073939562
