ply
format ascii 1.0
comment PCL generated
element vertex 1271
property float x
property float y
property float z
element camera 0
property float view_px
property float view_py
property float view_pz
property float x_axisx
property float x_axisy
property float x_axisz
property float y_axisx
property float y_axisy
property float y_axisz
property float z_axisx
property float z_axisy
property float z_axisz
property float focal
property float scalex
property float scaley
property float centerx
property float centery
property int viewportx
property int viewporty
property float k1
property float k2
end_header
-0.013396922 -0.014427455 0.019948125
-0.01234104 -0.014397881 0.019553214
-0.011536565 -0.014682901 0.019290239
-0.010297796 -0.014416914 0.01874122
-0.0093217511 -0.014500502 0.018265754
-0.0083887968 -0.014680394 0.017675847
-0.0072420179 -0.014484036 0.016634762
-0.006260341 -0.014607462 0.015921384
-0.0052058571 -0.0145764 0.016090453
-0.0041872268 -0.014655294 0.016507
-0.0031289717 -0.014601868 0.016342103
-0.0021039292 -0.014727504 0.016387671
-0.0010389948 -0.014545926 0.016883135
0 -0.014613369 0.017110229
0.0010528277 -0.014739587 0.017972648
0.002073948 -0.014517635 0.018349916
0.0031123359 -0.014524234 0.018689722
0.0041669966 -0.014584487 0.019209802
0.0051461421 -0.014409198 0.019929022
0.0061689438 -0.014394202 0.020236433
0.007213016 -0.014426032 0.020434886
0.0082610957 -0.014456918 0.020448565
0.0091956407 -0.01430433 0.020376772
0.010240532 -0.014336744 0.020413816
0.011266528 -0.014339217 0.019590974
0.012447757 -0.014522383 0.018464029
-0.022787936 -0.013465598 0.019122899
-0.021600388 -0.013371669 0.020605266
-0.020682769 -0.0134438 0.021053851
-0.019611692 -0.013418525 0.021382511
-0.018607939 -0.013439068 0.0213705
-0.017490169 -0.013374834 0.021488935
-0.016289599 -0.013235298 0.021312475
-0.015543374 -0.013470924 0.020930141
-0.014421487 -0.01339138 0.02052179
-0.013478027 -0.013478027 0.020005852
-0.012367665 -0.013398304 0.019464701
-0.011402841 -0.013476085 0.018853277
-0.010312065 -0.013405686 0.018275797
-0.0094064344 -0.013587072 0.017313391
-0.0083695175 -0.013600466 0.016064167
-0.0073023438 -0.013561496 0.015200436
-0.0062912148 -0.013630966 0.015139371
-0.0052239681 -0.013582317 0.015192896
-0.0041992799 -0.013647661 0.015335858
-0.0031588532 -0.013688364 0.015285403
-0.0020921619 -0.013599052 0.01579082
-0.0010468829 -0.013609479 0.016024321
0 -0.013537425 0.016392201
0.0010359741 -0.013467663 0.016896039
0.0020543775 -0.013353453 0.017799437
0.0031319777 -0.013571903 0.018507481
0.0041422397 -0.013462279 0.019044161
0.0051831389 -0.013476161 0.019803643
0.0062378342 -0.013515308 0.020207256
0.0071240505 -0.01323038 0.020460904
0.0082617914 -0.013425411 0.020489812
0.00922109 -0.013319354 0.020838827
0.010274902 -0.013357373 0.020994335
0.011286239 -0.013338283 0.020379007
0.012317226 -0.013343662 0.020191878
0.013375878 -0.013375878 0.017943293
-0.023693513 -0.012361833 0.016934901
-0.022649128 -0.01235407 0.019955069
-0.021783566 -0.012447752 0.021073371
-0.020746468 -0.012447881 0.021363795
-0.019572733 -0.012361726 0.021409124
-0.018491024 -0.01232735 0.021615952
-0.01743149 -0.012304581 0.021488935
-0.016486721 -0.01236504 0.021265745
-0.015606708 -0.012485366 0.020998299
-0.014475482 -0.012407555 0.020462751
-0.013490957 -0.012453192 0.019876212
-0.01243223 -0.01243223 0.018886983
-0.011527043 -0.012574956 0.01816228
-0.010356739 -0.012428087 0.017257661
-0.009436233 -0.012581644 0.015778661
-0.0083735837 -0.012560375 0.015189052
-0.007270494 -0.012463704 0.014678359
-0.0062759826 -0.012551965 0.014687568
-0.0052322978 -0.012557515 0.014362514
-0.0041893688 -0.012568107 0.014624774
-0.0031314909 -0.012525964 0.014986992
-0.0020892778 -0.012535666 0.014931053
-0.0010517796 -0.012621355 0.015038192
0 -0.012625782 0.015469879
0.0010431859 -0.012518231 0.016090453
0.0020769665 -0.012461798 0.017038465
0.0031196061 -0.012478424 0.018020391
0.0041218419 -0.012365526 0.018446445
0.0052073109 -0.012497547 0.01960966
0.0062244264 -0.012448853 0.020207256
0.007201816 -0.01234597 0.020483345
0.0082214866 -0.01233223 0.020861804
0.0092969406 -0.01239592 0.021293998
0.010350646 -0.012420776 0.021838307
0.011376252 -0.012410458 0.021234632
0.012322572 -0.012322572 0.021074563
0.013329408 -0.012304069 0.020236433
0.014409819 -0.012351274 0.014630616
-0.024856161 -0.011392407 0.0073980093
-0.023646226 -0.011309064 0.019457668
-0.022662802 -0.011331401 0.020583868
-0.021544818 -0.01128538 0.021251172
-0.020656638 -0.011361151 0.021416545
-0.019306917 -0.011177688 0.021618694
-0.018447412 -0.011273419 0.021985203
-0.017468972 -0.011303453 0.021872997
-0.016555142 -0.01138166 0.021220237
-0.015403171 -0.011295659 0.0206213
-0.014563507 -0.011442756 0.020069867
-0.013405601 -0.011343201 0.018962651
-0.012634175 -0.011581327 0.018293619
-0.011439401 -0.011439401 0.017234743
-0.010381856 -0.011420042 0.015496165
-0.0093804216 -0.01146496 0.014735788
-0.0084239114 -0.011582877 0.014145374
-0.0073277545 -0.011515043 0.014001995
-0.0063254335 -0.011596628 0.0132339
-0.0053055068 -0.011672115 0.012774736
-0.0041986904 -0.011546399 0.012814671
-0.0031929712 -0.011707561 0.012953758
-0.0021129553 -0.011621254 0.012972414
-0.0010541714 -0.011595884 0.013763279
0 -0.011449086 0.014697254
0.001041798 -0.011459778 0.015064508
0.0020648034 -0.011356418 0.016047031
0.003162069 -0.011594254 0.016786397
0.0041526128 -0.011419685 0.017902821
0.005177821 -0.011391207 0.019053549
0.0062241419 -0.011410926 0.019956291
0.0072761355 -0.011433926 0.020344228
0.0082259774 -0.011310718 0.021125466
0.0092191817 -0.011267889 0.021648943
0.010275223 -0.011302745 0.021780193
0.011292621 -0.011292621 0.021648943
0.01239145 -0.011358829 0.021207452
0.013324028 -0.011274177 0.020752281
0.014339217 -0.011266528 0.019631803
0.015463471 -0.011339879 0.0071282089
-0.024806675 -0.010336115 0.016195267
-0.023651969 -0.010283464 0.020085096
-0.022577247 -0.010262385 0.021051973
-0.021387713 -0.010184625 0.021459132
-0.020655556 -0.010327778 0.022162974
-0.019416925 -0.010219434 0.022310585
-0.018550556 -0.010305865 0.022261798
-0.017409032 -0.010240607 0.021989256
-0.016537709 -0.010336068 0.021296114
-0.015555855 -0.010370569 0.02066654
-0.01447491 -0.010339221 0.019609749
-0.013491224 -0.010377864 0.018648386
-0.012450022 -0.010375018 0.017731875
-0.011523934 -0.010476303 0.015656769
-0.010552553 -0.010552553 0.014735788
-0.0094704367 -0.010522707 0.014005899
-0.008427389 -0.010534236 0.013396591
-0.0073836967 -0.010548138 0.012398779
-0.0063404762 -0.01056746 0.012123495
-0.0052808644 -0.010561729 0.012023956
-0.0042711347 -0.010677836 0.012072682
-0.0032012269 -0.010670756 0.012123495
-0.0020951729 -0.010475864 0.012325972
-0.0010547891 -0.010547889 0.01257062
0 -0.010421744 0.013175666
0.0010539356 -0.010539356 0.01461181
0.0021040724 -0.010520361 0.015264094
0.0031158291 -0.010386096 0.016519487
0.0041992096 -0.010498024 0.017724663
0.0052327123 -0.010465425 0.018489689
0.0062073618 -0.010345603 0.019538254
0.0072441888 -0.010348841 0.020162702
0.0082703969 -0.010337995 0.020761728
0.0092757298 -0.010306367 0.021639496
0.010270412 -0.010270412 0.021787584
0.01123974 -0.010217945 0.021709591
0.012303792 -0.01025316 0.021653295
0.013276588 -0.010212759 0.021024585
0.014429707 -0.010306933 0.020158827
0.015311896 -0.010207931 0.010310262
-0.025006758 -0.0093775345 0.018459767
-0.023749953 -0.0092934594 0.020652831
-0.022672322 -0.0092750406 0.021385252
-0.021525769 -0.0092253285 0.021618873
-0.02058615 -0.0092637679 0.022134572
-0.019362543 -0.0091717299 0.022194296
-0.018588925 -0.0092944624 0.022144109
-0.017653381 -0.0093459077 0.021846443
-0.01671119 -0.0094000446 0.02074632
-0.015456263 -0.0092737572 0.020124048
-0.014414357 -0.0092663718 0.019138336
-0.013532419 -0.0093685966 0.018381089
-0.012459534 -0.0093446504 0.016227514
-0.011539364 -0.0094412975 0.014743686
-0.010444093 -0.0093996841 0.014119864
-0.0095011666 -0.0095011666 0.012420535
-0.0084971264 -0.0095592663 0.01149416
-0.0074340533 -0.0095580686 0.010171235
-0.0063708415 -0.0095562618 0.0095725358
-0.0053073885 -0.0095532993 0.0094682872
-0.0042779716 -0.0096254358 0.009716481
-0.0032021482 -0.0096064452 0.0096809566
-0.0021099274 -0.0094946725 0.01103431
-0.0010680191 -0.009612171 0.011418372
0 -0.0095085073 0.012089431
0.0010444884 -0.0094003957 0.012831897
0.002086519 -0.0093893353 0.014233351
0.0031719736 -0.0095159207 0.015610784
0.0041850731 -0.0094164144 0.01701653
0.0052610622 -0.0094699115 0.018108487
0.0062282104 -0.0093423156 0.019029617
0.0071878727 -0.0092415502 0.020019233
0.0083089191 -0.0093475338 0.020379901
0.0092389816 -0.0092389816 0.021719098
0.01029296 -0.0092636636 0.022190452
0.011208902 -0.0091709197 0.022080928
0.012169982 -0.0091274865 0.021746933
0.013185495 -0.0091284188 0.021391332
0.014329918 -0.0092120897 0.021219641
0.015422454 -0.0092534721 0.018008173
0.017189711 -0.0096692126 0.0056164563
-0.026808193 -0.0085786218 0.0062777102
-0.024786085 -0.008262028 0.019304931
-0.023706414 -0.0082457094 0.02114749
-0.022661468 -0.008240534 0.021551192
-0.021445086 -0.008169556 0.022143453
-0.020532442 -0.008212978 0.022204846
-0.01934737 -0.0081462609 0.022211701
-0.018424381 -0.0081886137 0.022184998
-0.01759633 -0.0082806265 0.021444201
-0.016463544 -0.0082317721 0.020636827
-0.015530188 -0.0082827667 0.019482315
-0.014570362 -0.0083259214 0.018902808
-0.013598089 -0.0083680553 0.017372638
-0.012585968 -0.0083906455 0.014880538
-0.011589581 -0.0084287859 0.014283627
-0.010483043 -0.008386435 0.011894077
-0.0095548788 -0.008493226 0.0090379417
-0.0085848598 -0.0085848598 0.0084559321
-0.0074173808 -0.008477007 0.0070642829
-0.0064476198 -0.0085968263 0.0066242218
-0.0053771632 -0.0086034611 0.0062419176
-0.0042999005 -0.008599801 0.006262213
-0.0032286537 -0.0086097429 0.0068139434
-0.0021457635 -0.0085830539 0.0071154833
-0.0010574681 -0.008459745 0.0091660917
0 -0.0084485542 0.010621786
0.001060943 -0.008487544 0.011700451
0.00210248 -0.0084099201 0.012738377
0.003162815 -0.0084341737 0.014427274
0.0041891965 -0.008378393 0.01597923
0.0051653315 -0.0082645305 0.017750531
0.0062727961 -0.0083637284 0.018778652
0.0072424426 -0.0082770772 0.019640595
0.0082620615 -0.0082620615 0.02033776
0.0092641562 -0.0082348054 0.021780193
0.01016857 -0.0081348568 0.022486299
0.011265134 -0.0081928251 0.022335917
0.012270807 -0.0081805382 0.022279412
0.013291543 -0.0081794113 0.021555811
0.014298266 -0.008170438 0.021512508
0.015387633 -0.0082067372 0.019356102
0.01714579 -0.0085728951 0.0073547363
-0.026730344 -0.0074844956 0.0065210164
-0.024796007 -0.0072321687 0.019998401
-0.023759319 -0.0072310967 0.021380752
-0.022635741 -0.0072022816 0.022321135
-0.021455038 -0.0071516791 0.02248767
-0.020778181 -0.0072723636 0.022494227
-0.019306621 -0.007112965 0.02246967
-0.018677387 -0.007263429 0.022371382
-0.017632362 -0.0072603836 0.021867961
-0.016478933 -0.0072095334 0.020290583
-0.015510811 -0.0072383783 0.019119352
-0.014669139 -0.0073345695 0.017899752
-0.013586053 -0.0073155668 0.015171945
-0.012470284 -0.0072743329 0.014053375
-0.011690681 -0.0074395239 0.011879116
-0.010685879 -0.0074801156 0.008836925
-0.0098482557 -0.0076597543 0.0059619546
0 -0.0075178728 0.0064766407
0.0010605049 -0.007423535 0.0091946423
0.0021255016 -0.0074392557 0.01119563
0.0031459543 -0.0073405602 0.012463123
0.0041325749 -0.0072320062 0.014345676
0.0052039791 -0.0072855712 0.016847014
0.0062273699 -0.0072652651 0.018203586
0.007161709 -0.007161709 0.019471228
0.0082014939 -0.0071763075 0.020176202
0.0092470357 -0.007192139 0.021724671
0.010289722 -0.0072028055 0.022569656
0.011240859 -0.007153274 0.022419274
0.012295512 -0.0071723824 0.022362769
0.013260482 -0.0071402593 0.022029012
0.014414944 -0.0072074719 0.021532416
0.015514466 -0.007240084 0.020026863
0.017019881 -0.0074461983 0.0076650977
-0.026682744 -0.0064038583 0.0065768957
-0.024861276 -0.006215319 0.021136314
-0.023658084 -0.0061716735 0.022210956
-0.022487998 -0.0061330902 0.022904456
-0.021358734 -0.0061024949 0.023057282
-0.02057199 -0.0061715967 0.023068756
-0.019464768 -0.006146769 0.022957772
-0.018617846 -0.006205949 0.022657603
-0.01752745 -0.0061861589 0.021948874
-0.016600469 -0.0062251757 0.020452946
-0.015813023 -0.006325209 0.019056529
-0.014533248 -0.0062285345 0.017109752
-0.013657107 -0.0063032801 0.014433026
-0.012764772 -0.0063823862 0.011879086
-0.011941886 -0.0065137558 0.0085930824
0.0021485118 -0.0064455355 0.0084051192
0.0031729683 -0.0063459366 0.011182815
0.0042300443 -0.0063450662 0.012604475
0.0052352822 -0.0062823389 0.015305072
0.0062027504 -0.0062027504 0.017859399
0.0073395139 -0.0062910118 0.01934123
0.0082618091 -0.0061963568 0.020126164
0.0092627713 -0.0061751809 0.021839321
0.010263931 -0.0061583584 0.022661
0.011169582 -0.006092499 0.022591859
0.012304056 -0.0061520278 0.022591859
0.013310926 -0.0061435043 0.022304833
0.014346432 -0.006148471 0.022261232
0.015334145 -0.0061336579 0.021265775
0.016950393 -0.0063563972 0.0077427924
-0.026738426 -0.005347685 0.0073587596
-0.024574377 -0.0051196618 0.021173179
-0.023476891 -0.0051036719 0.022272348
-0.022519574 -0.0051180846 0.023098439
-0.021437461 -0.0051041571 0.023172766
-0.020400969 -0.0051002423 0.023172766
-0.019331207 -0.0050871596 0.023098439
-0.018522004 -0.0051450008 0.02276215
-0.017629538 -0.005185158 0.022079498
-0.01661176 -0.0051911753 0.020219952
-0.015649058 -0.0052163526 0.018944561
-0.014661707 -0.0052363239 0.015728325
-0.014072689 -0.005412573 0.012578905
-0.013024098 -0.0054267072 0.0083319247
0.0032603242 -0.0054338737 0.0089944899
0.0042194594 -0.0052743242 0.011184841
0.0052016261 -0.0052016261 0.013989657
0.006201135 -0.0051676123 0.016990542
0.0072296695 -0.0051640496 0.019341469
0.0082859881 -0.0051787426 0.020150453
0.0093091726 -0.0051717628 0.021916538
0.010228322 -0.0051141609 0.022772878
0.011139126 -0.005063239 0.022711784
0.012310329 -0.0051293033 0.022648215
0.013360499 -0.0051386538 0.022509038
0.014375076 -0.0051339553 0.022448838
0.015404128 -0.0051347092 0.021640331
0.017081592 -0.0053379973 0.0089292228
-0.026512492 -0.0042419988 0.008469075
-0.024756193 -0.0041260323 0.021174103
-0.02353075 -0.0040923045 0.022744983
-0.022409039 -0.0040743705 0.023321599
-0.021370295 -0.0040705325 0.023443252
-0.020506285 -0.0041012573 0.023482531
-0.019425482 -0.0040895753 0.023393452
-0.018449066 -0.0040997928 0.022907943
-0.017530615 -0.0041248505 0.022323102
-0.016564462 -0.0041411156 0.020175457
-0.015706163 -0.0041883099 0.017721355
-0.014888189 -0.0042537684 0.014626622
-0.014133294 -0.004348706 0.0085011423
0.0043468825 -0.0043468825 0.0088984668
0.0052920049 -0.0042336038 0.012215465
0.0062993416 -0.0041995612 0.015325218
0.0072486494 -0.0041420856 0.018986791
0.0082447678 -0.0041223839 0.020188808
0.0092200106 -0.0040977825 0.022413135
0.010365145 -0.0041460581 0.022904426
0.011216539 -0.0040787417 0.022924662
0.012233153 -0.0040777177 0.022867888
0.013231741 -0.004071305 0.022734165
0.014372067 -0.0041063051 0.022648215
0.015313166 -0.004083511 0.022053242
0.016819855 -0.0042049638 0.0090295374
-0.02615707 -0.0031388481 0.010113925
-0.02479033 -0.0030987912 0.021277279
-0.023625068 -0.0030815306 0.023236424
-0.022455066 -0.0030620545 0.023835123
-0.021554893 -0.0030792702 0.023908168
-0.020224167 -0.003033625 0.023908168
-0.01949071 -0.0030774802 0.023850024
-0.018450566 -0.0030750942 0.023214757
-0.017450219 -0.0030794505 0.02235198
-0.016536554 -0.0031006041 0.019872338
-0.015728442 -0.0031456882 0.015931606
-0.014935435 -0.0032004502 0.011818439
0.0053997305 -0.0032398384 0.0099714994
0.0063163065 -0.0031581533 0.014200956
0.0072522219 -0.0031080951 0.019029975
0.0082761608 -0.0031035603 0.02033776
0.0092119826 -0.0030706609 0.02259922
0.010271502 -0.0030814505 0.023471922
0.011184603 -0.0030503462 0.023523331
0.012191001 -0.0030477503 0.023471922
0.01322807 -0.0030526316 0.023209214
0.014211143 -0.0030452448 0.02296859
0.015344575 -0.0030689149 0.022511631
0.01700641 -0.0031887018 0.0095588565
-0.026731046 -0.0021384836 0.010946065
-0.024640257 -0.0020533549 0.021760732
-0.023484027 -0.0020420894 0.023579806
-0.022464791 -0.0020422537 0.023985177
-0.021264961 -0.0020252343 0.024209201
-0.020317048 -0.0020317049 0.024257869
-0.019532671 -0.0020560708 0.02420482
-0.018493613 -0.0020548461 0.023782521
-0.017371783 -0.0020437392 0.022569865
-0.016715204 -0.0020894005 0.019973129
-0.016201215 -0.002160162 0.015794128
-0.015256443 -0.0021794918 0.0067517757
0.0053946325 -0.0021578532 0.0059464872
0.0063829822 -0.0021276607 0.013704777
0.0072681257 -0.0020766074 0.018939108
0.008258732 -0.002064683 0.0204916
0.0092022503 -0.0020449446 0.02286002
0.010268005 -0.002053601 0.023734748
0.011085548 -0.0020155541 0.023761839
0.012243119 -0.0020405198 0.023709059
0.013307502 -0.002047308 0.023471385
0.014306061 -0.0020437229 0.02302742
0.015335675 -0.0020447567 0.022458583
0.016967684 -0.0021209605 0.0094355345
0.018166117 -0.0021371902 0.005474031
-0.026460484 -0.0010584194 0.013684541
-0.024643408 -0.0010268087 0.023253888
-0.023600457 -0.0010261068 0.024025321
-0.02258555 -0.001026616 0.024228215
-0.02140582 -0.0010193248 0.024546355
-0.020385444 -0.0010192723 0.024595022
-0.01932108 -0.001016899 0.024541974
-0.018370984 -0.0010206103 0.024259657
-0.017439263 -0.001025839 0.023344576
-0.016509674 -0.0010318547 0.020644218
-0.016440831 -0.0010960554 0.014920622
0.0064880298 -0.0010813384 0.010132581
0.0073202583 -0.0010457512 0.018801391
0.0082724653 -0.0010340582 0.020568818
0.0092423875 -0.001026932 0.022976637
0.010191295 -0.0010191295 0.024122447
0.01119561 -0.0010177827 0.024171203
0.012190575 -0.0010158813 0.024122447
0.013313173 -0.0010240902 0.023958892
0.014160309 -0.0010114507 0.023682564
0.015324851 -0.0010216568 0.022512794
0.0169269 -0.0010579312 0.0094434917
0.018156966 -0.0010680568 0.005494982
-0.026157802 0 0.015311539
-0.024609886 0 0.023744524
-0.02339611 0 0.024298787
-0.022281568 0 0.024546355
-0.021324048 0 0.025112122
-0.020281978 0 0.025247037
-0.019152187 0 0.025198579
-0.018542087 0 0.024767607
-0.017327467 0 0.023964077
-0.016469756 0 0.021778226
-0.016228838 0 0.01490584
0.0064430553 0 0.0097766221
0.0073347911 0 0.018939108
0.0082602995 0 0.021267056
0.0091732871 0 0.023828864
0.010198032 0 0.024655759
0.011089039 0 0.024707168
0.012195732 0 0.024632692
0.013210219 0 0.024557143
0.014251638 0 0.024175972
0.015270059 0 0.02260223
0.016778776 0 0.010049134
0.018202592 0 0.0056576133
-0.026189672 0.0010475868 0.015189141
-0.02457183 0.0010238263 0.023587614
-0.023414241 0.0010180104 0.024149001
-0.022381956 0.0010173616 0.024373502
-0.021430116 0.0010204817 0.025167137
-0.020508461 0.0010254231 0.025356293
-0.019422917 0.0010222588 0.025403321
-0.01833809 0.0010187828 0.025182724
-0.017479654 0.0010282149 0.023814201
-0.016223073 0.0010139421 0.022612393
-0.016402442 0.0010934962 0.014924467
0.0064305975 0.0010717663 0.007681936
0.0075020595 0.0010717228 0.01962018
0.0082246708 0.0010280838 0.02286002
0.0092862779 0.0010318088 0.024879158
0.010174228 0.0010174228 0.025418729
0.011066209 0.001006019 0.025455385
0.012182529 0.0010152108 0.025307417
0.013268013 0.0010206164 0.025025189
0.014268657 0.0010191898 0.024781257
0.015344958 0.0010229972 0.023885489
0.016993187 0.0010620742 0.010049134
0.01825846 0.001074027 0.0058729053
-0.026291359 0.0021033087 0.015157968
-0.024464963 0.0020387471 0.0234119
-0.02340422 0.0020351496 0.023983091
-0.022444699 0.0020404272 0.024717331
-0.02129565 0.0020281572 0.025442779
-0.020440063 0.0020440065 0.025598437
-0.019347517 0.0020365808 0.025936693
-0.018233757 0.0020259731 0.02585125
-0.017515738 0.0020606751 0.025060266
-0.01605038 0.0020062975 0.02347967
-0.015996484 0.0021328644 0.020086199
0.0065227207 0.0021742403 0.010040343
0.0074059679 0.002115991 0.020428032
0.0081919171 0.0020479793 0.024196923
0.0091907289 0.0020423844 0.025561303
0.010105861 0.0020211723 0.025989383
0.011135833 0.0020246971 0.026108593
0.012210208 0.0020350346 0.025743961
0.013222731 0.0020342662 0.025326878
0.01426767 0.0020382386 0.024975032
0.01533202 0.0020442693 0.024346888
0.016559234 0.0020699042 0.010341585
0.018296609 0.0021525421 0.006095916
-0.025909085 0.00310909 0.015065342
-0.024622345 0.0030777932 0.023279041
-0.023553664 0.0030722169 0.024298787
-0.022151021 0.0030205939 0.025178105
-0.021571515 0.0030816449 0.025721639
-0.02043 0.0030645002 0.026088238
-0.019442108 0.0030698061 0.026435375
-0.018170977 0.0030284964 0.026346296
-0.017439863 0.003077623 0.025860339
-0.016243139 0.0030455885 0.024736464
-0.015533767 0.0031067533 0.02222234
-0.015037808 0.0032223875 0.0075890124
0.005339676 0.0032038058 0.0059629083
0.0066349208 0.0033174604 0.019447178
0.0072133876 0.0030914517 0.023043543
0.0082108099 0.0030790537 0.025561303
0.0090945764 0.0030315255 0.026109695
0.010117285 0.0030351856 0.026608676
0.01103375 0.0030092045 0.026290774
0.012111283 0.0030278207 0.02602604
0.013289865 0.003066892 0.025780618
0.014192374 0.0030412232 0.025155962
0.015233986 0.0030467971 0.024594933
0.017104864 0.003207162 0.010301948
0.018259039 0.0032221833 0.0058806241
-0.026183883 0.0041894214 0.013664126
-0.02462473 0.0041041216 0.022943377
-0.023406146 0.004070634 0.02414456
-0.022465291 0.0040845983 0.025006294
-0.021246264 0.0040469072 0.02585125
-0.020445388 0.0040890779 0.026561707
-0.019435897 0.0040917676 0.026604891
-0.018316401 0.0040703118 0.026760519
-0.017141229 0.0040332302 0.026204318
-0.01629932 0.0040748301 0.025307387
-0.015379884 0.0041013025 0.024035603
-0.015567251 0.0044477861 0.021196306
-0.014176866 0.0043621128 0.0060115457
0.0054831384 0.0043865112 0.010040343
0.0064456593 0.0042971065 0.022028118
0.0071654348 0.0040945341 0.025882393
0.008051645 0.0040258225 0.026812017
0.0090565234 0.0040251217 0.027174652
0.010085978 0.0040343911 0.027077079
0.011044236 0.0040160855 0.026933193
0.012196586 0.0040655285 0.026512265
0.013196091 0.0040603359 0.026050121
0.01424581 0.0040702312 0.025333107
0.015273866 0.0040730308 0.024606913
0.016793536 0.004198384 0.010301948
0.018287636 0.0043029734 0.0062301457
-0.026154246 0.0052308487 0.013217956
-0.024532018 0.0051108371 0.021841049
-0.023518892 0.0051128026 0.023758829
-0.022269117 0.0050611631 0.024823755
-0.021295534 0.005070365 0.02578634
-0.020508144 0.005127036 0.026350677
-0.019137966 0.0050363066 0.026723891
-0.018083459 0.0050231828 0.026825488
-0.017329223 0.00509683 0.026510358
-0.015921636 0.0049755108 0.02598694
-0.015254245 0.0050847484 0.025292844
-0.015001228 0.0053575812 0.024339199
-0.014258858 0.0054841759 0.019109309
0.0043862672 0.0054828338 0.0076162815
0.0056235115 0.0056235115 0.020979881
0.0062040612 0.005170051 0.025723815
0.0070406278 0.0050290199 0.027112424
0.0080236224 0.0050147637 0.027394772
0.0090540741 0.0050300411 0.027338654
0.010164932 0.0050824662 0.027356029
0.011180023 0.0050818282 0.027277589
0.012120917 0.0050503816 0.026888579
0.013217111 0.0050835041 0.026254594
0.01426503 0.0050946535 0.025455385
0.015323703 0.0051079011 0.024363667
0.016831079 0.0052597122 0.0098556876
0.018208422 0.0053554182 0.0062492192
-0.026171604 0.0062811845 0.0074186027
-0.024598366 0.0061495914 0.015390545
-0.023351489 0.0060916925 0.022962809
-0.022408979 0.0061115399 0.023951679
-0.021480199 0.0061371997 0.025143713
-0.020177405 0.0060532214 0.025944203
-0.019265747 0.0060839201 0.026557297
-0.018259346 0.0060864491 0.02670905
-0.017165015 0.0060582403 0.026492327
-0.016117981 0.006044243 0.026349962
-0.015111157 0.0060444623 0.025902271
-0.014151085 0.0060647507 0.025865763
-0.013600071 0.0062769558 0.025421202
-0.013554572 0.0067772861 0.018779844
-0.012110827 0.0066059055 0.0051572323
0.0033984855 0.006796971 0.0078351498
0.0043144207 0.0064716311 0.02109763
0.0051721847 0.0062066219 0.025693297
0.0059715831 0.0059715831 0.027371258
0.0070344121 0.006029496 0.027770668
0.0080813775 0.0060610333 0.027868748
0.0090696709 0.0060464479 0.027770668
0.010124356 0.0060746134 0.027606964
0.011157515 0.0060859169 0.027221978
0.012197287 0.0060986434 0.026835829
0.013162789 0.0060751336 0.025801271
0.014300368 0.0061287289 0.024951965
0.015221736 0.0060886946 0.019550622
0.016961114 0.0063604182 0.0093558431
0.018040041 0.0063670729 0.0062125921
-0.026272465 0.0073562898 0.0056077838
-0.024679162 0.0071980888 0.011058658
-0.023690721 0.0072102197 0.019370914
-0.022576816 0.0071835327 0.023428679
-0.021272207 0.0070907357 0.024738729
-0.020131528 0.007046035 0.02560252
-0.01934596 0.0071274587 0.026200324
-0.018197216 0.0070766951 0.026603371
-0.016962398 0.0069845165 0.027038306
-0.016322011 0.0071408795 0.027091861
-0.014815369 0.0069138389 0.027011007
-0.014176101 0.0070880507 0.026963264
-0.013111558 0.0070600696 0.026767939
-0.012432991 0.0072525777 0.025466442
-0.012480384 0.0079420619 0.019109309
-0.01146966 0.0080287624 0.0068635643
0.0011286042 0.0079002287 0.0052704513
0.0022710874 0.0079488056 0.0088181496
0.0031834475 0.007428044 0.022842944
0.0040979479 0.0071714087 0.026247919
0.0049918331 0.0069885664 0.027392656
0.0059936517 0.0069925939 0.028353512
0.0070733828 0.0070733828 0.028725892
0.0081371265 0.0071199858 0.028748512
0.009097279 0.0070756623 0.028191686
0.010194644 0.0071362513 0.02761206
0.011112147 0.0070713661 0.027245462
0.012184361 0.0071075438 0.026651561
0.013270779 0.0071458039 0.025255412
0.014312582 0.007156291 0.024136245
0.015315246 0.0071471147 0.013693064
0.016860034 0.0073762648 0.0090044737
0.01836963 0.0075639654 0.0063674748
-0.024726205 0.0082420679 0.0090612769
-0.023581829 0.0082023749 0.01493758
-0.022621293 0.0082259253 0.021994233
-0.021579325 0.008220695 0.023286164
-0.020229224 0.00809169 0.024773359
-0.01917382 0.0080731874 0.025764406
-0.018278582 0.0081238141 0.026137054
-0.017170763 0.0080803595 0.026743621
-0.016075641 0.0080378205 0.027186841
-0.015232285 0.0081238858 0.027164221
-0.014099525 0.0080568716 0.027278125
-0.012907373 0.0079429988 0.027207673
-0.01202365 0.0080157667 0.02702415
-0.011298652 0.0082172016 0.02686128
-0.010557395 0.0084459167 0.02557379
-0.010008514 0.008896457 0.011282772
-0.0091236681 0.0091236681 0.0062051117
-0.0011424508 0.0091396067 0.0054240525
0 0.0090996437 0.0077362359
0.0010644179 0.0085153431 0.019791573
0.0020690723 0.0082762893 0.023824394
0.003059485 0.008158627 0.027411997
0.0039692512 0.0079385024 0.028308541
0.0050232979 0.0080372775 0.02874133
0.0060701766 0.0080935685 0.028810889
0.0070726248 0.0080829998 0.028761625
0.0080996873 0.0080996873 0.028530568
0.0091325091 0.0081177857 0.027943879
0.010064964 0.0080519719 0.027269989
0.011077438 0.0080563184 0.026798964
0.012145035 0.0080966903 0.02574569
0.013148965 0.0080916714 0.024578691
0.01428803 0.0081645884 0.014495373
0.015295338 0.008157514 0.012293965
0.016969381 0.0084846905 0.0082394779
0.018212421 0.0085705509 0.0062665045
-0.025225822 0.0094596827 0.0080851912
-0.024022909 0.0094002681 0.010256201
-0.022425925 0.0091742426 0.014907092
-0.021364689 0.0091562942 0.022304982
-0.020591022 0.0092659593 0.023663104
-0.019099917 0.0090473285 0.025150955
-0.018181149 0.0090905745 0.026036799
-0.017085988 0.0090455227 0.026386619
-0.016140085 0.009078797 0.026709676
-0.015037761 0.0090226559 0.027230382
-0.014158481 0.0091018807 0.027389646
-0.013002528 0.0090017496 0.027396917
-0.012059572 0.0090446789 0.02823633
-0.011019875 0.0090162614 0.028186977
-0.010031522 0.0090283696 0.027456522
-0.0091484794 0.0091484794 0.027517766
-0.0083176959 0.0093574068 0.026818693
-0.0074545327 0.0095843989 0.022676587
-0.0064512999 0.0096769491 0.017307192
-0.0055393241 0.0099707833 0.01135996
-0.0044766921 0.010072556 0.0078236163
-0.0033442425 0.010032727 0.017323524
-0.002143455 0.0096455468 0.019722193
-0.001040648 0.0093658315 0.025534898
0 0.0092819184 0.028277308
0.0010063885 0.0090574957 0.028208762
0.0020055647 0.009025041 0.028383732
0.0029953162 0.0089859478 0.028529823
0.0040246337 0.0090554254 0.028938115
0.0050400989 0.009072178 0.028614491
0.0060128015 0.0090192026 0.028648645
0.0070176371 0.0090226764 0.028504938
0.0080636637 0.0090716211 0.02794829
0.0090217758 0.0090217758 0.027329087
0.010110746 0.0090996707 0.026795685
0.011112378 0.0090919454 0.02570352
0.012129766 0.0090973247 0.024843931
0.013180742 0.0091251293 0.016046286
0.014319682 0.0092055099 0.012583822
0.015483676 0.0092902053 0.011109293
0.017025007 0.0095765665 0.0076895952
0.018090315 0.009577225 0.0059165657
-0.025476968 0.010615404 0.0061143339
-0.024323821 0.010575574 0.0086203814
-0.023020463 0.010463847 0.010523975
-0.021594802 0.010283238 0.015069544
-0.020415686 0.010207843 0.022221118
-0.019391473 0.010206038 0.023559183
-0.018290779 0.010161543 0.025330871
-0.017331384 0.010194931 0.025769293
-0.01625802 0.010161262 0.026365995
-0.014940017 0.0099600106 0.027194709
-0.014141437 0.010101026 0.027527213
-0.013119767 0.010092129 0.028192222
-0.011953571 0.0099613089 0.02879566
-0.011046702 0.010042457 0.029023618
-0.0099699888 0.0099699888 0.029245079
-0.0090217888 0.01002421 0.029318273
-0.0080241812 0.010030227 0.0294936
-0.0070146616 0.010020944 0.029134542
-0.0059989141 0.0099981902 0.029040366
-0.0050404095 0.010080819 0.029163629
-0.0040263454 0.010065863 0.029253423
-0.0030004415 0.010001471 0.029182971
-0.0020214163 0.010107081 0.028839827
-0.00099986733 0.0099986736 0.028748304
0 0.010035279 0.028758675
0.0010034639 0.010034638 0.02845329
0.0020060553 0.010030276 0.028813243
0.0030461578 0.010153859 0.02876249
0.0040222006 0.010055501 0.028723449
0.0050120666 0.010024133 0.028287411
0.005985749 0.0099762483 0.028330415
0.0070415391 0.010059342 0.027817994
0.0080563594 0.01007045 0.027238369
0.0091578085 0.010175344 0.026703387
0.010112584 0.010112584 0.025598764
0.011127804 0.010116186 0.024558395
0.012281857 0.010234881 0.020091653
0.013434991 0.010334608 0.013731211
0.014729917 0.010521369 0.01186952
0.015885703 0.010590469 0.0095891058
0.016889513 0.010555944 0.0076198578
0.018265249 0.010744263 0.0058304667
-0.024607748 0.011768922 0.0078442991
-0.023446079 0.01172304 0.009311378
-0.022201836 0.011629533 0.010579377
-0.020920843 0.011506463 0.01477918
-0.01952902 0.011306275 0.021703064
-0.018406857 0.011248635 0.02285552
-0.017112844 0.011073017 0.024937034
-0.016098119 0.011067457 0.025659174
-0.015222268 0.011162996 0.02667138
-0.014119191 0.01109365 0.027219057
-0.013057927 0.011049015 0.02816236
-0.012078538 0.011071993 0.028959692
-0.011068766 0.011068766 0.029292315
-0.0099815233 0.010979676 0.029475003
-0.0089663537 0.010958877 0.029785872
-0.0080041541 0.011005712 0.030052811
-0.0070095086 0.011014942 0.029869854
-0.0060259462 0.011047568 0.029501826
-0.0050071673 0.011015768 0.030001402
-0.0039807349 0.010947021 0.029895484
-0.003003353 0.011012294 0.029328555
-0.0020047049 0.011025877 0.029246986
-0.0010103466 0.011113812 0.028962493
0 0.010957625 0.028795809
0.0010072379 0.011079618 0.028836578
0.0020182361 0.011100299 0.028766394
0.0030220042 0.011080681 0.028625637
0.0040090159 0.011024793 0.02825138
0.0050422121 0.011092867 0.027995825
0.006118462 0.011217181 0.028185457
0.0070269993 0.011042427 0.027160406
0.0081348103 0.011185364 0.026586562
0.0090902997 0.011110366 0.024983138
0.010156402 0.011172043 0.023919553
0.011360984 0.011360984 0.016052037
0.012520123 0.011476779 0.013897419
0.013624182 0.011528154 0.01244548
0.014720425 0.011566048 0.010361582
0.015826188 0.011605872 0.0083837509
0.0170833 0.011744768 0.0065426826
0.018166738 0.011754948 0.0056798458
-0.024461839 0.012762698 0.0061416626
-0.023370763 0.012747689 0.0083189607
-0.022292273 0.012738441 0.009973526
-0.021155527 0.012693317 0.010710925
-0.020083999 0.012684631 0.013093144
-0.018774876 0.012516585 0.017772645
-0.0173994 0.012281929 0.021861315
-0.016170043 0.012127533 0.024083316
-0.015075004 0.012060002 0.025316209
-0.014033756 0.012028934 0.026484489
-0.013071246 0.012065765 0.027085543
-0.012067435 0.012067435 0.028589606
-0.011104161 0.012113631 0.029048145
-0.010077684 0.012093221 0.029361576
-0.0090287756 0.012038368 0.029678792
-0.0081244763 0.012186714 0.029979378
-0.0070196693 0.012033719 0.030005515
-0.0060280734 0.012056147 0.02978611
-0.0049827346 0.011958563 0.029937655
-0.0040452951 0.012135885 0.029851466
-0.003017399 0.012069596 0.029337972
-0.0019983442 0.011990066 0.029279798
-0.0010078971 0.012094764 0.028794557
0 0.012063353 0.029105395
0.0010103351 0.01212402 0.028764933
0.0019981004 0.011988603 0.028606474
0.0029892416 0.011956966 0.028013766
0.0040094592 0.012028377 0.027790189
0.0050235665 0.01205656 0.02677542
0.0060712197 0.012142439 0.026286244
0.0070282011 0.012048345 0.025382698
0.0081113148 0.012166971 0.023866415
0.0093007796 0.01240104 0.020112216
0.010449352 0.012539223 0.015847385
0.011522352 0.012569838 0.013905525
0.012635461 0.012635461 0.012556463
0.013616871 0.012569419 0.011229962
0.014878834 0.012753285 0.0089502931
0.015993154 0.012794522 0.0073523521
0.017175617 0.012881712 0.0061497688
0.018183036 0.012835084 0.0053520501
-0.023413124 0.013835028 0.0068092942
-0.022291815 0.013799695 0.0087290406
-0.021251269 0.013813325 0.0099156797
-0.020112509 0.01376119 0.010560095
-0.018945469 0.013682839 0.012205631
-0.017903175 0.013690664 0.014736027
-0.016465951 0.013378584 0.018063188
-0.015293986 0.013254787 0.022152632
-0.014259476 0.013240942 0.025180399
-0.013063891 0.013063891 0.026183069
-0.012147636 0.013159939 0.027695239
-0.011073809 0.01308723 0.028706461
-0.01014757 0.013191842 0.029052705
-0.0090116197 0.013016785 0.029607624
-0.0080799721 0.013129955 0.029646575
-0.0069986484 0.01299749 0.029782355
-0.0060199248 0.013043171 0.029607624
-0.0050064167 0.013016684 0.029701889
-0.0039925701 0.012975853 0.029610366
-0.0030072911 0.013031594 0.029424399
-0.0020245155 0.01315935 0.029245198
-0.00099727523 0.012964577 0.029213488
0 0.013015322 0.029102921
0.0010089763 0.013116691 0.028580129
0.0019963598 0.012976339 0.028081656
0.0030248424 0.01310765 0.027787536
0.0040500979 0.013162818 0.02697143
0.0050268313 0.013069762 0.025914758
0.0061489888 0.01332281 0.023716748
0.0072259936 0.013419703 0.020112813
0.0083948644 0.013641655 0.015812844
0.0095374901 0.013776375 0.01446864
0.010486309 0.013632203 0.013529271
0.011571042 0.013674868 0.012443155
0.012609624 0.013660426 0.011013865
0.013711621 0.013711621 0.0091990232
0.014793257 0.013736596 0.0076200664
0.015914259 0.013792357 0.0062087178
0.017088538 0.013884437 0.0053999424
-0.022332113 0.014888075 0.0073889196
-0.021376077 0.014963254 0.0086224973
-0.02015014 0.014847471 0.0096286237
-0.019068792 0.014831284 0.010300845
-0.017997926 0.014821821 0.011777848
-0.016624339 0.014546297 0.013261139
-0.015914746 0.014853763 0.015415013
-0.014539638 0.014539638 0.020729661
-0.013243318 0.014262035 0.024538785
-0.01208156 0.014095154 0.025738895
-0.011206222 0.014262464 0.027410567
-0.0099213142 0.01388984 0.02833733
-0.0090651438 0.014101335 0.028793961
-0.0080597959 0.014104642 0.02908203
-0.0070095742 0.014019148 0.029270142
-0.0060274606 0.014064075 0.029145628
-0.0050154398 0.014043231 0.029457629
-0.004016608 0.014058128 0.029386133
-0.003003747 0.014017487 0.029200166
-0.0020138635 0.014097045 0.028958261
-0.0010031022 0.01404343 0.028896898
0 0.014048592 0.028408706
0.00099414424 0.013918019 0.028220654
0.0020208105 0.014145673 0.027668118
0.0030381153 0.014177871 0.026456326
0.0040507321 0.014177562 0.024858624
0.0051546725 0.014433084 0.020486891
0.0062599755 0.014606609 0.016168654
0.0073388345 0.014677669 0.014954388
0.0083629638 0.014635187 0.013739437
0.0094999503 0.014777701 0.013213515
0.010522587 0.014731623 0.012043118
0.011637075 0.014810823 0.01091224
0.012688964 0.014803791 0.0095650256
0.01371601 0.014771088 0.0077962279
0.014878979 0.014878979 0.0066401958
0.015999695 0.014933049 0.0058624744
0.017245902 0.015090163 0.00521487
-0.022411879 0.016008485 0.0051089525
-0.021291381 0.015968537 0.0070648789
-0.020124035 0.015887395 0.0085293055
-0.019201839 0.016001534 0.0095634758
-0.0179963 0.015879087 0.010162532
-0.016798183 0.015748296 0.01097095
-0.015703237 0.015703237 0.012126386
-0.014777887 0.01583345 0.01357004
-0.013489133 0.015564385 0.016723305
-0.012334808 0.01541851 0.022709161
-0.011198508 0.015270692 0.024888366
-0.010005697 0.015008545 0.026540011
-0.0090665165 0.015110862 0.028184831
-0.0080683259 0.015128111 0.028585464
-0.007067366 0.015144356 0.02874735
-0.0060620089 0.015155023 0.028814882
-0.0050238203 0.015071461 0.029270142
-0.0040167319 0.015062746 0.029275686
-0.0030508186 0.015254093 0.028917938
-0.0020189215 0.015141913 0.02861768
-0.0010109326 0.015163989 0.02834636
0 0.015236242 0.027883232
0.0010054486 0.015081729 0.02720952
0.0020393948 0.015295461 0.025246322
0.0030690979 0.01534549 0.022817552
0.0041468781 0.015550792 0.017811865
0.0052273199 0.01568196 0.014776051
0.0062875571 0.015718892 0.01364854
0.0073360382 0.015720082 0.013342202
0.0084070452 0.015763208 0.012959868
0.0094431685 0.015738616 0.011802137
0.010513108 0.015769662 0.010662735
0.011685603 0.015934914 0.0093482435
0.012645425 0.015806781 0.007353723
0.013862028 0.015994648 0.0062496066
0.014831597 0.015890997 0.0056269467
0.015948016 0.015948016 0.0052693486
-0.021215091 0.016972072 0.0051420927
-0.020118624 0.016941998 0.006970197
-0.019050987 0.016934212 0.0082465708
-0.017878663 0.016826976 0.0089043975
-0.016922213 0.016922213 0.0098056793
-0.015812226 0.016866373 0.01043722
-0.014800328 0.01691466 0.011585027
-0.013574908 0.016707581 0.012500882
-0.01254847 0.016731294 0.013755977
-0.011443294 0.016644793 0.017453343
-0.010203288 0.016325261 0.023900628
-0.0090398751 0.016070889 0.025347441
-0.0080602365 0.016120473 0.026129335
-0.0070244661 0.016055923 0.027243614
-0.0060449736 0.016119931 0.027596384
-0.005075423 0.016241355 0.027816355
-0.0040173186 0.016069274 0.027978629
-0.0030099472 0.016053053 0.027621329
-0.0020374914 0.016299931 0.027119756
-0.001008276 0.016132416 0.026130974
0 0.016116867 0.025389016
0.0010258228 0.016413165 0.023217469
0.0020566224 0.016452979 0.017724931
0.0031346004 0.016717868 0.01509884
0.0041669472 0.016667789 0.013563305
0.0052143256 0.016685843 0.013138503
0.0062946239 0.016785664 0.012947351
0.0073400186 0.016777186 0.01226753
0.008412567 0.016825134 0.011406898
0.0095458664 0.01697043 0.010308355
0.010546809 0.016874894 0.00870049
0.011632889 0.016920567 0.0074056387
0.012784516 0.017046021 0.0060845613
0.013937476 0.017153818 0.0055935979
0.015105507 0.017263437 0.0051963627
-0.020224083 0.018095233 0.0055469871
-0.01899864 0.017943161 0.0071273148
-0.017949253 0.017949253 0.0077115297
-0.016955536 0.018015258 0.0088586807
-0.016030675 0.018168097 0.0096638501
-0.014834606 0.018013451 0.010067433
-0.013726283 0.017949756 0.01117301
-0.012563256 0.017797947 0.011543214
-0.011598867 0.017925523 0.013135403
-0.010364237 0.017619204 0.01434809
-0.0092691667 0.017508427 0.020025373
-0.0080935154 0.017198721 0.023329437
-0.0070493259 0.017119791 0.024607837
-0.0061002709 0.017284101 0.024807185
-0.0050569302 0.017193563 0.025373429
-0.0040069143 0.017029386 0.025336146
-0.0030593472 0.017336302 0.025212526
-0.0020332611 0.017282719 0.024200678
-0.0010138378 0.017235242 0.022749275
0 0.017631948 0.0195885
0.0010471612 0.017801739 0.015470117
0.002111604 0.017948633 0.013432354
0.0031457909 0.017826149 0.01298821
0.0042089168 0.017887898 0.012814641
0.0052704401 0.017919498 0.01244548
0.0063477024 0.017985158 0.011802167
0.0073247668 0.017788719 0.010884106
0.008463352 0.017984623 0.0095538497
0.0094878776 0.017921546 0.0084841251
0.010643166 0.018093383 0.0072110295
0.011739541 0.018142927 0.0059765577
0.012747397 0.018058812 0.005135268
-0.019261641 0.019261641 0.0051061511
-0.017946264 0.019001925 0.0062817633
-0.0168378 0.018942526 0.0074594915
-0.015994228 0.019193074 0.0086448193
-0.014659977 0.01884854 0.0091900229
-0.013721621 0.018999167 0.0098814666
-0.012748929 0.019123392 0.010376453
-0.011539999 0.018883634 0.011194348
-0.010560406 0.01900873 0.012058616
-0.0094649186 0.018929837 0.01318714
-0.0083528049 0.01879381 0.015783012
-0.0070988643 0.018254222 0.017453343
-0.0061299368 0.01838981 0.019999355
-0.0050448054 0.018161299 0.020082742
-0.0040323031 0.018145364 0.02000463
-0.0030542624 0.018325573 0.020043761
-0.002038643 0.018347787 0.017000258
-0.0010410773 0.018739391 0.015492409
0 0.018901723 0.013743669
0.0010486307 0.018875351 0.012855142
0.0020990691 0.01889162 0.012758374
0.0031534883 0.01892093 0.012580305
0.0042235637 0.019006034 0.011850268
0.0052991016 0.019076766 0.011207193
0.0062969439 0.018890832 0.010109752
0.0073721437 0.018956941 0.0093482435
0.008495559 0.019115008 0.0075882971
0.0096556526 0.019311305 0.0061572492
0.010845395 0.01952171 0.0054323971
-0.016986791 0.020171814 0.0060113072
-0.015776014 0.019982951 0.007335484
-0.014845766 0.020147827 0.0084129572
-0.013739822 0.02008128 0.0087119043
-0.012614498 0.019972956 0.0095843673
-0.01160631 0.020047264 0.0099861026
-0.010492212 0.019935204 0.010364503
-0.0094473856 0.019944483 0.011206567
-0.0084327096 0.020027686 0.012028724
-0.0073683085 0.019999696 0.01235199
-0.0061781937 0.01956428 0.012658209
-0.0051288777 0.019489735 0.012749493
-0.0041010249 0.019479869 0.012819141
-0.0031202359 0.019761495 0.012819141
-0.0021056484 0.02000366 0.012625158
-0.0010468042 0.01988928 0.012658209
0 0.019990023 0.012573391
0.0010477786 0.019907795 0.0123353
0.002095538 0.01990761 0.01204741
0.0031531246 0.019969789 0.011521041
0.0041728918 0.019821236 0.010700077
0.0052665165 0.020012764 0.0096713006
0.0063605281 0.020141672 0.0076525509
0.0074940622 0.020341028 0.006556958
0.008582267 0.020382885 0.0054842234
-0.016069863 0.021426484 0.0057727396
-0.014897645 0.021282349 0.0064132512
-0.013680391 0.021046754 0.0076120496
-0.012778781 0.021297969 0.0085861683
-0.011595526 0.021082774 0.0091423392
-0.010498243 0.020996487 0.0097088516
-0.0094561009 0.021013558 0.010067523
-0.0084643206 0.0211608 0.010859907
-0.0073772166 0.021077761 0.011229306
-0.006315547 0.021051822 0.011256695
-0.0052022412 0.020808965 0.011646032
-0.0041426667 0.020713333 0.011794209
-0.0031595009 0.021063339 0.011831313
-0.0020949177 0.020949177 0.011754513
-0.0010482604 0.020965206 0.01183334
0 0.021060275 0.011458248
0.0010483213 0.020966426 0.010834247
0.0020999114 0.020999115 0.010945559
0.0031584047 0.021056032 0.0097983479
0.0041923583 0.020961791 0.0083483458
0.0053605679 0.021442272 0.006468147
0.0064580361 0.021526787 0.0050514638
-0.014975828 0.022463743 0.0057325959
-0.013921537 0.022488637 0.0060727596
-0.01256169 0.021982959 0.006999135
-0.011619489 0.02218266 0.0080241561
-0.010583341 0.022225019 0.0087037086
-0.0095222834 0.022218663 0.0094044805
-0.0084384 0.022150801 0.009834528
-0.0073749959 0.022124989 0.010313839
-0.0063118176 0.022091363 0.010326833
-0.005245415 0.022030745 0.010713071
-0.0041981554 0.022040315 0.010664076
-0.0031525209 0.022067647 0.010439157
-0.0021035401 0.022087172 0.010632813
-0.0010597567 0.022254892 0.010664076
0 0.022194861 0.010195106
0.0010498314 0.02204646 0.0093435347
0.0021131609 0.02218819 0.0080461204
0.0031947179 0.022363026 0.0064295828
-0.01381446 0.023378316 0.0050878227
-0.012895205 0.023641208 0.0058304965
-0.01177392 0.023547839 0.006272763
-0.010550884 0.023211943 0.0070178807
-0.0095248437 0.023282951 0.008012116
-0.0084884027 0.023343107 0.008769542
-0.0073863654 0.023214292 0.009537667
-0.0063376362 0.023238 0.0096144974
-0.005277283 0.023220045 0.0097107887
-0.004212691 0.023169801 0.0095483065
-0.0031442451 0.023057796 0.0094833076
-0.0021083725 0.023192098 0.0094441772
-0.0010495081 0.023089178 0.0092520416
0 0.023280788 0.0080206692
0.0010627198 0.023379836 0.005992502
0.0021467288 0.023614015 0.0053887069
-0.011886733 0.024854079 0.0055585802
-0.010719194 0.024654146 0.0060227811
-0.0095585641 0.024427444 0.0065617263
-0.0084984116 0.024432935 0.0069447458
-0.0073631755 0.024193291 0.0074060857
-0.0063473391 0.024331467 0.0082041323
-0.0052805003 0.024290303 0.0084967017
-0.0042009 0.024155175 0.0081182718
-0.003177406 0.024360113 0.0075347722
-0.0021127034 0.02429609 0.0065968633
-0.001063484 0.024460131 0.005916059
0.024692582 0.024692582 0.0052711964
0.025730325 0.024658229 0.0051695406
0.026714807 0.024577623 0.0051551759
0.027760051 0.024556968 0.0050144494
-0.0096354801 0.025694616 0.0054953098
-0.0085419575 0.025625871 0.005735755
-0.0074622077 0.025584711 0.0060827136
-0.0063803699 0.02552148 0.005916059
-0.0052992031 0.025436174 0.0060530007
-0.0042234133 0.025340479 0.0053079128
-0.0031961135 0.025568908 0.0050073564
0.0243815 0.025441565 0.0052711964
0.025895722 0.025895722 0.0052417517
0.026698764 0.025630813 0.0051261783
-0.033806723 0.026411504 0.0055915713
-0.032957908 0.026578959 0.0062344968
-0.031888027 0.026573358 0.0061688721
-0.030820163 0.026569106 0.005913049
-0.030330401 0.027080717 0.0051355064
0.024567841 0.026704175 0.0052383542
0.025623523 0.02669117 0.0052910447
0.026725076 0.026725076 0.0052720606
0.027657051 0.02659332 0.0050090253
-0.035190884 0.027726151 0.0061301887
-0.033648055 0.027339045 0.0063896775
-0.033033576 0.02770558 0.0072548389
-0.031921219 0.027665058 0.0072769225
-0.030878656 0.02768431 0.00690189
-0.030021386 0.027877001 0.0063221455
-0.028760707 0.027695494 0.0061688721
-0.027595846 0.027595846 0.0059339404
-0.02666923 0.027735999 0.005546689
-0.025731714 0.027876025 0.0051049292
0.023542007 0.027822373 0.0050832927
0.024633814 0.027846919 0.0056164563
0.025747748 0.027893394 0.0054899454
0.026933404 0.028010737 0.0055006444
0.027778978 0.027778978 0.0053766072
-0.035848107 0.028467616 0.0063072443
-0.035167109 0.028773092 0.0069455504
-0.034015145 0.028700279 0.0073210597
-0.032815684 0.028581403 0.0081372261
-0.03203975 0.028835775 0.0080512762
-0.030639553 0.028526481 0.0073854625
-0.029613726 0.028556094 0.0072984993
-0.02862815 0.02862815 0.0072149336
-0.02759763 0.028659079 0.0066996813
-0.026511537 0.028632458 0.0065046549
-0.025740607 0.028958183 0.0061258674
-0.024671674 0.028962402 0.0057682991
-0.023363071 0.028672859 0.0055574775
-0.022495462 0.028922737 0.0051938891
0.023371087 0.028682699 0.0050469339
0.02455014 0.028819729 0.0057997406
0.025640041 0.028845046 0.0054707825
0.026604133 0.028732462 0.0054867566
0.027663924 0.028727923 0.0053908229
-0.036697458 0.029357968 0.0058935583
-0.035732802 0.029427012 0.0069320202
-0.035077114 0.0297624 0.0079308152
-0.033469964 0.029286217 0.0088270605
-0.032778144 0.029606065 0.0093114376
-0.031997904 0.029864712 0.0091921091
-0.030472478 0.029421702 0.008366704
-0.029764995 0.029764995 0.0083065629
-0.028785501 0.029851628 0.0079396367
-0.027558209 0.029678071 0.0076149702
-0.026740747 0.029949635 0.0075035095
-0.025498688 0.02974847 0.0074721277
-0.024505448 0.029832719 0.0069648921
-0.023499383 0.029908307 0.0064101815
-0.022401055 0.029868074 0.0062105954
-0.021361351 0.029905893 0.0057146847
-0.020416953 0.030088142 0.0058303177
-0.01921553 0.029890826 0.005702436
-0.018070424 0.02976305 0.0054654777
-0.017188132 0.030079231 0.0052101314
-0.016077131 0.030010644 0.0050249398
0.024731718 0.030108176 0.0060033798
0.025584666 0.029848777 0.0057997406
0.026557101 0.029743953 0.0054973066
0.0275661 0.029686568 0.0053012669
-0.036989994 0.030648855 0.0065706968
-0.035897527 0.030618478 0.0079642236
-0.034888927 0.030659966 0.0091714263
-0.034032475 0.03084193 0.0094651282
-0.032605078 0.030501526 0.009872973
-0.031662956 0.030607525 0.0097956359
-0.030718653 0.030718653 0.0094267428
-0.029455675 0.030507665 0.0092839599
-0.02853631 0.030650111 0.008962512
-0.027558081 0.03073786 0.0084536672
-0.026509926 0.030751515 0.0084361434
-0.025201334 0.030451613 0.0082900524
-0.024527654 0.030926174 0.0079269409
-0.023473855 0.030942813 0.0076771379
-0.022316748 0.030818367 0.0075022578
-0.02129076 0.030871604 0.0069386065
-0.020215975 0.030855961 0.0068835616
-0.019261345 0.031032169 0.006467551
-0.018129203 0.030926291 0.0063555837
-0.017017858 0.030844867 0.005959034
-0.015988594 0.030911284 0.0059241056
-0.015053368 0.031181978 0.0057676435
