ply
format ascii 1.0
comment PCL generated
element vertex 1310
property float x
property float y
property float z
element camera 0
property float view_px
property float view_py
property float view_pz
property float x_axisx
property float x_axisy
property float x_axisz
property float y_axisx
property float y_axisy
property float y_axisz
property float z_axisx
property float z_axisy
property float z_axisz
property float focal
property float scalex
property float scaley
property float centerx
property float centery
property int viewportx
property int viewporty
property float k1
property float k2
end_header
-0.024150001 0.084041998 0.038830996
-0.02330729 0.084488928 0.039272487
-0.022299599 0.084350653 0.03955555
-0.021250444 0.084035844 0.040164679
-0.02025087 0.083896458 0.039106965
-0.019942334 0.086749159 0.0374915
-0.019079728 0.087365068 0.033103019
-0.018687177 0.090321362 0.030258715
-0.017382652 0.088958278 0.027454287
-0.016477017 0.089593776 0.021518469
-0.015445056 0.089581326 0.018223464
-0.014465819 0.089894734 0.017049432
-0.013315177 0.089109257 0.016321868
-0.012592731 0.091297299 0.015782744
-0.011352162 0.089785278 0.015234768
-0.010473875 0.091122717 0.015159994
-0.009295674 0.089858189 0.015185118
-0.0083213821 0.090495035 0.015346915
-0.0072731948 0.090395421 0.015504688
-0.006233694 0.090388566 0.015667528
-0.0052017667 0.090510741 0.015651792
-0.004168198 0.090658307 0.016014099
-0.0031138805 0.090302534 0.01586467
-0.0020664183 0.089889199 0.016187608
-0.0010425728 0.09070383 0.016629338
0 0.089003861 0.017864406
0.001021004 0.088827349 0.019529432
0.0020519996 0.089261979 0.021665365
0.0030397023 0.088151366 0.025292248
0.0040299734 0.087651916 0.02924943
0.0050486508 0.087846525 0.032228589
0.0059019737 0.08557862 0.036079109
0.0068807816 0.085518286 0.038891584
0.007763796 0.084431276 0.040911645
0.0087027326 0.084126413 0.04084903
0.0097602895 0.08491452 0.04068169
0.01067668 0.084442832 0.03987664
0.011591458 0.084038071 0.039128512
0.012602154 0.084337495 0.038223743
0.01427741 0.088723898 0.022690296
0.015538836 0.090125248 0.016716003
0.016890442 0.091841772 0.015153587
0.017649829 0.090325594 0.013951302
0.01894754 0.09157978 0.012767911
0.01999685 0.091564514 0.011847019
0.020881427 0.090834208 0.010933757
0.022004046 0.091159612 0.0098926425
0.023156241 0.091572411 0.0081682503
0.023956537 0.090618201 0.00709337
-0.04180396 0.091968708 0.0057632625
-0.040997263 0.09250664 0.0070632398
-0.03993937 0.092491165 0.0075437129
-0.038868427 0.092443824 0.0079271793
-0.038120806 0.093184195 0.0083258748
-0.036907695 0.092796497 0.0087762177
-0.035900876 0.092919908 0.0087726116
-0.034818575 0.092849538 0.0084671676
-0.033317804 0.091623954 0.0092033148
-0.032656338 0.09270186 0.010035992
-0.031628221 0.09277612 0.011026204
-0.030210646 0.09167368 0.012137353
-0.029604688 0.093043305 0.013475716
-0.026554553 0.086548164 0.035660535
-0.025233578 0.085405953 0.038670093
-0.023975471 0.084393658 0.040164679
-0.023096846 0.084688433 0.040871471
-0.022138938 0.084705502 0.040969253
-0.021321807 0.085287228 0.041136384
-0.02025532 0.084879436 0.040849388
-0.019428747 0.085486487 0.040025413
-0.018718282 0.086695202 0.035493702
-0.019506317 0.095364213 0.030450791
-0.017484862 0.090509877 0.027410448
-0.016417971 0.090298839 0.020655304
-0.015449507 0.090637103 0.017991692
-0.014590764 0.091713376 0.01708281
-0.013465314 0.091149814 0.015913904
-0.012326871 0.090397052 0.015216798
-0.011519774 0.092158191 0.014932483
-0.010383876 0.091378115 0.015136153
-0.0092592118 0.090534516 0.01502353
-0.0082951318 0.091246441 0.014994532
-0.0072548133 0.091203362 0.014968067
-0.006197216 0.090892501 0.014968067
-0.0051624319 0.090858802 0.015043497
-0.0041152881 0.090536341 0.015433758
-0.0030881383 0.090585388 0.015650749
-0.0020776077 0.091414735 0.016125351
-0.0010281535 0.090477496 0.016194522
0 0.090760753 0.017392993
0.0010331557 0.090917699 0.018888295
0.0020318727 0.089402393 0.020673543
0.0030731317 0.0901452 0.025166422
0.0041960361 0.09231279 0.02924943
0.0050382763 0.088673666 0.03431657
0.0059682052 0.087533675 0.038391829
0.0067517362 0.084878966 0.040596366
0.0076197083 0.083816789 0.042179108
0.0087126615 0.085190468 0.041671962
0.0095914826 0.084405042 0.041275859
0.010530979 0.084247835 0.04084903
0.011611845 0.085153528 0.040153116
0.012455531 0.084314361 0.038847834
0.013990003 0.087937161 0.027042985
0.015600368 0.091522165 0.017363161
0.016628385 0.091456115 0.016002983
0.017680084 0.091520436 0.015044481
0.01895695 0.09267842 0.013897151
0.019772818 0.091579363 0.012488633
0.020855092 0.091762401 0.011250764
0.022085018 0.092546739 0.010889649
0.02276611 0.091064438 0.0084810555
0.023868863 0.091324337 0.0075607896
-0.042009607 0.093471371 0.0067423582
-0.041001264 0.093566984 0.0074250698
-0.040125687 0.093978584 0.0080334246
-0.038992863 0.093793638 0.0085871816
-0.038167033 0.094357394 0.0092510283
-0.036857247 0.093722716 0.0094321668
-0.035948627 0.094100818 0.0095399618
-0.034868866 0.094040275 0.0093957782
-0.033659231 0.093614727 0.010472625
-0.032830566 0.094255485 0.010717273
-0.031759445 0.094219685 0.011913508
-0.030496107 0.093591496 0.012637436
-0.029130256 0.092592597 0.014418006
-0.026272818 0.086602986 0.036221445
-0.025059709 0.085781313 0.039438665
-0.024193091 0.0861274 0.040934771
-0.023194518 0.086013004 0.041135013
-0.022396564 0.086664967 0.04188773
-0.021124924 0.085459918 0.042944312
-0.020217206 0.085682444 0.042955577
-0.019243749 0.085634679 0.042166024
-0.018908385 0.088570856 0.040721148
-0.018071445 0.089353256 0.035074055
-0.018636258 0.097566292 0.029984325
-0.016443588 0.091467448 0.022082925
-0.015544868 0.092232883 0.018828124
-0.014463991 0.091949657 0.01735422
-0.013261013 0.090786934 0.016535163
-0.012376779 0.091794439 0.015591055
-0.011353357 0.091858976 0.015032917
-0.010315332 0.091806456 0.015025467
-0.0093175285 0.092140004 0.014994532
-0.0082955211 0.092287667 0.01492396
-0.0071689235 0.091147736 0.014886141
-0.0062389416 0.092544302 0.014870405
-0.0051680426 0.091991156 0.014961571
-0.0041369256 0.092046596 0.015484363
-0.0031322208 0.092922546 0.01553306
-0.0020582997 0.091594331 0.015988708
-0.0010240403 0.091139577 0.016251087
0 0.092109255 0.017525554
0.0010211833 0.090885311 0.019477427
0.0020437769 0.090948068 0.022188395
0.0031756097 0.094209753 0.02595526
0.0042861952 0.095367841 0.032393366
0.0049942569 0.088897772 0.038387597
0.0058593634 0.086913891 0.041037977
0.0066898563 0.085056745 0.04280144
0.0076704412 0.085333653 0.043398738
0.0086529087 0.085567653 0.042890191
0.0096209394 0.085626364 0.042693973
0.010567974 0.085504517 0.041908652
0.01159502 0.085996397 0.040911645
0.012483774 0.085465834 0.039223611
0.014091732 0.089583151 0.027184993
0.015698327 0.093143404 0.01856184
0.016610118 0.092393771 0.01685676
0.017606078 0.092172995 0.015316308
0.018679392 0.092359222 0.014218181
0.019813251 0.092809431 0.012951404
0.020693123 0.092084393 0.011983216
0.022070909 0.093538605 0.011227071
0.022547549 0.091215082 0.009378463
0.024234924 0.093778618 0.0078158975
-0.044019476 0.096628122 0.0055514276
-0.041582465 0.093560554 0.0074704587
-0.040630873 0.09376356 0.0083933473
-0.040054977 0.094867058 0.0087990165
-0.039027069 0.094930716 0.0094876587
-0.037735123 0.094337821 0.010200292
-0.036516204 0.093898818 0.010626882
-0.035482131 0.093923293 0.010723859
-0.034449272 0.093952566 0.010613501
-0.033383306 0.093890548 0.010930359
-0.032370009 0.093977444 0.01195696
-0.031452499 0.094357505 0.012080669
-0.030189121 0.093690373 0.013106734
-0.029345803 0.094325803 0.016005099
-0.026340626 0.08780209 0.035134137
-0.024867358 0.086079322 0.039704084
-0.023978369 0.086322129 0.041095197
-0.023177931 0.086917251 0.042042106
-0.022163369 0.086726226 0.04302296
-0.021179048 0.086641565 0.043367952
-0.020288812 0.086952053 0.043331772
-0.019182425 0.086320922 0.043323368
-0.018091055 0.08569447 0.043046921
-0.017944166 0.089720838 0.04080373
-0.017870545 0.094608769 0.035065383
-0.017309846 0.097367883 0.027667701
-0.015607049 0.093642294 0.020342618
-0.014254035 0.091633089 0.017932534
-0.013238498 0.091651142 0.017346144
-0.012294556 0.092209175 0.016783535
-0.01131657 0.092590123 0.016421884
-0.01024502 0.092205182 0.016221672
-0.009270818 0.092708185 0.015972495
-0.0082349582 0.092643283 0.015812963
-0.0072179837 0.092802651 0.015912861
-0.0062427577 0.093641371 0.015934974
-0.0051641008 0.092953824 0.016054034
-0.0041254433 0.092822477 0.016255587
-0.0030725528 0.092176594 0.016339064
-0.0020482801 0.092172615 0.01688239
-0.0010273021 0.092457198 0.01752913
0 0.092628792 0.018264621
0.0010095151 0.090856366 0.020094812
0.0020826641 0.093719892 0.023415446
0.0032322751 0.096968256 0.029361963
0.0040374049 0.090841606 0.037673652
0.0048568663 0.0874236 0.041870475
0.0056531718 0.084797584 0.043467402
0.0066504874 0.085506275 0.043985128
0.0077106082 0.086744346 0.044134885
0.0086370623 0.086370625 0.043827266
0.0096693421 0.087024085 0.043106496
0.010508711 0.085980363 0.042627066
0.011461124 0.085958436 0.041420966
0.012529693 0.086744025 0.03897211
0.013938574 0.089605123 0.027184993
0.015449212 0.092695273 0.01952377
0.016642181 0.093612269 0.017158598
0.01760379 0.093196541 0.016351908
0.018743277 0.09371639 0.015076607
0.019795949 0.09377028 0.013710529
0.020547846 0.092465319 0.012623727
0.021960624 0.094116956 0.01193589
0.022678023 0.092773736 0.010452181
0.023754857 0.092953794 0.007933259
-0.043496352 0.096540682 0.0060376525
-0.041562673 0.094555087 0.0077401698
-0.041003942 0.095675871 0.0088637471
-0.039660163 0.094975658 0.0095794797
-0.038631584 0.095012814 0.010632724
-0.037704319 0.095308147 0.010731012
-0.036859557 0.095834851 0.011239678
-0.035436984 0.094846047 0.011241913
-0.034335028 0.094681449 0.011252671
-0.033422362 0.095044844 0.012141019
-0.032247934 0.0946633 0.012184709
-0.031394754 0.095230758 0.012688398
-0.030473951 0.095625162 0.013567746
-0.028923169 0.094000302 0.016105354
-0.026091045 0.087936483 0.035204172
-0.025020657 0.087572299 0.039242715
-0.024033766 0.087482907 0.041268855
-0.023141289 0.087744057 0.042662203
-0.02211735 0.087507777 0.043257803
-0.02123169 0.087821998 0.04354918
-0.020125799 0.087211795 0.043803394
-0.019149564 0.087130524 0.043883711
-0.018232558 0.087324359 0.043419749
-0.017164716 0.08677718 0.043011159
-0.016854087 0.090218939 0.042852879
-0.016590465 0.094358273 0.032766432
-0.015981011 0.09695147 0.026496857
-0.015000083 0.09750054 0.019705176
-0.013444606 0.094112247 0.017821521
-0.012161716 0.092226349 0.017429322
-0.011243147 0.093011491 0.017261147
-0.010240699 0.093190372 0.016888916
-0.0092005655 0.093027949 0.01676771
-0.0082343351 0.093665563 0.016749382
-0.0071916315 0.093491212 0.016849637
-0.0061002872 0.092521027 0.016816884
-0.0051610265 0.093930684 0.01675415
-0.0040989672 0.093251504 0.016734958
-0.0030509233 0.092544682 0.016816169
-0.0020550266 0.093503714 0.017721266
-0.0010189607 0.092725426 0.018204838
0 0.0951875 0.019550264
0.0010800222 0.098282024 0.022499502
0.0021977201 0.099996269 0.028742105
0.0030685812 0.093080305 0.037499934
0.003850451 0.087597765 0.042656928
0.0047011655 0.085561216 0.044076771
0.0058020861 0.087998308 0.045089602
0.0067580193 0.087854259 0.04520762
0.0076051676 0.086508781 0.045264333
0.0086238589 0.087196797 0.044354141
0.009577957 0.087159418 0.04343462
0.010462527 0.086553641 0.042858154
0.011531986 0.087450899 0.041772276
0.012581673 0.088071711 0.03857702
0.013960201 0.090741314 0.027128279
0.01536783 0.093231507 0.019085497
0.016344264 0.092958003 0.017262399
0.01757919 0.094100371 0.016774684
0.018767426 0.094879776 0.015916795
0.019566398 0.093712755 0.014489084
0.020761296 0.094463907 0.013413817
0.022107204 0.095797889 0.012427926
0.02254308 0.093246378 0.011057049
0.023763966 0.094022647 0.0077634752
-0.043334767 0.097238988 0.0065109432
-0.041734297 0.095988892 0.0084441304
-0.040506598 0.095554031 0.0095860362
-0.039438684 0.095483124 0.010366648
-0.038816605 0.096516967 0.01091662
-0.037517767 0.095878743 0.011671215
-0.036603432 0.096214741 0.012113035
-0.035621226 0.09638685 0.012309551
-0.034596011 0.096449494 0.01215899
-0.033415686 0.096070096 0.012275368
-0.032366447 0.096055262 0.012769908
-0.031530697 0.096694134 0.013528645
-0.030283859 0.096072927 0.015533328
-0.028912505 0.094998233 0.016729057
-0.025945649 0.088407397 0.034962773
-0.024886847 0.088061146 0.03797999
-0.024091933 0.08865831 0.041152418
-0.023021979 0.088250928 0.041961759
-0.022239104 0.088956416 0.043263465
-0.021151001 0.088449642 0.04364571
-0.020111153 0.088106006 0.04403916
-0.019310122 0.088826567 0.044066221
-0.018306134 0.088640228 0.044023186
-0.017221663 0.088021845 0.043999881
-0.016110145 0.08718431 0.043651998
-0.015296979 0.087957628 0.043159664
-0.015467274 0.094865948 0.035234123
-0.015151583 0.09956754 0.027855754
-0.013913712 0.09846627 0.019796342
-0.012910667 0.098981783 0.01884824
-0.011666346 0.097573087 0.017759591
-0.010466825 0.096294798 0.017748892
-0.0094671911 0.09677574 0.017518938
-0.0083016325 0.095468782 0.01780352
-0.0071448865 0.093904227 0.017987311
-0.0061732666 0.094656758 0.018000811
-0.0052007083 0.095693037 0.018098205
-0.0041751764 0.096029058 0.018039078
-0.0031341212 0.096113056 0.018397689
-0.0021346069 0.098191924 0.019729257
-0.0010936972 0.10062014 0.020128191
0 0.098510176 0.02273035
0.0010885868 0.10014998 0.029258192
0.0020350134 0.093610615 0.040173531
0.0029050475 0.089088127 0.042971075
0.0037734886 0.086790241 0.04457742
0.0047194087 0.08683712 0.045396179
0.0056759398 0.087031081 0.045576781
0.0066570267 0.087492354 0.045537829
0.0076210001 0.0876415 0.04537338
0.0086090164 0.088003278 0.044297963
0.0095091928 0.087484576 0.043225229
0.010430709 0.087238669 0.042653799
0.011484385 0.088046961 0.041506886
0.012472924 0.088269927 0.038492739
0.01397175 0.091814362 0.027128279
0.015408483 0.094505362 0.01991424
0.016512111 0.094944641 0.01828444
0.017565617 0.095060989 0.017202526
0.018592685 0.095029287 0.016470909
0.019597521 0.094893262 0.015578955
0.020976774 0.096493162 0.014334917
0.021411018 0.093800649 0.013531089
0.022827206 0.09545923 0.01161623
0.024006279 0.096025117 0.0077634752
-0.043296687 0.09820956 0.0070671141
-0.041716345 0.096990511 0.0089260936
-0.040800478 0.097293451 0.010476857
-0.03982174 0.097458474 0.011133879
-0.038613826 0.097056374 0.012391895
-0.037584666 0.097093724 0.012275368
-0.037020519 0.098368809 0.012469232
-0.035680305 0.097596124 0.012558877
-0.034743212 0.097912692 0.012436807
-0.033317883 0.0968301 0.01290077
-0.032488316 0.097464949 0.013434798
-0.031140316 0.096534982 0.013582289
-0.029990716 0.096177123 0.01575458
-0.029188721 0.096948251 0.016754538
-0.026633928 0.091739081 0.031122744
-0.025264684 0.090369828 0.037051558
-0.024034305 0.089407608 0.039735526
-0.0231773 0.08981204 0.041304439
-0.021734586 0.087883323 0.042924315
-0.021083325 0.08912497 0.043541014
-0.020069009 0.088877037 0.04403916
-0.019080065 0.088722304 0.044288516
-0.018087575 0.088533916 0.044319034
-0.017270975 0.089233376 0.04435873
-0.016191103 0.088574849 0.044458181
-0.015203141 0.088368259 0.044487149
-0.014230216 0.088227339 0.044028223
-0.013800386 0.091674 0.040531307
-0.013712388 0.098096319 0.032766432
-0.013416513 0.10397798 0.02193284
-0.01204461 0.1018317 0.02034694
-0.010976451 0.102081 0.019902498
-0.0098360768 0.10163946 0.01951462
-0.0088077504 0.1023901 0.019478947
-0.0076323017 0.10140058 0.019842356
-0.0066092117 0.10244279 0.019949377
-0.0055369553 0.10298737 0.018951237
-0.0043565161 0.101289 0.019943327
-0.003209193 0.099484988 0.020647615
-0.0021488776 0.099922806 0.021900564
-0.0011029562 0.10257493 0.0231103
0 0.096980013 0.038502336
0.00097983796 0.091124937 0.042360634
0.001884826 0.087644413 0.045022041
0.0028717394 0.089023925 0.045564771
0.0037783077 0.087845653 0.045779616
0.00473226 0.088020042 0.045972466
0.0057266294 0.08876276 0.046293557
0.0066421521 0.088245735 0.045995533
0.0076120696 0.088490307 0.045617223
0.0084867291 0.087696202 0.044562072
0.0094885416 0.08824344 0.043281585
0.01031854 0.087238573 0.042545676
0.01149305 0.089071132 0.040948302
0.012654384 0.090527512 0.037267298
0.013964094 0.092761479 0.026807487
0.015474826 0.09594392 0.020103544
0.016487874 0.095835768 0.018376648
0.017576173 0.096152008 0.017762631
0.018666878 0.096445546 0.016709387
0.019599194 0.095932901 0.0162642
0.02080987 0.096765906 0.015214205
0.021654649 0.095899165 0.014409482
0.022780797 0.096300639 0.012303114
0.023424417 0.094716124 0.0091655552
-0.043321375 0.099322177 0.0074279308
-0.040975049 0.096291371 0.0099746883
-0.040681284 0.098052323 0.011068732
-0.039629169 0.098030046 0.012096077
-0.038185753 0.097012445 0.012281537
-0.037557617 0.098067112 0.012436599
-0.036325317 0.097559422 0.012846738
-0.035721015 0.098758094 0.013062119
-0.034446832 0.098121278 0.013115644
-0.033166979 0.097428001 0.013496876
-0.032358494 0.098119296 0.013570577
-0.031586703 0.098971665 0.014807194
-0.030200846 0.097892396 0.016037107
-0.028839329 0.096817747 0.017747968
-0.027524402 0.095825695 0.030109078
-0.02553723 0.092326909 0.036325961
-0.024262479 0.09122692 0.038381726
-0.02314033 0.09063296 0.040511996
-0.021752572 0.088901818 0.041538745
-0.021256849 0.090824723 0.043314189
-0.019989451 0.089476585 0.043707639
-0.019045807 0.089515299 0.044067472
-0.01813278 0.089709543 0.044338852
-0.017178167 0.089708209 0.044574767
-0.016196264 0.089555815 0.045272619
-0.015305767 0.089921385 0.045734346
-0.014306873 0.089656405 0.045734346
-0.013175661 0.088465147 0.046605587
-0.012246317 0.088550292 0.046514422
-0.011379177 0.089136884 0.046478748
-0.010909406 0.093225844 0.044851929
-0.010319403 0.097002394 0.035188079
-0.0095459549 0.099702202 0.024055094
-0.0086917756 0.10212836 0.022799015
-0.0077950857 0.10467687 0.023053259
-0.0064659547 0.10129996 0.023056298
-0.0053279293 0.10016508 0.023091823
-0.0042826384 0.100642 0.026066035
-0.0030483981 0.095516473 0.037681878
-0.0019793482 0.093029365 0.042236507
-0.00094219617 0.088566437 0.045749962
0 0.088276565 0.047663987
0.00094338338 0.08867804 0.047434837
0.0018785585 0.088292256 0.047434837
0.0028786964 0.090199158 0.046932638
0.0037928347 0.089131616 0.04648754
0.0047400263 0.08911249 0.046120375
0.0057405513 0.089935303 0.045972466
0.0065516443 0.087979227 0.045533568
0.0075670248 0.088912539 0.04490602
0.0085439859 0.089237183 0.043988585
0.0095135523 0.089427397 0.042787164
0.010526265 0.089951724 0.041904867
0.011730905 0.091892086 0.040387303
0.012540945 0.090680674 0.037185788
0.014086762 0.094582543 0.026786357
0.015550793 0.097451635 0.021065295
0.016307931 0.095809095 0.018924803
0.017518058 0.096864559 0.018216252
0.018530602 0.09677092 0.017714679
0.019579347 0.096866243 0.0166834
0.020466357 0.096191883 0.016035676
0.021947687 0.09824203 0.015361518
0.022249209 0.095064804 0.01367259
0.023705915 0.09688504 0.010698587
-0.042888351 0.099375442 0.008161217
-0.041257028 0.097985446 0.011404395
-0.040819973 0.099433266 0.012417287
-0.039416384 0.098540962 0.012694478
-0.038525291 0.098916285 0.013416439
-0.037745278 0.099605598 0.013803661
-0.036402389 0.098806486 0.01386556
-0.035622776 0.099534221 0.013910294
-0.034304745 0.09875609 0.013691992
-0.033479761 0.09939304 0.013860375
-0.032441363 0.099417076 0.014473885
-0.030944318 0.097990334 0.015695363
-0.029988397 0.09823785 0.01653409
-0.02897409 0.098304942 0.018158674
-0.026856951 0.094496675 0.025991708
-0.025652312 0.0937296 0.034448534
-0.024590932 0.093445539 0.037123293
-0.02340176 0.092631966 0.038815528
-0.022581017 0.093269408 0.040909469
-0.021019526 0.090766139 0.041644931
-0.02001936 0.090563767 0.043257803
-0.019058883 0.090529695 0.043528676
-0.01815081 0.090754054 0.044023186
-0.017128037 0.090397976 0.044229388
-0.016210398 0.090587519 0.045558691
-0.015027849 0.089227855 0.046053439
-0.014315779 0.090666607 0.046605587
-0.013454676 0.091299586 0.04702118
-0.012274164 0.089695811 0.047200531
-0.011312332 0.089555964 0.047316104
-0.010425792 0.09004093 0.047223628
-0.0092876107 0.088232301 0.047827452
-0.0084970389 0.089690968 0.048156083
-0.0074802283 0.088827707 0.048241168
-0.0065463209 0.088842921 0.048522085
-0.0056220246 0.089015394 0.048548698
-0.0046896222 0.089102827 0.048919171
-0.0037181026 0.088304937 0.048786938
-0.0028370428 0.089839689 0.048573345
-0.0018874746 0.089655042 0.048184037
-0.0009402454 0.089323312 0.048197657
0 0.089830816 0.048484981
0.00094944082 0.090196878 0.048153907
0.0019034924 0.090415888 0.048110306
0.0028327715 0.089704432 0.047900528
0.0038104085 0.090497203 0.046447754
0.0046655973 0.088646352 0.046005011
0.0057174098 0.090525657 0.045868546
0.0066164923 0.089795254 0.045296431
0.0076686107 0.091064751 0.044098049
0.0086694565 0.091510937 0.043307215
0.0096914973 0.092069224 0.042304248
0.010701082 0.09241844 0.041330844
0.011764199 0.093133241 0.039708674
0.012924757 0.094450146 0.035722792
0.014508041 0.09844742 0.023700058
0.01524064 0.096524052 0.021388412
0.016580524 0.098446861 0.0198946
0.017696712 0.098893389 0.018910766
0.018488253 0.097576886 0.01817894
0.019594317 0.097971588 0.016981781
0.020310355 0.096474193 0.016295373
0.021643056 0.097909056 0.015925765
0.022386683 0.096669771 0.014935136
0.02354965 0.097270288 0.011695832
-0.04298291 0.1006429 0.010299444
-0.041184388 0.098842531 0.012190223
-0.040378157 0.099392384 0.012631565
-0.039452653 0.099669859 0.013755411
-0.038416315 0.099674761 0.014279306
-0.03740092 0.099735789 0.0145199
-0.036541201 0.1002273 0.014553338
-0.035124641 0.099175461 0.014599323
-0.034150928 0.099348158 0.014701843
-0.033109132 0.099327393 0.015047014
-0.031895291 0.098772511 0.015760183
-0.031205464 0.099857479 0.016278028
-0.030029867 0.099409215 0.017138809
-0.029242696 0.10026067 0.018446803
-0.027436104 0.097550586 0.024965197
-0.025510194 0.094191484 0.032248527
-0.024466135 0.093949951 0.036325961
-0.023451099 0.093804397 0.037821412
-0.022441681 0.093669623 0.039461523
-0.021364596 0.093227327 0.041063339
-0.020581346 0.094086148 0.041556716
-0.019340703 0.092835382 0.042925566
-0.017942525 0.090656966 0.043410987
-0.01695632 0.090433709 0.044095129
-0.016243562 0.091728345 0.04529047
-0.015191907 0.091151439 0.045733064
-0.014355702 0.091876492 0.046564102
-0.013328457 0.091395132 0.047222883
-0.012262618 0.090554722 0.047328115
-0.011386317 0.091090538 0.047980845
-0.010430994 0.091034137 0.048241168
-0.00950702 0.091267392 0.048484445
-0.0084746396 0.090396158 0.049727321
-0.0075457213 0.090548657 0.049921185
-0.0066094385 0.090643726 0.050148875
-0.0056764777 0.090823643 0.050158143
-0.0047696815 0.091577888 0.050313622
-0.0037975858 0.091142058 0.050059497
-0.0028062705 0.089800656 0.049875885
-0.0018875947 0.090604544 0.049462199
-0.00095993315 0.092153579 0.049319208
0 0.090867452 0.049264133
0.00093864737 0.090110146 0.048540056
0.0018854602 0.090502091 0.048225462
0.0028443348 0.091018714 0.047746003
0.0037584552 0.09020292 0.046506733
0.0047379625 0.090968885 0.046269596
0.0056216978 0.089947164 0.045576781
0.0067198244 0.092157587 0.044357896
0.0077297287 0.092756741 0.043281585
0.0088000745 0.093867458 0.04266414
0.0096972901 0.093093991 0.041637748
0.010661143 0.093042701 0.0404284
0.011694266 0.093554132 0.038403153
0.012724865 0.093968235 0.033927798
0.014325644 0.098232985 0.026640624
0.015446245 0.098855965 0.02235195
0.016406236 0.098437414 0.020319134
0.017515533 0.098911241 0.01962018
0.018556736 0.098969266 0.019098878
0.019489877 0.098475166 0.01791209
0.020570152 0.098736733 0.016932011
0.021594808 0.098719113 0.016406298
0.022314163 0.097370893 0.015481472
0.02329812 0.097244322 0.012719125
-0.042424362 0.10036983 0.010529578
-0.041427732 0.10046224 0.012583226
-0.040456589 0.1006228 0.01344797
-0.039172504 0.099992968 0.014443249
-0.038219903 0.10019812 0.014707178
-0.037413776 0.10080934 0.015027761
-0.036107216 0.10006857 0.014999062
-0.035068624 0.10004871 0.015029132
-0.034071166 0.10014858 0.015215456
-0.032956153 0.099898338 0.015717506
-0.032258239 0.10093707 0.015954047
-0.031203734 0.10089207 0.016575664
-0.029999128 0.1003419 0.017922938
-0.028938072 0.10024974 0.019622564
-0.027252903 0.097908571 0.024163276
-0.025910879 0.096667506 0.031739622
-0.024552798 0.095264852 0.034901559
-0.023629455 0.095502377 0.036884397
-0.022495614 0.09487281 0.037969172
-0.021550335 0.095017388 0.03959778
-0.020466497 0.094535716 0.040897459
-0.019427964 0.09422563 0.041333646
-0.018734237 0.095643215 0.042151242
-0.017340958 0.093448497 0.042792946
-0.016079316 0.09174668 0.044097126
-0.015213581 0.092232332 0.045457333
-0.01407039 0.090988517 0.046626896
-0.013309263 0.092214175 0.047350705
-0.012181722 0.090894386 0.047375262
-0.011337187 0.091642261 0.048302144
-0.010395733 0.091671459 0.048990428
-0.0094856108 0.092010431 0.049863607
-0.0084751444 0.091343224 0.049956858
-0.0075693885 0.091778837 0.05036512
-0.0066127246 0.091633469 0.050276726
-0.0056746658 0.091740429 0.050462902
-0.0047654831 0.092450373 0.050815761
-0.0037937632 0.091998756 0.050616175
-0.0028441364 0.091960415 0.050518394
-0.0018994374 0.092122711 0.049875885
-0.00094741612 0.091899365 0.04971832
0 0.092319235 0.049319208
0.000946705 0.09183038 0.048356593
0.0018830824 0.091329493 0.048009634
0.0028220932 0.091247678 0.047463208
0.0037762234 0.091573417 0.046174437
0.0047539282 0.092226207 0.04538393
0.0058442447 0.094481952 0.044141173
0.0067591299 0.093662225 0.042902768
0.0077329096 0.093761526 0.042422622
0.0087428084 0.094228052 0.041674942
0.0097296825 0.09437792 0.040564597
0.010692866 0.094291635 0.039171368
0.011812709 0.09548606 0.037339807
0.012853907 0.095909923 0.031747818
0.014199752 0.098383993 0.02428481
0.015432127 0.099794418 0.022845507
0.016314477 0.09890651 0.020953387
0.017358616 0.099046215 0.020818412
0.018452408 0.099437974 0.019829124
0.019510286 0.099605143 0.018874735
0.020533601 0.099587969 0.017826676
0.021476895 0.099202797 0.016928405
0.022516286 0.099276349 0.016347647
0.023445463 0.098878689 0.014793426
-0.042098176 0.1006249 0.011259824
-0.0415456 0.10178673 0.01277709
-0.040198989 0.10101284 0.014360428
-0.039248776 0.10122052 0.014757246
-0.038488373 0.10194217 0.01508984
-0.037061084 0.10088851 0.015728414
-0.036295209 0.10162658 0.015904784
-0.035371687 0.10195368 0.015932888
-0.034223136 0.10163234 0.015750557
-0.033046905 0.10120614 0.016024113
-0.032470468 0.10264857 0.016822845
-0.031207152 0.10194336 0.017472506
-0.030014517 0.10142836 0.018106371
-0.028658448 0.10030457 0.020171791
-0.027325056 0.099179827 0.023902208
-0.025779244 0.097167917 0.030820847
-0.024977662 0.097912423 0.03357783
-0.023659898 0.096611254 0.035214067
-0.022541199 0.096045099 0.037081212
-0.021288171 0.094829127 0.038267463
-0.020380234 0.095107757 0.039461523
-0.019604929 0.096064158 0.040511996
-0.018470574 0.09526927 0.04111886
-0.017496083 0.095256455 0.042011887
-0.016550932 0.095411249 0.042944163
-0.015283436 0.093611039 0.045340151
-0.014068524 0.091914356 0.045885623
-0.013091139 0.091637969 0.047350705
-0.012173184 0.09176708 0.047375262
-0.011257504 0.091936283 0.048360646
-0.010478327 0.093352363 0.049473584
-0.0093416162 0.091547839 0.049908698
-0.0085981674 0.093624488 0.050087094
-0.0076228287 0.093379647 0.050813556
-0.0065794927 0.092112891 0.050435573
-0.0057158167 0.093358338 0.050656438
-0.0047440887 0.09298414 0.051002949
-0.0037626815 0.092185698 0.050878853
-0.0028382372 0.092715748 0.050562501
-0.0018983453 0.093018912 0.050014406
-0.0009410081 0.092218794 0.049626678
0 0.092340939 0.04848671
0.00093573716 0.091702238 0.048009634
0.0018728792 0.091771081 0.047434837
0.0028593796 0.093406402 0.045877695
0.0038102954 0.093352236 0.045099765
0.0048838472 0.095723405 0.043650627
0.005809973 0.094896227 0.042558581
0.0067540007 0.094556011 0.042168826
0.0077554658 0.095004454 0.041547179
0.0086999489 0.094732784 0.040677965
0.0097199474 0.095255479 0.039778203
0.010813711 0.096340336 0.038001359
0.011744119 0.095910303 0.036586285
0.012748023 0.096100479 0.030179054
0.014414505 0.10090154 0.024783731
0.015248372 0.099622697 0.022978812
0.016468918 0.10087211 0.021210372
0.017461317 0.10065936 0.020981938
0.01835555 0.099935777 0.020802736
0.019538432 0.10077718 0.019447207
0.020443738 0.10017432 0.018828869
0.021493146 0.10030135 0.017976701
0.022468247 0.10008582 0.016928405
0.023551704 0.10035073 0.016367584
-0.042489342 0.10259622 0.012599975
-0.041451022 0.10259129 0.014423877
-0.040403385 0.10256244 0.014935642
-0.039463598 0.10281307 0.01551199
-0.038396418 0.10273637 0.01641196
-0.037515234 0.1031669 0.017029762
-0.036552966 0.10339268 0.017088175
-0.035347287 0.10292299 0.016942352
-0.034207299 0.10262191 0.016749978
-0.032993853 0.10207473 0.017001987
-0.031674106 0.10115279 0.017730445
-0.031203305 0.10297091 0.017945945
-0.029928694 0.10217036 0.018710524
-0.028818822 0.10189512 0.020451486
-0.027615452 0.10125666 0.024218589
-0.025839603 0.09838926 0.028464079
-0.02479041 0.098170027 0.031892806
-0.023884468 0.098523431 0.034664929
-0.022526802 0.096963197 0.036182523
-0.021409787 0.096344046 0.037603468
-0.020612989 0.097175524 0.038035482
-0.019547466 0.09675996 0.03931579
-0.018458758 0.096179843 0.040140361
-0.017541299 0.096477151 0.04098466
-0.016375458 0.095362961 0.042316079
-0.015538604 0.096145116 0.043724686
-0.014592725 0.096311986 0.045208156
-0.013372585 0.094563283 0.045799732
-0.01212229 0.092315905 0.047020823
-0.011301384 0.093236424 0.047747374
-0.010239896 0.09215907 0.048631042
-0.0093557257 0.092621692 0.049471229
-0.008537259 0.09390986 0.049711555
-0.0075445524 0.093363836 0.050596178
-0.0065483344 0.092612155 0.05028227
-0.0056247911 0.092809059 0.050562501
-0.0047105602 0.093269095 0.050880253
-0.0037623923 0.093119211 0.0506908
-0.0028183011 0.093003944 0.0503048
-0.0018739232 0.092759207 0.049687028
-0.00093992933 0.093053013 0.049265295
0 0.092965394 0.04801333
0.00094880781 0.093931973 0.04761076
0.0019376106 0.095911726 0.045923531
0.002915784 0.096220881 0.044778109
0.0038568547 0.095457159 0.043572903
0.0048085121 0.095208541 0.042583317
0.0057749986 0.095287487 0.041827708
0.0067944094 0.096092358 0.04154411
0.0077798464 0.096275598 0.040760219
0.0087209996 0.095931001 0.040268183
0.009743304 0.096458711 0.038687617
0.010700051 0.09630046 0.037222594
0.01171814 0.096674658 0.035015404
0.012915215 0.098354332 0.02795729
0.014276956 0.10095847 0.025419831
0.015265266 0.10075077 0.023353189
0.016541706 0.10235181 0.022302508
0.017326538 0.1009016 0.021677047
0.018472647 0.10159957 0.02110818
0.019548465 0.1018578 0.020790875
0.020290015 0.10043558 0.01962018
0.021406226 0.10091507 0.019190639
0.022131465 0.099591598 0.018094212
0.023404876 0.10074273 0.017045915
0.025604682 0.10561932 0.00617823
-0.041822731 0.10200666 0.013436586
-0.040736925 0.10184232 0.014615744
-0.040095136 0.10280804 0.01551199
-0.038977336 0.10257194 0.016665548
-0.038044944 0.10282417 0.017255902
-0.03704156 0.10289323 0.017977148
-0.035991214 0.10283204 0.017889202
-0.034993991 0.1029235 0.017975003
-0.03425356 0.10379867 0.017837644
-0.032916147 0.10286296 0.017816424
-0.031876933 0.10282882 0.017804563
-0.031029377 0.10343125 0.017925858
-0.029820561 0.10282952 0.019565731
-0.02870618 0.10252207 0.021046847
-0.027932452 0.10345352 0.024504215
-0.025753926 0.099053562 0.026225448
-0.024741996 0.098967984 0.03075394
-0.023863444 0.099431023 0.033541054
-0.02270112 0.098700523 0.035172462
-0.021741671 0.098825783 0.036542207
-0.020460758 0.097432181 0.037660748
-0.01966249 0.09831246 0.038170189
-0.018607404 0.097933702 0.039278299
-0.01746935 0.097051948 0.040158927
-0.016526651 0.0972156 0.040777445
-0.015488853 0.096805334 0.042199284
-0.014591287 0.09727525 0.043702245
-0.01358907 0.097064786 0.044947475
-0.01259867 0.096912853 0.045680344
-0.011506933 0.095891111 0.047094643
-0.010352291 0.094111748 0.04808265
-0.0094271302 0.09427131 0.049624592
-0.0084204869 0.093560971 0.0497922
-0.0075231036 0.094038799 0.050640702
-0.0064968891 0.092812702 0.050432444
-0.0055895583 0.093159311 0.050616175
-0.0046873954 0.093747914 0.050692111
-0.0037772257 0.094430648 0.050398469
-0.0027969533 0.093231782 0.049971521
-0.0018725896 0.093629479 0.049626678
-0.00094730582 0.094730586 0.048348516
0 0.096742138 0.047610074
0.00095801288 0.095801286 0.046573371
0.0019082006 0.095410034 0.044852585
0.0029231275 0.09743759 0.043530375
0.0038799143 0.096997857 0.042418867
0.0048355679 0.09671136 0.041777998
0.0057748123 0.096246876 0.041174293
0.0067759422 0.09679918 0.040577024
0.0077568404 0.096960507 0.040051401
0.0087797679 0.097552985 0.039177269
0.0098091597 0.098091602 0.037479937
0.010641752 0.096743204 0.03616333
0.011933378 0.099444821 0.031547606
0.012974531 0.099804096 0.027477205
0.014207357 0.10148112 0.025440812
0.015458519 0.10305679 0.024033427
0.016241685 0.10151053 0.022957385
0.017280238 0.10164846 0.02259779
0.018388452 0.10215808 0.021783531
0.019291161 0.10153243 0.021202981
0.020658674 0.10329337 0.020841986
0.021396207 0.1018867 0.0198448
0.02216273 0.10073969 0.019124746
0.023567814 0.10246876 0.017899692
0.025130529 0.10471054 0.010074407
-0.041581187 0.1024317 0.014397651
-0.041242685 0.10413779 0.015265554
-0.040046412 0.10370994 0.016455084
-0.039014913 0.10369753 0.01779139
-0.037902825 0.10346446 0.017976701
-0.036956236 0.10368278 0.018148571
-0.035990722 0.10385894 0.018107682
-0.035191819 0.10454041 0.018141598
-0.033933964 0.1038585 0.018028438
-0.032740269 0.10333647 0.018042177
-0.031960554 0.10412955 0.018556058
-0.030876705 0.10395158 0.019481868
-0.030028787 0.10458302 0.020152837
-0.0287917 0.10385577 0.02256614
-0.027374461 0.10240076 0.024480253
-0.025853829 0.10043219 0.025408924
-0.024984138 0.10093591 0.027254671
-0.024057621 0.10124249 0.031308383
-0.022981007 0.10091659 0.034555018
-0.021535344 0.098866813 0.035976976
-0.02064709 0.099302672 0.037189394
-0.019600121 0.098980621 0.037775427
-0.018599803 0.098872639 0.038263023
-0.017465429 0.098000474 0.039594203
-0.016568121 0.098434128 0.040064305
-0.015357786 0.096946023 0.040759563
-0.014533053 0.097855888 0.04234615
-0.01353142 0.097619534 0.043301135
-0.012481388 0.096970782 0.044620633
-0.011607222 0.097694121 0.045162052
-0.010604917 0.097372428 0.046783864
-0.009464711 0.095593579 0.047395587
-0.0084320055 0.094625846 0.047815263
-0.0075049484 0.09474998 0.049249202
-0.0065985671 0.0952079 0.049503237
-0.0056256275 0.094698064 0.049597353
-0.0046778289 0.094492152 0.049565524
-0.0037433081 0.094518535 0.048692822
-0.0028493947 0.09592963 0.048009634
-0.0019213804 0.097029708 0.047537565
-0.00095419545 0.096373744 0.047374427
0 0.097490624 0.04569152
0.00095307222 0.096260294 0.044778109
0.0019349778 0.097716384 0.043618917
0.0029045523 0.097786598 0.042503864
0.0038825886 0.098035358 0.041649789
0.004835668 0.097680502 0.04107964
0.0058852551 0.099068463 0.040689111
0.0068021473 0.098145269 0.040049076
0.0078061679 0.098552875 0.039312869
0.0087937349 0.098685257 0.037658036
0.0097885942 0.098864801 0.036736339
0.010845451 0.099580958 0.034270525
0.011771743 0.099078842 0.029199392
0.01320194 0.10256892 0.02727142
0.014082339 0.10159402 0.025663078
0.015344827 0.10332184 0.024944633
0.016098831 0.10162387 0.023860008
0.017575322 0.10441809 0.023323536
0.018071424 0.10140078 0.022863925
0.019370679 0.10297046 0.022213817
0.020172913 0.10187321 0.02162832
0.021490235 0.10335779 0.020975173
0.022226306 0.10203895 0.019819587
0.023401879 0.10276478 0.018603355
0.025005251 0.10523044 0.012269825
-0.042084578 0.10469822 0.014538854
-0.04102074 0.1046029 0.016510755
-0.039960824 0.10451293 0.017941296
-0.039067879 0.10486641 0.018230766
-0.038058966 0.10491931 0.01833418
-0.037042454 0.10495362 0.01884833
-0.036354758 0.10594816 0.018860996
-0.035219043 0.10565713 0.01836127
-0.033882774 0.10472859 0.018828422
-0.033344831 0.10628664 0.019313395
-0.03163477 0.10408859 0.019667387
-0.030727582 0.10447378 0.019995272
-0.029775107 0.10472624 0.021984428
-0.028144101 0.10252494 0.02355206
-0.027544471 0.10405689 0.024538964
-0.026462486 0.10381437 0.025413245
-0.024690641 0.10073782 0.026632369
-0.023804089 0.10116738 0.02946341
-0.022904942 0.10157844 0.031485528
-0.021518657 0.099768326 0.034622729
-0.020729 0.10068371 0.035976976
-0.019738371 0.1006657 0.037376225
-0.018614538 0.099930674 0.03790766
-0.017565547 0.099538103 0.038844347
-0.016586365 0.099518195 0.039495945
-0.015679276 0.09995538 0.04030925
-0.014618287 0.09940435 0.040965527
-0.013629187 0.099298365 0.042223513
-0.012574528 0.098661683 0.042965859
-0.011462112 0.097427949 0.044032544
-0.010612897 0.098410495 0.044853002
-0.0096268272 0.098193638 0.045508653
-0.0086928029 0.098518446 0.046864629
-0.0075108754 0.095763661 0.047642022
-0.0065665161 0.095683523 0.047895253
-0.0056573688 0.096175268 0.048062146
-0.004687449 0.095623963 0.047979385
-0.0038159939 0.097307846 0.047900587
-0.0028707394 0.097605146 0.047681808
-0.0019260257 0.098227315 0.046573371
-0.0009646758 0.098396927 0.04574281
0 0.09828271 0.044360369
0.00095510401 0.09742061 0.043631107
0.0019400878 0.098944478 0.042837024
0.0028749935 0.097749777 0.041844606
0.0038790936 0.098916888 0.041276544
0.0048608505 0.099161349 0.040723741
0.0057963217 0.098537467 0.040094674
0.0067865159 0.098889239 0.039276242
0.0078379083 0.099933326 0.038142532
0.0088118901 0.099868089 0.036625355
0.0098211588 0.10017582 0.034696877
0.010858484 0.10068776 0.030402631
0.012007825 0.10206652 0.028404504
0.013084296 0.1026614 0.027041733
0.014340986 0.10448433 0.026052982
0.015200184 0.10336125 0.025393069
0.016241342 0.10353855 0.024631888
0.017229669 0.10337801 0.024259001
0.018228557 0.10329516 0.023678094
0.019231319 0.10324182 0.023049951
0.020067677 0.10234516 0.022309482
0.021410549 0.10399409 0.021570265
0.022383142 0.10377639 0.020783544
0.023329634 0.10346185 0.019529521
0.024714349 0.10503599 0.015850544
-0.041784886 0.10497178 0.01532352
-0.040735357 0.10489355 0.01827085
-0.039778825 0.1050569 0.018556982
-0.03893511 0.10553464 0.019161105
-0.037735976 0.1050488 0.019667596
-0.036795881 0.10527711 0.020009905
-0.035851177 0.10550489 0.0201554
-0.034565736 0.10471384 0.019927859
-0.033955779 0.1059832 0.019831777
-0.032731473 0.10535442 0.020010769
-0.031754594 0.10550719 0.020351738
-0.030672111 0.10530758 0.021074027
-0.029369535 0.10431248 0.022625476
-0.028681528 0.10550705 0.023821145
-0.027351394 0.1043405 0.02448076
-0.026276566 0.10409562 0.025251597
-0.025409678 0.10468787 0.026055545
-0.023690797 0.10167301 0.028041869
-0.022668831 0.10151693 0.029409647
-0.021700349 0.10159709 0.031895816
-0.020575391 0.10091739 0.034610897
-0.019481177 0.10032807 0.036141723
-0.018675102 0.10123871 0.037472367
-0.017578371 0.10058735 0.037964582
-0.016644618 0.1008468 0.039048076
-0.015670812 0.10088085 0.039631188
-0.014378488 0.098732285 0.040370464
-0.013459068 0.099020287 0.041134059
-0.012465701 0.098766699 0.042247534
-0.011606096 0.099618994 0.042687118
-0.010559123 0.09887179 0.043584287
-0.0095826732 0.098701544 0.044518977
-0.0085207475 0.097515225 0.045090199
-0.0077821901 0.1001957 0.045780599
-0.0066357222 0.097639918 0.045906216
-0.0056564496 0.097102381 0.046124101
-0.0048145317 0.099179357 0.045948923
-0.0038349577 0.098750159 0.046034068
-0.0028635229 0.098314285 0.045525998
-0.0019235692 0.099063814 0.044796944
-0.00095860445 0.098736256 0.043934286
0 0.099168375 0.043310285
0.00097005995 0.099916175 0.042361259
0.0019323085 0.099513888 0.041780233
0.0029147174 0.10007196 0.041196585
0.0039150249 0.1008119 0.040863007
0.0048402161 0.099708453 0.040107161
0.0059040762 0.10135331 0.039256603
0.0068117827 0.10023052 0.03804788
0.0077925813 0.10032948 0.03664571
0.0088703549 0.10151629 0.03462708
0.0097509157 0.10043443 0.030892819
0.01104416 0.10341349 0.030079365
0.012107567 0.10392329 0.027894765
0.01319153 0.1045175 0.027041733
0.014070467 0.10351844 0.026291907
0.015177784 0.10422079 0.025832534
0.016172118 0.10410801 0.025315195
0.01729656 0.10479681 0.025036126
0.018417256 0.10538764 0.024559349
0.019180562 0.10397884 0.024259001
0.020405987 0.10509083 0.023554027
0.021443537 0.10517544 0.022609502
0.021872882 0.10240486 0.021570265
0.023011906 0.10305332 0.020323515
0.024303405 0.10430212 0.017118186
-0.041405872 0.10502952 0.015269727
-0.040541731 0.1054085 0.018504709
-0.039757218 0.10601925 0.019488037
-0.038777724 0.1061285 0.02003178
-0.037793752 0.10623109 0.020731598
-0.036807608 0.10633309 0.021348357
-0.035844009 0.10650792 0.020957619
-0.034984857 0.1070125 0.020812631
-0.033954743 0.10700889 0.020498067
-0.032263644 0.10485684 0.020732135
-0.031888697 0.10698143 0.021102756
-0.030671274 0.10632708 0.022519708
-0.029312555 0.10512088 0.023625106
-0.028654331 0.10643037 0.024282724
-0.027164757 0.10463462 0.024654835
-0.02630358 0.10521432 0.025253892
-0.025093911 0.10439067 0.026198924
-0.024317002 0.10537367 0.027402014
-0.023029171 0.1041319 0.028470814
-0.02164056 0.10230083 0.030651778
-0.020554287 0.10179266 0.032931745
-0.019693388 0.10240562 0.034824312
-0.018670527 0.10219657 0.036328018
-0.017615493 0.10177841 0.037620932
-0.016587432 0.10147606 0.038104534
-0.015629247 0.10159011 0.039153099
-0.014496285 0.10050757 0.039996624
-0.013459176 0.099982448 0.040688783
-0.012651386 0.10121109 0.041345388
-0.011520495 0.099844284 0.042169392
-0.01059361 0.10015777 0.042642713
-0.0095509104 0.099329472 0.043528378
-0.0086945314 0.10047015 0.044267535
-0.0076882634 0.099947423 0.044706047
-0.0067361994 0.10008068 0.044735134
-0.0057914532 0.10038519 0.044798702
-0.0047679469 0.0991733 0.044618279
-0.0038151664 0.099194326 0.04466179
-0.0028865726 0.10006785 0.044507563
-0.0019260622 0.10015523 0.04380089
-0.000964751 0.1003341 0.04334721
0 0.10023619 0.042195886
0.00095825945 0.099658981 0.041836888
0.0019447104 0.10112493 0.041191518
0.0029134823 0.10100072 0.04085657
0.0038755934 0.10076543 0.039962053
0.004862952 0.1011494 0.03914842
0.0058831507 0.10197461 0.037302732
0.006752308 0.10032 0.036479771
0.0078411987 0.10193558 0.034470588
0.0088649821 0.10243979 0.031494439
0.010027011 0.10428092 0.030343145
0.011032928 0.10431132 0.029087931
0.012049269 0.104427 0.027854145
0.013151337 0.1052107 0.027137697
0.014100758 0.10474849 0.026770443
0.015270328 0.10587428 0.026374638
0.015950985 0.1036814 0.025887907
0.017302133 0.10584834 0.025708556
0.018029375 0.10416973 0.025474668
0.019171201 0.10493709 0.025139511
0.02016023 0.10483319 0.024741471
0.021161994 0.10480225 0.024217099
0.022207115 0.10497909 0.023110986
0.023296149 0.1053391 0.021290302
0.024206715 0.10489576 0.017477393
-0.041479468 0.1062279 0.018338591
-0.040420908 0.10610488 0.019538134
-0.039810993 0.10718343 0.020131916
-0.038731907 0.10702237 0.021556467
-0.038075123 0.10805102 0.021848381
-0.036867771 0.107531 0.022279531
-0.035863396 0.10759019 0.021868914
-0.03481973 0.10753152 0.021692306
-0.033939939 0.10799072 0.021712929
-0.032900739 0.10795555 0.022445858
-0.031347882 0.10617831 0.02259326
-0.030490275 0.10671596 0.023360878
-0.029267428 0.10596827 0.024214923
-0.028241474 0.10590553 0.02464208
-0.027199075 0.10577417 0.024968743
-0.026240125 0.10596973 0.025707334
-0.025190486 0.10580003 0.026492059
-0.02427534 0.10620461 0.027378172
-0.02316954 0.10577399 0.028311104
-0.022270026 0.10628875 0.029539973
-0.021051375 0.10525687 0.031307012
-0.019708475 0.1034695 0.033632636
-0.018690482 0.10328951 0.035054117
-0.017698077 0.10323879 0.036356091
-0.016635416 0.10274816 0.037557513
-0.015449982 0.1013905 0.037900031
-0.014670442 0.10269309 0.03905651
-0.01364736 0.1023552 0.039935261
-0.012529478 0.10119963 0.040562421
-0.011700928 0.10238312 0.041481376
-0.010609837 0.10127571 0.042189687
-0.0097178305 0.10203721 0.042756289
-0.0086435825 0.1008418 0.043334186
-0.0076524322 0.10043817 0.043918788
-0.0067997798 0.1019967 0.044056714
-0.0057277633 0.10023586 0.044056714
-0.0047989432 0.1007778 0.044054598
-0.0038498708 0.1010591 0.044054955
-0.0028641075 0.10024376 0.043896616
-0.0019310188 0.10137848 0.043293834
-0.00096923334 0.1017695 0.042336494
0 0.10150351 0.041631073
0.00098085194 0.10298945 0.041103035
0.0019133256 0.1004496 0.040901303
0.0029051548 0.10168042 0.039771527
0.0038906813 0.10213038 0.038526207
0.0048520188 0.1018924 0.037039757
0.00585408 0.1024464 0.035225034
0.0068563311 0.10284497 0.034451723
0.0079736812 0.10465456 0.031658441
0.0088728322 0.10351638 0.030701131
0.010148829 0.10656271 0.029790819
0.011009976 0.10509522 0.028963327
0.012164297 0.10643759 0.027928323
0.013080468 0.10564994 0.027298421
0.014174672 0.10631003 0.027011544
0.01506651 0.10546557 0.026875943
0.016156239 0.10602532 0.026706666
0.017129289 0.10579855 0.026203305
0.018200798 0.10617132 0.026178986
0.019134881 0.10574539 0.025815368
0.019993594 0.10496636 0.025466025
0.021269076 0.10634538 0.025243312
0.021824313 0.10416149 0.024154156
0.022923041 0.10464866 0.022879332
0.024227297 0.10599443 0.019698232
-0.041451748 0.10716793 0.018677056
-0.040654365 0.10773407 0.019907534
-0.039310653 0.10684434 0.021337897
-0.03848296 0.1073472 0.021897048
-0.03748057 0.10737675 0.022845298
-0.036593668 0.10774802 0.02322489
-0.035549555 0.10766436 0.022880167
-0.034396961 0.10723758 0.022907436
-0.033663221 0.10813034 0.022939652
-0.032263778 0.10687377 0.023363084
-0.031479903 0.10764095 0.023555607
-0.030510385 0.10780335 0.024396271
-0.029500132 0.10782807 0.024658442
-0.028332824 0.10725997 0.024887025
-0.027147448 0.10657886 0.025283277
-0.02630049 0.10722507 0.02590847
-0.025154425 0.10665476 0.026701123
-0.024182759 0.10680718 0.02747339
-0.023262236 0.10720856 0.028298527
-0.022216195 0.10704167 0.029225945
-0.0211979 0.10699892 0.030041665
-0.020140257 0.10674336 0.031334639
-0.019049279 0.10627492 0.03320998
-0.017652214 0.10395192 0.035362303
-0.016666228 0.10391883 0.036196917
-0.015768413 0.10446573 0.037017971
-0.014484705 0.10235858 0.037484437
-0.013668647 0.10349118 0.038721949
-0.012653491 0.10317462 0.039433748
-0.01163787 0.10280118 0.04027763
-0.010730335 0.10340142 0.041359037
-0.0096800253 0.10260827 0.041869789
-0.0087475087 0.10302622 0.0424833
-0.0076939184 0.10194442 0.042708993
-0.0067807394 0.10267977 0.043017358
-0.0057221125 0.10109065 0.043481976
-0.0047712321 0.10115013 0.043334395
-0.0038371254 0.10168382 0.043235779
-0.0028780794 0.10169214 0.042910784
-0.0019369014 0.10265577 0.042157412
-0.00096374389 0.10215685 0.041602999
0 0.10306307 0.041074604
0.000969638 0.10278162 0.040528148
0.0019208696 0.10180608 0.039983243
0.0029159188 0.10302912 0.038082659
0.0039467509 0.10458889 0.036528081
0.0048401882 0.10261199 0.034760475
0.0060375324 0.10666307 0.033996642
0.0069808164 0.1057095 0.032582551
0.0079640541 0.10552372 0.031380087
0.009078444 0.1069239 0.030303985
0.010022374 0.10623717 0.02964586
0.010948753 0.10550617 0.029034078
0.012059241 0.10652329 0.028215021
0.013107644 0.10687771 0.027652681
0.013996054 0.10597012 0.027172446
0.015126153 0.10689148 0.027158767
0.016022848 0.10615136 0.02710554
0.017186828 0.10716493 0.026984334
0.018184302 0.10708534 0.027124077
0.018960902 0.10578187 0.027124077
0.020000141 0.10600074 0.026750475
0.020937068 0.10568234 0.025839686
0.021834206 0.10520118 0.025071353
0.022693742 0.10458855 0.023809403
0.024379056 0.10767416 0.021017104
-0.041337319 0.10788032 0.019196033
-0.040509731 0.10836353 0.021179736
-0.039524298 0.10843847 0.021977872
-0.038668778 0.10888314 0.023059398
-0.037522584 0.10851126 0.023711473
-0.03658589 0.1087414 0.024107695
-0.035726894 0.10922223 0.024228185
-0.034707077 0.10922521 0.024271369
-0.033440914 0.10842964 0.02411148
-0.032642271 0.1091476 0.02432242
-0.031247402 0.10785393 0.024461061
-0.030033266 0.10711866 0.02482146
-0.029420543 0.10855166 0.024930775
-0.028458461 0.10875198 0.02525878
-0.02711954 0.10747373 0.025554389
-0.026236827 0.10797463 0.025844902
-0.02517413 0.10774527 0.026734859
-0.0242073 0.10792422 0.027290851
-0.023387156 0.10880112 0.028047442
-0.02213902 0.10767615 0.028758168
