ply
format ascii 1.0
comment PCL generated
element vertex 1265
property float x
property float y
property float z
element camera 0
property float view_px
property float view_py
property float view_pz
property float x_axisx
property float x_axisy
property float x_axisz
property float y_axisx
property float y_axisy
property float y_axisz
property float z_axisx
property float z_axisy
property float z_axisz
property float focal
property float scalex
property float scaley
property float centerx
property float centery
property int viewportx
property int viewporty
property float k1
property float k2
end_header
0.023354251 -0.045646943 0.010532528
0.024099195 -0.045055017 0.0087791383
0.025811475 -0.04624556 0.0080407858
0.026692294 -0.045910742 0.0053850114
-0.03949175 -0.044828475 0.0062859654
-0.038237303 -0.044610191 0.0085890591
-0.03716211 -0.044594534 0.009333998
-0.036198378 -0.044715643 0.0099399686
-0.035264604 -0.044882223 0.0097730458
-0.034088675 -0.044741385 0.0099290907
-0.032986686 -0.044691637 0.009996146
-0.031986639 -0.044781297 0.01067856
-0.030990928 -0.044883411 0.01166442
-0.029371925 -0.044057891 0.013237804
-0.028729603 -0.044690493 0.014856577
-0.027441911 -0.044329245 0.01811415
-0.025620412 -0.043042295 0.024475813
-0.024189608 -0.042331815 0.0304479
-0.023091767 -0.042167574 0.03237766
-0.022066861 -0.042127647 0.033877522
-0.020989038 -0.041978076 0.034601063
-0.02005871 -0.042123295 0.035435528
-0.018919958 -0.041823063 0.036023736
-0.017996006 -0.041990682 0.036513001
-0.016762191 -0.041412476 0.036840916
-0.015882496 -0.041691553 0.03713876
-0.014853085 -0.041588642 0.038487643
-0.013721576 -0.04116473 0.038977176
-0.012909569 -0.04170784 0.039419442
-0.011839615 -0.041438654 0.040082604
-0.010753729 -0.041059695 0.040876627
-0.0099295229 -0.041703995 0.041379422
-0.0088808928 -0.041444171 0.042571872
-0.0079042427 -0.041497275 0.043062925
-0.0068706949 -0.04122417 0.043399513
-0.0058584795 -0.041009359 0.04384011
-0.0048476686 -0.040720418 0.044054925
-0.0038607789 -0.040538177 0.044074625
-0.0028896434 -0.04045501 0.044641733
-0.0019271863 -0.040470913 0.044386208
-0.0009695451 -0.040720895 0.044294089
0 -0.041095424 0.044251084
0.00098700996 -0.041454419 0.043770224
0.0019530196 -0.041013412 0.043140829
0.0029191147 -0.040867604 0.042149663
0.0038930387 -0.04087691 0.040705234
0.0049043647 -0.041196667 0.040022969
0.0059014093 -0.041309867 0.039334089
0.0068936143 -0.041361686 0.039118201
0.0079769995 -0.041879248 0.038332611
0.0088945339 -0.041507829 0.037496388
0.0099064857 -0.041607242 0.037104785
0.010917766 -0.041686017 0.036652684
0.011890532 -0.041616861 0.035664111
0.012933208 -0.041784208 0.035153598
0.014004967 -0.042014904 0.034556478
0.014864903 -0.04162173 0.033634156
0.015870862 -0.041661009 0.032504767
0.017624302 -0.043542393 0.023142487
0.018653557 -0.043524969 0.018844157
0.019961538 -0.044125505 0.016144067
0.020819437 -0.043720819 0.01421231
0.02229513 -0.044590261 0.012452334
0.02329243 -0.044467367 0.011404693
0.024070691 -0.043955177 0.0098697841
0.025494248 -0.044614937 0.0084808469
0.026089484 -0.043830335 0.0066448152
-0.041108537 -0.044353951 0.0051202476
-0.039385583 -0.043643486 0.007602632
-0.038621135 -0.043985188 0.0089284778
-0.037281558 -0.043672685 0.0097471476
-0.036349401 -0.043833103 0.010285705
-0.035856135 -0.044548534 0.010480881
-0.033977404 -0.043533549 0.010930657
-0.033233203 -0.043953594 0.011001736
-0.031326994 -0.042813562 0.011608452
-0.030754961 -0.043481153 0.012644023
-0.029355707 -0.042985141 0.013527989
-0.028565366 -0.043377038 0.015241355
-0.027448926 -0.043284848 0.018502593
-0.025707178 -0.042159773 0.024413317
-0.024146385 -0.041250076 0.030044198
-0.023125533 -0.041223776 0.032090962
-0.0222937 -0.041547354 0.033369333
-0.020874834 -0.04075563 0.034126878
-0.020015378 -0.041031528 0.034956366
-0.01907561 -0.041163161 0.035903692
-0.017984251 -0.04096413 0.036153287
-0.017032295 -0.04107789 0.036440313
-0.015954446 -0.040883273 0.036808461
-0.014685047 -0.040139128 0.037524164
-0.014022138 -0.041064832 0.038288683
-0.012746581 -0.040200759 0.038725972
-0.011865932 -0.040541939 0.039295942
-0.010883882 -0.040567197 0.039814383
-0.0097986637 -0.040174522 0.040569901
-0.008884809 -0.040475242 0.041233629
-0.0079412032 -0.04069867 0.041514575
-0.0068588718 -0.040173393 0.042842269
-0.0059076548 -0.040368974 0.043247461
-0.0048837881 -0.040047064 0.043502957
-0.003872202 -0.039690074 0.043505669
-0.0029588048 -0.040437002 0.043810457
-0.0019453929 -0.039880555 0.043609619
-0.00098053028 -0.040201742 0.043571949
0 -0.039886024 0.043541729
0.00098793046 -0.040505152 0.042582661
0.0019646818 -0.04027598 0.041584641
0.0029717248 -0.040613573 0.040978551
0.003973132 -0.040724602 0.039733917
0.0049656695 -0.040718496 0.039182693
0.0058505209 -0.039978564 0.038698971
0.0068864673 -0.040335026 0.038227379
0.0079649761 -0.040820505 0.037174433
0.0089301094 -0.040681612 0.03640157
0.0098865898 -0.040535022 0.036080986
0.010961919 -0.040858064 0.035785437
0.011933596 -0.040773124 0.035038471
0.012928641 -0.040774949 0.034640193
0.013949999 -0.040853567 0.033956587
0.014970547 -0.040919494 0.033168316
0.015782801 -0.040443428 0.031651139
0.017637059 -0.042536438 0.022939056
0.018663786 -0.042511962 0.01894775
0.019973557 -0.043100838 0.016380548
0.020840518 -0.042723067 0.014481992
0.022159634 -0.04326405 0.013490587
0.023183795 -0.043206166 0.012391925
0.0240866 -0.042936984 0.011209041
0.025253724 -0.043141782 0.0098223388
0.026444264 -0.043368593 0.0083337724
0.027425319 -0.043247618 0.0054409206
-0.040558685 -0.04269335 0.0068583488
-0.039478086 -0.042679008 0.0084910989
-0.03870688 -0.043007646 0.0098355711
-0.036628664 -0.041861329 0.010581613
-0.036253612 -0.042651307 0.011364222
-0.035194572 -0.042660087 0.011881053
-0.033912316 -0.042390395 0.011888415
-0.032738905 -0.042243745 0.011695087
-0.031558067 -0.042077418 0.012723863
-0.030957429 -0.0426999 0.013203353
-0.030237515 -0.043196447 0.014674217
-0.028876508 -0.042780008 0.015787691
-0.027578564 -0.042428561 0.018645823
-0.025702998 -0.041124795 0.024213403
-0.024114622 -0.040191036 0.02904588
-0.023368152 -0.040640265 0.030924112
-0.022019379 -0.040035237 0.032217711
-0.020962756 -0.039929058 0.033582777
-0.020071283 -0.040142566 0.034314364
-0.018990563 -0.039980128 0.034984767
-0.017977839 -0.039950754 0.035552621
-0.016751099 -0.039414354 0.035965025
-0.015883751 -0.039709374 0.036384761
-0.014958831 -0.039890215 0.037186861
-0.013784557 -0.039384447 0.037669361
-0.012942914 -0.039824352 0.038254559
-0.011941679 -0.039805595 0.038787127
-0.01098401 -0.039941855 0.039116859
-0.0098927049 -0.03957082 0.039556444
-0.0088853966 -0.039490651 0.040233016
-0.0078825317 -0.039412655 0.040704936
-0.0069867107 -0.039924063 0.041203558
-0.0058807428 -0.039204951 0.04248786
-0.0048974487 -0.03917959 0.042572409
-0.0039234073 -0.039234072 0.04231599
-0.0029722874 -0.039630499 0.042727143
-0.0019564372 -0.039128743 0.042610258
-0.00097853108 -0.039141241 0.042341441
0 -0.039660722 0.042234093
0.00098429504 -0.0393718 0.041541696
0.0019445455 -0.038890909 0.040652961
0.003005778 -0.040077038 0.04000634
0.003929717 -0.039297167 0.039094567
0.0049738907 -0.039791126 0.038674027
0.0058956668 -0.039304443 0.038190335
0.0069374517 -0.03964258 0.037243515
0.0079742502 -0.039871253 0.036411494
0.0089771114 -0.039898273 0.035814762
0.010008555 -0.04003422 0.035256386
0.010967999 -0.039883632 0.03489539
0.011977339 -0.039924465 0.03448683
0.012883 -0.039639998 0.034006
0.014025647 -0.040073276 0.033257931
0.01509707 -0.040258851 0.032328933
0.01580712 -0.039517798 0.030275762
0.01742403 -0.040997718 0.021400779
0.018527715 -0.041172698 0.018918812
0.019982005 -0.042067379 0.017392755
0.020617878 -0.041235756 0.015654802
0.021689298 -0.041312944 0.014348805
0.022540508 -0.040982742 0.013288617
0.024173422 -0.042040732 0.011876702
0.025188806 -0.041981343 0.010840744
0.026744561 -0.042791296 0.009116739
0.027632086 -0.042510901 0.0072762072
-0.040228724 -0.041287374 0.0076174736
-0.038275748 -0.040344704 0.009436518
-0.037952479 -0.041115187 0.010719836
-0.03715387 -0.041400027 0.011766404
-0.036007464 -0.041302677 0.012519628
-0.034622289 -0.040917251 0.012901127
-0.034096722 -0.041555379 0.012630999
-0.03221415 -0.040527478 0.012827367
-0.031698275 -0.041207761 0.013177693
-0.030491007 -0.041005146 0.013869226
-0.029560031 -0.041172899 0.015229464
-0.02775383 -0.040088866 0.017066509
-0.027752185 -0.041628279 0.018607229
-0.025962142 -0.040500943 0.021974027
-0.024292061 -0.039474599 0.027456701
-0.023352945 -0.039598469 0.03044638
-0.022196721 -0.039348733 0.031544209
-0.021268228 -0.039498135 0.032968789
-0.020093152 -0.039181646 0.03366518
-0.01903666 -0.039075248 0.034615546
-0.017942939 -0.03887637 0.034991115
-0.017025253 -0.039057929 0.035518885
-0.015914794 -0.038792308 0.03562218
-0.014784187 -0.038438886 0.036251158
-0.013786226 -0.038404483 0.036834061
-0.012951595 -0.038854785 0.037540019
-0.011934405 -0.038786817 0.038220793
-0.010933978 -0.038765918 0.038623273
-0.0099102911 -0.038650136 0.039206117
-0.0089787589 -0.038907956 0.039705694
-0.0079431925 -0.038723063 0.039976299
-0.00701178 -0.039065633 0.040297151
-0.0058690733 -0.038148977 0.041027755
-0.0049214023 -0.038386937 0.041447997
-0.0039374745 -0.038390376 0.041457951
-0.0029524416 -0.03838174 0.04156369
-0.0019490264 -0.038006015 0.04160586
-0.00098216883 -0.038304586 0.041367412
0 -0.037781633 0.041351497
0.00098750938 -0.038512863 0.041121989
0.0019902936 -0.038810726 0.039709985
0.0029613625 -0.038497712 0.039386511
0.0039869929 -0.038873181 0.03850475
0.0049396073 -0.038528938 0.038105875
0.0059174965 -0.038463727 0.037334949
0.0069119637 -0.03850951 0.036599934
0.007965521 -0.038831912 0.036045313
0.0090082455 -0.039035734 0.035353929
0.0098599354 -0.03845375 0.034967244
0.010870582 -0.038541157 0.034586012
0.012002831 -0.039009202 0.034042299
0.012936614 -0.03880984 0.03355813
0.01395435 -0.038872831 0.03292647
0.014932465 -0.038824409 0.032318234
0.016039954 -0.039097387 0.029464424
0.017494254 -0.040133875 0.021493822
0.018571522 -0.040238298 0.019711554
0.02012164 -0.041302312 0.018476337
0.020865358 -0.040687453 0.016956121
0.022325849 -0.041462291 0.015632451
0.022909947 -0.040613089 0.014550745
0.024172345 -0.04098789 0.012987345
0.025298173 -0.041109528 0.011481971
0.026181711 -0.040843468 0.0098400712
0.027210526 -0.040815789 0.008150667
-0.041786913 -0.040715456 0.006755054
-0.039622784 -0.039622784 0.0092445314
-0.039302412 -0.040364638 0.010075778
-0.037950568 -0.040058937 0.012035102
-0.036498059 -0.039626468 0.013036042
-0.0358782 -0.040099166 0.013752103
-0.034600545 -0.039843053 0.014052063
-0.033709783 -0.040030371 0.01336512
-0.032306213 -0.039601166 0.013290137
-0.031785697 -0.040261883 0.014496088
-0.030478928 -0.039937906 0.015091062
-0.029661994 -0.040255565 0.016168475
-0.028156154 -0.03962718 0.017787397
-0.027804447 -0.04063727 0.018969297
-0.025847139 -0.039287649 0.020715982
-0.023988076 -0.037981119 0.025950253
-0.02322747 -0.038375821 0.02941379
-0.022203332 -0.038351212 0.030750185
-0.021135801 -0.038245734 0.031923443
-0.020342864 -0.038651444 0.033031374
-0.019044647 -0.038089294 0.033792228
-0.017963585 -0.037923124 0.034691632
-0.016994251 -0.037987147 0.035316676
-0.015991367 -0.037979499 0.03531903
-0.014963317 -0.037907071 0.035810143
-0.01387444 -0.037659194 0.036198944
-0.012786684 -0.03737646 0.036986738
-0.011876088 -0.037607614 0.037576258
-0.011070745 -0.038244393 0.038066447
-0.0098173777 -0.037306037 0.03882432
-0.0088935094 -0.037550375 0.039349139
-0.0079203239 -0.037621539 0.039588332
-0.0069085127 -0.037503354 0.039767355
-0.0059349309 -0.037587896 0.040272474
-0.0049775071 -0.037829056 0.040446073
-0.0039418126 -0.037447218 0.040441602
-0.002934389 -0.037168927 0.040849686
-0.0019670944 -0.037374794 0.040720075
-0.00098895887 -0.037580438 0.040424436
0 -0.037649754 0.040485173
0.0009914476 -0.037675012 0.040161788
0.0019723147 -0.03747398 0.038967788
0.0029586083 -0.037475709 0.038499355
0.0039731334 -0.037744764 0.037581384
0.0049025454 -0.037259348 0.037243515
0.0059531396 -0.037703216 0.036535561
0.0070087775 -0.038047649 0.036116153
0.0079426579 -0.037727624 0.035518706
0.0090180393 -0.038076166 0.035142332
0.0098993015 -0.037617344 0.034805864
0.010931242 -0.037762474 0.034575343
0.012009332 -0.038029552 0.033822984
0.012989384 -0.037968967 0.033261627
0.014001838 -0.038004991 0.032692552
0.015093433 -0.038236696 0.03069371
0.01593508 -0.037845816 0.025058597
0.017596364 -0.039333049 0.021510541
0.019118439 -0.040361151 0.019900799
0.019483579 -0.038967159 0.018697321
0.020735728 -0.039397888 0.018201292
0.022060007 -0.039918106 0.016730934
0.022518028 -0.038894776 0.015446067
0.024243603 -0.040054649 0.014207393
0.025491783 -0.040361993 0.012618154
0.025863798 -0.039312974 0.011334777
0.027412282 -0.040064108 0.0098059475
-0.040945705 -0.038845927 0.007294178
-0.039783508 -0.038736574 0.0095972717
-0.039011706 -0.039011706 0.011111736
-0.03786353 -0.038915299 0.013017088
-0.036322292 -0.038397856 0.014148563
-0.035892647 -0.039059646 0.01509434
-0.035153687 -0.039414741 0.015005678
-0.033492904 -0.038726173 0.014689684
-0.032264885 -0.0385097 0.014689684
-0.031556908 -0.038920186 0.015319824
-0.030269958 -0.038620293 0.016014308
-0.029857107 -0.039454035 0.01742509
-0.028609199 -0.039205201 0.018221557
-0.027171299 -0.038666852 0.019040704
-0.025754647 -0.03811688 0.020433426
-0.024265638 -0.037409525 0.024110734
-0.02346568 -0.037749138 0.028827131
-0.022277832 -0.037467267 0.030330032
-0.021173803 -0.037306227 0.031108439
-0.02022751 -0.037420895 0.03215915
-0.019161988 -0.037315451 0.033389091
-0.018074745 -0.037153646 0.034047216
-0.017101318 -0.037220515 0.03472048
-0.015960133 -0.036907807 0.034765273
-0.01497316 -0.036933798 0.035301894
-0.014182637 -0.037482683 0.035698831
-0.012790441 -0.036403563 0.036016047
-0.012010663 -0.03703288 0.036718845
-0.010834303 -0.036442656 0.037285
-0.0099149542 -0.036685333 0.037660778
-0.0088999458 -0.036588669 0.038475215
-0.0079770405 -0.036893815 0.039109856
-0.0068489248 -0.036201462 0.039405495
-0.0058707432 -0.036202919 0.039611906
-0.0049316119 -0.036493931 0.039963484
-0.0039267 -0.036321975 0.040061563
-0.0029973639 -0.03696749 0.040225804
-0.0019866163 -0.036752403 0.04019168
-0.0009792312 -0.036231555 0.039625645
0 -0.036728147 0.03972137
0.0009885208 -0.036575269 0.039294094
0.0019681589 -0.036410939 0.038563728
0.0030077463 -0.037095539 0.037755638
0.0039351997 -0.036400598 0.037216008
0.0049877702 -0.036909502 0.036708713
0.0059792921 -0.036872301 0.036189795
0.0068965191 -0.036453031 0.035585046
0.0079789832 -0.036902796 0.035176516
0.0089818928 -0.036925562 0.034707874
0.010017533 -0.037064873 0.034485877
0.010949803 -0.036831155 0.034061968
0.012111164 -0.037342757 0.033176243
0.013023167 -0.037065938 0.032690734
0.014026325 -0.037069574 0.032140881
0.015055071 -0.037135843 0.029612839
0.015974693 -0.03694148 0.022188991
0.017695321 -0.038513348 0.021039903
0.018632656 -0.038300462 0.020215631
0.020086151 -0.039115138 0.019102126
0.020924885 -0.038711037 0.018416911
0.02209313 -0.038925994 0.017698795
0.022822006 -0.038382467 0.016730934
0.023690145 -0.038110234 0.014799923
0.025404589 -0.039165411 0.013612747
0.026063701 -0.038574278 0.012596875
0.027202807 -0.038711689 0.011171401
0.028440729 -0.038974334 0.0053467155
-0.040353753 -0.037249617 0.0081321299
-0.039746482 -0.03765456 0.010571152
-0.038915299 -0.03786353 0.012856275
-0.038579732 -0.038579732 0.014066547
-0.036978412 -0.038034935 0.015152484
-0.035838988 -0.037947163 0.016128451
-0.034887947 -0.038059577 0.016128451
-0.033701904 -0.037914641 0.015784293
-0.032377254 -0.037599392 0.015797466
-0.031471346 -0.037765615 0.016902566
-0.030670252 -0.038073413 0.017430156
-0.02907843 -0.037386551 0.017869979
-0.028645093 -0.038193453 0.01852718
-0.027314505 -0.037820082 0.019695342
-0.025939262 -0.037352536 0.020433426
-0.024551909 -0.036827862 0.023403019
-0.023037279 -0.036058348 0.026051551
-0.022177465 -0.036290396 0.028964907
-0.021091977 -0.036157675 0.030513853
-0.020098634 -0.036177542 0.031380832
-0.019031463 -0.036059611 0.032134175
-0.018192401 -0.036384802 0.032966465
-0.017185636 -0.03639311 0.033881456
-0.016090928 -0.036204584 0.034170806
-0.014948323 -0.035875976 0.034698725
-0.013974263 -0.035933819 0.035098106
-0.012873817 -0.03565057 0.035615444
-0.011937619 -0.035812855 0.035787463
-0.010929574 -0.035769515 0.036258996
-0.0097654182 -0.035155505 0.03678894
-0.0089882948 -0.035953179 0.03770113
-0.0078836391 -0.035476372 0.038148075
-0.0069805379 -0.035899907 0.038777888
-0.0059857452 -0.03591447 0.039353311
-0.0049057049 -0.035321075 0.039721847
-0.0039356044 -0.035420436 0.039916515
-0.0029685283 -0.03562234 0.039926142
-0.0019547576 -0.035185639 0.039761275
-0.00099087006 -0.03567132 0.039381653
0 -0.035400327 0.039361954
0.00099706452 -0.035894319 0.038687378
0.0019845152 -0.035721272 0.038228363
0.0029590547 -0.035508655 0.037501335
0.0039557656 -0.035601888 0.036751688
0.0049700737 -0.035784528 0.036298573
0.0059482185 -0.035689309 0.035581052
0.0070362194 -0.03618627 0.035149276
0.0080400482 -0.036180217 0.034684777
0.0090003163 -0.036001265 0.034418911
0.0099651581 -0.035874568 0.033902109
0.010922897 -0.035747662 0.033330947
0.011921594 -0.03576478 0.03260535
0.01291485 -0.035764199 0.031928152
0.014024396 -0.036062732 0.030044556
0.015256011 -0.036614425 0.025232702
0.01610549 -0.036237352 0.022341877
0.017565224 -0.037196942 0.021671742
0.018576801 -0.037153602 0.020741373
0.019927019 -0.037756458 0.020108074
0.020969639 -0.037745349 0.01940006
0.021982219 -0.037683804 0.018640876
0.023024596 -0.03767661 0.018231183
0.024155675 -0.03780888 0.016513437
0.025397222 -0.038095836 0.014244884
0.026172619 -0.037688568 0.013115585
0.026867012 -0.037200477 0.01137051
0.027874527 -0.037166033 0.0080995858
-0.040605411 -0.036440752 0.010039181
-0.039224319 -0.036127664 0.012799561
-0.03854109 -0.036457784 0.014014304
-0.037520923 -0.036478676 0.015885502
-0.03685518 -0.03685518 0.016763419
-0.035414662 -0.036456268 0.017260253
-0.034456063 -0.036544308 0.017064422
-0.032943908 -0.036032401 0.016950607
-0.031796698 -0.035899494 0.017075241
-0.032168791 -0.037530255 0.017689317
-0.030120002 -0.036351725 0.017931789
-0.029559873 -0.036949843 0.018320233
-0.028368276 -0.036773689 0.019060463
-0.027140826 -0.036535725 0.019932449
-0.026122279 -0.03657119 0.021356374
-0.024667894 -0.035974015 0.022969604
-0.023374302 -0.03556959 0.024252445
-0.022215694 -0.035343148 0.026677012
-0.021319536 -0.03553256 0.029198647
-0.020327521 -0.035573162 0.030591339
-0.019248918 -0.035458531 0.031069964
-0.018208411 -0.035405245 0.031880826
-0.016940769 -0.034878053 0.032764912
-0.01601289 -0.035028197 0.033754438
-0.014868754 -0.034693759 0.034203947
-0.013917846 -0.034794614 0.034921765
-0.012987145 -0.034965388 0.035261542
-0.011839699 -0.034532454 0.035647482
-0.010994764 -0.034983341 0.035684168
-0.0098556168 -0.034494657 0.036302328
-0.0089088362 -0.034645472 0.036921114
-0.0079898313 -0.034955513 0.037205428
-0.0069867508 -0.034933753 0.038081378
-0.0059502567 -0.03470983 0.038729399
-0.0049742046 -0.034819432 0.039245397
-0.0039663552 -0.034705605 0.039363176
-0.0030019823 -0.035023127 0.039222449
-0.0019808216 -0.034664374 0.039189011
-0.00099078449 -0.034677453 0.039014995
0 -0.03460953 0.038877994
0.00099042 -0.034664698 0.038405716
0.0019864098 -0.03476217 0.037706763
0.0029485903 -0.034400221 0.037005603
0.0040096021 -0.03508402 0.036140084
0.004907392 -0.034351744 0.035350502
0.0060289716 -0.035169002 0.034883499
0.0069365846 -0.034682922 0.034518301
0.0080044065 -0.035019279 0.034220845
0.0089771543 -0.034911159 0.033651531
0.010018966 -0.035066381 0.033269525
0.011024821 -0.035078976 0.032859594
0.012082322 -0.035240106 0.031717837
0.013089748 -0.03524163 0.030069232
0.013991786 -0.034979463 0.025785565
0.015123699 -0.035288628 0.023738086
0.016450869 -0.035986274 0.022447973
0.017650589 -0.036339447 0.021877199
0.018703219 -0.036367368 0.021188617
0.019771153 -0.036420546 0.020599276
0.020651491 -0.03614011 0.020174116
0.022180675 -0.036967788 0.019742012
0.022977611 -0.03655529 0.019260466
0.023831801 -0.036265783 0.018444836
0.024919653 -0.036341161 0.01641506
0.02565546 -0.035917643 0.014333606
0.027077785 -0.036450863 0.012858778
0.027671179 -0.035870045 0.0095528066
-0.04076732 -0.035540741 0.012440592
-0.039496966 -0.035339389 0.013650864
-0.038598515 -0.035468902 0.015417248
-0.038056087 -0.035941862 0.016942829
-0.036335517 -0.03529736 0.01795724
-0.035224587 -0.035224587 0.018152595
-0.035184748 -0.036250953 0.018044204
-0.033871494 -0.035988461 0.018044204
-0.032830656 -0.036007814 0.017781168
-0.031439498 -0.035631433 0.018048018
-0.030460315 -0.035712093 0.018324465
-0.0292047 -0.035462849 0.018951029
-0.028148454 -0.035446201 0.019696116
-0.027063066 -0.035390165 0.020182997
-0.026152106 -0.035566863 0.021692932
-0.024984645 -0.035394914 0.022869796
-0.023842465 -0.035245385 0.023944646
-0.022257805 -0.034398425 0.025237799
-0.021153351 -0.034248281 0.02707836
-0.020477496 -0.034811746 0.029166311
-0.019201141 -0.034359936 0.030396104
-0.018233059 -0.034440227 0.030797273
-0.01720031 -0.03440062 0.031399041
-0.016223205 -0.034474313 0.03212443
-0.015248055 -0.034562256 0.033730716
-0.013937822 -0.033848993 0.034071624
-0.013011236 -0.034029387 0.034614325
-0.011748951 -0.033288695 0.034944147
-0.01100246 -0.034007605 0.03538847
-0.0099646235 -0.03387972 0.03582716
-0.0089867301 -0.033949871 0.036222458
-0.0079001812 -0.03357577 0.036668867
-0.0069219097 -0.033620704 0.037526876
-0.0060007377 -0.034004182 0.038145214
-0.0049363882 -0.03356744 0.038748413
-0.0039803265 -0.033832774 0.03881222
-0.0029754676 -0.033721969 0.038718671
-0.0019558496 -0.033249442 0.038739473
-0.00098400959 -0.033456326 0.038554043
0 -0.033607226 0.038474441
0.00097811618 -0.03325595 0.037970871
0.0019992292 -0.033986896 0.037511021
0.0029703642 -0.033664126 0.036790758
0.0039606425 -0.033665463 0.035801351
0.0049831672 -0.033885539 0.034992278
0.0059981858 -0.03398972 0.034553796
0.0069869705 -0.033936713 0.033684731
0.0081368415 -0.034581576 0.033310264
0.0090299165 -0.03411302 0.033112317
0.0099956002 -0.033985041 0.032812715
0.011034528 -0.034106724 0.031683028
0.012113327 -0.034321096 0.030044556
0.012985975 -0.033963319 0.027126759
0.014130789 -0.034317631 0.024923265
0.01543475 -0.034985434 0.023690611
0.016366964 -0.034779798 0.022556543
0.017614115 -0.03522823 0.021984071
0.01857174 -0.035079956 0.021387905
0.019665834 -0.035191491 0.020614147
0.020727502 -0.035236757 0.020207703
0.021698685 -0.035131205 0.020018816
0.022668872 -0.035033714 0.019497424
0.023760157 -0.03512371 0.018924326
0.02495699 -0.035355736 0.017889649
0.025962608 -0.035309147 0.015691191
0.02732159 -0.035728235 0.014166504
0.028004423 -0.035264827 0.011362165
-0.042766511 -0.035282373 0.005030334
-0.040506802 -0.034274988 0.013321012
-0.039624654 -0.034410883 0.015219629
-0.038485572 -0.034324966 0.016645372
-0.037676085 -0.034536414 0.017979771
-0.036355726 -0.034278259 0.018594593
-0.03556744 -0.034521338 0.018789232
-0.034348588 -0.034348588 0.018661737
-0.032992616 -0.034023635 0.018625617
-0.031825062 -0.033878289 0.018532246
-0.030931506 -0.034024656 0.018776566
-0.029970938 -0.034104861 0.019026697
-0.028844101 -0.033994831 0.01969713
-0.028224675 -0.034496821 0.020217091
-0.027196381 -0.034518484 0.021160245
-0.025978601 -0.034291752 0.021989316
-0.025048057 -0.03444108 0.022778422
-0.023972992 -0.03439603 0.023888648
-0.022845779 -0.03426867 0.024568856
-0.021455951 -0.033716492 0.02616331
-0.020333651 -0.033550527 0.02707836
-0.019146306 -0.033254109 0.029177785
-0.018209526 -0.033384129 0.03006646
-0.017059378 -0.033115264 0.030101717
-0.015863219 -0.032717891 0.031117171
-0.015080883 -0.033177942 0.03192994
-0.01381743 -0.032569654 0.033484012
-0.013016308 -0.033041395 0.033922166
-0.011968606 -0.032913666 0.034264296
-0.011014101 -0.033042304 0.034704864
-0.0099727688 -0.032910138 0.035444885
-0.0089076729 -0.032661468 0.035798788
-0.0079776477 -0.032907799 0.035869509
-0.0070241494 -0.033113848 0.036515713
-0.0060001621 -0.03300089 0.037165433
-0.0049644546 -0.0327654 0.038258195
-0.0039405623 -0.03250964 0.038322002
-0.0029890295 -0.032879323 0.03830719
-0.0019791052 -0.032655235 0.038322896
-0.0010017155 -0.033056613 0.038063824
0 -0.032617535 0.037887335
0.00099302561 -0.032769844 0.037445545
0.0020128924 -0.033212725 0.037063718
0.0030156455 -0.033172101 0.036170095
0.0039826124 -0.032856554 0.034819841
0.0049635433 -0.032759383 0.034390181
0.0059644338 -0.032804385 0.033645928
0.0069331313 -0.032684762 0.032910407
0.0080053527 -0.03302208 0.032711893
0.0089060329 -0.032655455 0.032392412
0.010195723 -0.033645883 0.030965775
0.01089516 -0.032685477 0.029939622
0.012144271 -0.033396747 0.027247727
0.013265816 -0.033674762 0.025302023
0.014442365 -0.034042716 0.024502337
0.015474392 -0.034043662 0.023790985
0.016605472 -0.034248788 0.022666395
0.017504236 -0.033978809 0.02248624
0.01866083 -0.034211524 0.021691024
0.01971028 -0.034233641 0.020970583
0.020194057 -0.033320192 0.020369381
0.021603782 -0.033948798 0.020187706
0.022613503 -0.033920255 0.019976944
0.023762288 -0.034093715 0.019952744
0.025142688 -0.034571197 0.018845022
0.02577845 -0.034027554 0.017613888
0.026633503 -0.033804059 0.014443547
0.028360551 -0.034662895 0.01257807
-0.043002471 -0.034401979 0.0057893991
-0.040304918 -0.033070702 0.014580131
-0.039575089 -0.033326391 0.016674608
-0.038278289 -0.033105545 0.017894357
-0.037361078 -0.033209849 0.018734843
-0.036286715 -0.033176426 0.019497484
-0.03540777 -0.033324961 0.019878268
-0.034695312 -0.033643939 0.019805908
-0.03325516 -0.03325516 0.019806713
-0.03225226 -0.033292655 0.019789755
-0.031501405 -0.0336015 0.019805908
-0.030258248 -0.03338841 0.019890279
-0.028797263 -0.032911159 0.020058304
-0.0281583 -0.033372801 0.020765603
-0.027151382 -0.033417087 0.021361262
-0.025885245 -0.033133112 0.022188365
-0.024703618 -0.032938156 0.022969604
-0.023954088 -0.033327427 0.023828506
-0.022831682 -0.033209719 0.02424708
-0.021661665 -0.033008251 0.02530098
-0.020570856 -0.032913372 0.026165843
-0.019234369 -0.032394726 0.026828498
-0.018276585 -0.03249171 0.028766692
-0.017136112 -0.032256212 0.029668689
-0.016130729 -0.032261457 0.029850394
-0.014924483 -0.031838898 0.030365199
-0.014063435 -0.032144994 0.031629443
-0.01296444 -0.031912465 0.032696158
-0.012006742 -0.03201798 0.033865571
-0.010968202 -0.031907495 0.03435725
-0.010008807 -0.032028187 0.034695894
-0.009019942 -0.032070905 0.035132051
-0.0080973925 -0.03238957 0.035285622
-0.0069196415 -0.031632647 0.035876185
-0.0059568854 -0.031770058 0.036301643
-0.0049876398 -0.031920895 0.036855191
-0.0039916821 -0.031933457 0.036987185
-0.0029498828 -0.031465415 0.037259936
-0.0019780458 -0.031648733 0.037269413
-0.00098544615 -0.031534277 0.037011057
0 -0.031625789 0.036950976
0.00099814939 -0.031940781 0.036569834
0.0019875276 -0.031800441 0.035980731
0.0029732222 -0.031714369 0.03509143
0.0040016496 -0.032013196 0.033949971
0.004973053 -0.031827543 0.033630848
0.0060232515 -0.032124009 0.032817394
0.0070306719 -0.032140214 0.031918257
0.008057042 -0.032228168 0.030926883
0.0089838477 -0.031942569 0.030090362
0.01010542 -0.032337345 0.029143959
0.011095188 -0.03227691 0.0277614
0.012380017 -0.033013381 0.026052445
0.013371947 -0.032915562 0.024803877
0.014451227 -0.033031378 0.024449497
0.015500289 -0.033067282 0.02392748
0.016511647 -0.033023294 0.023053765
0.017469564 -0.032883886 0.022520691
0.018552013 -0.032981358 0.022124976
0.01949738 -0.032837693 0.021607161
0.020803967 -0.033286348 0.020845443
0.021886006 -0.033350106 0.020796567
0.022680806 -0.032990262 0.020731419
0.023552133 -0.032768182 0.02047354
0.02477788 -0.033037174 0.019624025
0.025779083 -0.032997224 0.018756866
0.026930602 -0.033145357 0.016960382
0.028290929 -0.033529989 0.013818413
-0.043134209 -0.033429012 0.006385684
-0.039758179 -0.031602655 0.016372949
-0.039299883 -0.032060433 0.017816454
-0.038084131 -0.031908326 0.018722653
-0.038113825 -0.03282024 0.019720525
-0.036230169 -0.03208958 0.020409316
-0.03556706 -0.032428794 0.021015704
-0.034200199 -0.032127462 0.020706356
-0.032866023 -0.031838961 0.02070716
-0.031910922 -0.031910922 0.02049911
-0.03126201 -0.032304078 0.020485103
-0.029995099 -0.032063726 0.020888627
-0.029227393 -0.0323589 0.020947307
-0.028013116 -0.032163206 0.022069365
-0.027125126 -0.032341499 0.022145659
-0.025976753 -0.032211173 0.023165166
-0.024666198 -0.031860508 0.023267388
-0.024049498 -0.032414541 0.023983896
-0.022475565 -0.031670116 0.024298042
-0.021489955 -0.031723268 0.025052845
-0.02060766 -0.031941876 0.025544405
-0.019422729 -0.031689718 0.026191384
-0.018586244 -0.032009646 0.026579857
-0.017479172 -0.031873785 0.027971536
-0.016126104 -0.031244325 0.028639942
-0.015146103 -0.031301949 0.029525042
-0.014170807 -0.031378217 0.030060738
-0.012986721 -0.030968336 0.030606419
-0.0121892 -0.031488769 0.032890111
-0.011067276 -0.031189596 0.03386122
-0.010010765 -0.031033374 0.034356654
-0.0090610906 -0.031210424 0.034406215
-0.0080148559 -0.031057568 0.034687698
-0.0069456729 -0.030759411 0.034858614
-0.0060025472 -0.031013161 0.035197675
-0.0050053322 -0.031033061 0.035891354
-0.0039392109 -0.030528884 0.036224246
-0.0030055374 -0.031057222 0.036290407
-0.0020038444 -0.031059587 0.036416888
-0.0009878882 -0.030624535 0.036293805
0 -0.030995896 0.036506444
0.00099573052 -0.030867647 0.035785705
0.0019887679 -0.030825902 0.034712672
0.0030215865 -0.031223061 0.033961773
0.0040075392 -0.031058429 0.033257037
0.0049512303 -0.030697631 0.03232035
0.0059529454 -0.030756885 0.031802088
0.0069346107 -0.03071042 0.030212313
0.0080921696 -0.031357158 0.029168665
0.0092060454 -0.031709716 0.027992368
0.010315852 -0.031979144 0.02712512
0.011290547 -0.031818815 0.026286721
0.012240244 -0.031620633 0.025692821
0.013437753 -0.032043874 0.024973482
0.014390259 -0.031864148 0.024496555
0.015412192 -0.031851865 0.024129719
0.016375886 -0.031728283 0.023271829
0.017558679 -0.03201877 0.022684664
0.018478019 -0.031823259 0.022577286
0.019388117 -0.031633243 0.022235811
0.020610088 -0.031945642 0.022034675
0.021614898 -0.031907707 0.021867543
0.022582401 -0.031820659 0.02195698
0.023641879 -0.031865142 0.021783084
0.024842426 -0.032088134 0.020620078
0.025605114 -0.031750344 0.019708931
0.026404293 -0.031482041 0.018869787
0.02716314 -0.031187311 0.015017331
-0.041053683 -0.030790262 0.011371464
-0.040341545 -0.031031959 0.017139584
-0.039707515 -0.031348038 0.018624008
-0.037618589 -0.030501558 0.019846708
-0.036891352 -0.030742794 0.020662278
-0.036226384 -0.031051187 0.021400005
-0.034865119 -0.030763341 0.021525025
-0.034264632 -0.031149665 0.021571219
-0.032856699 -0.030803153 0.02186197
-0.032548394 -0.031498443 0.021283269
-0.03088226 -0.03088226 0.021239191
-0.030273363 -0.031317271 0.022014439
-0.028492402 -0.030527575 0.022163242
-0.027898828 -0.030998696 0.023029208
-0.026947241 -0.031092972 0.023037404
-0.025631189 -0.030757427 0.023440123
-0.024749521 -0.030936901 0.023615092
-0.02356397 -0.030735612 0.02400288
-0.022562625 -0.030767217 0.024320394
-0.021701869 -0.031002667 0.024621814
-0.02068443 -0.031026646 0.025462031
-0.019677974 -0.031070486 0.025822639
-0.018570079 -0.030950133 0.026273459
-0.017349254 -0.03061633 0.026315898
-0.01636246 -0.030679613 0.026393563
-0.015704034 -0.031408068 0.028143406
-0.014216878 -0.030464737 0.028997064
-0.013001821 -0.030004201 0.029329479
-0.011904881 -0.029762205 0.030827403
-0.010825332 -0.029523633 0.031580508
-0.010017524 -0.030052574 0.033104956
-0.0090179443 -0.030059816 0.033954382
-0.0080285333 -0.030107001 0.034130126
-0.0070095481 -0.03004092 0.034282684
-0.0059343739 -0.02967187 0.034498096
-0.0049804407 -0.029882645 0.034779221
-0.0040063532 -0.030047648 0.034941494
-0.0029853124 -0.029853122 0.035156637
-0.0019719978 -0.029579969 0.035178721
-0.0010010269 -0.030030807 0.034994543
0 -0.029543852 0.034793973
0.00099658815 -0.029897645 0.034147769
0.0019959547 -0.02993932 0.033727586
0.002987501 -0.02987501 0.032553017
0.0039985706 -0.029989278 0.03143245
0.0050099292 -0.030059576 0.03017804
0.0060664271 -0.030332137 0.029264748
0.0071976492 -0.030847069 0.028457612
0.0082420371 -0.03090764 0.027876705
0.0092761787 -0.030920597 0.02716139
0.010218117 -0.030654354 0.026306927
0.011129546 -0.030353308 0.025992304
0.012298721 -0.030746803 0.025814086
0.013404745 -0.030934026 0.025188237
0.014387027 -0.030829344 0.024898946
0.015529037 -0.031058075 0.024700433
0.016543271 -0.031018635 0.023922086
0.017421545 -0.030743904 0.023402929
0.018422473 -0.030704122 0.023094177
0.019469101 -0.030740684 0.022767752
0.020556899 -0.030835349 0.022726148
0.02172737 -0.0310391 0.023213953
0.022287471 -0.030392008 0.023259342
0.023488574 -0.030637268 0.023073912
0.024394082 -0.030492604 0.022373527
0.025477955 -0.030573545 0.020748883
0.026636453 -0.030734368 0.019638717
0.027148612 -0.030165123 0.017754197
0.028799813 -0.030856943 0.0090360343
-0.041869625 -0.03035548 0.011482894
-0.040686455 -0.030254031 0.017672896
-0.039010718 -0.029771339 0.019729316
-0.03884884 -0.030449091 0.020627737
-0.036911149 -0.029733984 0.021321923
-0.036107868 -0.02991795 0.02277562
-0.035021875 -0.029871598 0.022561133
-0.034170866 -0.030028943 0.022821814
-0.032633774 -0.029574357 0.02284652
-0.031981021 -0.02991773 0.022877723
-0.030769633 -0.029743979 0.022822618
-0.029636823 -0.029636823 0.023089081
-0.029262021 -0.030307095 0.0232521
-0.027794151 -0.029852977 0.023260981
-0.026747037 -0.029833235 0.023461699
-0.026116906 -0.03029561 0.023743451
-0.024617085 -0.029745646 0.02383244
-0.023881087 -0.030110935 0.024126738
-0.022630876 -0.029831612 0.024460733
-0.021432905 -0.029597821 0.024750412
-0.020521786 -0.029756591 0.025510401
-0.019691963 -0.030056154 0.025606692
-0.018455371 -0.029733654 0.02610147
-0.017376188 -0.029641733 0.026007146
-0.016342122 -0.029620096 0.026100546
-0.01538329 -0.029741028 0.026400179
-0.014200761 -0.029415863 0.027366549
-0.013499654 -0.030114613 0.027455777
-0.012273984 -0.029662129 0.028312087
-0.011237912 -0.029627224 0.029764742
-0.010066174 -0.029191906 0.029882282
-0.0089665186 -0.028892117 0.032002956
-0.0080115199 -0.029041762 0.032762796
-0.00701509 -0.029062515 0.033334941
-0.0060551348 -0.029266486 0.033580124
-0.0049764891 -0.028863639 0.034327269
-0.0039691404 -0.028776268 0.034327269
-0.0029787445 -0.028794531 0.034174949
-0.0019839143 -0.028766759 0.034097821
-0.00099068938 -0.028729992 0.034089833
0 -0.028754773 0.033991426
0.0010044946 -0.029130343 0.032720178
0.0019854957 -0.028789686 0.031871885
0.0030274568 -0.029265417 0.031266749
0.0040691169 -0.029501097 0.029684603
0.0051564905 -0.029907648 0.028584361
0.006132849 -0.029642105 0.028163731
0.0071334196 -0.029552739 0.027706951
0.0081992829 -0.029722402 0.027432531
0.0092932004 -0.029944759 0.026679605
0.01028322 -0.02982134 0.0261572
0.011178396 -0.029470317 0.025956899
0.012394345 -0.029953003 0.02562654
0.013332923 -0.029742677 0.025251031
0.014404128 -0.029837124 0.025186568
0.015499064 -0.029964859 0.024762064
0.016242949 -0.029440345 0.024458379
0.017305948 -0.02952191 0.024312943
0.018663153 -0.030068414 0.024038553
0.019334158 -0.029510031 0.023788124
0.020354142 -0.029513508 0.023895383
0.021404846 -0.029559072 0.023981571
0.022475906 -0.029627332 0.024484932
0.023571068 -0.029720044 0.023961812
0.024821064 -0.029992118 0.023472339
0.024971226 -0.028966622 0.022321105
0.026586093 -0.029653719 0.021197885
0.027605744 -0.029650616 0.019235462
0.029941507 -0.031010848 0.012302369
-0.041910868 -0.029337607 0.014798075
-0.040006515 -0.028722627 0.018244207
-0.038817376 -0.028602276 0.020171165
-0.037927866 -0.028702168 0.021586061
-0.036904551 -0.028703539 0.022700042
-0.036345396 -0.029076315 0.023531228
-0.034922943 -0.028760068 0.023455292
-0.034220893 -0.029035909 0.023625433
-0.032994591 -0.028870268 0.023625433
-0.032095697 -0.028989661 0.023500413
-0.03061492 -0.028573925 0.02341491
-0.030015038 -0.028980037 0.023527235
-0.029163543 -0.029163543 0.023593247
-0.027726956 -0.02875388 0.02391094
-0.026723351 -0.028778993 0.024049789
-0.025710214 -0.028795438 0.024288923
-0.024468424 -0.028546495 0.024369717
-0.023745634 -0.028907727 0.02446425
-0.022511946 -0.028651567 0.024590105
-0.02165227 -0.028869694 0.025241941
-0.020677293 -0.02894821 0.025565624
-0.01961579 -0.02890748 0.025606692
-0.018449886 -0.028699823 0.025546223
-0.017534232 -0.028879911 0.025916696
-0.016360573 -0.028631002 0.02618137
-0.015460777 -0.028860118 0.026198864
-0.014421997 -0.028843993 0.02647382
-0.013175636 -0.028378293 0.026876122
-0.012411132 -0.028959308 0.027519017
-0.011344242 -0.028876252 0.028138727
-0.010122684 -0.028343515 0.028536588
-0.0092105623 -0.028655084 0.029446483
-0.0081496509 -0.028523779 0.029770583
-0.0070320843 -0.028128337 0.030343771
-0.0060656955 -0.028306579 0.031540871
-0.0050245086 -0.028137248 0.032244951
-0.003970087 -0.02779061 0.032244951
-0.0030110232 -0.028102882 0.031193763
-0.0019999593 -0.027999429 0.031741321
-0.0010065581 -0.028183626 0.031095058
0 -0.028280796 0.030938268
0.0010098427 -0.028275598 0.030501544
0.0020508098 -0.028711338 0.029959798
0.0031272599 -0.029187759 0.028907239
0.0040878416 -0.028614892 0.028315932
0.0051054014 -0.028590249 0.027919143
0.0061780908 -0.028831091 0.027706951
0.0071253176 -0.02850127 0.027217537
0.0082892813 -0.029012484 0.026948154
0.0091339396 -0.028416703 0.026303738
0.010159168 -0.028445672 0.026102662
0.01124124 -0.028614067 0.025962353
0.012281993 -0.028657986 0.02592963
0.013289444 -0.028623417 0.025469482
0.014366678 -0.028733356 0.025458336
0.015411542 -0.028768212 0.025399983
0.016607577 -0.029063258 0.025081068
0.017398892 -0.028656999 0.024770468
0.018376602 -0.028585825 0.024859756
0.019272931 -0.028402213 0.024647832
0.020707667 -0.028990736 0.024983734
0.021198152 -0.028264202 0.025315374
0.022164539 -0.028209414 0.025509655
0.023283318 -0.028344909 0.025435418
0.02405894 -0.028068764 0.024911821
0.025216952 -0.028242987 0.023726672
0.026199395 -0.028214732 0.023216456
0.027397595 -0.02841232 0.020354629
0.029233202 -0.029233202 0.013608068
-0.04236836 -0.028598646 0.015671819
-0.040171519 -0.027811052 0.019911706
-0.039254338 -0.027891239 0.021059275
-0.038277242 -0.02793204 0.022700042
-0.037039515 -0.027779637 0.023341894
-0.035789438 -0.027608996 0.024332106
-0.034885589 -0.027703263 0.024334908
-0.033882558 -0.027722094 0.024350315
-0.032660592 -0.027557375 0.024350315
-0.031600986 -0.027523438 0.024425656
-0.031207999 -0.028087199 0.024141252
-0.029969117 -0.027902281 0.024653107
-0.028527873 -0.027509021 0.024615616
-0.027689068 -0.027689068 0.024747729
-0.02695678 -0.02799358 0.024691075
-0.025570389 -0.027616018 0.024673551
-0.024938989 -0.028056365 0.024589419
-0.023822322 -0.027965337 0.024833024
-0.022620026 -0.027760942 0.025083989
-0.021616414 -0.027792532 0.025519967
-0.020570235 -0.027769819 0.025542349
-0.019437864 -0.027622228 0.025404066
-0.018536177 -0.027804267 0.025411308
-0.017430793 -0.027684204 0.025688589
-0.016409079 -0.027690321 0.025852352
-0.015377699 -0.027679859 0.026164919
-0.014319764 -0.027616689 0.026072204
-0.013284601 -0.027591096 0.026743144
-0.012308904 -0.027695036 0.027042717
-0.011134791 -0.027330853 0.027682543
-0.010250309 -0.027675835 0.028003514
-0.0092356764 -0.027707029 0.028402686
-0.0081671029 -0.027563972 0.028647482
-0.0071763541 -0.027680224 0.029264778
-0.0061192908 -0.027536809 0.029900014
-0.0051150955 -0.027621519 0.029990673
-0.0041099549 -0.027742196 0.029807389
-0.0030995063 -0.027895557 0.029460222
-0.0020595561 -0.027804006 0.029835284
-0.0010288142 -0.027777985 0.029748678
0 -0.027787926 0.029548585
0.0010226697 -0.027612083 0.029417574
0.0020578527 -0.02778101 0.028980583
0.00306994 -0.027629461 0.028315932
0.0041048448 -0.027707702 0.028022707
0.0050636916 -0.027343938 0.028020233
0.0061046919 -0.027471114 0.027628005
0.0071554901 -0.027599748 0.027156383
0.0081247687 -0.027421094 0.027219564
0.0091338605 -0.027401581 0.026629508
0.010240577 -0.027649561 0.026257724
0.011134122 -0.027329212 0.026022851
0.012388444 -0.027874 0.026015073
0.013426886 -0.02788661 0.025767356
0.014369134 -0.027711902 0.025755763
0.01530657 -0.027551826 0.025746197
0.016243733 -0.027411301 0.025546581
0.017324364 -0.027515166 0.025502622
0.018424593 -0.027636891 0.02568534
0.019671097 -0.027953664 0.0254924
0.020287087 -0.027387569 0.025735229
0.020960636 -0.026949391 0.02625379
0.022404864 -0.027496882 0.02660194
0.022858422 -0.026833801 0.026795715
0.024560044 -0.027630052 0.026290774
0.025382157 -0.027412729 0.025085658
0.026257526 -0.027267432 0.024022669
0.027412094 -0.027412094 0.022788733
0.028940804 -0.027907206 0.01826337
-0.040832553 -0.02654116 0.016806662
-0.039519113 -0.026346074 0.02112323
-0.03941498 -0.026968142 0.022700042
-0.038187101 -0.026834179 0.023680091
-0.036949579 -0.026685808 0.024169594
-0.035791051 -0.026587639 0.024884313
-0.034705777 -0.026539711 0.024957478
-0.034228314 -0.026967762 0.025050402
-0.032894973 -0.026727166 0.024938285
-0.031463236 -0.026388519 0.024999619
-0.030628791 -0.026544953 0.024819613
-0.029658997 -0.026590824 0.024923235
-0.028677018 -0.02662866 0.024915159
-0.027805077 -0.026775258 0.024999619
-0.027169596 -0.027169596 0.025180012
-0.025662644 -0.026689148 0.02541557
-0.024683611 -0.026740579 0.025260329
-0.023707479 -0.026799759 0.025332838
-0.022583647 -0.026689764 0.025426894
-0.021594448 -0.026735982 0.025734335
-0.020717042 -0.026932154 0.02567181
-0.019606199 -0.026829535 0.025779337
-0.018498743 -0.026720408 0.025886744
-0.017415062 -0.026634799 0.025908411
-0.016361197 -0.026586944 0.026067197
-0.015437691 -0.026758663 0.026114047
-0.014249758 -0.026463836 0.02622667
-0.013396683 -0.026793366 0.026453972
-0.012201455 -0.026436487 0.026994795
-0.011277799 -0.026656616 0.027442068
-0.010309786 -0.026805442 0.02788198
-0.0091572646 -0.02645432 0.027973861
-0.0082044639 -0.026664509 0.028138727
-0.0071434677 -0.026532879 0.028019905
-0.0061735958 -0.026752248 0.028395116
-0.0051384503 -0.026719943 0.028695971
-0.0040911622 -0.026592555 0.028768897
-0.0030494547 -0.026428606 0.028693467
-0.0020349487 -0.026454333 0.029259384
-0.0010250288 -0.026650747 0.028985322
0 -0.02669671 0.028961957
0.0010260023 -0.026676059 0.028792024
0.0020289856 -0.026376814 0.028481066
0.0030531054 -0.026460247 0.027961969
0.0041235313 -0.026802953 0.027912021
0.0051284116 -0.02666774 0.027966857
0.0061739609 -0.026753832 0.027630985
0.0070949192 -0.026352556 0.027240157
0.0081776958 -0.026577512 0.027306259
0.0091912085 -0.026552381 0.026902586
0.010189953 -0.026493879 0.026409686
0.011238324 -0.026563313 0.026303738
0.012256923 -0.026556667 0.026597351
0.013191127 -0.026382254 0.0261572
0.014287218 -0.026533404 0.02646932
0.015431307 -0.026747599 0.026483059
0.016136484 -0.026221786 0.02626583
0.017082283 -0.026125845 0.026400894
0.018647548 -0.026935348 0.026552379
0.019100398 -0.026137386 0.026715636
0.020461798 -0.026600339 0.027065575
0.021392833 -0.026486363 0.027168483
0.022274885 -0.026324864 0.027301848
0.023288323 -0.02632593 0.027485132
0.024257958 -0.026279453 0.027112931
0.025538148 -0.026559673 0.026561022
0.02611186 -0.02611186 0.025288314
0.027088763 -0.026085475 0.023561358
0.028666822 -0.026619192 0.018964261
-0.041735198 -0.026084499 0.019224465
-0.039756827 -0.025485147 0.022859335
-0.038544029 -0.025357913 0.023316085
-0.038009252 -0.025681928 0.024439722
-0.037095051 -0.025760453 0.024954975
-0.035713937 -0.025509957 0.026187867
-0.034744233 -0.025547231 0.026274294
-0.033999532 -0.025757222 0.026305407
-0.032385733 -0.025301356 0.026043177
-0.03186132 -0.025694611 0.026040763
-0.03070645 -0.025588708 0.02602157
-0.030381862 -0.026191261 0.025972575
-0.028693445 -0.025619149 0.025787771
-0.027230754 -0.025213663 0.026032358
-0.0264902 -0.025471348 0.025787741
-0.025745664 -0.025745664 0.025772959
-0.024400301 -0.025416981 0.025645077
-0.023725204 -0.025788264 0.025514781
-0.022374664 -0.025425756 0.025659114
-0.021449823 -0.025535503 0.025855631
-0.020602405 -0.025753008 0.025643408
-0.01960122 -0.025791079 0.025922239
-0.018375827 -0.025521984 0.02607879
-0.017396113 -0.02558252 0.026101649
-0.0161478 -0.025230937 0.026171744
-0.015389054 -0.025648424 0.026254892
-0.01444956 -0.025802786 0.026104063
-0.01324936 -0.025479538 0.026526034
-0.012274927 -0.025572766 0.026789188
-0.011326429 -0.025741886 0.027167022
-0.010210429 -0.025526075 0.027682543
-0.0091696689 -0.025471304 0.027808458
-0.0081945695 -0.025608029 0.027856439
-0.0071177674 -0.025420599 0.027893752
-0.0061497483 -0.025623953 0.028119028
-0.0051255748 -0.025627874 0.028362304
-0.004060898 -0.025380613 0.028362304
-0.0030596149 -0.025496792 0.028419077
-0.0020412353 -0.025515443 0.028720856
-0.0010189232 -0.025473082 0.028536499
0 -0.025620742 0.028591126
0.0010139331 -0.025348326 0.028477401
0.0020462256 -0.025577821 0.028057039
0.0030793319 -0.025661102 0.028041542
0.0040691742 -0.025432339 0.027961969
0.0051274002 -0.025637003 0.028020233
0.0060435045 -0.025181271 0.027703762
0.00713949 -0.02549818 0.027769744
0.0081639038 -0.025512202 0.027821362
0.0091072451 -0.025297906 0.02746889
0.0101575 -0.025393752 0.027226001
0.011223378 -0.025507677 0.02711457
0.012163973 -0.025341613 0.027004361
0.013243034 -0.025467373 0.027026117
0.014302255 -0.025539741 0.027628005
0.015380844 -0.025634741 0.027556121
0.016123477 -0.025192933 0.027524084
0.017303087 -0.025445716 0.027781785
0.018316735 -0.025439911 0.027750462
0.019190045 -0.02525006 0.027824104
0.020626718 -0.025783399 0.027986914
0.021416642 -0.025496 0.02812928
0.022282423 -0.025320936 0.028318882
0.023426158 -0.025463216 0.028731972
0.024197644 -0.02520588 0.028248787
0.025176238 -0.025176238 0.027422756
0.026081251 -0.025078125 0.026669532
0.0268209 -0.024834167 0.025023788
0.028285483 -0.025254898 0.022472709
-0.040791843 -0.024475105 0.020070165
-0.039795913 -0.024489792 0.023069888
-0.038616631 -0.02438945 0.024277717
-0.037357949 -0.024232181 0.025028318
-0.036664184 -0.02444279 0.026385903
-0.035984624 -0.024675172 0.026918173
-0.034669079 -0.024472289 0.026925951
-0.033894584 -0.024650607 0.026922077
-0.0324586 -0.024343949 0.026804805
-0.030966921 -0.023974389 0.026804805
-0.030339649 -0.024271719 0.026751995
-0.029921697 -0.024762783 0.02697885
-0.028286377 -0.024245467 0.027197063
-0.027708756 -0.024630005 0.027265072
-0.02679901 -0.024737548 0.026912779
-0.025333453 -0.024320113 0.026732206
-0.024735017 -0.024735017 0.026617885
-0.023630979 -0.024658412 0.026094198
-0.022311214 -0.024339508 0.026355684
-0.021425005 -0.024485718 0.026379645
-0.020617697 -0.024741236 0.026298076
-0.019179106 -0.024226239 0.026326001
-0.018385191 -0.024513589 0.026487947
-0.017329501 -0.024465177 0.026329011
-0.016348768 -0.02452315 0.026343137
-0.015301076 -0.024481721 0.026611
-0.014276332 -0.024473712 0.026588142
-0.013273522 -0.024504965 0.026713103
-0.012124944 -0.024249889 0.026920646
-0.011191624 -0.02441809 0.02728942
-0.010059868 -0.024143683 0.027631015
-0.0091989972 -0.02453066 0.027704298
-0.0081588207 -0.024476461 0.027856439
-0.0071968106 -0.024674779 0.027835548
-0.00607729 -0.02430916 0.028005242
-0.0050682337 -0.024327522 0.028197348
-0.0041182418 -0.02470945 0.028197348
-0.0030571599 -0.02445728 0.028321743
-0.0020509202 -0.024611041 0.028621316
-0.0010151225 -0.024362938 0.028499961
0 -0.024365935 0.028483421
0.0010047144 -0.024113145 0.028092623
0.0020385035 -0.024462042 0.02798906
0.0030233804 -0.024187043 0.02788353
0.0040656561 -0.024393937 0.027920306
0.005080102 -0.024384489 0.028241068
0.0060422351 -0.02416894 0.027876705
0.007139727 -0.024479065 0.027938962
0.0081300968 -0.024390291 0.028204441
0.0092099514 -0.02455987 0.028020233
0.01024667 -0.024592007 0.028107971
