ply
format ascii 1.0
comment PCL generated
element vertex 1299
property float x
property float y
property float z
element camera 0
property float view_px
property float view_py
property float view_pz
property float x_axisx
property float x_axisy
property float x_axisz
property float y_axisx
property float y_axisy
property float y_axisz
property float z_axisx
property float z_axisy
property float z_axisz
property float focal
property float scalex
property float scaley
property float centerx
property float centery
property int viewportx
property int viewporty
property float k1
property float k2
end_header
0.015395437 0.074924469 0.019451678
0.01647109 0.07514935 0.018560648
0.017829917 0.076563761 0.017324537
0.01886056 0.076490059 0.016147971
0.019663654 0.075549833 0.01498574
0.020651812 0.075379118 0.013373584
0.021562209 0.074954353 0.012771308
0.022640079 0.075123906 0.011234552
0.023674229 0.075139947 0.010648668
-0.042282179 0.076314181 0.010365099
-0.041604605 0.076968521 0.011323392
-0.040329672 0.076522976 0.01199618
-0.039268348 0.076469943 0.012955397
-0.038665544 0.077331088 0.013139039
-0.037512656 0.077109359 0.01349178
-0.036651943 0.077492684 0.013254672
-0.035547107 0.077367239 0.013051897
-0.034202859 0.076697327 0.013069421
-0.033279996 0.076959997 0.013683528
-0.032247953 0.076978981 0.013844639
-0.030971244 0.076395735 0.014590144
-0.030291056 0.077294424 0.016918153
-0.029271645 0.077360779 0.019707352
-0.026702812 0.073185481 0.030284077
-0.025728807 0.073228151 0.033597052
-0.0246413 0.072938249 0.035337836
-0.023572946 0.072683252 0.03665626
-0.022610463 0.072746709 0.038001925
-0.021586863 0.072610363 0.039170027
-0.020304009 0.071547464 0.039946377
-0.019680891 0.0728193 0.040836841
-0.018573871 0.072340339 0.041808665
-0.017320085 0.071204804 0.04317835
-0.016244506 0.070711389 0.044020563
-0.015023024 0.069481485 0.044925809
-0.014117757 0.069647603 0.045485407
-0.013262457 0.070101559 0.045972556
-0.012418978 0.070692644 0.046628147
-0.011351625 0.070001699 0.047083557
-0.01058439 0.071204081 0.047289968
-0.0094759287 0.070121877 0.047587693
-0.0085719852 0.070480771 0.047943026
-0.007660218 0.070857018 0.047986597
-0.0067029945 0.070860229 0.048264772
-0.0057589589 0.07102716 0.048418403
-0.0047240499 0.069915943 0.0483298
-0.0037891753 0.070099749 0.048142403
-0.0028478776 0.07024765 0.047901094
-0.0019121638 0.070750065 0.047820419
-0.00094655732 0.07004524 0.047647476
0 0.070245117 0.04709819
0.00094074139 0.069614865 0.046862185
0.0018881809 0.069862694 0.046228409
0.0028369054 0.069977 0.046038359
0.0037949313 0.070206232 0.045164645
0.0047902986 0.070896424 0.044316769
0.0057143546 0.070477046 0.043676227
0.0067269146 0.071113102 0.043160498
0.0077805906 0.071970463 0.041912436
0.0087888613 0.072263971 0.040721923
0.0097504547 0.072153375 0.039505869
0.01075383 0.072343953 0.038680136
0.011768034 0.072569549 0.037352353
0.012574011 0.071575142 0.035271704
0.014333757 0.075764142 0.023891687
0.015506344 0.076497965 0.019565284
0.016646875 0.076991804 0.018372327
0.017594907 0.076589599 0.017447412
0.018633325 0.076603681 0.016452044
0.019860908 0.077353016 0.015504926
0.020634273 0.076346822 0.014450848
0.022092102 0.07784836 0.013140231
0.022963291 0.077240169 0.011763245
0.023962518 0.077096798 0.010820031
0.025329785 0.078100175 0.0059036016
-0.042317133 0.077409387 0.01047495
-0.041590836 0.077982821 0.012057602
-0.040504806 0.077893861 0.012732208
-0.039504793 0.077969991 0.013356119
-0.03835237 0.077741295 0.013749212
-0.037435733 0.077991121 0.01382646
-0.036267754 0.077716619 0.01372382
-0.035320044 0.077911861 0.013662755
-0.034301907 0.077958882 0.01336655
-0.033553813 0.07864175 0.014125019
-0.032326154 0.078208432 0.014347762
-0.031298067 0.07824517 0.01523608
-0.030107602 0.07786449 0.017460316
-0.029176507 0.07815136 0.021061391
-0.026750591 0.074307196 0.029101908
-0.025841683 0.07454332 0.032862246
-0.024444818 0.073334455 0.03412047
-0.023796422 0.07436382 0.036063254
-0.022652619 0.073867232 0.036790282
-0.021523202 0.073374555 0.038136184
-0.020467093 0.073096767 0.039060742
-0.019523608 0.073213533 0.039599597
-0.018558707 0.073258057 0.040695608
-0.017747704 0.073948771 0.041676074
-0.016486607 0.072735034 0.043302327
-0.015192577 0.071215205 0.044799477
-0.014135671 0.070678353 0.045488864
-0.013248949 0.070976518 0.046156883
-0.012242859 0.070631884 0.046764463
-0.011465854 0.071661592 0.047113329
-0.010356888 0.07061515 0.047538102
-0.0094099585 0.070574693 0.047878385
-0.0085551888 0.071293242 0.048249304
-0.0076050027 0.071296901 0.048467845
-0.0067020766 0.071807966 0.048556775
-0.0057211327 0.071514167 0.048771709
-0.0047719632 0.071579456 0.048563391
-0.0038181539 0.071590386 0.048314333
-0.0028471355 0.071178392 0.04779467
-0.0019092661 0.071597479 0.047683507
-0.00094523252 0.070892438 0.047487259
0 0.070730843 0.046759456
0.00093971886 0.070478916 0.04669404
0.0018713899 0.070177123 0.046040058
0.0028278981 0.070697457 0.045695901
0.0038217497 0.071657814 0.044499964
0.004836984 0.072554767 0.043560237
0.0057463013 0.071828768 0.043048054
0.0068501453 0.073394418 0.042265117
0.0078336559 0.073440522 0.04145956
0.0087838303 0.073198587 0.040297955
0.0097957989 0.073468491 0.038680673
0.010795126 0.073603131 0.037771851
0.011786466 0.073665418 0.036564529
0.012816768 0.0739429 0.034203887
0.014375111 0.077009521 0.023169756
0.015357438 0.076787196 0.019850612
0.016638439 0.077992685 0.01881361
0.017309107 0.076363705 0.01825574
0.018937493 0.078906231 0.016860276
0.019784883 0.078098223 0.016483009
0.020423887 0.076589584 0.014970005
0.021522876 0.076867409 0.013819754
0.022460595 0.076570213 0.012094855
0.023614598 0.077004127 0.011060089
0.025551036 0.079846993 0.0063094199
-0.042249173 0.078315541 0.01138559
-0.041650765 0.079136461 0.012981266
-0.040333033 0.07859771 0.013836116
-0.039607078 0.079214156 0.01415363
-0.038341668 0.078755856 0.014416426
-0.037459627 0.079081438 0.014412969
-0.036414292 0.079071037 0.014260948
-0.035293918 0.078892283 0.01426971
-0.034373075 0.07916224 0.014123201
-0.032787587 0.077870518 0.014518112
-0.032270778 0.07911545 0.014857173
-0.031079572 0.078734912 0.016401291
-0.029892949 0.078340143 0.0191122
-0.02865625 0.077781253 0.021643311
-0.027062846 0.076176897 0.027340919
-0.025972959 0.075920962 0.032023698
-0.025033133 0.076100722 0.033531785
-0.023812888 0.075407483 0.035328627
-0.022612069 0.07471814 0.03617692
-0.021792408 0.075282864 0.037008673
-0.020582169 0.07448785 0.038046926
-0.019557815 0.074319698 0.039019793
-0.018571872 0.074287489 0.039392114
-0.017515572 0.073954642 0.040869176
-0.016562544 0.074044317 0.041727036
-0.015473941 0.073501222 0.043309182
-0.014342951 0.072670951 0.04425472
-0.013373677 0.072599955 0.045687318
-0.012282433 0.071804993 0.045822382
-0.011381596 0.072083443 0.046932638
-0.010429901 0.072061136 0.047322601
-0.0093972897 0.07141941 0.047491908
-0.0084537333 0.07138709 0.048215181
-0.0076729311 0.072892845 0.048463434
-0.006673031 0.072450049 0.048467845
-0.0056807916 0.071956694 0.048743635
-0.0047446322 0.072118416 0.04855898
-0.0037632228 0.071501233 0.048190087
-0.00282032 0.07144811 0.047937453
-0.0019067192 0.072455332 0.047722459
-0.00093515747 0.071071967 0.047413498
0 0.071495578 0.046661913
0.00093887147 0.071354233 0.046609282
0.0018870709 0.071708694 0.045921713
0.0028957969 0.07336019 0.045319408
0.0038978804 0.074059725 0.044371396
0.0048087244 0.073092617 0.042902172
0.0058360454 0.073923245 0.042149127
0.0068239663 0.074088782 0.041413486
0.0078123603 0.074217424 0.040200561
0.0088159433 0.074445747 0.038975209
0.00980152 0.074491553 0.03799808
0.010699311 0.073922515 0.037272602
0.011763857 0.074504428 0.035700947
0.012905895 0.075449847 0.033184052
0.014266316 0.077445716 0.023305207
0.015415103 0.078103192 0.020880282
0.016485296 0.078305155 0.019518822
0.017445717 0.077992618 0.018505514
0.018577712 0.078439228 0.017785251
0.019697441 0.078789763 0.01687181
0.020629998 0.078394003 0.015858859
0.021731695 0.078648038 0.014579892
0.022580674 0.078005962 0.013267815
0.02369329 0.078290865 0.011678189
0.025296889 0.080106817 0.0068878829
-0.044727586 0.082000576 0.0060830116
-0.042342246 0.079520799 0.012035072
-0.041295655 0.079494141 0.013892323
-0.040275086 0.079517476 0.014213294
-0.03938961 0.07981579 0.014723808
-0.038494017 0.080109172 0.01532191
-0.037433896 0.080066949 0.015288264
-0.036510371 0.080322817 0.015206218
-0.035239208 0.07980644 0.015156657
-0.034331728 0.080107369 0.01486364
-0.033099197 0.079644941 0.015405059
-0.032187503 0.079949595 0.016632587
-0.030594166 0.078525022 0.017809272
-0.030223908 0.080249682 0.020365655
-0.028775232 0.079131886 0.021924675
-0.026813291 0.076467529 0.024414331
-0.025810327 0.076438278 0.031204551
-0.024908079 0.076716878 0.033295065
-0.023667101 0.075931951 0.034218162
-0.022746045 0.076149799 0.035663843
-0.021539047 0.075386673 0.036382288
-0.020586517 0.075483896 0.037169069
-0.019735405 0.075981319 0.038061678
-0.01862924 0.075497441 0.038866937
-0.01755058 0.075077482 0.039340526
-0.016628144 0.075315706 0.040511519
-0.015286847 0.073567949 0.04183507
-0.014598426 0.074938588 0.043171138
-0.013608795 0.074848369 0.044385999
-0.012463494 0.07382223 0.045379162
-0.01141729 0.073260948 0.046129614
-0.010335552 0.072348863 0.047041744
-0.0094037335 0.072408751 0.047237813
-0.0085204141 0.072896883 0.047757953
-0.0075214081 0.072393551 0.04843235
-0.0066360091 0.072996102 0.048467845
-0.0056483573 0.072487257 0.048743635
-0.004698738 0.072360568 0.04855898
-0.0037693908 0.072560772 0.048101157
-0.0028680572 0.073613465 0.047761708
-0.0018798538 0.072374366 0.047661692
-0.0009449051 0.072757691 0.047454029
0 0.072900839 0.046858847
0.00096388586 0.074219212 0.046325475
0.0019203296 0.073932692 0.04581514
0.0029187112 0.074913591 0.044456363
0.0038462682 0.074040659 0.043008298
0.0048912265 0.075324886 0.04211393
0.0058175493 0.07465855 0.04144004
0.0068145338 0.074959867 0.040114582
0.0078188172 0.075256109 0.039294362
0.0087655475 0.074994132 0.038456619
0.0098359101 0.075736515 0.03747645
0.010820792 0.075745545 0.036526948
0.011818766 0.075837083 0.034702241
0.012834597 0.076020308 0.03082779
0.014409706 0.079253383 0.023945957
0.015354152 0.078817979 0.021786571
0.016474836 0.079285145 0.020552188
0.017572947 0.079595111 0.019436389
0.018477637 0.079043232 0.018254042
0.019780427 0.080162786 0.01814422
0.020529607 0.079038993 0.016800463
0.021425346 0.0785596 0.015892208
0.022774173 0.079709604 0.014398605
0.023450028 0.078506611 0.012053877
0.025227884 0.080939457 0.0077007711
-0.043071676 0.079990253 0.0095473826
-0.041897867 0.079708137 0.01335907
-0.041081201 0.080108345 0.014213294
-0.039821967 0.079643935 0.015076935
-0.038911708 0.079871394 0.015640169
-0.038041756 0.080196127 0.016424567
-0.037197653 0.080594912 0.016414344
-0.03636615 0.081044562 0.016104728
-0.035030231 0.080363475 0.016115516
-0.034016583 0.080402836 0.016012013
-0.033146847 0.080795437 0.016790748
-0.032057866 0.080661722 0.017620265
-0.031228162 0.081193224 0.019418627
-0.030090416 0.080932841 0.021182328
-0.028716728 0.079996601 0.022338659
-0.027163614 0.078472659 0.023346692
-0.025608877 0.076826632 0.029086441
-0.024763586 0.077262387 0.032437593
-0.023874041 0.077590629 0.033820361
-0.022621393 0.076716028 0.03482908
-0.021584243 0.076525956 0.036091
-0.020748889 0.077067301 0.036510795
-0.019599492 0.076438017 0.037548333
-0.018616019 0.07642366 0.03793934
-0.017574692 0.076157004 0.038825929
-0.016468931 0.075563334 0.039461643
-0.01556199 0.075864702 0.040670037
-0.014570091 0.07576447 0.041519254
-0.013373007 0.074506752 0.042669684
-0.012633426 0.07580056 0.043441713
-0.011593587 0.075358316 0.045224756
-0.010628847 0.075368188 0.046112239
-0.0094531951 0.073734924 0.046889067
-0.0084674358 0.073384449 0.047323555
-0.0075174202 0.073294848 0.047461361
-0.006614482 0.073704228 0.047625184
-0.0056676236 0.073679104 0.047858238
-0.0046950495 0.073242769 0.047661692
-0.0037678711 0.073473483 0.047565877
-0.0028225516 0.073386341 0.047496289
-0.0018946566 0.073891602 0.047379762
-0.00096618902 0.075362742 0.046986669
0 0.074681409 0.045922875
0.00096780492 0.075488783 0.045200735
0.0019387043 0.075609468 0.043572456
0.0028773113 0.074810095 0.042795748
0.0038844501 0.075746775 0.042258054
0.0048431628 0.075553343 0.041321695
0.0058238106 0.075709537 0.040043145
0.0068013007 0.07578592 0.039173633
0.0078304866 0.076347247 0.038664877
0.0087178396 0.075554617 0.037622631
0.0098349126 0.076712318 0.036977679
0.010752569 0.076245494 0.035253108
0.011863505 0.077112786 0.033818364
0.012940592 0.077643551 0.025386214
0.014330137 0.079839334 0.023601145
0.015315597 0.079641104 0.022242039
0.01644228 0.08015611 0.021018058
0.017200839 0.078921497 0.020575255
0.018537909 0.080330946 0.019479901
0.019425904 0.079748452 0.018324792
0.020504506 0.079967581 0.017722934
0.021437965 0.079626724 0.016575426
0.022638671 0.080264382 0.0155752
0.023466604 0.079582393 0.013462752
0.02501397 0.081295408 0.0078862309
-0.043321464 0.081485607 0.012554348
-0.042063739 0.081049636 0.013871938
-0.040890522 0.08075878 0.015160441
-0.040232975 0.081497565 0.016226143
-0.038836904 0.080739878 0.016731143
-0.037986461 0.081106216 0.01715529
-0.037375432 0.082018308 0.017228723
-0.036140494 0.081574261 0.016826957
-0.035291478 0.082000785 0.016941577
-0.033957336 0.081291802 0.017087221
-0.033219073 0.082009584 0.018503189
-0.032040961 0.081652775 0.019430131
-0.031451531 0.082822368 0.020368874
-0.029638484 0.080739312 0.021557808
-0.02867482 0.080903955 0.022430182
-0.027357126 0.080044918 0.023316383
-0.02575515 0.078256033 0.026657641
-0.024807164 0.078390636 0.030318111
-0.023772512 0.078251183 0.032850444
-0.022601129 0.077629961 0.033849329
-0.021758055 0.078131199 0.035594285
-0.020677641 0.077787317 0.035972029
-0.019526923 0.077131346 0.036783427
-0.018679909 0.077669092 0.037707597
-0.01766322 0.077521913 0.038019121
-0.016609512 0.077185377 0.038663387
-0.015625423 0.077150524 0.040054411
-0.014623298 0.077016033 0.04036513
-0.013588499 0.076677963 0.041407287
-0.012552849 0.076282695 0.042495042
-0.011573764 0.076193951 0.043346912
-0.010646854 0.076463766 0.044881314
-0.0096568447 0.076289073 0.045608491
-0.0084833531 0.074464992 0.045900792
-0.0075794216 0.074846782 0.046434373
-0.0066239196 0.074755661 0.04701224
-0.0056897099 0.074914515 0.047163993
-0.0047376938 0.074855559 0.047097713
-0.0038041354 0.07513167 0.046611726
-0.0028673385 0.075506575 0.046366453
-0.0019267818 0.076107882 0.046427876
-0.00095813553 0.075692706 0.04564178
0 0.075688213 0.044527501
0.00096668972 0.076368488 0.043687254
0.001930371 0.076249659 0.042806953
0.0029430687 0.077500805 0.042218119
0.0038634739 0.076303609 0.041616291
0.004903981 0.077482902 0.040501624
0.0058648442 0.077220447 0.039561123
0.0068357713 0.07714656 0.038584828
0.0077952109 0.076977707 0.037866294
0.0087524774 0.076827303 0.037099868
0.0098745245 0.078008741 0.035866737
0.010838926 0.077843197 0.034365207
0.011840685 0.077951178 0.030634046
0.012949254 0.078691624 0.025162697
0.014247209 0.080394968 0.023701638
0.015421356 0.081219144 0.023008764
0.016235596 0.080163255 0.021886498
0.017435569 0.08102411 0.021340728
0.018568972 0.081497155 0.020387858
0.019481465 0.081001878 0.019801825
0.020749373 0.081960022 0.018356174
0.021818036 0.082077377 0.017888516
0.022340216 0.080221683 0.016372263
0.023445942 0.080531709 0.014051259
0.025002198 0.082298897 0.010421604
-0.043755621 0.083344035 0.012997627
-0.041834071 0.081627451 0.014850736
-0.041418627 0.082837254 0.016397148
-0.039907511 0.081861556 0.016693234
-0.039230242 0.082589976 0.017644972
-0.038016926 0.082198754 0.018503189
-0.037402734 0.083117187 0.018964857
-0.036356874 0.083101429 0.018834591
-0.035329431 0.083128065 0.018821746
-0.034080852 0.082620241 0.019076258
-0.033025902 0.082564756 0.019526362
-0.031635769 0.081640683 0.020208448
-0.030542126 0.081445664 0.021038234
-0.029593259 0.08163657 0.021955788
-0.028455744 0.081302121 0.022820532
-0.027506806 0.08150164 0.02434057
-0.026043871 0.080134988 0.026030928
-0.024837129 0.079478808 0.028856248
-0.023639426 0.078798085 0.031258017
-0.022967942 0.079888493 0.033013552
-0.021654431 0.078743383 0.034426183
-0.020671548 0.078748748 0.035545945
-0.01987474 0.079498962 0.036229789
-0.018733416 0.078877531 0.036922842
-0.017594583 0.07819815 0.03763473
-0.016634086 0.07827805 0.038147837
-0.015552009 0.077760041 0.039075315
-0.01465217 0.078144908 0.039954156
-0.013623844 0.077850536 0.040372998
-0.012514227 0.077010624 0.041446686
-0.011670796 0.07780531 0.042504013
-0.01068845 0.07773418 0.043382347
-0.0095075797 0.076060638 0.044255883
-0.0087192459 0.077504404 0.044910073
-0.0076685795 0.076685794 0.045590341
-0.0065441732 0.074790552 0.045772225
-0.0056446637 0.075262181 0.046119064
-0.0047754874 0.076407798 0.046155274
-0.0038484742 0.076969482 0.046011597
-0.0028752955 0.076674551 0.045708925
-0.0019394935 0.077579737 0.045209348
-0.00096389599 0.077111676 0.044494838
0 0.07738933 0.043297261
0.00097125029 0.077700019 0.042821825
0.0019488208 0.077952825 0.042249262
0.0029020214 0.077387236 0.041558892
0.0038379517 0.076759033 0.040994734
0.0048370678 0.077393085 0.039595753
0.0059240991 0.078987986 0.038989991
0.0068546846 0.078339249 0.037856221
0.0078574847 0.078574844 0.037123263
0.0086751301 0.077112272 0.035999358
0.0098106321 0.078485057 0.034615636
0.010892265 0.079216473 0.032296717
0.011911055 0.079407029 0.02788204
0.013153612 0.080945306 0.025921911
0.014261324 0.081493273 0.024364173
0.015438196 0.082337044 0.023601145
0.016326312 0.081631556 0.02267161
0.017513573 0.082416818 0.021660358
0.01832572 0.081447646 0.021199435
0.019436996 0.081839979 0.020413846
0.020362051 0.081448205 0.020038754
0.021334892 0.081275776 0.019246399
0.022156188 0.080567956 0.017888606
0.023500675 0.081741475 0.015881389
0.024610674 0.082035579 0.011957556
-0.043400116 0.083700217 0.01330635
-0.041589756 0.082165122 0.016228318
-0.040958662 0.082941286 0.016957939
-0.039790947 0.082642734 0.018061221
-0.039089333 0.083321996 0.018984646
-0.037745446 0.082631916 0.019336879
-0.036930446 0.083093502 0.01968199
-0.035930958 0.0831545 0.01958853
-0.034648299 0.082544476 0.01958853
-0.033838421 0.08305794 0.019496232
-0.032647789 0.082639709 0.020034462
-0.031594697 0.082553878 0.020958692
-0.030641876 0.082733057 0.021795005
-0.029575564 0.082607605 0.022081643
-0.028218346 0.081631638 0.02303037
-0.027615929 0.082847781 0.024299204
-0.026456216 0.082421288 0.025503308
-0.025027981 0.081090651 0.027165949
-0.023847109 0.080483988 0.02890572
-0.022904726 0.080664463 0.031092972
-0.021691255 0.079863258 0.033046693
-0.020738035 0.07998956 0.034203887
-0.019650266 0.079583578 0.035812885
-0.018627966 0.079413958 0.036222667
-0.017730104 0.079785466 0.036900222
-0.0167499 0.079808339 0.037345737
-0.015683046 0.079395413 0.03835541
-0.01446593 0.078116022 0.039218605
-0.013491001 0.078055076 0.0397726
-0.012574963 0.078351691 0.040252924
-0.011601361 0.078309178 0.04185608
-0.010612315 0.078145221 0.042554647
-0.0096810246 0.078416303 0.043174624
-0.0086349109 0.077714197 0.04368332
-0.0077298833 0.078265063 0.044382155
-0.0067572589 0.078191139 0.044562072
-0.0057684989 0.077874735 0.044777453
-0.0047863261 0.077538483 0.04493615
-0.0038659761 0.078286014 0.044669986
-0.0028712163 0.077522837 0.044166774
-0.0019297112 0.078153297 0.043851107
-0.00096605951 0.078250818 0.043268055
0 0.078323662 0.042648017
0.00096169685 0.077897444 0.042309433
0.0019073603 0.077248089 0.041498721
0.0028676307 0.077426031 0.040991604
0.0038635859 0.078237608 0.040022075
0.0048460844 0.078506567 0.039188445
0.0058075795 0.078402326 0.038390428
0.0068651745 0.079439878 0.037334591
0.0078336112 0.079315305 0.036106944
0.0089102294 0.080192067 0.034706354
0.0098620513 0.079882614 0.03328532
0.010868603 0.080032438 0.029363066
0.012095264 0.08164303 0.027701616
0.013199285 0.082241699 0.026272625
0.014378193 0.083188117 0.024590254
0.015181702 0.081981182 0.023701638
0.016321298 0.082626566 0.023147851
0.017358951 0.082710288 0.022484004
0.018269593 0.082213171 0.021895528
0.0196885 0.083935179 0.021399468
0.020358201 0.08245071 0.020657748
0.021383515 0.082479261 0.020387858
0.02269035 0.083541736 0.018366575
0.023081761 0.081287935 0.016636521
0.024414113 0.082397625 0.013008446
-0.043211907 0.084366105 0.01593399
-0.04175726 0.083514519 0.016676009
-0.040926933 0.083900221 0.018511385
-0.040128797 0.084373377 0.018874347
-0.038979981 0.084114701 0.019380927
-0.03782839 0.083835892 0.019892424
-0.036715455 0.083629653 0.020078629
-0.035909347 0.084130473 0.020124227
-0.034771126 0.083859771 0.020693302
-0.034179576 0.084931076 0.020413488
-0.032774843 0.083985537 0.02127564
-0.031723358 0.083913393 0.021851748
-0.03082535 0.084255964 0.022075176
-0.029440222 0.083244763 0.022604287
-0.0284766 0.083395757 0.023411989
-0.027354658 0.08307711 0.024416834
-0.026482085 0.083520427 0.025484592
-0.025492759 0.083616257 0.026422232
-0.024224756 0.082767919 0.027247041
-0.022776969 0.081204847 0.028878421
-0.021695115 0.08086361 0.03168121
-0.020684076 0.080766395 0.033404857
-0.019804154 0.081197031 0.034777075
-0.018820677 0.081226081 0.035566539
-0.017649483 0.080403209 0.036109567
-0.016720418 0.080651432 0.037042916
-0.015647694 0.080194436 0.037392288
-0.014655853 0.080118664 0.038446248
-0.013616465 0.079753585 0.03943792
-0.012467923 0.078643821 0.039881974
-0.01167809 0.079800285 0.040679932
-0.010708281 0.079825372 0.04175663
-0.0096243424 0.078919612 0.042286545
-0.0086473525 0.078786999 0.042697996
-0.0076811938 0.078732237 0.043327212
-0.0066828844 0.078285217 0.043617338
-0.0057638879 0.078773133 0.043804139
-0.0048425202 0.07941734 0.043758124
-0.0038447333 0.07881704 0.043669194
-0.0028599568 0.078172155 0.043459237
-0.0019388025 0.079490907 0.043204963
-0.00096660259 0.079261415 0.042641848
0 0.078291826 0.042220026
0.00097377057 0.079849191 0.041701257
0.0019184935 0.078658238 0.041244686
0.002905831 0.07942605 0.039981067
0.0039054197 0.080061108 0.039493889
0.0048350543 0.079294898 0.038331687
0.0058842967 0.080418728 0.037206262
0.0068262829 0.079965033 0.035747707
0.0078140153 0.080093659 0.034714162
0.0088483663 0.080618456 0.033263206
0.0098536499 0.08079993 0.02986753
0.011059027 0.082440026 0.028073102
0.012117298 0.082801543 0.027158707
0.013130748 0.082824714 0.026483089
0.01419733 0.083155796 0.025405914
0.015236069 0.083290517 0.024526328
0.016214009 0.083096802 0.023458213
0.017103933 0.082501329 0.023330092
0.018363798 0.083657309 0.022897154
0.019183462 0.08279179 0.022456646
0.020165704 0.082679391 0.021639258
0.021424448 0.083657369 0.021641076
0.022029733 0.08211083 0.020370692
0.023107547 0.082383431 0.018453956
0.024678424 0.084317952 0.013626337
-0.04266943 0.084322922 0.016738027
-0.041887827 0.084797308 0.018544972
-0.040954422 0.084980436 0.019305736
-0.039740589 0.08457613 0.019665122
-0.038897622 0.084960595 0.020693481
-0.038159642 0.08560136 0.020889372
-0.036913689 0.085106567 0.021016866
-0.036212351 0.085875005 0.020999223
-0.034879472 0.085146956 0.021373838
-0.033968363 0.085435592 0.021226615
-0.032509223 0.084320799 0.021872967
-0.031552739 0.084479913 0.022177249
-0.030574396 0.084589168 0.022361517
-0.029539727 0.084544733 0.022732645
-0.028377526 0.084119096 0.02409932
-0.027453784 0.084394969 0.024656236
-0.026548048 0.084749542 0.025642008
-0.025413161 0.084371693 0.026230395
-0.024205666 0.083711267 0.026960939
-0.023363505 0.084311776 0.027985781
-0.022038545 0.083145425 0.029524744
-0.020736482 0.081958473 0.031219542
-0.019905303 0.082607009 0.033332169
-0.018710542 0.081735529 0.034406066
-0.01780289 0.082091115 0.035271257
-0.016658418 0.081332274 0.035770714
-0.015684832 0.081365064 0.036884308
-0.0147578 0.081659831 0.037478983
-0.01356463 0.080418877 0.038373858
-0.012658807 0.080821618 0.03939715
-0.011587815 0.080149062 0.040178061
-0.010639308 0.080278419 0.040682346
-0.0097258277 0.080724373 0.041694909
-0.0087247333 0.080461435 0.042171746
-0.0077132126 0.080024585 0.042504013
-0.0067334855 0.0798399 0.04286164
-0.0057864692 0.080046155 0.043135434
-0.0048437081 0.080405563 0.043068469
-0.0038528629 0.079946905 0.042930663
-0.0029038566 0.080340035 0.042846292
-0.0019286498 0.080038972 0.042654425
-0.00096487097 0.080084294 0.042269289
0 0.080822878 0.041732401
0.00096642319 0.08021313 0.041381747
0.0019386798 0.080455214 0.04015252
0.002919618 0.080776103 0.03935042
0.0038681463 0.080264039 0.038360566
0.0048783338 0.080980346 0.036731362
0.00589679 0.081572264 0.035730422
0.0068642776 0.081390724 0.034213006
0.0078913346 0.081872597 0.033086836
0.0088982508 0.082061648 0.030688167
0.010069618 0.083577834 0.028558791
0.011178299 0.084345348 0.027752817
0.012148552 0.084027484 0.02704078
0.01326545 0.084694795 0.026572645
0.014231251 0.084370993 0.025978416
0.015265238 0.084467657 0.025395185
0.01622414 0.084162734 0.024831653
0.017292222 0.084426731 0.02428028
0.018307496 0.084417902 0.023766518
0.01927145 0.084185809 0.023083895
0.020347774 0.084443271 0.022785813
0.020914285 0.082661219 0.022748977
0.021997888 0.082992032 0.021426052
0.023118092 0.083426155 0.020247906
0.024331542 0.084146589 0.016061991
-0.042508706 0.085017413 0.016738027
-0.041752677 0.085542068 0.01894787
-0.040872376 0.085831992 0.019913614
-0.039674561 0.085452907 0.020330846
-0.038837701 0.085851759 0.021320581
-0.037551403 0.085251831 0.021720946
-0.036531575 0.085240349 0.021763027
-0.035842694 0.086022474 0.02194491
-0.03490866 0.086244926 0.02194491
-0.03355303 0.085407719 0.021720946
-0.032717708 0.08588399 0.021941721
-0.031677246 0.085835114 0.022601694
-0.030705599 0.085975677 0.022713363
-0.029569911 0.085650779 0.023625106
-0.028150033 0.084450103 0.024453312
-0.027461017 0.085434273 0.025162756
-0.026146183 0.084472284 0.025781989
-0.025197992 0.084665254 0.026220083
-0.024212191 0.084742665 0.026556313
-0.023176458 0.084644452 0.027349472
-0.022246484 0.084941126 0.028875977
-0.02138193 0.085527718 0.029726505
-0.019993121 0.083971113 0.031210333
-0.018602673 0.082243398 0.03257674
-0.017722109 0.082703181 0.033913046
-0.016663279 0.08233621 0.034950525
-0.015771454 0.082800135 0.035712332
-0.014720913 0.082437113 0.036598146
-0.013632167 0.081793003 0.037242413
-0.012661013 0.081809625 0.038263321
-0.011718742 0.082031198 0.039373904
-0.010603809 0.080974542 0.039982677
-0.009710826 0.081570938 0.040740669
-0.0087751411 0.081901319 0.041392893
-0.0077962265 0.081860378 0.042009234
-0.0066891899 0.080270283 0.04225117
-0.0057506403 0.08050897 0.042688161
-0.0048025018 0.080682032 0.042625934
-0.003868599 0.081240579 0.042585105
-0.0028782377 0.080590658 0.042395592
-0.0019288791 0.08101292 0.041871578
-0.00096534326 0.081088834 0.041520476
0 0.081429936 0.04123193
0.00096940104 0.08142969 0.039997637
0.0019465423 0.081754774 0.03907004
0.0029101027 0.08148288 0.038124949
0.0038700309 0.08127065 0.036708176
0.0049221395 0.082691945 0.035579145
0.0058512399 0.08191736 0.034012645
0.0069719432 0.083663322 0.033044428
0.0080606509 0.084636837 0.030864537
0.0089920629 0.083925933 0.029548973
0.010119471 0.085003555 0.028073102
0.011017856 0.084136359 0.027478397
0.012171115 0.085197806 0.027148783
0.01302001 0.084129296 0.026678056
0.01419993 0.085199587 0.02652812
0.015139542 0.084781438 0.026162237
0.015989931 0.083947144 0.025719583
0.01723494 0.085160881 0.025381267
0.018283337 0.085322246 0.025631636
0.01925504 0.085127547 0.025054634
0.020295901 0.085242793 0.024033934
0.02120672 0.084826879 0.02346459
0.021964634 0.083864972 0.0226354
0.023277862 0.085014798 0.021582931
0.024252223 0.084882788 0.01751411
-0.042838808 0.086697586 0.018060505
-0.041376535 0.085780621 0.01972419
-0.040410273 0.085871831 0.020820022
-0.039490286 0.086068571 0.021277577
-0.038946871 0.087118 0.022194803
-0.037451256 0.086036667 0.022890657
-0.036872592 0.087060295 0.022562772
-0.035776872 0.086886689 0.022361696
-0.034664791 0.08666198 0.022252738
-0.033624467 0.086608477 0.022747993
-0.032471035 0.086251192 0.022837371
-0.031604171 0.086656593 0.022925466
-0.03030649 0.085868388 0.023337454
-0.029342825 0.086004831 0.024166077
-0.02821918 0.085665368 0.024936229
-0.027570928 0.086797364 0.025663525
-0.026239807 0.085783988 0.025946617
-0.025305854 0.086039901 0.026383817
-0.024270017 0.085956313 0.026727676
-0.023251066 0.085927851 0.027307987
-0.022285063 0.086101383 0.028449804
-0.021035917 0.085145377 0.029126644
-0.020030698 0.085130468 0.029904962
-0.019237405 0.086062074 0.030267656
-0.018030643 0.085144714 0.031264752
-0.016639676 0.083198376 0.033555776
-0.015710093 0.083459869 0.034546286
-0.01474388 0.083548658 0.03534615
-0.013758809 0.083535627 0.036366135
-0.01283829 0.083942667 0.037377119
-0.011657736 0.082575634 0.03840521
-0.010644362 0.082251899 0.039390862
-0.0097542182 0.082910858 0.040041745
-0.0087009417 0.08217556 0.040498435
-0.0078075542 0.082955264 0.041266292
-0.0067417473 0.081864081 0.04144752
-0.0058371909 0.08269354 0.041787535
-0.0048403316 0.082285635 0.041647881
-0.0038776179 0.082399383 0.041647702
-0.0029265245 0.082918197 0.041417032
-0.0019525964 0.082985342 0.041269183
-0.00097690336 0.083036788 0.040306628
0 0.082682155 0.039947718
0.00097934878 0.083244644 0.039252818
0.0019302898 0.082037315 0.037957251
0.0029360077 0.083186887 0.036656886
0.0039603994 0.084158488 0.034337461
0.004936351 0.083917968 0.033320934
0.0061220191 0.086728603 0.032199025
0.0070135049 0.085163988 0.030845314
0.0080007622 0.0850081 0.030125827
0.0090792896 0.085748851 0.029625773
0.010051752 0.085439898 0.028167576
0.011041149 0.085317969 0.027746409
0.012134205 0.08595062 0.027537078
0.013059935 0.085391879 0.027167946
0.014095123 0.085577533 0.026970506
0.015086304 0.085489057 0.026700497
0.016226929 0.086205564 0.026569337
0.017060101 0.085300505 0.026319146
0.018151842 0.085717037 0.026384562
0.019278158 0.086244389 0.026241928
0.01977692 0.084051907 0.025674552
0.021293597 0.086188368 0.025164843
0.022095075 0.085367337 0.023353606
0.023283938 0.086049341 0.022541285
0.024364332 0.086290345 0.020130277
-0.042413659 0.086847015 0.019443423
-0.041226707 0.086475529 0.020902604
-0.040000614 0.086001322 0.021891922
-0.039299022 0.086659379 0.02284041
-0.038155727 0.08635243 0.02393502
-0.037282903 0.086657554 0.024370909
-0.03634296 0.086819299 0.023967326
-0.0355841 0.087435216 0.02405712
-0.034491669 0.087243639 0.024006188
-0.033413272 0.087077014 0.024016231
-0.032441236 0.087185815 0.024154425
-0.031370677 0.087028325 0.024216354
-0.03001998 0.086057276 0.024226934
-0.029765923 0.088271357 0.025226623
-0.028159868 0.086491026 0.025843918
-0.027160205 0.086510278 0.026162088
-0.026449196 0.087485805 0.026466697
-0.0252543 0.08687479 0.026535958
-0.024254803 0.086913042 0.027199596
-0.023295352 0.087104358 0.027446508
-0.022129655 0.086506829 0.02849099
-0.020962689 0.085847199 0.028972447
-0.020156246 0.086671859 0.029461801
-0.019133689 0.086605117 0.029788971
-0.018154377 0.086737588 0.030609578
-0.017208345 0.087053984 0.031446964
-0.015929867 0.085623033 0.033089906
-0.014733677 0.084473081 0.033784896
-0.013643355 0.083809182 0.034971446
-0.012569154 0.083149791 0.035979569
-0.011739022 0.084129661 0.036846578
-0.010789695 0.084355801 0.038158685
-0.0096121682 0.082664646 0.039601177
-0.0086675333 0.082823105 0.039959908
-0.00781787 0.084042102 0.040196449
-0.0067604175 0.083056554 0.040573776
-0.0058402889 0.083710812 0.040840864
-0.0048572319 0.083544388 0.040514916
-0.0038875588 0.083582513 0.040374249
-0.002920201 0.083712429 0.040169984
-0.0019555332 0.084087931 0.040000498
-0.00097324478 0.083699055 0.039764136
0 0.084437557 0.038726389
0.00097205245 0.083596513 0.03741166
0.0019494528 0.083826467 0.035777241
0.0029506031 0.08458396 0.034026027
0.0039683906 0.085320398 0.032602906
0.0050640749 0.087102093 0.032117754
0.0060541588 0.086776279 0.031225473
0.0070003262 0.086004004 0.030310392
0.0080310069 0.08633332 0.029915154
0.0090360343 0.086344332 0.0291197
0.010018609 0.086160041 0.028254449
0.0112066 0.087615237 0.02800563
0.012100124 0.086717553 0.027674645
0.012980457 0.08587072 0.027376115
0.014098773 0.086606741 0.02733767
0.015271625 0.087557308 0.027073294
0.016109046 0.086586125 0.026963204
0.017039249 0.086198553 0.026915163
0.018092202 0.086440526 0.02716738
0.019108798 0.086492449 0.026961833
0.020078842 0.086339019 0.026830345
0.020935183 0.085734554 0.026741743
0.022002622 0.086010255 0.025175363
0.023083165 0.08631096 0.023286998
0.024234807 0.08684139 0.021715283
-0.04170242 0.086383581 0.020214766
-0.041152161 0.087322868 0.021753967
-0.040373906 0.087813243 0.023414999
-0.039170191 0.087379657 0.024520338
-0.038332332 0.087760858 0.024979144
-0.037182566 0.087429278 0.0259417
-0.03629015 0.087701201 0.025771439
-0.035268735 0.087667994 0.025007665
-0.034110591 0.087282978 0.025055528
-0.033452969 0.088194191 0.025900126
-0.032118551 0.08732231 0.025979847
-0.031286422 0.087803833 0.026094764
-0.030391408 0.088135079 0.025920242
-0.0295731 0.088719293 0.026120126
-0.028220294 0.087684482 0.026307791
-0.027473712 0.088526405 0.026491076
-0.026174316 0.087583289 0.026567906
-0.025076272 0.087265424 0.027083188
-0.024240896 0.08787325 0.02730602
-0.023117807 0.087445609 0.027543515
-0.022077685 0.087307215 0.028257668
-0.021189313 0.08778429 0.028794199
-0.020172048 0.087748416 0.029207081
-0.019035624 0.087163121 0.029498667
-0.018001448 0.087007008 0.029939145
-0.016924202 0.086612098 0.030777305
-0.015848303 0.086175151 0.031446964
-0.014996701 0.086980864 0.032521069
-0.013924768 0.086532488 0.033539712
-0.012617638 0.084441118 0.034179688
-0.011910922 0.086354181 0.035815001
-0.01067537 0.084432468 0.036562383
-0.0098293843 0.085515641 0.038378865
-0.0087751076 0.084826045 0.039128751
-0.0077223345 0.083980381 0.039292693
-0.00679154 0.08440914 0.039610773
-0.0058140391 0.084303565 0.039612263
-0.004878853 0.084892042 0.039596528
-0.0039205849 0.085272714 0.039596528
-0.0028942055 0.08393196 0.039138973
-0.0019448714 0.084601901 0.038796455
-0.00097762805 0.085053638 0.037847996
0 0.084639199 0.035509735
0.00099162979 0.086271793 0.03427738
0.0019973032 0.086882696 0.033354402
0.0029619492 0.085896529 0.032446355
0.003997562 0.086946964 0.032358587
0.0049929451 0.086877249 0.031648219
0.0059516602 0.086299077 0.030869901
0.0069892062 0.08686585 0.03022635
0.008048784 0.087530531 0.030003548
0.0090297619 0.087287702 0.02950725
0.010152821 0.088329546 0.028624147
0.0110593 0.087469012 0.028284401
0.012123898 0.087898262 0.028080046
0.013086018 0.087575659 0.02767843
0.014113177 0.08770331 0.027684569
0.01503064 0.087177709 0.027568161
0.016171234 0.087931074 0.027605087
0.017063864 0.087326825 0.027706176
0.018000377 0.08700183 0.027940601
0.019121571 0.08755666 0.027603179
0.01992448 0.086671494 0.027535081
0.021080598 0.087333903 0.027512729
0.021967735 0.086872406 0.026766419
0.022968667 0.086881481 0.025119364
0.024138113 0.087500662 0.023181796
-0.045008123 0.092109643 0.0073799491
-0.042337753 0.088707663 0.021045953
-0.041624084 0.089339495 0.023797065
-0.040537961 0.089183517 0.024963021
-0.039510615 0.089152157 0.026003301
-0.038454458 0.089052424 0.026519299
-0.037303768 0.088722475 0.026770204
-0.036792453 0.089937113 0.026768029
-0.035651274 0.089637488 0.026622087
-0.034611493 0.089582682 0.02674073
-0.033621717 0.089657918 0.026768029
-0.032147489 0.088405594 0.026780903
-0.031502139 0.089425422 0.027122498
-0.030395236 0.089159355 0.027014941
-0.028956534 0.087868094 0.026967019
-0.028243899 0.088766538 0.026950985
-0.027213965 0.088697359 0.027296454
-0.025928929 0.08775945 0.027386308
-0.024935439 0.087772742 0.027526796
-0.024181206 0.08866442 0.027695358
-0.023182362 0.088697731 0.028140813
-0.022118527 0.08847411 0.028554112
-0.021184532 0.088773273 0.028841525
-0.019968832 0.087862857 0.029236376
-0.018972592 0.087873057 0.029498667
-0.018065967 0.088322498 0.029854894
-0.017026652 0.088137962 0.030501097
-0.016012378 0.088068075 0.03111431
-0.014873733 0.087259233 0.031877667
-0.014022498 0.088141419 0.03248629
-0.013083841 0.08856754 0.033171982
-0.011843997 0.086855978 0.033713728
-0.010855775 0.086846203 0.034370899
-0.0098004453 0.08624392 0.036379904
-0.0087442752 0.085499585 0.037202716
-0.0077807046 0.085587747 0.037537456
-0.0067646569 0.085041404 0.038398266
-0.0057849255 0.084845573 0.038647801
-0.0048691626 0.085697263 0.038647801
-0.0038666129 0.085065484 0.038592339
-0.0028985911 0.08502534 0.03754285
-0.0019848275 0.087332405 0.035314798
-0.00099956885 0.087962054 0.034415692
0 0.088758871 0.034297198
0.00099087425 0.087196931 0.033263981
0.0019835175 0.087274767 0.032755911
0.002997027 0.08791279 0.0321877
0.0039830902 0.087627985 0.032071382
0.0050210077 0.088369735 0.031209886
0.0060067908 0.088099599 0.030717015
0.0070222388 0.088279575 0.030209571
0.007939796 0.087337755 0.029915154
0.0090679191 0.0886641 0.029480666
0.010033818 0.088297598 0.028747082
0.011075144 0.08860115 0.028753459
0.012089719 0.088657945 0.028247982
0.012922121 0.087472819 0.028193027
0.014131652 0.088827528 0.028249741
0.015071906 0.088421844 0.028195083
0.016028563 0.088157095 0.028462857
0.017058009 0.08830028 0.02861169
0.018087385 0.088427216 0.029139519
0.018998588 0.087993458 0.029035628
0.020049725 0.088218793 0.028831601
0.020872297 0.087464854 0.028263748
0.021843797 0.087375186 0.027302474
0.022908857 0.087651275 0.02647838
0.02415267 0.088559791 0.023286998
-0.045251917 0.093660943 0.0089901984
-0.042352971 0.089747958 0.02374655
-0.040990453 0.088979267 0.025204986
-0.04038173 0.089849353 0.026030749
-0.039510772 0.0901656 0.026622087
-0.038333014 0.089779951 0.027158856
-0.037154865 0.089372501 0.027611107
-0.036314286 0.089776993 0.027576119
-0.035030678 0.089078009 0.027605563
-0.034038763 0.089101464 0.027788818
-0.033220377 0.089594349 0.027660936
-0.032028109 0.089078173 0.027695924
-0.031071654 0.089205705 0.027554661
-0.03015491 0.089459568 0.027744174
-0.029252985 0.089776397 0.02757588
-0.02794476 0.088824414 0.027556747
-0.027125916 0.089415051 0.02757588
-0.026216477 0.089741014 0.027623802
-0.025287712 0.090024255 0.028173178
-0.024081515 0.089302287 0.028369516
-0.02317838 0.089690246 0.028399736
-0.022014065 0.089056894 0.029030353
-0.021003626 0.089015365 0.029221445
-0.019984487 0.088930972 0.029377908
-0.019111726 0.089523345 0.029648572
-0.017985819 0.088929884 0.029928207
-0.01702477 0.089129671 0.03022933
-0.015873581 0.088296793 0.031150043
-0.015032743 0.089194275 0.031470269
-0.013996793 0.088979609 0.032310009
-0.012850352 0.08797548 0.03265363
-0.011997679 0.088982791 0.033056974
-0.011012371 0.089100085 0.033600718
-0.0099779535 0.088803791 0.034226
-0.0089099733 0.088109739 0.034521669
-0.0078184986 0.086980797 0.034792572
-0.0067885858 0.086312018 0.034861594
-0.0058593634 0.086913891 0.034655362
-0.0049368241 0.087875471 0.035360366
-0.0039683729 0.088296294 0.034712762
-0.0030115172 0.08934167 0.034238756
-0.0019966376 0.088850364 0.033729732
-0.000999399 0.088946506 0.033343256
0 0.088284604 0.033126771
0.00099130429 0.08822608 0.03276372
0.0019923521 0.088659666 0.0322932
0.0030245518 0.089728363 0.031987101
0.003957184 0.088047333 0.031744331
0.0049808659 0.088659413 0.031190991
0.0059789862 0.088688292 0.030846745
0.0069877109 0.088843748 0.030636668
0.0079794107 0.088770933 0.030381978
0.0090535013 0.089529067 0.029907703
0.0099946149 0.088952072 0.029655546
0.011056875 0.089460164 0.029139787
0.012069787 0.089517586 0.028893113
0.013094738 0.089648589 0.028921127
0.014110053 0.089699619 0.02897042
0.015120178 0.089713059 0.029031307
0.016027739 0.089154296 0.029510379
0.0167973 0.087938808 0.02951926
0.017872363 0.088368908 0.029639035
0.018899348 0.088528521 0.029626936
0.019756202 0.087915093 0.029624373
0.020937467 0.088734977 0.029354095
0.021570802 0.087263696 0.02804324
0.022982927 0.08893393 0.027032495
0.02396458 0.088868648 0.024099678
-0.045416344 0.095057465 0.011390567
-0.042077128 0.090165272 0.025180042
-0.041087754 0.090192631 0.026095361
-0.039818089 0.089590713 0.02674073
-0.038914822 0.089803442 0.027624488
-0.038272254 0.090644822 0.027927905
-0.037095778 0.090232968 0.028231889
-0.036201227 0.090503074 0.028165102
-0.035026677 0.090068609 0.028160512
-0.033887722 0.0897028 0.028441668
-0.033106912 0.090291589 0.028538197
-0.031978894 0.089940637 0.028508365
-0.031165533 0.090480581 0.028779536
-0.030461099 0.091383301 0.028707564
-0.029065397 0.090202957 0.028512925
-0.028185865 0.090597428 0.028449804
-0.027154805 0.090516016 0.028553605
-0.025836738 0.08943487 0.028766274
-0.024980374 0.08992935 0.029040009
-0.024252594 0.090947233 0.029097378
-0.02309094 0.090355851 0.029110938
-0.021963168 0.08984933 0.029415846
-0.021174623 0.090748385 0.029465169
-0.020022593 0.090101674 0.029809296
-0.018964954 0.08983399 0.029932469
-0.01810463 0.090523161 0.030047715
-0.016976312 0.089874588 0.030609578
-0.015943129 0.089680105 0.031157434
-0.014930225 0.089581355 0.031425148
-0.013991012 0.089942224 0.031791508
-0.012959459 0.089719333 0.0322963
-0.011873559 0.089051694 0.032607883
-0.010950253 0.089592986 0.033056974
-0.0098917624 0.08902587 0.03360638
-0.0089769559 0.089769565 0.033879787
-0.0080094207 0.090105988 0.034221619
-0.0070227119 0.090292014 0.033953786
-0.0059922198 0.089883298 0.03390801
-0.004985054 0.089730985 0.034122825
-0.0040009995 0.090022489 0.033795923
-0.0029790397 0.089371197 0.033698261
-0.0019941463 0.089736588 0.033585697
-0.00099184713 0.089266248 0.033145219
0 0.088848904 0.032823056
0.00099267997 0.089341201 0.032565325
0.0020008092 0.090036415 0.032125145
0.0029799319 0.089397959 0.031912744
0.003990768 0.089792281 0.031573445
0.0049752393 0.089554317 0.03144756
0.0059522474 0.08928372 0.031045556
0.0069606747 0.089494392 0.031021267
0.0080717532 0.090807229 0.030693382
0.0089496579 0.089496583 0.030309409
0.010048766 0.090438895 0.029939204
0.010993426 0.089946218 0.029832631
0.011963466 0.089726001 0.029645264
0.013097045 0.09067186 0.029741049
0.014003498 0.090022489 0.029879302
0.015062202 0.090373218 0.030232042
0.015991634 0.089952946 0.030625045
0.016793422 0.088906355 0.030587524
0.017961282 0.089806423 0.030728281
0.018850917 0.089293823 0.030701965
0.019492587 0.087716646 0.030331522
0.020765403 0.088994585 0.029898107
0.021731852 0.08890304 0.02929467
0.022648329 0.088623896 0.027543396
0.02381218 0.089295685 0.0261904
-0.044977717 0.095185407 0.011765063
-0.041997589 0.090994783 0.026237339
-0.041228388 0.091506913 0.026891947
-0.040137723 0.091313325 0.027820081
-0.039374221 0.091873184 0.028370291
-0.0382181 0.091522291 0.028787643
-0.037049688 0.091122203 0.02948755
-0.036216017 0.091546051 0.028951108
-0.035455838 0.092185184 0.029368907
-0.034006611 0.091017693 0.029578686
-0.033014901 0.091041103 0.029393375
-0.032183722 0.091522463 0.029431313
-0.030990805 0.090973012 0.029485255
-0.030158389 0.091480449 0.029510587
-0.029070478 0.091221154 0.029489487
-0.027672499 0.089935623 0.029387057
-0.026952846 0.09084107 0.029486358
-0.025896952 0.09063933 0.029514462
-0.025072327 0.091263272 0.029687554
-0.02412278 0.091465548 0.029682577
-0.023036232 0.091143355 0.029898405
-0.022024531 0.091101475 0.030061901
-0.0210049 0.091021232 0.030075639
-0.019976215 0.090891786 0.030276328
-0.019010067 0.091048218 0.030245602
-0.017918494 0.090587944 0.030621409
-0.016939929 0.090678446 0.031124532
-0.015982095 0.090898164 0.03136
-0.01487586 0.090246886 0.031621516
-0.014113272 0.091736272 0.032091677
-0.012848201 0.089937411 0.032302111
-0.01176234 0.089197747 0.032604337
-0.010906448 0.090226069 0.032699406
-0.010017805 0.091162026 0.03326571
-0.0089689195 0.090685748 0.033618242
-0.0079917992 0.090906709 0.033873647
-0.006985229 0.090807982 0.033715934
-0.005925504 0.089870155 0.033715934
-0.0050061541 0.09111201 0.033845633
-0.0040240553 0.091547266 0.033618242
-0.0029569252 0.089693405 0.033213675
-0.0019909332 0.090587467 0.033037275
-0.00099505926 0.0905504 0.032847732
0 0.090712987 0.032758802
0.00100701 0.091637917 0.032366753
0.0019955707 0.090798475 0.032037377
0.0029961653 0.090883687 0.031959683
0.0039332104 0.089480542 0.032277614
0.0049371896 0.089856856 0.032535195
0.0059765121 0.090643771 0.032264322
0.0070251776 0.091327317 0.031588018
0.0079984562 0.090982445 0.031354874
0.0090192081 0.09119422 0.031283975
0.0099393455 0.090448044 0.031109661
0.010871797 0.089939415 0.030881673
0.012076849 0.091582775 0.030693382
0.013015843 0.091110907 0.030901521
0.0140384 0.0912496 0.031329542
0.014946269 0.090674035 0.031156212
0.015633231 0.088914007 0.031266481
0.016926799 0.090608165 0.031388193
0.017908869 0.090539292 0.031555921
0.018765191 0.089875385 0.031880081
0.019842003 0.090281121 0.031164765
0.021099666 0.091431893 0.030846268
0.021549089 0.089134872 0.029995382
0.02270445 0.089830652 0.029127866
0.023782322 0.090174638 0.026821166
-0.044841725 0.095940441 0.012943149
-0.042223293 0.092489116 0.026248395
-0.040777106 0.091499843 0.02720964
-0.039959982 0.091907963 0.028101802
-0.03883161 0.091602772 0.02921465
-0.0375387 0.090883173 0.029824972
-0.037193954 0.092482261 0.029730588
-0.035789452 0.091461942 0.029633045
-0.035013963 0.092036702 0.029704362
-0.03392987 0.091810234 0.029846072
-0.032760561 0.091332473 0.029730588
-0.031954013 0.091867782 0.029922932
-0.030814251 0.091448747 0.030445844
-0.030035414 0.092108607 0.030405015
-0.02902554 0.092081025 0.030436993
-0.027665833 0.090902023 0.030364394
-0.026806984 0.091342315 0.030380398
-0.025882937 0.091585778 0.030403823
-0.025075065 0.092276238 0.030439675
-0.024086941 0.09233328 0.030380666
-0.023016935 0.092067741 0.030421317
-0.02191861 0.091659643 0.030517846
-0.020953637 0.091796882 0.030594468
-0.020232478 0.093069404 0.030690759
-0.019089989 0.092435732 0.031133115
-0.018014571 0.092074476 0.031297982
-0.017072048 0.092389911 0.031461805
-0.015800513 0.090852953 0.031600803
-0.014923015 0.091527827 0.032235771
-0.013896087 0.091317147 0.032489479
-0.012774053 0.090400994 0.032393605
-0.011911343 0.091320299 0.032604337
-0.011042974 0.092359424 0.032638371
-0.0098834531 0.090927772 0.032984197
-0.0089955963 0.091954984 0.03334102
-0.0079565635 0.091500483 0.033572227
-0.0069506573 0.091351494 0.0336034
-0.0060117692 0.092180461 0.033613026
-0.0050263111 0.092484131 0.0337874
-0.0039645871 0.09118551 0.033463895
-0.0029743938 0.091214746 0.033053309
-0.0019791555 0.091041148 0.033040583
-0.00099624193 0.091654263 0.032884926
0 0.09187869 0.032775879
0.00099558837 0.09159413 0.03234002
0.0019795119 0.091057546 0.032070905
0.0029920421 0.091755956 0.032037377
0.0039638747 0.091169111 0.032403976
0.0049247039 0.09061455 0.032608747
0.0059308419 0.090939581 0.032655805
0.0070172031 0.092226095 0.032083005
0.0079346998 0.091249049 0.032190919
0.0090014776 0.09201511 0.032134742
0.0099006807 0.091086268 0.031892985
0.010958681 0.091654427 0.031962454
0.011924173 0.091418661 0.031943828
0.012936972 0.091553956 0.032003462
0.013988378 0.091923632 0.032033354
0.014893619 0.091347538 0.031945616
0.015965825 0.091803491 0.032078177
0.016895413 0.091434002 0.032288879
0.017693989 0.090435944 0.033320814
0.018910661 0.091567419 0.033573925
0.019968949 0.091857173 0.033172429
0.020521177 0.089902297 0.032449126
0.021611826 0.090376735 0.031131029
0.02271126 0.090845041 0.029940873
0.023977313 0.091913037 0.027725071
-0.043430582 0.093931258 0.022126913
-0.041768588 0.092487589 0.026334465
-0.040873684 0.092713475 0.027930319
-0.039827134 0.092598088 0.029116362
-0.039015718 0.093037486 0.030029655
-0.038008191 0.093020044 0.030593157
-0.036497433 0.091736786 0.03123799
-0.035684772 0.092185669 0.031036645
-0.035005245 0.093013942 0.030985951
-0.033710141 0.092207149 0.030879229
-0.032930247 0.092803434 0.031085759
-0.031749003 0.092270538 0.031067669
-0.031094858 0.093284577 0.031066597
-0.029869754 0.09259624 0.030912399
-0.029030312 0.093097202 0.030972958
