ply
format ascii 1.0
comment PCL generated
element vertex 1258
property float x
property float y
property float z
element camera 0
property float view_px
property float view_py
property float view_pz
property float x_axisx
property float x_axisy
property float x_axisz
property float y_axisx
property float y_axisy
property float y_axisz
property float z_axisx
property float z_axisy
property float z_axisz
property float focal
property float scalex
property float scaley
property float centerx
property float centery
property int viewportx
property int viewporty
property float k1
property float k2
end_header
0.0061718528 -0.083320014 0.019777387
0.0072838697 -0.084284775 0.019777387
0.0082466109 -0.083496928 0.019630522
0.0092447 -0.083202295 0.019435257
0.010454718 -0.084683217 0.016445726
0.011156435 -0.082151927 0.0062664747
-0.020541212 -0.082164846 0.017963052
-0.019486926 -0.082050212 0.019763291
-0.01852786 -0.082346044 0.021686047
-0.017457718 -0.082153961 0.021524757
-0.016464921 -0.082324602 0.021429837
-0.015376354 -0.082007214 0.021241277
-0.014488876 -0.082793579 0.021306366
-0.013277138 -0.081705458 0.021027148
-0.012443925 -0.082959503 0.020271569
-0.011432046 -0.083142146 0.019723982
-0.010463957 -0.083711654 0.019524634
-0.0093998061 -0.083553828 0.019722939
-0.0084065041 -0.084065042 0.01911965
-0.0073242178 -0.083705343 0.018731505
-0.0062734829 -0.083646439 0.018712908
-0.0052253846 -0.083606154 0.018278748
-0.0041612885 -0.083225772 0.017908782
-0.003140942 -0.083758451 0.017827302
-0.0021023636 -0.084094539 0.018424094
-0.001040668 -0.083253443 0.018409133
0 -0.084066853 0.018593252
0.0010496367 -0.083970934 0.018687248
0.0020849046 -0.083396181 0.018986285
0.0031249779 -0.083332747 0.01962769
0.0041342643 -0.082685277 0.019630969
0.0051276325 -0.08204212 0.019906521
0.0061608478 -0.082144633 0.020167798
0.0072652125 -0.083030999 0.020207822
0.0082601625 -0.082601622 0.020708174
0.009236794 -0.082104839 0.020640552
0.010306752 -0.082454018 0.020535171
0.011257817 -0.081875034 0.018238127
0.012394439 -0.082629591 0.0059718788
-0.021846892 -0.082185924 0.014666438
-0.020637045 -0.081516333 0.019638538
-0.019597271 -0.081483386 0.021815896
-0.018598016 -0.081624627 0.022420138
-0.01753311 -0.081477389 0.022017002
-0.016523469 -0.081584625 0.021766841
-0.015277885 -0.080463529 0.021319628
-0.014366061 -0.081065632 0.021241277
-0.013437378 -0.081657909 0.020959496
-0.012510858 -0.082363151 0.019906014
-0.011482894 -0.082468063 0.019200981
-0.010375068 -0.081963032 0.019296527
-0.0093041835 -0.081670053 0.018991202
-0.0083569335 -0.082524717 0.018489718
-0.0073536774 -0.082991503 0.017990977
-0.0062470534 -0.082252868 0.017643571
-0.0052553979 -0.083035283 0.017432511
-0.0041730879 -0.082418486 0.017161906
-0.0031361626 -0.082585618 0.017254025
-0.0021020528 -0.083031081 0.017377734
-0.0010397898 -0.082143389 0.017531127
0 -0.082332663 0.017983228
0.0010361407 -0.081855111 0.018218756
0.0020734589 -0.081901625 0.018419743
0.0031286255 -0.082387142 0.019152492
0.004179548 -0.08254607 0.019422114
0.0051800301 -0.081844479 0.0200243
0.0062438236 -0.08221034 0.020304859
0.0071652718 -0.080865204 0.020718604
0.0082454504 -0.081423819 0.021288455
0.009271889 -0.081386581 0.021813571
0.010205828 -0.080626041 0.021813571
0.01117308 -0.080243029 0.020354003
0.012364483 -0.081399515 0.01902768
0.013208861 -0.080269232 0.0061710477
-0.022772776 -0.080739841 0.012303382
-0.021876013 -0.08125376 0.020909935
-0.020494942 -0.079930276 0.022421867
-0.019590609 -0.080424599 0.022909313
-0.018477641 -0.08006978 0.022953868
-0.017497668 -0.080283418 0.022852719
-0.016383912 -0.079871573 0.022301912
-0.01560716 -0.08115723 0.022105515
-0.014300828 -0.07967604 0.021411806
-0.013511375 -0.081068248 0.020939976
-0.012432058 -0.080808379 0.019758254
-0.011378414 -0.080683298 0.018926024
-0.010288427 -0.080249734 0.018608719
-0.0094227418 -0.081663765 0.018516958
-0.0083991764 -0.081891961 0.017743915
-0.0072959941 -0.081298217 0.017555088
-0.0062708296 -0.081520788 0.017329425
-0.0052297544 -0.08158417 0.01713568
-0.0042054611 -0.082006492 0.01687178
-0.0031327968 -0.08145272 0.016878545
-0.0021114247 -0.08234556 0.017099231
-0.0010472235 -0.081683427 0.017108351
0 -0.081814378 0.017346978
0.0010472833 -0.081688091 0.017752707
0.0020871265 -0.081397936 0.018164158
0.0031160999 -0.081018597 0.018838257
0.0041295774 -0.080526754 0.019241214
0.0051875645 -0.080926009 0.019828945
0.0062930905 -0.081810176 0.020537376
0.0071912752 -0.080131352 0.02106306
0.0082775876 -0.080706477 0.021512121
0.0091987243 -0.079722278 0.022092402
0.010308171 -0.08040373 0.022633255
0.011268513 -0.079904005 0.021833956
0.012317198 -0.080061793 0.021141946
0.013341073 -0.080046438 0.019026518
-0.023863893 -0.079892159 0.01082316
-0.022874139 -0.080059491 0.019643962
-0.021289729 -0.078062333 0.022952318
-0.020591803 -0.079278447 0.023013622
-0.019403137 -0.07863377 0.023270488
-0.018515324 -0.07920444 0.023238927
-0.017549556 -0.079489164 0.022984207
-0.016356133 -0.078713886 0.022765964
-0.015603667 -0.080098823 0.022233129
-0.01443819 -0.079410046 0.021413445
-0.01345855 -0.079716027 0.020399839
-0.012460841 -0.079957061 0.01943019
-0.011506843 -0.080547906 0.018614024
-0.01044826 -0.080451608 0.018340319
-0.0093220817 -0.079755589 0.017888874
-0.0083724465 -0.080584794 0.017532289
-0.0072817993 -0.080099791 0.017239183
-0.0062838155 -0.080642298 0.017098397
-0.0052833864 -0.081364155 0.016135335
-0.0041880258 -0.080619499 0.016039997
-0.0031198901 -0.080077179 0.015913635
-0.0020994772 -0.080829874 0.015893847
-0.0010423834 -0.080263518 0.0160954
0 -0.080973782 0.016701758
0.0010480717 -0.080701515 0.016979665
0.0020902567 -0.080474876 0.01754722
0.0031340804 -0.0804414 0.01848951
0.0041681477 -0.080236845 0.018769354
0.0051310128 -0.079017594 0.019406855
0.0062902812 -0.080725282 0.020458758
0.0072989813 -0.080288798 0.021163404
0.0082651684 -0.079552241 0.02204448
0.0091583002 -0.078354351 0.022525579
0.010360269 -0.079774067 0.023055553
0.011223732 -0.078566127 0.022462159
0.012329409 -0.079113707 0.022358507
0.013352742 -0.079089321 0.021687061
0.014433163 -0.079382397 0.013530314
-0.024222894 -0.080040865 0.016305208
-0.022580674 -0.078005962 0.021121383
-0.021516865 -0.077870563 0.023272842
-0.020529483 -0.078012034 0.023263782
-0.019516667 -0.078066669 0.023361892
-0.01852385 -0.078211814 0.023374528
-0.017494556 -0.078210957 0.023026794
-0.016481467 -0.078286968 0.022559971
-0.015635999 -0.079222396 0.021853566
-0.014562187 -0.079051867 0.021175295
-0.013374464 -0.078189172 0.01966995
-0.012478081 -0.079027846 0.019151002
-0.011452867 -0.079128906 0.017965913
-0.010486015 -0.07969372 0.017770439
-0.0094751455 -0.080012344 0.017408729
-0.0083691198 -0.079506643 0.017132878
-0.0073233116 -0.079510242 0.015817553
-0.0063416995 -0.080328196 0.01566574
-0.0052924124 -0.080444671 0.015512377
-0.0042460253 -0.080674477 0.015398085
-0.0031800931 -0.080562361 0.015503645
-0.0021033215 -0.079926215 0.015515357
-0.0010478364 -0.079635568 0.015389949
0 -0.079485565 0.015828431
0.0010518499 -0.079940595 0.016126484
0.0020726512 -0.078760743 0.016864032
0.0031603253 -0.080061577 0.017701507
0.0042120013 -0.080028027 0.018517762
0.0052474877 -0.079761818 0.019057006
0.0062425095 -0.07907179 0.020094186
0.0072004669 -0.078176498 0.021062613
0.0083159357 -0.079001389 0.02231577
0.0092304377 -0.077945918 0.022633702
0.010329113 -0.078501269 0.023314983
0.011176211 -0.07721746 0.023103803
0.012244557 -0.077548862 0.022403181
0.013304411 -0.077779643 0.022174805
0.014319957 -0.077736914 0.020797402
0.015441144 -0.078235134 0.006241709
-0.023727449 -0.077372119 0.019099295
-0.022635698 -0.077167161 0.021935284
-0.021486426 -0.07673724 0.023536801
-0.020512478 -0.076921798 0.023438305
-0.019483456 -0.07690838 0.023341209
-0.018428816 -0.076786742 0.023297936
-0.017680656 -0.078002892 0.023003966
-0.016490882 -0.07730101 0.022658825
-0.015669169 -0.078345843 0.021492749
-0.014448063 -0.077400342 0.020504177
-0.013464655 -0.0776807 0.019247562
-0.012545586 -0.07840991 0.018114209
-0.011389546 -0.077656001 0.017212391
-0.010505769 -0.078793272 0.017123044
-0.0094800005 -0.079000011 0.016653568
-0.008446754 -0.079188317 0.015565097
-0.0073677548 -0.078940228 0.015302628
-0.0063661626 -0.079577036 0.014691919
-0.0052480809 -0.078721218 0.013600618
-0.0042261463 -0.07924024 0.013270915
-0.0031527763 -0.078819416 0.013597786
-0.0021246562 -0.079674609 0.014508843
-0.0010520297 -0.078902222 0.014597654
0 -0.079859868 0.01515013
0.0010551461 -0.079135954 0.015379161
0.002099006 -0.078712724 0.016072333
0.0031261677 -0.078154199 0.016752124
0.0041863536 -0.078494139 0.017629564
0.0052465829 -0.078698747 0.018681169
0.006223422 -0.077792779 0.019474506
0.00727086 -0.077902071 0.020950019
0.0082943179 -0.077759229 0.022147745
0.0092017483 -0.076681241 0.022565603
0.010316444 -0.077373333 0.023369312
0.011251155 -0.07671243 0.023158073
0.012307642 -0.076922767 0.022818446
0.013371987 -0.077146083 0.022092313
0.014481606 -0.077580035 0.021805227
0.015466139 -0.077330701 0.011346281
-0.025415976 -0.078365929 0.012045234
-0.023673382 -0.076166533 0.019752026
-0.022490432 -0.075649641 0.023006856
-0.021411823 -0.075451188 0.023617595
-0.020554027 -0.076049902 0.023602635
-0.019594625 -0.07631591 0.02354148
-0.01851688 -0.076124959 0.023330867
-0.017483901 -0.076106399 0.023009688
-0.016735066 -0.077399679 0.022420138
-0.015518927 -0.076560043 0.021209806
-0.014548519 -0.07689932 0.020059317
-0.013578996 -0.077295832 0.019022167
-0.012483624 -0.076982349 0.017677724
-0.011588503 -0.077959023 0.017062306
-0.010437368 -0.077236526 0.016385138
-0.0093812225 -0.077134505 0.015430897
-0.0084721353 -0.078367256 0.014490187
-0.0074033826 -0.078264333 0.013356775
-0.0063542794 -0.078369446 0.012657315
-0.0053454693 -0.079112954 0.012266904
-0.0042522703 -0.078667 0.012186527
-0.0031970046 -0.078859456 0.012418538
-0.0021347261 -0.078984864 0.012654901
-0.001061317 -0.078537464 0.01309669
0 -0.078204922 0.013608575
0.0010504046 -0.077729948 0.015057832
0.0020850813 -0.077148005 0.015384108
0.0031505981 -0.077714756 0.016139925
0.0042028669 -0.077753045 0.017020911
0.0051796976 -0.07665953 0.018556982
0.0062100356 -0.076590441 0.019489855
0.0072816852 -0.076977819 0.020408422
0.0082285115 -0.076113738 0.021692216
0.0093731303 -0.077067971 0.022684097
0.010249756 -0.075848199 0.023514271
0.011239734 -0.075612754 0.023349971
0.012260676 -0.075607508 0.02330628
0.013390465 -0.076222651 0.022721022
0.014267481 -0.075413831 0.021934628
0.01537872 -0.075868353 0.020513654
-0.025129747 -0.076436318 0.015008152
-0.02382575 -0.07562086 0.021121383
-0.022550475 -0.074826583 0.023540437
-0.021466604 -0.074622005 0.023987591
-0.020595495 -0.075173557 0.023907721
-0.019533869 -0.075051181 0.023847461
-0.018552059 -0.075238913 0.023719996
-0.017531393 -0.075281873 0.023222059
-0.01644136 -0.075013712 0.022658825
-0.015523119 -0.075545847 0.021088123
-0.014633032 -0.076300815 0.019491464
-0.013493836 -0.075773083 0.017851323
-0.012567593 -0.076452859 0.017056197
-0.01152901 -0.076510705 0.016223073
-0.010512166 -0.076738819 0.014929116
-0.0095802331 -0.077706344 0.013547868
-0.0084739802 -0.077325068 0.012393922
-0.0073562921 -0.076715618 0.011553824
-0.0063855322 -0.077690646 0.011186719
-0.0053301505 -0.077820204 0.010702074
-0.0042594387 -0.077734761 0.010553092
-0.0032009445 -0.077889659 0.010907918
-0.002124398 -0.077540532 0.011033416
-0.00105705 -0.07716465 0.010971636
0 -0.077716626 0.011973977
0.00105717 -0.077173412 0.013224542
0.0021308763 -0.077776983 0.014789224
0.0031521781 -0.076703005 0.015437186
0.0042090537 -0.076815233 0.016304195
0.0052074911 -0.076029375 0.017480344
0.0062797302 -0.076403394 0.018963754
0.0073017143 -0.076146454 0.02035892
0.0082902219 -0.075648278 0.021414638
0.0093843108 -0.076117195 0.022673368
0.010228523 -0.074668229 0.023768872
0.011212405 -0.074409604 0.023514271
0.012344547 -0.075095996 0.023465931
0.013472013 -0.075650536 0.023246884
0.014490353 -0.075556844 0.02255249
0.01538285 -0.074863203 0.021356225
0.017226795 -0.078597255 0.0060673654
-0.024992645 -0.074977934 0.015452981
-0.023589499 -0.073845387 0.021652907
-0.022719856 -0.074355893 0.023673266
-0.021452086 -0.073550001 0.024235696
-0.020500217 -0.073800772 0.024145991
-0.019590259 -0.074236766 0.024108291
-0.018773856 -0.075095423 0.023981899
-0.017692987 -0.074934997 0.023451447
-0.016383324 -0.073724955 0.02259165
-0.015671151 -0.075221524 0.020194709
-0.014607538 -0.07512448 0.019344211
-0.013707164 -0.075916596 0.017591655
-0.012684675 -0.076108046 0.016821623
-0.011660103 -0.076320671 0.014735579
-0.010546172 -0.075932443 0.012978852
-0.0095811961 -0.076649569 0.012087911
-0.0085016964 -0.076515265 0.010473609
-0.0074548633 -0.076678589 0.010069162
-0.0064167758 -0.077001311 0.0099724829
-0.0053150877 -0.076537259 0.0094269514
-0.0042337039 -0.076206662 0.0094001591
-0.0031865065 -0.076476149 0.0095305145
-0.0021238897 -0.076460026 0.0096182525
-0.0010615945 -0.076434799 0.0097616315
0 -0.077147968 0.010420233
0.0010695159 -0.077005148 0.011160016
0.0021129681 -0.076066844 0.012893468
0.0032059497 -0.076942787 0.014808059
0.0042061 -0.075709797 0.015493959
0.0052286778 -0.07529296 0.016912282
0.0062547638 -0.075057164 0.018740743
0.007342719 -0.075525112 0.019780695
0.0082405787 -0.07416521 0.021341026
0.009224277 -0.073794216 0.022505492
0.010330797 -0.074381739 0.023820609
0.011162552 -0.07306397 0.023675859
0.012359316 -0.074155897 0.023651123
0.013285321 -0.073580235 0.023612857
0.014462277 -0.074377425 0.02317977
0.015459756 -0.074206829 0.021590322
0.017069319 -0.076811939 0.0061787963
-0.025190422 -0.074521668 0.016351312
-0.02374582 -0.073302306 0.023174822
-0.022628114 -0.073027097 0.024092257
-0.021429872 -0.072453372 0.024450421
-0.020443114 -0.072573051 0.024312496
-0.019698998 -0.073612042 0.024264783
-0.018527184 -0.073079444 0.024120748
-0.017400835 -0.072674073 0.023739874
-0.016584298 -0.073592819 0.021668822
-0.015440345 -0.073084295 0.019850701
-0.014803702 -0.075075917 0.018472254
-0.013607784 -0.07431943 0.016785026
-0.012621752 -0.074678697 0.014982224
-0.011612335 -0.074952349 0.012759179
-0.010691182 -0.075907394 0.011092067
-0.0096107321 -0.075818002 0.0099416971
-0.0085399523 -0.075792074 0.0086432397
-0.0076635676 -0.077730469 0.0082402229
-0.0021748801 -0.077208243 0.0069634318
-0.0010830673 -0.07689777 0.0082133412
0 -0.075678892 0.0091230571
0.0010639154 -0.075537995 0.0099198818
0.0021072791 -0.074808404 0.01085636
0.0031952711 -0.075621419 0.012994587
0.0042689163 -0.075773261 0.014916331
0.0052351449 -0.074339055 0.015997231
0.006270078 -0.074195921 0.017820179
0.0072853896 -0.073894665 0.019774407
0.0082302205 -0.073043205 0.021136254
0.0093935719 -0.074104846 0.022505492
0.010389887 -0.073768198 0.023907334
0.011125792 -0.071811929 0.023852378
0.012273208 -0.07261648 0.023804098
0.01329575 -0.072615251 0.023664594
0.014361012 -0.072830841 0.023349971
0.015491642 -0.073327102 0.02184999
0.017158289 -0.076139905 0.0067800283
-0.025244322 -0.073629275 0.018121392
-0.023576636 -0.071754977 0.023569107
-0.022587618 -0.071869694 0.024371833
-0.021499472 -0.0716649 0.024742752
-0.020519018 -0.071816564 0.024781197
-0.019525006 -0.071934238 0.024632573
-0.018680898 -0.072647937 0.024338514
-0.017657181 -0.072706036 0.023907244
-0.016572172 -0.072503246 0.021652013
-0.01570713 -0.073299937 0.019850701
-0.014597407 -0.072987035 0.017707378
-0.013523066 -0.072816506 0.014912039
-0.012637229 -0.073717169 0.013394117
-0.011813448 -0.075176492 0.010798156
-0.010788818 -0.07552173 0.0086541772
0.001086293 -0.076040514 0.0080327988
0.0021471002 -0.075148501 0.0094001591
0.0032036637 -0.074752159 0.010792643
0.0042296601 -0.074019045 0.013071805
0.0052797231 -0.073916122 0.015511096
0.0062803249 -0.073270462 0.017279476
0.0072830375 -0.072830379 0.019392937
0.008391791 -0.073428176 0.021238536
0.0092376163 -0.071848132 0.022644192
0.010346889 -0.072428234 0.02443698
0.011191306 -0.071217403 0.02443698
0.012166782 -0.070972897 0.024341106
0.013349813 -0.071883611 0.024341106
0.014397397 -0.071986981 0.023676246
0.015572081 -0.072669707 0.021982729
0.016947633 -0.074145891 0.0076159537
0.018316213 -0.075419702 0.0057272017
-0.025073541 -0.072086431 0.019752026
-0.02372315 -0.071169443 0.023858577
-0.022344995 -0.070082031 0.024585128
-0.021513555 -0.070687398 0.025012583
-0.020477239 -0.07064648 0.024952471
-0.019506993 -0.070841186 0.02484861
-0.018405663 -0.070555046 0.024643898
-0.017458454 -0.070860781 0.024163514
-0.016319769 -0.070379004 0.022854418
-0.015768688 -0.072535969 0.019428313
-0.014625414 -0.0720824 0.017245471
-0.013821542 -0.073360495 0.013775527
-0.012984906 -0.074663214 0.011401176
-0.012051003 -0.075592659 0.0082372725
0.0021971569 -0.075801916 0.0063038766
0.0032455733 -0.074648187 0.0089061856
0.0042547565 -0.073394544 0.01118663
0.0052996739 -0.073135503 0.014992267
0.0063064047 -0.072523654 0.017136395
0.0072848466 -0.071807779 0.019015878
0.0083083399 -0.071659431 0.021476656
0.0092474585 -0.070897184 0.023947597
0.010304397 -0.071100339 0.024590015
0.011188754 -0.070184 0.024662107
0.012199296 -0.07014595 0.024566442
0.013242229 -0.070285678 0.024590015
0.014221861 -0.07009346 0.024063915
0.01532464 -0.070493348 0.022620231
0.01734768 -0.074811868 0.0090098679
0.01826269 -0.074125037 0.0064073205
-0.024813181 -0.070304014 0.019815534
-0.023695718 -0.0700569 0.023891836
-0.02258536 -0.069809295 0.025048077
-0.021339683 -0.069099925 0.025550663
-0.020390874 -0.069328971 0.025472045
-0.019391874 -0.069402494 0.025413483
-0.018460868 -0.069741055 0.025227845
-0.017447324 -0.069789298 0.024627268
-0.016362108 -0.069538958 0.023129582
-0.015465266 -0.070109203 0.019428313
-0.014601213 -0.070920177 0.016180426
-0.014176425 -0.07415361 0.012059003
-0.013073224 -0.0740816 0.0090743303
-0.012002473 -0.074197106 0.0055629015
0.003257924 -0.073846281 0.0072314441
0.0043264949 -0.073550411 0.0097616315
0.0053226161 -0.072387584 0.012948871
0.0063364361 -0.071812943 0.016386986
0.0073307906 -0.071213394 0.018773854
0.0081646666 -0.069399662 0.0214912
0.0093443347 -0.07060165 0.024094999
0.010297262 -0.070021383 0.025095105
0.011221168 -0.069367222 0.025159895
0.012308197 -0.069746457 0.025126636
0.013265696 -0.069389798 0.025126636
0.014349729 -0.069698684 0.024590015
0.015419311 -0.069900878 0.022716105
0.017216492 -0.073170096 0.0094852448
0.01833562 -0.07334248 0.0064713359
-0.024940029 -0.069624253 0.020391464
-0.023641882 -0.068869829 0.023783147
-0.022477023 -0.068452761 0.025232881
-0.021472011 -0.068505935 0.025716722
-0.02045688 -0.068530552 0.025804073
-0.019309646 -0.068091907 0.025758445
-0.018407868 -0.068518184 0.025624871
-0.017660802 -0.069604337 0.025176913
-0.016484186 -0.069027528 0.023813546
-0.015770886 -0.070443287 0.019140542
-0.015206292 -0.072772972 0.014543235
-0.01405018 -0.072412468 0.0099370778
-0.012999236 -0.072579071 0.0059367418
0.0043318775 -0.072558947 0.0078882277
0.0054513798 -0.073048495 0.010321647
0.0063614044 -0.071035683 0.01548788
0.007250038 -0.069393225 0.018992305
0.0082829753 -0.06936992 0.022744656
0.0091203609 -0.067896023 0.024645925
0.010285253 -0.068911195 0.025749207
0.011071691 -0.067436673 0.025827825
0.012205042 -0.068144821 0.025711089
0.013205498 -0.068059109 0.025695324
0.014369071 -0.068766274 0.025184512
0.015285905 -0.068277046 0.022759199
0.017191818 -0.071990736 0.0097517371
0.018317593 -0.072192863 0.0065419078
0.019584449 -0.072897673 0.0050389469
-0.024667574 -0.06783583 0.020692468
-0.023600301 -0.067722596 0.023646981
-0.022531023 -0.067593068 0.025306851
-0.021403709 -0.067268796 0.025659144
-0.020307703 -0.067015417 0.025976807
-0.019341417 -0.067185968 0.025975645
-0.018355796 -0.067304589 0.02591756
-0.017436994 -0.067696564 0.025466144
-0.016231144 -0.066953465 0.024608642
-0.015926057 -0.070074648 0.020512044
-0.015119842 -0.071279258 0.014518082
-0.013999576 -0.071074769 0.0082277954
0.0043001813 -0.070952989 0.005826056
0.0053889155 -0.071133681 0.010142088
0.0063098376 -0.069408216 0.01537028
0.0073249741 -0.069064036 0.019724041
0.0082964301 -0.068445548 0.024007142
0.0091668135 -0.067223303 0.02567476
0.01019318 -0.067274988 0.026703387
0.011234276 -0.067405656 0.026701689
0.01214575 -0.06680163 0.026116937
0.013246793 -0.067252949 0.025939763
0.014355517 -0.067676008 0.025375694
0.01523256 -0.067023262 0.023852378
0.016986193 -0.070068046 0.010900348
0.018206453 -0.070683874 0.0068573654
0.019407358 -0.071160316 0.0053405762
-0.024648538 -0.066756457 0.020423949
-0.023555782 -0.066570684 0.023566186
-0.022402478 -0.06618914 0.025365382
-0.021438727 -0.066357963 0.025758445
-0.020360263 -0.066170856 0.026223242
-0.019311417 -0.066065371 0.026198089
-0.018373925 -0.066350289 0.026162982
-0.017322287 -0.066232271 0.026283234
-0.016298227 -0.066211551 0.025609881
-0.015318017 -0.066378072 0.024370015
-0.015132602 -0.070258513 0.017767191
-0.013868299 -0.069341496 0.0093009174
0.0053477334 -0.069520533 0.010135949
0.0065376651 -0.070824705 0.016894937
0.0075204005 -0.069832288 0.022022039
0.0082289716 -0.066860393 0.025695324
0.009186713 -0.066348486 0.026618361
0.010023959 -0.065155737 0.027697414
0.011201029 -0.066187896 0.027655095
0.012223503 -0.066210642 0.026970148
0.013201239 -0.066006191 0.026618361
0.014350288 -0.06662634 0.025695324
0.01519442 -0.065842487 0.024510503
0.016910207 -0.068697713 0.01169312
0.018119654 -0.069281027 0.0071081519
0.019534133 -0.070539929 0.0053689778
-0.024945248 -0.066520661 0.020436496
-0.023642434 -0.065787643 0.022928238
-0.022579236 -0.065685049 0.025021285
-0.021192063 -0.064585336 0.025856614
-0.02044883 -0.065436259 0.026404321
-0.01959553 -0.066005997 0.026715428
-0.018306427 -0.065089516 0.026771128
-0.017256472 -0.064965539 0.026606739
-0.016024504 -0.064098015 0.026268214
-0.015126375 -0.064539202 0.025312632
-0.015313768 -0.070005797 0.022840083
-0.013758742 -0.067735344 0.010346532
-0.012855896 -0.06856478 0.0054653883
0.0043151458 -0.069042332 0.0055009127
0.0053995037 -0.069113649 0.012363672
0.0066800253 -0.071253605 0.02087307
0.0073080165 -0.066816151 0.024781793
0.0081339618 -0.065071695 0.027633667
0.0090814298 -0.064579062 0.027755558
0.010169346 -0.065083817 0.027972192
0.011148489 -0.064863943 0.027959108
0.012247079 -0.065317757 0.027527362
0.013203291 -0.065000817 0.026970148
0.014359291 -0.065642476 0.025734663
0.015156158 -0.064666271 0.024078071
0.016941868 -0.067767471 0.011136442
0.018465264 -0.069516286 0.0074008107
0.019484412 -0.069277912 0.0058741271
-0.02506166 -0.065786861 0.020338982
-0.023759443 -0.065080211 0.022739917
-0.022491358 -0.064407073 0.024473131
-0.021488257 -0.06446477 0.025691479
-0.020540953 -0.064704001 0.026705146
-0.019286443 -0.063949786 0.026848704
-0.018441308 -0.064544581 0.027105451
-0.017349077 -0.064293645 0.027025461
-0.016202107 -0.063795798 0.026926249
-0.015293838 -0.064234123 0.026212484
-0.015017982 -0.067580916 0.025137842
-0.014592083 -0.070715487 0.022693098
-0.012755385 -0.066965774 0.0093258321
0.0043156119 -0.067970887 0.0081400871
0.0054991641 -0.069289476 0.020034462
0.0063479929 -0.06665393 0.024043649
0.0072113555 -0.064902201 0.02732724
0.0080995308 -0.06378381 0.028033108
0.00905893 -0.06341251 0.027855158
0.01018412 -0.06415996 0.028261691
0.011119026 -0.063681692 0.027922094
0.012174511 -0.063916184 0.027449459
0.013239703 -0.064161643 0.02643007
0.014216516 -0.063974328 0.025354832
0.015311897 -0.06430997 0.02342096
0.016882934 -0.066476554 0.011136442
0.018288249 -0.067774102 0.0077653527
0.019359799 -0.067759305 0.006087184
-0.024934042 -0.064412944 0.012258559
-0.023670236 -0.063806728 0.021056801
-0.02282951 -0.064337716 0.023239493
-0.021367533 -0.063085102 0.025428176
-0.020299612 -0.062928796 0.02635029
-0.019344101 -0.063122854 0.026867628
-0.018227285 -0.062782876 0.027135938
-0.017270736 -0.062987395 0.02717939
-0.016227545 -0.062881745 0.027043492
-0.015052182 -0.062215686 0.026879609
-0.014370316 -0.063639969 0.026310325
-0.014444972 -0.068891414 0.025961161
-0.013394102 -0.069202863 0.014509559
-0.012049539 -0.067915589 0.0065366626
0.0033048948 -0.068301164 0.0072571039
0.0044565629 -0.069076724 0.01747483
0.0054627 -0.067737482 0.023733228
0.0061801486 -0.063861534 0.02747497
0.0070403521 -0.062357407 0.028039813
0.0080838231 -0.06264963 0.028263897
0.0090721417 -0.062496983 0.028343678
0.010132582 -0.062822014 0.028279364
0.011270354 -0.063523814 0.027732581
0.012170477 -0.062880799 0.026801288
0.013301118 -0.063436106 0.025823027
0.014219403 -0.062971644 0.024093062
0.015317729 -0.063313283 0.014453351
0.017039645 -0.066028625 0.010276824
0.018299306 -0.06673865 0.0076911151
0.019415926 -0.066877082 0.0059987307
-0.024871165 -0.063214213 0.0087717175
-0.023680482 -0.062804751 0.018444508
-0.022717558 -0.062989593 0.022850811
-0.021380594 -0.062105533 0.024427503
-0.020411972 -0.062256519 0.025509089
-0.019471474 -0.062513679 0.026307583
-0.018252544 -0.061855845 0.027023166
-0.017235234 -0.061844077 0.027273864
-0.016191227 -0.061729055 0.02737689
-0.015128304 -0.061521769 0.027283788
-0.014114253 -0.061497819 0.027118891
-0.013243451 -0.062142346 0.026895434
-0.012746236 -0.064793363 0.025950581
-0.012497488 -0.069304258 0.023376882
-0.011392211 -0.069492482 0.0095111132
-0.0099059222 -0.06714014 0.0057093203
0.0022973141 -0.070068076 0.0073128939
0.0034782873 -0.070725173 0.017580867
0.0042704172 -0.065123864 0.023811609
0.005053984 -0.061658602 0.027588636
0.0060262438 -0.061266813 0.027895361
0.0070235878 -0.061205551 0.028072953
0.0080960188 -0.061732139 0.028124303
0.009136836 -0.061927445 0.028228074
0.010083959 -0.06151215 0.028186321
0.011125449 -0.061695673 0.027396888
0.012213365 -0.062084608 0.025948912
0.013304542 -0.062429003 0.0243586
0.014369803 -0.062611282 0.020682514
0.015425576 -0.062730677 0.012933075
0.016954483 -0.064638965 0.009867698
0.01817102 -0.065201893 0.0077528954
0.019186905 -0.06502229 0.0062830448
-0.024946786 -0.062366966 0.0071707368
-0.023763981 -0.061992992 0.012278646
-0.022740504 -0.06201956 0.020079553
-0.021614844 -0.061756697 0.022805631
-0.020374931 -0.061124798 0.024301112
-0.019270366 -0.06085379 0.025321484
-0.018297233 -0.060990777 0.026454568
-0.017265152 -0.060935833 0.027001411
-0.016365916 -0.061372183 0.027059317
-0.015325516 -0.061302062 0.027262479
-0.014060405 -0.060258877 0.027269512
-0.013138651 -0.060639929 0.02737689
-0.012023311 -0.060116556 0.027127773
-0.011181278 -0.060988791 0.026101202
-0.010642888 -0.063857332 0.024453789
-0.010298066 -0.068653777 0.010403842
-0.0093756942 -0.070317708 0.0086393356
-0.0079529919 -0.068168506 0.0063888431
0 -0.069133878 0.0073657036
0.0011475848 -0.068855084 0.0095880032
0.0021911908 -0.06573572 0.021030426
0.0029777621 -0.059555244 0.025317013
0.004000173 -0.060002591 0.026752353
0.0049913349 -0.059896022 0.027994186
0.006045836 -0.060458362 0.027892053
0.0071726339 -0.061479717 0.028016627
0.0080922581 -0.060691934 0.028189272
0.0091396701 -0.060931135 0.028213263
0.010102154 -0.060612928 0.027437031
0.011208464 -0.061137076 0.026000202
0.012226556 -0.061132785 0.024431288
0.013412879 -0.061905596 0.023331612
0.014316049 -0.061354496 0.014460385
0.01541229 -0.061649159 0.012181193
0.016849875 -0.063187033 0.0094765723
0.018073257 -0.063787967 0.0074558854
0.019454228 -0.064847432 0.0059420466
-0.025387947 -0.062412038 0.005672425
-0.023776757 -0.06099255 0.0088876784
-0.02278056 -0.061093319 0.01303646
-0.021702388 -0.060973376 0.020579875
-0.020587176 -0.060732171 0.022724509
-0.01962655 -0.0609456 0.024150074
-0.018313639 -0.060028043 0.02507019
-0.017211998 -0.05973576 0.026198357
-0.016145224 -0.059535518 0.026699573
-0.015186409 -0.059733212 0.027047455
-0.014240228 -0.060012389 0.027085185
-0.01315832 -0.059718527 0.027747631
-0.011965456 -0.058830164 0.027520537
-0.011149526 -0.059802003 0.027326375
-0.0099544628 -0.058731336 0.026765466
-0.0090963161 -0.059631407 0.026108921
-0.0084561035 -0.062363762 0.025621057
-0.0074450271 -0.062750943 0.023217887
-0.0065641021 -0.06454701 0.012028337
-0.0056620813 -0.06681256 0.010224223
-0.0044627138 -0.06582503 0.010264635
-0.0033346205 -0.065580875 0.010202587
-0.0022468811 -0.066282995 0.011843204
-0.0010809234 -0.063774481 0.023125768
0 -0.061069798 0.025508821
0.0010104665 -0.059617519 0.025465876
0.0020169332 -0.059499525 0.025446415
0.0030280678 -0.059552003 0.026681542
0.0040269624 -0.059397697 0.027543247
0.0049988814 -0.058986802 0.027859569
0.0059857895 -0.058860265 0.027700871
0.0070908037 -0.059765346 0.027708292
0.0081062987 -0.059783954 0.027096331
0.009141366 -0.059926737 0.026495129
0.010127537 -0.059752472 0.026129454
0.011199936 -0.060072388 0.02414608
0.01237499 -0.060843702 0.023260653
0.013403647 -0.060831938 0.01476863
0.014406499 -0.060713101 0.012857646
0.015645754 -0.061539963 0.011101931
0.017032484 -0.062807284 0.0089068115
0.018413836 -0.063906841 0.0070416927
0.019443937 -0.063732907 0.006077081
-0.024601409 -0.062038336 0.007976234
-0.02331231 -0.061459728 0.01085937
-0.021791132 -0.06018503 0.012986273
-0.020656006 -0.059902422 0.019704461
-0.019498417 -0.059521485 0.022445053
-0.018388547 -0.059251986 0.022816986
-0.017275548 -0.058940105 0.024935305
-0.0162166 -0.058785178 0.025874972
-0.015240684 -0.05893065 0.026332498
-0.014125425 -0.05851962 0.026293099
-0.013060312 -0.058269083 0.027317524
-0.01227012 -0.059305582 0.027463078
-0.011083178 -0.05843858 0.027390957
-0.010114269 -0.058662765 0.02746141
-0.0090159541 -0.05810282 0.027525991
-0.0080170119 -0.058123335 0.027377814
-0.0069446745 -0.05754159 0.027407736
-0.0060375296 -0.058362789 0.027652502
-0.0050220913 -0.058256265 0.027766913
-0.0040037842 -0.058054876 0.027775735
-0.0029963856 -0.057930123 0.027766913
-0.0019962934 -0.057892513 0.026906192
-0.00099954382 -0.057973541 0.026865959
0 -0.058204718 0.026824385
0.0010025008 -0.058145043 0.02743721
0.0020158449 -0.058459502 0.026705533
0.00300417 -0.058080621 0.027543247
0.0039987159 -0.057981383 0.027606368
0.0050109285 -0.058126777 0.027543247
0.0060896613 -0.058866728 0.026786983
0.0070536407 -0.058444452 0.026865959
0.0081907697 -0.059383083 0.025840372
0.0091337785 -0.058862131 0.025073588
0.010183041 -0.059061639 0.023928672
0.011340634 -0.059796073 0.022996277
0.012353359 -0.059707902 0.014772832
0.013561335 -0.060504422 0.012898147
0.014826209 -0.06142287 0.011581808
0.015804216 -0.061109636 0.0096906424
0.016991301 -0.061593462 0.0079552531
0.018340472 -0.062573373 0.0066200495
0.019379266 -0.062444307 0.0053347349
-0.024795793 -0.06145044 0.0072149038
-0.023286019 -0.060331956 0.0085223317
-0.022212759 -0.060291771 0.011125028
-0.021202272 -0.060426477 0.012861937
-0.019819185 -0.059457555 0.018715829
-0.018732602 -0.05931991 0.021648705
-0.017405683 -0.05836023 0.022660792
-0.016369961 -0.058317985 0.024102539
-0.015236995 -0.057900578 0.025777847
-0.014102522 -0.057417411 0.02605772
-0.013100202 -0.05743935 0.026672691
-0.012146276 -0.057694815 0.027346939
-0.011091062 -0.057471868 0.027507395
-0.010148606 -0.05784706 0.027997732
-0.0091027739 -0.057650905 0.028018087
-0.0080956388 -0.057681426 0.027855068
-0.0071038664 -0.057845768 0.027944714
-0.0060758712 -0.057720773 0.028345466
-0.0050413646 -0.057471555 0.028531343
-0.0040406878 -0.0575798 0.028251201
-0.003026959 -0.05751222 0.028285295
-0.0020141401 -0.057402991 0.02791515
-0.0010094939 -0.057541154 0.027762443
0 -0.057923265 0.028100193
0.0010085281 -0.057486098 0.028081506
0.0020003768 -0.05701074 0.027606368
0.0030070387 -0.057133738 0.027625054
0.0040450338 -0.05764173 0.0269216
0.005062189 -0.057708956 0.026771039
0.0060429149 -0.057407692 0.025643319
0.0070844316 -0.057687514 0.02542913
0.0081091579 -0.057777748 0.023238748
0.0092722392 -0.05872418 0.023023099
0.010374908 -0.059136979 0.020219564
0.01157562 -0.059982754 0.014592856
0.01268209 -0.060239922 0.012845576
0.013832 -0.060648002 0.011819214
0.01477568 -0.060158126 0.010206193
0.01596722 -0.060675438 0.0091812611
0.017240478 -0.061419204 0.0077595413
0.018209528 -0.061055474 0.0062040389
-0.024538115 -0.059744973 0.0056164861
-0.023734469 -0.060415011 0.0079776049
-0.022435719 -0.059828583 0.0088516772
-0.021187883 -0.059326075 0.011558533
-0.020150375 -0.059390575 0.012712628
-0.019093074 -0.059400678 0.013368279
-0.017842479 -0.058775224 0.01595214
-0.016467337 -0.05763568 0.020634443
-0.015404291 -0.057509355 0.023447663
-0.014189356 -0.056757424 0.024923772
-0.013214581 -0.056924347 0.026007324
-0.012038935 -0.056181695 0.026319712
-0.011122124 -0.056621723 0.027062535
-0.01014427 -0.056807917 0.027673095
-0.0090510463 -0.056317624 0.028018087
-0.0081481896 -0.057037327 0.028018087
-0.0069977059 -0.055981647 0.028116375
-0.0060678306 -0.056633085 0.028568894
-0.005039487 -0.056442257 0.028802991
-0.0040640663 -0.056896929 0.02857706
-0.0030437673 -0.056816991 0.028711468
-0.002026794 -0.056750234 0.028300852
-0.0010089377 -0.056500513 0.028288633
0 -0.056365419 0.028568894
0.0010135876 -0.056760903 0.028290331
0.0020051759 -0.056144927 0.027728528
0.0030636943 -0.057188962 0.027048767
0.0039896737 -0.055855431 0.026382983
0.0050678668 -0.05676011 0.025687754
0.0060663815 -0.056619562 0.023542792
0.0071468996 -0.057175197 0.022763968
0.0083288308 -0.058301818 0.018896729
0.0094645321 -0.058890425 0.015616655
0.010587976 -0.05929267 0.01458624
0.011578961 -0.058947437 0.013003886
0.012733558 -0.059423272 0.012078822
0.013880723 -0.059793886 0.011048973
0.014791775 -0.059167098 0.009942323
0.016191795 -0.060449369 0.0087037086
0.016892128 -0.059122443 0.0074558556
0.018263003 -0.060160477 0.0061195791
-0.024625506 -0.058887079 0.00552091
-0.023599207 -0.058998022 0.0072776973
-0.022438269 -0.058766894 0.0087221265
-0.021448476 -0.058983315 0.0090589821
-0.020072378 -0.058104254 0.010709733
-0.019072402 -0.058276791 0.01210165
-0.018076317 -0.0584822 0.013008207
-0.016834127 -0.057867311 0.014850408
-0.0156857 -0.057514235 0.015873432
-0.014452809 -0.056778893 0.019122094
-0.013259104 -0.056096207 0.023733318
-0.012329232 -0.056508981 0.025697678
-0.01112657 -0.055632852 0.026149243
-0.01013202 -0.055726111 0.027121663
-0.0092046829 -0.056250844 0.027677268
-0.008123422 -0.055848524 0.027944714
-0.0070969053 -0.055761401 0.028099418
-0.0061177327 -0.05607922 0.028568894
-0.0050596246 -0.055655871 0.028823107
-0.0040449123 -0.055617545 0.028668702
-0.0030719859 -0.056319743 0.028713673
-0.0020326788 -0.055898666 0.028318316
-0.0010114558 -0.055630073 0.028442025
0 -0.055494025 0.028549284
0.0010271012 -0.056490567 0.02799511
0.0020099659 -0.055274066 0.027048796
0.0030714422 -0.056309778 0.026113719
0.0040538521 -0.055740468 0.024538398
0.0051206313 -0.056326948 0.02130574
0.0062318901 -0.057125658 0.01886633
0.007288428 -0.05726622 0.015216202
0.0084862774 -0.058343157 0.014661252
0.0094769914 -0.057914954 0.013658971
0.010574066 -0.058157366 0.012879014
0.011635372 -0.058176868 0.012239128
0.012851644 -0.058903374 0.011418849
0.013830502 -0.05851366 0.010269552
0.014956543 -0.058757849 0.0094680488
0.015872229 -0.058198176 0.0080944896
0.017145101 -0.058936287 0.0064803362
0.018561622 -0.060052305 0.0053211749
-0.024596252 -0.057747722 0.0052314401
-0.023459731 -0.057582978 0.0063667595
-0.022507848 -0.057877328 0.0076668859
-0.021448392 -0.057910662 0.0085166693
-0.020190323 -0.057383023 0.0092850029
-0.019241763 -0.057725292 0.0099135339
-0.017979717 -0.057112042 0.01162228
-0.017051321 -0.057548206 0.012656778
-0.016104883 -0.057977583 0.01318109
-0.014785683 -0.057030492 0.014916629
-0.013682018 -0.056833003 0.015823573
-0.012291313 -0.055310912 0.022407144
-0.01133627 -0.055650782 0.024252266
-0.010131783 -0.054711632 0.025774986
-0.0092142848 -0.055285715 0.027109951
-0.0080662053 -0.054446883 0.027660042
-0.0071343817 -0.05503666 0.027940333
-0.00603096 -0.054278642 0.02853322
-0.0050268755 -0.054290261 0.02891475
-0.0040619755 -0.054836672 0.028780729
-0.0030369391 -0.054664906 0.028781623
-0.0020188564 -0.054509122 0.028503627
-0.0010152385 -0.054822877 0.028221637
0 -0.054914411 0.027676105
0.0010224897 -0.055214446 0.026953787
0.0020381929 -0.055031206 0.026096642
0.0030626806 -0.055128254 0.023520201
0.0041211918 -0.055636089 0.019869208
0.0052912259 -0.057145242 0.015693724
0.0062716762 -0.056445088 0.014614284
0.0074008266 -0.057092093 0.013747394
0.0084185489 -0.056825206 0.012932897
0.0095584551 -0.057350732 0.012411445
0.010593911 -0.057207122 0.012211829
0.011739594 -0.057630736 0.011355817
0.012787083 -0.057541877 0.010843068
0.01374169 -0.057080869 0.0096808672
0.014898131 -0.05746422 0.0085012019
0.01591648 -0.057299327 0.007368505
0.017303467 -0.058399204 0.0060742795
-0.023620121 -0.05690302 0.0051410198
-0.022625512 -0.057102475 0.0068742633
-0.021407124 -0.056728881 0.0077967048
-0.02031396 -0.056665253 0.0083222389
-0.019286117 -0.056786899 0.0091826618
-0.018199166 -0.056738574 0.0097571909
-0.017083973 -0.056590658 0.011278093
-0.015843777 -0.055981345 0.012295127
-0.014931774 -0.056527428 0.012738436
-0.013653522 -0.055664357 0.013372213
-0.012594067 -0.055623796 0.01519832
-0.011484892 -0.055336297 0.017644435
-0.010241464 -0.05427976 0.023605675
-0.0091748871 -0.054029893 0.025807858
-0.0081196204 -0.053792484 0.026538432
-0.0071011875 -0.053766131 0.027277827
-0.006104744 -0.053925242 0.028203756
-0.005121307 -0.05428585 0.02857706
-0.0040449346 -0.053595383 0.028575093
-0.0030491799 -0.053868845 0.028465241
-0.0020376537 -0.053997822 0.028184682
-0.001009769 -0.053517759 0.027259797
0 -0.05367811 0.026552528
0.0010292935 -0.054552555 0.024734259
0.0020775483 -0.05505503 0.020507097
0.0031652357 -0.055919163 0.01764062
0.0042062006 -0.055732153 0.015279233
0.0052470276 -0.055618491 0.014388412
0.0063789031 -0.056346975 0.013518602
0.0074265259 -0.056229409 0.012651443
0.0085271969 -0.056492679 0.011935383
0.0096056489 -0.0565666 0.011600167
0.010601619 -0.056188583 0.011245579
0.011694264 -0.05634509 0.010740608
0.012849283 -0.056751002 0.0099043846
0.013813745 -0.056317575 0.0087206662
0.014798991 -0.056024749 0.0076353252
0.016121946 -0.056964207 0.0060199201
0.017036619 -0.056433801 0.0050195754
-0.022594746 -0.055948894 0.0054161251
-0.021562578 -0.056062706 0.0068698823
-0.02036755 -0.055742767 0.0078123808
-0.01923796 -0.055576328 0.0084309876
-0.018267674 -0.055877592 0.0090597272
-0.016929967 -0.055022396 0.0096505284
-0.015983934 -0.05541097 0.010794371
-0.014977194 -0.055629581 0.011346817
-0.013741203 -0.054964811 0.012050331
-0.012618435 -0.054679882 0.012798041
-0.011635534 -0.055004343 0.01370585
-0.01050832 -0.054643266 0.015118301
-0.0093650045 -0.054108918 0.017712086
-0.0082378294 -0.053545889 0.023407459
-0.0071441052 -0.053070497 0.023884654
-0.0061125178 -0.052975152 0.026329815
-0.0050779143 -0.052810308 0.026487559
-0.0040716343 -0.052931245 0.026670933
-0.003096238 -0.053668126 0.025265366
-0.002025855 -0.052672226 0.025087714
-0.0010219463 -0.05314121 0.024004579
0 -0.053993467 0.021028161
0.0010490353 -0.054549839 0.017921776
0.0021244145 -0.055234779 0.016258568
0.0031753264 -0.055038992 0.015248805
0.0042022364 -0.054629073 0.013584107
0.0052973921 -0.055092879 0.013268411
0.0063704406 -0.055210486 0.0123972
0.0074081845 -0.055032227 0.01193881
0.0084656226 -0.055026546 0.011366397
0.0094901398 -0.054831922 0.010977119
0.010639493 -0.055325367 0.010753125
0.011691385 -0.055268366 0.0098055005
0.012753337 -0.055264462 0.0087609589
0.013865338 -0.055461351 0.0078153312
0.014934048 -0.055469319 0.0063707829
0.016184244 -0.056105375 0.0051110685
-0.021475147 -0.05476163 0.0060088038
-0.020458933 -0.054916084 0.0070248544
-0.019235337 -0.054500125 0.0079570413
-0.018040242 -0.054120727 0.008362025
-0.017096812 -0.054496091 0.0089422464
-0.015856616 -0.053912494 0.0096103251
-0.014911691 -0.054321159 0.010497391
-0.013878368 -0.054445907 0.010868251
-0.012687723 -0.053922825 0.011957824
-0.011590663 -0.053738531 0.012302577
-0.010553973 -0.053825263 0.012852281
-0.0095399488 -0.05405971 0.014386743
-0.0083918637 -0.05349813 0.015527099
-0.0073131621 -0.053281609 0.017837346
-0.0061848504 -0.05257123 0.018354088
-0.0051082508 -0.05210416 0.019824535
-0.0041101812 -0.05240481 0.020101368
-0.0030543956 -0.051924728 0.019225329
-0.0020848042 -0.053162508 0.018295228
-0.0010457989 -0.053335745 0.016962349
0 -0.053844899 0.016097307
0.0010495491 -0.053527001 0.015580714
0.0021100871 -0.053807221 0.014654577
0.0031507472 -0.053562704 0.014046222
0.0042662276 -0.054394398 0.012912035
0.0053123753 -0.054186229 0.012416214
0.0063227434 -0.053743318 0.01200217
0.0073957131 -0.053883053 0.01134786
0.0084474999 -0.053852811 0.011167228
0.0095415805 -0.05406896 0.010336757
0.010586021 -0.05398871 0.0099496841
0.011665819 -0.054086983 0.008769691
0.012733431 -0.05411708 0.0078832209
0.013824141 -0.054233167 0.0063540637
0.014956543 -0.05448455 0.0052522123
-0.020476758 -0.053886209 0.0062347353
-0.019190168 -0.053306025 0.0070166886
-0.018125996 -0.053311754 0.0077623129
-0.017107921 -0.053462252 0.0082761943
-0.016139967 -0.05379989 0.0090535581
-0.014878224 -0.053136513 0.0095032156
-0.013832362 -0.053201396 0.010082513
-0.012732303 -0.053051267 0.010794371
-0.011667446 -0.053033851 0.011457384
-0.010628624 -0.053143121 0.011957824
-0.0094960919 -0.052756071 0.012588322
-0.0084917424 -0.053073391 0.013516903
-0.0073696375 -0.05264027 0.014255822
-0.0062648151 -0.052206796 0.014753103
-0.0051503722 -0.051503725 0.015509754
-0.0041184765 -0.05148096 0.015726805
-0.0031219586 -0.052032646 0.015520543
-0.0020956167 -0.052390419 0.015068054
-0.0010630651 -0.053153258 0.015357554
0 -0.052911401 0.014168739
0.0010674819 -0.0533741 0.014046222
0.0021036032 -0.05259008 0.013473213
0.0031749592 -0.05291599 0.013121665
0.0042518224 -0.053147782 0.012054056
0.00525897 -0.052589703 0.011867046
0.0064085578 -0.053404652 0.011237621
0.007416219 -0.052972995 0.010709316
0.0084762564 -0.052976601 0.0099544823
0.0095390994 -0.052995004 0.0094369352
0.010652213 -0.053261071 0.0083605647
0.011757927 -0.053445127 0.007392019
0.012859307 -0.053580452 0.0061686635
0.013965222 -0.053712394 0.0052434802
-0.020392243 -0.052590519 0.0050489604
-0.019260215 -0.052430585 0.0060088038
-0.018240476 -0.052575488 0.0067992508
-0.017069584 -0.052275598 0.0076271892
-0.015994281 -0.052247982 0.0082237124
-0.014863275 -0.052021462 0.0088537931
-0.013755575 -0.051847935 0.0093341768
-0.01282402 -0.052364748 0.009871155
-0.011681646 -0.052036423 0.010315388
-0.010584667 -0.05186487 0.011073738
-0.0096231475 -0.052392691 0.011644781
-0.00848029 -0.051941775 0.012139142
-0.0074104303 -0.05187301 0.012230605
-0.0063854563 -0.052147891 0.012975365
-0.0052584549 -0.051532857 0.013244838
-0.0041925977 -0.051359322 0.013375938
-0.003154865 -0.051529463 0.013255626
-0.0021135646 -0.051782332 0.013164133
-0.001060484 -0.051963713 0.013136476
0 -0.051904559 0.013209701
0.0010637522 -0.052123856 0.012895375
0.0021266376 -0.052102618 0.012846112
0.0032256753 -0.052686028 0.012452215
0.0042189849 -0.051682562 0.011566073
0.0053710192 -0.052635986 0.011217624
0.0063269977 -0.051670481 0.010380715
0.0073812022 -0.051668413 0.0098901391
0.0084667355 -0.051858753 0.0087020397
0.0095441844 -0.051962782 0.0080544651
0.010602214 -0.05195085 0.0064539313
0.01179079 -0.052522607 0.0058105886
0.0129605 -0.05292204 0.0052102804
-0.018106069 -0.051123016 0.0053429306
-0.017124038 -0.051372115 0.0064698756
-0.016128823 -0.051612236 0.0075885952
-0.014876181 -0.051004048 0.0078343153
-0.013874529 -0.05122903 0.0084646642
-0.012750874 -0.051003497 0.008782953
-0.011617233 -0.050693382 0.0092373788
-0.010582381 -0.050795428 0.01015079
-0.0096396385 -0.051411409 0.010757416
-0.0085089719 -0.051053833 0.01132971
-0.0074117966 -0.050823748 0.011514693
-0.0063583073 -0.050866459 0.012214065
-0.0053126924 -0.051001851 0.012437731
-0.0042514824 -0.051017791 0.012486219
-0.0031828692 -0.050925907 0.012479484
-0.0021261834 -0.051028397 0.012546957
-0.0010594084 -0.050851602 0.012385577
0 -0.050752956 0.012332588
0.0010745437 -0.051578097 0.012041748
0.0021076577 -0.050583787 0.011855543
0.0031803264 -0.050885223 0.011050731
0.0041749622 -0.050099548 0.010351598
0.0053396313 -0.05126046 0.0097719133
0.0062991045 -0.050392836 0.008823365
0.0074986601 -0.051419385 0.0079125166
0.008525921 -0.051155522 0.0067044199
0.0095524816 -0.050946567 0.0054896176
-0.017101934 -0.050236929 0.0054368079
-0.015981946 -0.050076764 0.0064480007
-0.014941538 -0.050160877 0.0074805915
-0.013722002 -0.049610313 0.0077961981
-0.012771311 -0.050020967 0.0084179044
-0.011761802 -0.050254975 0.0083556175
-0.010706559 -0.050320826 0.009213388
-0.0095149539 -0.049689207 0.010005057
-0.0085933218 -0.050485764 0.010510445
-0.0074648275 -0.050120987 0.010925293
-0.0063547189 -0.049778633 0.011652648
-0.0053617829 -0.05040076 0.011817157
-0.0042418269 -0.049841467 0.011918753
-0.003184346 -0.049888086 0.011830866
-0.0021268057 -0.049979933 0.011593431
-0.0010709825 -0.050336178 0.011455119
0 -0.049684536 0.011258096
0.0010610508 -0.049869388 0.010829806
0.0021211132 -0.049846157 0.01048106
0.0031721739 -0.049697392 0.0098228455
0.0042052511 -0.049411703 0.008818984
0.005275493 -0.049589638 0.0081295967
0.0063307406 -0.049590804 0.0070055723
0.0075076362 -0.050408415 0.0055424571
-0.016178112 -0.04961288 0.0053516924
-0.015060239 -0.049483646 0.0060047209
-0.013847931 -0.049000371 0.0068467855
-0.012750993 -0.048878808 0.0072458386
-0.011739196 -0.049091186 0.0073955357
-0.010535826 -0.048464805 0.0081164539
-0.0096266922 -0.049203098 0.0088429153
-0.0085371593 -0.049088668 0.0096035004
-0.007472056 -0.049102083 0.0099528134
-0.0064306785 -0.04930187 0.010164708
-0.0053030513 -0.048788078 0.010611504
-0.0042374711 -0.048730917 0.010869175
-0.0031970709 -0.049021758 0.010869175
-0.0021308078 -0.049008582 0.01050052
-0.0010620215 -0.048852991 0.010299802
0 -0.048340425 0.010356396
0.0010563274 -0.048591062 0.0094720125
0.002130202 -0.048994649 0.0090254545
0.0032076112 -0.049183372 0.0083997846
0.0042362595 -0.048716985 0.0071163476
0.0053654402 -0.049362052 0.0055587888
-0.014070685 -0.048706219 0.0056454241
-0.012801085 -0.048004068 0.0063447356
-0.011626557 -0.047563188 0.0065923929
-0.01065024 -0.047926083 0.0071371198
-0.0096293939 -0.048146974 0.0083529651
-0.0085744504 -0.048231289 0.008490175
-0.0075012944 -0.048222609 0.0088191628
-0.0063579618 -0.047684714 0.009028852
-0.0053218077 -0.047896273 0.0095169246
-0.0042648357 -0.047979403 0.0092554092
-0.0031756104 -0.047634162 0.009524852
-0.0021231656 -0.047771227 0.0093027651
-0.0010661978 -0.0479789 0.0092764199
0 -0.047580946 0.0089887977
0.0010579571 -0.047608066 0.0081310868
0.0021326181 -0.047983907 0.00665465
0.0032041492 -0.048062239 0.0057114959
-0.013000889 -0.047669925 0.0054197311
-0.011879672 -0.047518689 0.0057036579
-0.010642864 -0.046828602 0.0062676072
-0.0095458729 -0.046668712 0.006899178
-0.0085326899 -0.046929795 0.0070858002
-0.0073799109 -0.046388011 0.0074951351
-0.0063640717 -0.046669859 0.0075040162
-0.005335391 -0.046951443 0.0076709688
-0.0042296434 -0.046526074 0.0076594055
-0.0031826647 -0.046679083 0.0085377991
-0.002130416 -0.046869148 0.0076200962
-0.001056187 -0.046472222 0.0071344376
0 -0.046883062 0.006282419
0.0010711575 -0.047130931 0.0053431988
-0.010850576 -0.046657477 0.0051886439
-0.0096804472 -0.046251029 0.0060671866
-0.0085888077 -0.04616484 0.0062966943
-0.0074854274 -0.04598191 0.0066050589
-0.0063825129 -0.045741342 0.0066222847
-0.005267716 -0.045302361 0.0066256225
-0.0042804908 -0.046015278 0.0063541234
-0.00321262 -0.046047553 0.0060301125
-0.0021163169 -0.045500815 0.0058969855
-0.03334656 -0.045179211 0.0053525865
-0.032354929 -0.0452969 0.0056996942
-0.031324204 -0.045366086 0.0053190887
-0.0053843106 -0.045228213 0.0050507784
-0.035688557 -0.044340327 0.0052314401
-0.034238618 -0.043868233 0.0061328709
-0.033388812 -0.044159397 0.0062849522
-0.031878661 -0.043567508 0.0064962208
-0.031144464 -0.044031832 0.0062983334
