ply
format ascii 1.0
comment PCL generated
element vertex 1262
property float x
property float y
property float z
element camera 0
property float view_px
property float view_py
property float view_pz
property float x_axisx
property float x_axisy
property float x_axisz
property float y_axisx
property float y_axisy
property float y_axisz
property float z_axisx
property float z_axisy
property float z_axisz
property float focal
property float scalex
property float scaley
property float centerx
property float centery
property int viewportx
property int viewporty
property float k1
property float k2
end_header
-0.021794228 -0.076279797 0.038437068
-0.020439595 -0.074945182 0.038811952
-0.019551208 -0.075272158 0.039566427
-0.018370137 -0.074447393 0.039357305
-0.018364582 -0.0785596 0.037928134
-0.017174279 -0.077789381 0.036915213
-0.015624768 -0.075194195 0.034829259
-0.015088482 -0.077454202 0.034019977
-0.01413324 -0.077732824 0.03180474
-0.013176916 -0.078047886 0.03054443
-0.012192232 -0.078233488 0.029719949
-0.011206614 -0.078446299 0.028709918
-0.010246539 -0.078898348 0.028033108
-0.0091335177 -0.078142315 0.027695984
-0.0081186192 -0.078141712 0.027172685
-0.0071443436 -0.078587778 0.026985854
-0.0061437199 -0.078844406 0.02698037
-0.0051381974 -0.079128243 0.026893616
-0.0041061193 -0.079042792 0.026896387
-0.0030645658 -0.078657188 0.027114511
-0.0020475052 -0.078828953 0.027445763
-0.0010135232 -0.078041285 0.028143078
0 -0.079018936 0.028704673
0.0010190317 -0.078465447 0.029176235
0.0020224773 -0.077865377 0.02999723
0.0030349279 -0.077896483 0.031096429
0.0040412163 -0.077793412 0.03183344
0.0049948045 -0.076919995 0.033780783
0.005960159 -0.076488711 0.034948558
0.0070458618 -0.077504478 0.037193865
0.0082656471 -0.07955686 0.039177924
0.0089077791 -0.076210998 0.040106773
0.0098604523 -0.075925484 0.040591121
0.010723349 -0.075063445 0.040112436
0.011768492 -0.075514488 0.039940536
0.012824483 -0.075960398 0.039202332
0.013772998 -0.075751491 0.038116902
0.014671127 -0.075311787 0.034704238
0.017028145 -0.081947945 0.014493793
0.018488258 -0.083740935 0.0096360445
0.019289488 -0.082516141 0.0068291724
0.02073615 -0.084035978 0.0058008432
-0.030117093 -0.081746399 0.0063264966
-0.028907489 -0.081369229 0.0081949532
-0.027008146 -0.078946896 0.022498339
-0.02450398 -0.074492097 0.034757972
-0.023688026 -0.075012088 0.037571102
-0.022870682 -0.075572692 0.0383946
-0.021430518 -0.074032702 0.039470375
-0.020699006 -0.074910693 0.040008962
-0.0193137 -0.073392063 0.040246636
-0.018546861 -0.074187443 0.040234834
-0.017780568 -0.075073518 0.040100366
-0.017737735 -0.079298109 0.039782017
-0.016188402 -0.076894909 0.036616355
-0.015363023 -0.077839315 0.034465224
-0.014052585 -0.076285459 0.033987641
-0.012846739 -0.075104021 0.031623989
-0.012075701 -0.076479442 0.030360579
-0.011126809 -0.076876134 0.029652625
-0.010244675 -0.077859528 0.029598385
-0.0092972741 -0.078510314 0.028186888
-0.0082431063 -0.078309514 0.027796715
-0.0070973276 -0.077056699 0.027397543
-0.0061638043 -0.078074858 0.027416497
-0.0051672226 -0.078541785 0.027314037
-0.0041480269 -0.078812517 0.027329087
-0.003074785 -0.077894561 0.027687252
-0.0020377873 -0.077435918 0.028272837
-0.0010187831 -0.077427514 0.028634757
0 -0.078652419 0.029655546
0.0010141705 -0.077076957 0.030227244
0.0019919015 -0.075692259 0.031178564
0.003031296 -0.076792836 0.03205663
0.0039343 -0.074751705 0.033566087
0.0051237955 -0.077881694 0.03503114
0.0060509574 -0.076645464 0.037193865
0.0072885123 -0.079132423 0.039209604
0.0079297498 -0.075332619 0.041156054
0.008623519 -0.072820835 0.041944087
0.0098967385 -0.075215213 0.041944087
0.010773744 -0.074436776 0.040934682
0.011604342 -0.073494166 0.040001065
0.012554857 -0.073397629 0.039453238
0.013594111 -0.073796608 0.038553506
0.014600663 -0.073976696 0.036631584
0.01687509 -0.080156684 0.018863648
0.018376712 -0.082154714 0.010571659
0.01916264 -0.080908932 0.0080158412
0.020746835 -0.082987338 0.0065160096
-0.029849503 -0.079954028 0.006534785
-0.028956126 -0.080433682 0.008864522
-0.026637863 -0.076839998 0.022886395
-0.024343126 -0.073029377 0.034994155
-0.023677247 -0.073991396 0.037578762
-0.022497104 -0.073360123 0.038466901
-0.021590346 -0.073603459 0.039620906
-0.02048469 -0.073159605 0.040183276
-0.019363185 -0.07261195 0.040858299
-0.018532546 -0.073154785 0.041044146
-0.017441634 -0.072673485 0.041004479
-0.016692232 -0.073642202 0.04125005
-0.016418062 -0.076959662 0.040068835
-0.016042886 -0.080214426 0.037631422
-0.015371297 -0.082346238 0.034959286
-0.013646093 -0.078727461 0.033097386
-0.012723863 -0.079524145 0.03133598
-0.011752657 -0.080131754 0.030267566
-0.01052614 -0.078946054 0.030088186
-0.0090836529 -0.075697109 0.029959351
-0.008052242 -0.075489774 0.028764933
-0.0071563483 -0.076675162 0.028010517
-0.0060245916 -0.075307399 0.028158277
-0.0050395359 -0.075593047 0.02786836
-0.0040312591 -0.07558611 0.028018534
-0.0029951017 -0.074877545 0.02837798
-0.0020431508 -0.076618157 0.028709799
-0.0010089992 -0.075674936 0.030129611
0 -0.077724814 0.030350864
0.0010513704 -0.07885278 0.031493068
0.0021214201 -0.079553254 0.032259136
0.0031630246 -0.079075612 0.033729494
0.0044047325 -0.08258874 0.035922587
0.0055749812 -0.083624721 0.037944347
0.0062090401 -0.077613004 0.040192783
0.0068832822 -0.073749453 0.042041689
0.007675468 -0.071957514 0.042243749
0.0085880822 -0.071567357 0.042243302
0.0098293498 -0.073720127 0.0423114
0.010690344 -0.07288871 0.041654497
0.01177856 -0.073615998 0.040195405
0.012663363 -0.073057868 0.03961584
0.013657319 -0.07316421 0.038673013
0.014698941 -0.07349471 0.036588103
0.016239844 -0.076124273 0.025470883
0.018541835 -0.081802212 0.011179954
0.019348102 -0.080617093 0.009037286
0.019980524 -0.07887049 0.0071440041
0.021509729 -0.080661491 0.0053421855
-0.031487782 -0.080348134 0.0055565536
-0.030323463 -0.080140583 0.0069658756
-0.028982023 -0.079432212 0.010552287
-0.02665914 -0.07587602 0.022886395
-0.024515625 -0.072566248 0.034994155
-0.023782676 -0.073329918 0.037462294
-0.022417706 -0.07212653 0.038201153
-0.021403778 -0.071994536 0.039211661
-0.020459935 -0.072096914 0.040186912
-0.019500036 -0.072150134 0.040997297
-0.018700184 -0.072832294 0.041354567
-0.017555133 -0.072171107 0.041490585
-0.016561231 -0.072090067 0.042436868
-0.015560793 -0.071968667 0.042106301
-0.01465252 -0.072285771 0.041818798
-0.014095503 -0.074504808 0.039280564
-0.013620287 -0.077530868 0.038073808
-0.013439422 -0.082876436 0.034317106
-0.011994632 -0.080691166 0.033133507
-0.010638767 -0.07872688 0.032662868
-0.010213659 -0.083978981 0.032170147
-0.0090327561 -0.083552994 0.030328721
-0.0078603765 -0.083095409 0.029619962
-0.0069668656 -0.085924685 0.028902322
-0.0056422404 -0.083505169 0.028630674
-0.0045750695 -0.084638797 0.028760165
-0.003491811 -0.086131342 0.030094326
-0.0022810223 -0.08439783 0.030595124
-0.0010932747 -0.080902331 0.031791866
0 -0.085348353 0.03238675
0.001111262 -0.082233392 0.033388346
0.0022307779 -0.082538791 0.03608644
0.0031788377 -0.078411333 0.038002819
0.0041076583 -0.075991675 0.039511859
0.0048544491 -0.071845852 0.04063338
0.0056787431 -0.070037842 0.042293042
0.0067630038 -0.071494617 0.042651385
0.0077546942 -0.071730927 0.042523593
0.0087014632 -0.071545377 0.042467803
0.0097654397 -0.072264262 0.042373717
0.010569885 -0.071106508 0.042010009
0.011716972 -0.072254665 0.04094258
0.012703334 -0.07231129 0.039599419
0.013655071 -0.072176807 0.039015919
0.014630051 -0.072174922 0.036469787
0.016370801 -0.075714961 0.025333345
0.018216131 -0.07929375 0.012580544
0.019461377 -0.080007888 0.0096445084
0.020829318 -0.081124716 0.007968694
0.020984007 -0.077640831 0.0066004395
-0.032282483 -0.078554042 0.0053676665
-0.031177234 -0.078480624 0.0064053237
-0.030415632 -0.0792979 0.0076895058
-0.029177461 -0.078887209 0.010949224
-0.026499733 -0.074403107 0.023593694
-0.024981508 -0.072946005 0.035229146
-0.023602072 -0.071789637 0.03753531
-0.022890462 -0.072652332 0.0383946
-0.021443572 -0.071153678 0.039704412
-0.020294141 -0.070546307 0.040301561
-0.019652473 -0.07173153 0.041323602
-0.018608293 -0.071495019 0.041485012
-0.017441029 -0.07073307 0.042506605
-0.016466694 -0.070709921 0.042887658
-0.015197518 -0.069338679 0.042858243
-0.014587092 -0.070990518 0.042887658
-0.013541115 -0.070607245 0.042748451
-0.012373053 -0.069479451 0.042270422
-0.011722174 -0.071309902 0.042384416
-0.011032337 -0.073214605 0.042540431
-0.0099478792 -0.07261952 0.038000762
-0.0096617322 -0.07836739 0.03657344
-0.0085598612 -0.078108743 0.034611017
-0.0074562123 -0.077757649 0.033441305
-0.0065474738 -0.079660937 0.032838732
-0.0055931644 -0.081660211 0.032624036
-0.004550471 -0.083046101 0.032160461
-0.0033494032 -0.081502147 0.032713234
-0.0021552299 -0.078665897 0.03355521
-0.001040674 -0.075969212 0.036492258
0 -0.074984193 0.038315624
0.0010090022 -0.073657162 0.041539967
0.0019883539 -0.072574921 0.04236418
0.0029015082 -0.070603371 0.042393476
0.0038506016 -0.070273481 0.042485297
0.0047996249 -0.070074528 0.04250896
0.0059054657 -0.071849838 0.043198079
0.0067500551 -0.070393436 0.043335736
0.0078176325 -0.071335904 0.043123931
0.0087663177 -0.071104586 0.042520583
0.0096090669 -0.070146196 0.042467415
0.010675498 -0.070846491 0.041924864
0.011698431 -0.071165457 0.04062596
0.012857063 -0.072197355 0.040059924
0.01384242 -0.072178334 0.038919061
0.014798395 -0.072018862 0.036556959
0.016350254 -0.074598037 0.025843501
0.017980708 -0.077211276 0.013167828
0.019356748 -0.078502379 0.010910779
0.020392274 -0.07834927 0.0093334913
0.021393526 -0.078086384 0.0074481666
0.022545971 -0.078374095 0.0054957271
-0.033153672 -0.077002071 0.0050033033
-0.032226544 -0.077343702 0.0059058964
-0.031253338 -0.077594489 0.0064714849
-0.029781848 -0.076581888 0.0082475245
-0.02890728 -0.077086076 0.011822522
-0.026886577 -0.074455135 0.023562014
-0.024922047 -0.071775489 0.03505668
-0.023789236 -0.071367711 0.03695333
-0.022744752 -0.071200959 0.037918776
-0.021684978 -0.070969023 0.039704412
-0.020491807 -0.070257619 0.040584683
-0.019545993 -0.07036557 0.041446447
-0.018622136 -0.070568085 0.041672021
-0.017632123 -0.070528492 0.042674959
-0.016609473 -0.070345998 0.042979777
-0.015255987 -0.068651937 0.04347223
-0.014633064 -0.070238709 0.043511122
-0.013661243 -0.07025782 0.043604821
-0.012571853 -0.069628723 0.04361099
-0.011395477 -0.068372861 0.043809921
-0.010716472 -0.070144184 0.044464439
-0.0096048815 -0.069155149 0.044653565
-0.0086508309 -0.069206648 0.04504776
-0.0076113036 -0.068501726 0.044988394
-0.0067021949 -0.068936855 0.045187891
-0.0057201223 -0.068641469 0.046274751
-0.0047726277 -0.068725839 0.046358079
-0.0038561316 -0.069410361 0.046283156
-0.0028385113 -0.068124264 0.045801073
-0.0018976505 -0.068315417 0.045888811
-0.00096947764 -0.069802381 0.045801073
0 -0.067577384 0.045103103
0.00096131611 -0.069214754 0.044895113
0.0019132531 -0.068877108 0.044810742
0.0028853186 -0.069247648 0.044542193
0.0038359689 -0.069047436 0.044058114
0.0048896405 -0.070410818 0.043315917
0.0057770065 -0.069324076 0.04397434
0.0068323999 -0.070276111 0.043664932
0.0077193025 -0.069473721 0.043150663
0.0086918678 -0.069534943 0.042539418
0.0097308671 -0.070062242 0.042452693
0.010596374 -0.069358081 0.041908443
0.011732353 -0.070394114 0.040649563
0.01285646 -0.071205005 0.040039897
0.013882913 -0.071397834 0.03858614
0.014766198 -0.070877746 0.036453307
0.016126195 -0.07256788 0.025865972
0.018622587 -0.078872129 0.013805002
0.019105153 -0.076420613 0.011642843
0.020283889 -0.076865263 0.010041833
0.021201497 -0.076325387 0.0082777739
0.022098983 -0.075767934 0.0066612363
-0.034357797 -0.07623136 0.0050003827
-0.033811901 -0.077440158 0.0054087341
-0.032597877 -0.077148311 0.0063178539
-0.031784333 -0.077816807 0.0066439509
-0.030364888 -0.076996677 0.010118097
-0.029178536 -0.076728731 0.012158394
-0.027254909 -0.074426867 0.022706568
-0.025081113 -0.071230352 0.034769267
-0.023949098 -0.070849411 0.036487579
-0.022925524 -0.070770092 0.03742823
-0.021768201 -0.070251919 0.038796932
-0.020790251 -0.070290849 0.040009409
-0.019596415 -0.069567271 0.040631354
-0.018667785 -0.069758564 0.041365772
-0.017572809 -0.069314972 0.042532384
-0.016379056 -0.068406641 0.042891353
-0.015614849 -0.069290891 0.042930573
-0.014466605 -0.068475261 0.043477714
-0.013721756 -0.0695889 0.043677747
-0.012482123 -0.068171591 0.043528289
-0.011490425 -0.067985013 0.044572979
-0.010715829 -0.069165803 0.044805288
-0.0097992998 -0.069575034 0.04513979
-0.0087058945 -0.068679839 0.045945078
-0.0076347673 -0.06775856 0.046120405
-0.0067315693 -0.068277344 0.046596438
-0.0057917545 -0.06853576 0.047481149
-0.00480321 -0.06820558 0.047285229
-0.0038638052 -0.068582535 0.047191083
-0.0028712593 -0.06795314 0.046996981
-0.0019244081 -0.068316482 0.047355145
-0.00096173247 -0.068282999 0.046970099
0 -0.068342887 0.046017945
0.00096497446 -0.068513185 0.045627445
0.0019499836 -0.069224417 0.04530105
0.0029018775 -0.068677768 0.044852108
0.0038710095 -0.068710417 0.044774652
0.0047785966 -0.067856073 0.044208288
0.0057874322 -0.068484612 0.044052899
0.0067689666 -0.068656661 0.044096947
0.0077716256 -0.068973176 0.043150663
0.0088463472 -0.069787852 0.042539418
0.0098329103 -0.069813661 0.042293042
0.010775904 -0.069553562 0.041443676
0.01195347 -0.070724696 0.040271312
0.012942373 -0.07068526 0.039497375
0.013839358 -0.070185311 0.03746295
0.014946275 -0.070745699 0.03656584
0.01631842 -0.072412983 0.026167512
0.01820337 -0.076025836 0.014488012
0.019549575 -0.077112213 0.013123453
0.020185547 -0.0754302 0.010529071
0.020812495 -0.073884353 0.0090341568
0.022646163 -0.076565593 0.0072151423
0.023354819 -0.075372368 0.0055266321
-0.036506146 -0.075159714 0.0051335692
-0.036014475 -0.076394342 0.0052798986
-0.034859072 -0.076254219 0.0054087341
-0.033768713 -0.076251931 0.0059690773
-0.031574871 -0.073674701 0.006881237
-0.031558085 -0.076174684 0.0082263052
-0.030057352 -0.075143382 0.010676295
-0.028839817 -0.074769892 0.012515962
-0.026717937 -0.071932904 0.0235852
-0.024973392 -0.069925502 0.03390035
-0.024047077 -0.070137307 0.0357171
-0.023019427 -0.070059121 0.037130117
-0.021902826 -0.069690809 0.03811717
-0.020794075 -0.069313578 0.038897604
-0.019892722 -0.069624528 0.039866745
-0.018939074 -0.069775537 0.040281653
-0.017830882 -0.069342323 0.041820705
-0.016706379 -0.068790972 0.042643785
-0.015704097 -0.068705417 0.042887658
-0.014677154 -0.068493381 0.04323858
-0.013505753 -0.067528762 0.04355064
-0.012460918 -0.067097254 0.043752074
-0.011521989 -0.067211606 0.044429928
-0.01062266 -0.067598745 0.044845879
-0.009628756 -0.06740129 0.045205086
-0.0087079927 -0.067728832 0.04596433
-0.0076466766 -0.066908419 0.046188891
-0.0068147373 -0.068147376 0.046425581
-0.0058421544 -0.06815847 0.047297031
-0.0048307874 -0.067631029 0.047452956
-0.0039142254 -0.068498939 0.047118366
-0.0028696035 -0.066957414 0.047303945
-0.0019276332 -0.067467161 0.047317356
-0.00096100237 -0.06727016 0.046948165
0 -0.067039125 0.046001673
0.00096574734 -0.067602314 0.04577142
0.0019271526 -0.067450345 0.045538455
0.0028991536 -0.067646921 0.04530105
0.0038611321 -0.067569815 0.044793636
0.0048860414 -0.068404578 0.044626564
0.0058025173 -0.067696035 0.04425177
0.0068227248 -0.068227246 0.043568581
0.0079089804 -0.069203578 0.042865992
0.0088911988 -0.069153771 0.042521715
0.0098689348 -0.069082543 0.042182714
0.010890801 -0.0693051 0.040993243
0.011808003 -0.068880022 0.040268749
0.012903415 -0.06947992 0.038823992
0.013965441 -0.069827206 0.037349999
0.014875227 -0.069417723 0.036348283
0.016247604 -0.071083263 0.026259899
0.017905084 -0.073726818 0.015423626
0.019211212 -0.074710265 0.014103651
0.020200996 -0.074424714 0.012055129
0.021618037 -0.075663127 0.0098493099
0.022508439 -0.075028129 0.0081059337
0.02351783 -0.074829459 0.0067093074
0.024555894 -0.074735329 0.005078584
-0.037451584 -0.073833123 0.0056351721
-0.036592692 -0.074261636 0.0059295595
-0.035484079 -0.074193984 0.0060276687
-0.033884574 -0.073063612 0.006143868
-0.033608284 -0.074805535 0.0065285265
-0.031879354 -0.073322512 0.0079956353
-0.031072486 -0.073931083 0.0088686049
-0.030281454 -0.074622154 0.011073649
-0.029081799 -0.074320152 0.016626149
-0.027053453 -0.071795702 0.023590207
-0.024952399 -0.068868615 0.032865912
-0.024074459 -0.069214068 0.035123557
-0.022967011 -0.068901032 0.036649615
-0.022016315 -0.069051169 0.037576824
-0.02093388 -0.068782747 0.038405865
-0.020047529 -0.069163978 0.039273769
-0.018861514 -0.068497069 0.03979975
-0.017881609 -0.068546169 0.040406674
-0.01680935 -0.068226181 0.042224765
-0.015547396 -0.06704814 0.04262045
-0.014903109 -0.068554305 0.042946368
-0.013568611 -0.066873871 0.043293178
-0.012673065 -0.067264728 0.044020265
-0.011622702 -0.066830538 0.0443663
-0.010601368 -0.066499487 0.044863671
-0.0096454294 -0.066553466 0.045376539
-0.008665707 -0.066437088 0.046172798
-0.0077152643 -0.066544153 0.046236187
-0.0067326589 -0.06636478 0.04702118
-0.0057714381 -0.066371538 0.047442079
-0.0048015807 -0.066261813 0.047438681
-0.0038867942 -0.067047201 0.047107488
-0.0028998354 -0.066696212 0.04728201
-0.0019075356 -0.06580998 0.047303945
-0.00095611997 -0.065972276 0.046886563
0 -0.065732002 0.045918137
0.00096879853 -0.066847101 0.045730054
0.0019279654 -0.066514805 0.045502216
0.0028937066 -0.066555254 0.045105278
0.0038834296 -0.066989161 0.044830114
0.0049523907 -0.068342999 0.044279814
0.0058550718 -0.067333326 0.044096947
0.0068731238 -0.067749366 0.043250203
0.0079228887 -0.068334915 0.042661428
0.0088538574 -0.06787958 0.042194843
0.0099367686 -0.068563707 0.041241676
0.010822712 -0.067887917 0.040648937
0.011857663 -0.068181567 0.039303839
0.012854198 -0.068226129 0.037852943
0.01399066 -0.068953969 0.037145078
0.01495535 -0.068794608 0.035500884
0.016764557 -0.072297156 0.020558834
0.01784016 -0.072410062 0.01563397
0.019204171 -0.073615991 0.014187694
0.020493463 -0.074423626 0.012975633
0.021281445 -0.073420987 0.010580748
0.022486404 -0.073883891 0.0085798502
0.023214879 -0.0728103 0.0072087646
0.024615889 -0.073847666 0.0057460368
-0.038322348 -0.07238666 0.0055022538
-0.037410453 -0.07268317 0.006143868
-0.037051812 -0.074103624 0.0064480007
-0.035429541 -0.073006332 0.006457746
-0.034391426 -0.073081776 0.006475091
-0.033144653 -0.072704405 0.0075447559
-0.031897932 -0.072301984 0.0085852742
-0.030414151 -0.071315937 0.010637581
-0.029691167 -0.072107121 0.012065113
-0.028875213 -0.072722763 0.017381132
-0.026807303 -0.070111409 0.023562014
-0.025019737 -0.068053685 0.032381326
-0.023888573 -0.067684293 0.034715295
-0.022926843 -0.067783706 0.036152542
-0.022131093 -0.068405196 0.037229955
-0.020713121 -0.067071058 0.037654877
-0.019858915 -0.067520313 0.038412631
-0.018903568 -0.067654878 0.039372742
-0.017825255 -0.067339852 0.039823771
-0.016692786 -0.066771142 0.041125655
-0.015673986 -0.066614442 0.0423311
-0.014912003 -0.067601077 0.042751223
-0.013614621 -0.066128165 0.043050021
-0.012730664 -0.066591166 0.043309182
-0.011644118 -0.065983333 0.044245511
-0.010744586 -0.066421077 0.044631064
-0.0096572526 -0.065669321 0.045598716
-0.0087288078 -0.06595099 0.046203882
-0.0078199236 -0.066469356 0.046318382
-0.0067312513 -0.065389298 0.046974808
-0.0058109844 -0.065857828 0.047438681
-0.0048414469 -0.065843679 0.047355771
-0.0038256561 -0.065036155 0.047117829
-0.0028977958 -0.065683372 0.04728201
-0.0019328551 -0.065717071 0.047303945
-0.00095759972 -0.065116785 0.046900272
0 -0.06613481 0.046295673
0.00097725668 -0.066453457 0.045730054
0.0019410304 -0.06599503 0.045385778
0.0029430597 -0.066709355 0.044959486
0.0039069252 -0.066417731 0.044282198
0.0049087685 -0.066759251 0.043731034
0.0059144879 -0.067030862 0.042888135
0.0068541039 -0.066582724 0.042669535
0.0078766597 -0.06695161 0.042316943
0.0088970233 -0.067221954 0.040922582
0.0098753963 -0.067152694 0.040595591
0.010917108 -0.067487575 0.039781421
0.011938302 -0.067650378 0.038654059
0.01290328 -0.067494079 0.03762269
0.01397881 -0.067897081 0.036930531
0.015088615 -0.068401724 0.034809321
0.016981995 -0.072173476 0.02053532
0.017902704 -0.071610816 0.016088873
0.019193769 -0.072509795 0.014502615
0.020425528 -0.073101893 0.013312817
0.021178601 -0.072007246 0.011390954
0.022681054 -0.073443413 0.0097729862
0.022986807 -0.071050137 0.007992506
0.023949711 -0.070807837 0.0068712533
-0.03954934 -0.071616367 0.0051268041
-0.038751997 -0.072121777 0.0063464642
-0.037402622 -0.071599305 0.0071908236
-0.036539182 -0.072003685 0.0078395009
-0.034911897 -0.070881732 0.0080470443
-0.03500976 -0.073301688 0.0082209706
-0.032769676 -0.07082478 0.0086480975
-0.031865973 -0.071167342 0.010297835
-0.031244159 -0.072184779 0.011287868
-0.030407153 -0.072759978 0.012786329
-0.028585663 -0.070934795 0.017414093
-0.027027346 -0.069647394 0.022910774
-0.025056975 -0.067152694 0.031529635
-0.023984786 -0.066957533 0.033688217
-0.023157168 -0.06745784 0.035409063
-0.021986898 -0.066960104 0.036612153
-0.020867893 -0.066578515 0.037344158
-0.02013253 -0.067443982 0.037951261
-0.018710427 -0.06597887 0.03856647
-0.017789299 -0.066215724 0.039273769
-0.016820151 -0.066291191 0.039655715
-0.015772706 -0.066048212 0.040238321
-0.014745937 -0.065865181 0.041331172
-0.013881043 -0.066430703 0.042094201
-0.012696031 -0.065433398 0.042419523
-0.011777288 -0.06575653 0.043309182
-0.010796602 -0.065761127 0.04419449
-0.0096431756 -0.064609282 0.044919819
-0.0087621482 -0.065229334 0.046114624
-0.0077173091 -0.06463246 0.046269
-0.0066561452 -0.063708819 0.046953291
-0.0058148117 -0.064932071 0.047309399
-0.0048302035 -0.064724728 0.047306955
-0.0038308336 -0.064166464 0.046974927
-0.0029065618 -0.064913221 0.047029436
-0.0019282356 -0.064595893 0.046709299
-0.00097086211 -0.065047763 0.046548367
0 -0.065471023 0.045669138
0.00098595663 -0.066059098 0.045432568
0.0019462768 -0.065200277 0.044932067
0.0029500402 -0.065884233 0.044542193
0.0038960197 -0.065258332 0.043963581
0.0048939446 -0.065578863 0.043047339
0.0059313462 -0.066233367 0.042394251
0.0068543903 -0.065606311 0.042194843
0.0078669023 -0.065885313 0.041021794
0.008860088 -0.06595844 0.040486336
0.0099576013 -0.066715933 0.039709091
0.010889181 -0.066325016 0.039065152
0.011971328 -0.066839918 0.037749708
0.012966393 -0.066826791 0.037159234
0.013910493 -0.066571645 0.036112398
0.014993835 -0.066972464 0.033314943
0.016946645 -0.070964083 0.0198704
0.017858963 -0.070385322 0.016494334
0.01910322 -0.071106434 0.014989913
0.020301491 -0.07158947 0.014109045
0.021033503 -0.070462234 0.012968391
0.022366205 -0.071358845 0.010592014
0.023541823 -0.071695551 0.0091196001
0.02421912 -0.070551351 0.0079627335
0.026082573 -0.072813854 0.0052930117
-0.039288104 -0.07008148 0.0062812269
-0.039423384 -0.072276205 0.0069939494
-0.037379876 -0.070487767 0.0084356368
-0.03684127 -0.071515404 0.0085942149
-0.035080276 -0.070160553 0.0086266696
-0.034933634 -0.072050616 0.0086783469
-0.033290524 -0.070876598 0.0099894404
-0.032123584 -0.070671886 0.010876864
-0.030858211 -0.070229031 0.012438864
-0.029669873 -0.069936134 0.014000654
-0.029065587 -0.071049206 0.017558306
-0.026864966 -0.068195678 0.022849172
-0.024919957 -0.065788679 0.031288266
-0.024080936 -0.066222578 0.033411711
-0.023010397 -0.066029832 0.034540117
-0.022064492 -0.066193476 0.035857916
-0.020817013 -0.065424897 0.036758184
-0.019950774 -0.065837555 0.036989778
-0.018884687 -0.065599434 0.037264317
-0.017963085 -0.065864645 0.038071007
-0.016889278 -0.065570138 0.038660407
-0.015638648 -0.064509422 0.039072305
-0.015095484 -0.06642013 0.039798737
-0.013678735 -0.064485461 0.040698826
-0.012816855 -0.065070182 0.041015714
-0.011854212 -0.065198168 0.042096794
-0.010628304 -0.063769832 0.042660624
-0.0098184841 -0.064801998 0.043655038
-0.0088338982 -0.064781919 0.044718176
-0.0079037677 -0.065206081 0.044845879
-0.0067746323 -0.063875102 0.045177877
-0.0058099446 -0.063909389 0.045758009
-0.0048805838 -0.06442371 0.045440078
-0.0038282922 -0.06316682 0.045432568
-0.0029434729 -0.064756401 0.045585543
-0.0019588559 -0.064642243 0.045488894
-0.00097173615 -0.064134583 0.045266718
0 -0.06438493 0.044973344
0.00098045962 -0.064710334 0.04460755
0.0019730539 -0.06511078 0.043883771
0.0029521361 -0.064946994 0.04352513
0.0038701631 -0.063857689 0.042247802
0.004949464 -0.065332927 0.042111188
0.0058297962 -0.064127758 0.041693449
0.0069430615 -0.065463148 0.041065246
0.0079865353 -0.065888911 0.040383846
0.0088495966 -0.064897045 0.039571345
0.0098708095 -0.06514734 0.03897959
0.010973629 -0.065841772 0.037925035
0.011944415 -0.06569428 0.037374049
0.012953654 -0.065764703 0.036621243
0.014039854 -0.066187881 0.035214543
0.014942176 -0.06574557 0.032565832
0.016800556 -0.069302298 0.020260513
0.017927486 -0.069600828 0.016803294
0.019067656 -0.069914743 0.015304059
0.019942019 -0.069272272 0.014626831
0.021573178 -0.07119149 0.013599038
0.021981573 -0.069084942 0.011441916
0.023108572 -0.069325715 0.009606719
0.02454387 -0.070430234 0.0079907179
0.025715448 -0.070717484 0.0066612363
-0.039739676 -0.06797576 0.0060613751
-0.039585285 -0.069541708 0.0071965456
-0.038461313 -0.069444038 0.0085358024
-0.037850093 -0.070293032 0.0089080632
-0.035836276 -0.068510525 0.010081649
-0.035272334 -0.069475807 0.010116577
-0.033926044 -0.068912275 0.010206372
-0.03219682 -0.067509465 0.010952234
-0.031923845 -0.069168337 0.011934698
-0.030393437 -0.068123214 0.01282087
-0.02979093 -0.069157518 0.014646173
-0.02865555 -0.068985581 0.017991424
-0.026714783 -0.06678696 0.022849172
-0.025174649 -0.065454088 0.030493379
-0.024227491 -0.065616123 0.032716215
-0.023094175 -0.065266147 0.033646286
-0.022000546 -0.065001614 0.035011888
-0.02110929 -0.065338276 0.03584218
-0.019898597 -0.064670444 0.036439002
-0.018871639 -0.064560868 0.03682977
-0.017903132 -0.0646502 0.03739658
-0.016856134 -0.064449921 0.038010985
-0.015970107 -0.064878561 0.038310111
-0.014824528 -0.064239621 0.038947254
-0.013848394 -0.064296111 0.039626956
-0.012749232 -0.063746162 0.040336788
-0.011794684 -0.063887872 0.041015506
-0.010954838 -0.064733133 0.041519701
-0.0098434556 -0.063982464 0.042524874
-0.0087865144 -0.06345816 0.043646485
-0.0078814048 -0.064036414 0.043675572
-0.0067617469 -0.062787652 0.044133812
-0.0058898926 -0.063807175 0.044336051
-0.0048963716 -0.063652836 0.044523031
-0.0039302045 -0.063865818 0.044534147
-0.0029376049 -0.063648112 0.04440394
-0.0019799795 -0.064349331 0.044231653
-0.00098024867 -0.063716166 0.044036359
0 -0.063775033 0.043809295
0.00097555417 -0.06341102 0.04315713
0.00197372 -0.0641459 0.042794853
0.0029255082 -0.063386008 0.042180359
0.0039732954 -0.064566053 0.041737348
0.00489577 -0.063645005 0.041324645
0.0059115575 -0.064041868 0.040842503
0.0069117085 -0.064180151 0.040474564
0.0079377284 -0.064494036 0.039777279
0.0090459129 -0.065331593 0.038999915
0.0098272106 -0.063876867 0.038264811
0.010958808 -0.064756595 0.037600249
0.012010537 -0.065057077 0.036955833
0.012969761 -0.064848803 0.035935163
0.013957025 -0.064800471 0.034874052
0.014916549 -0.064638384 0.03181681
0.016800512 -0.068252079 0.020371169
0.017645322 -0.067467406 0.017203808
0.018982168 -0.06854672 0.015750498
0.019996786 -0.068410061 0.014959753
0.02134251 -0.069363162 0.013768286
0.022103915 -0.068416879 0.013150483
0.022930015 -0.067747772 0.011113405
0.02415283 -0.068257995 0.0088161826
0.02497009 -0.067627326 0.0072440207
-0.04019025 -0.067688838 0.006986469
-0.039405484 -0.068160839 0.0085606873
-0.038653355 -0.068717077 0.0088255405
-0.037209805 -0.068040788 0.010518402
-0.036419407 -0.068554178 0.010780573
-0.03564851 -0.069136508 0.010858893
-0.034448288 -0.068896577 0.010952234
-0.032425288 -0.066942528 0.011931568
-0.031983156 -0.068230733 0.012734592
-0.030976573 -0.068362094 0.013869643
-0.029044064 -0.066386431 0.015501618
-0.027667571 -0.065582387 0.018830985
-0.027112678 -0.066738896 0.022545874
-0.025196522 -0.064503096 0.02998212
-0.024199473 -0.06453193 0.031885833
-0.02344887 -0.065249033 0.033170819
-0.022236666 -0.064688481 0.034212857
-0.020828404 -0.063477039 0.035320133
-0.020274432 -0.064878188 0.0357683
-0.019116726 -0.064393185 0.036426783
-0.017990274 -0.063965425 0.036948025
-0.016903652 -0.063637272 0.037735939
-0.015771339 -0.063085355 0.037888199
-0.014853812 -0.063376263 0.038315892
-0.013885 -0.063474283 0.039093733
-0.012786312 -0.062948003 0.03955093
-0.01167943 -0.062290296 0.040373772
-0.010677762 -0.062125165 0.04073301
-0.0098455157 -0.063011304 0.041370809
-0.0087997178 -0.062575772 0.042501658
-0.0080063408 -0.064050727 0.042581528
-0.0069089453 -0.063167505 0.043015301
-0.00586945 -0.062607467 0.043188751
-0.0049046171 -0.062779106 0.043300718
-0.0039269319 -0.06283091 0.043470412
-0.0029550155 -0.063040331 0.043450952
-0.0019595639 -0.062706046 0.043451071
-0.00098695594 -0.06316518 0.04324621
0 -0.062776171 0.043162853
0.00098400563 -0.06297636 0.042752296
0.0019685954 -0.062995054 0.041933149
0.0029371337 -0.062658854 0.041759431
0.0039514964 -0.063223943 0.041210234
0.0049479646 -0.063333951 0.040608466
0.0059445836 -0.063408889 0.040271312
0.0068866108 -0.062963299 0.039635539
0.0078714974 -0.062971979 0.038883924
0.0089503247 -0.063646764 0.038239032
0.0099917809 -0.063947402 0.037556648
0.010855857 -0.063161351 0.037154049
0.012076641 -0.064408749 0.036328882
0.012946689 -0.063737549 0.03525576
0.014229556 -0.065049395 0.033722579
0.015083053 -0.06435436 0.031232297
0.01681673 -0.067266919 0.020496607
0.018221868 -0.068599977 0.017793506
0.018874848 -0.067110568 0.016290277
0.020117758 -0.067765079 0.015644848
0.020881813 -0.066821806 0.014325857
0.022226224 -0.067737058 0.013777226
0.02270489 -0.066050589 0.012750417
0.024310229 -0.067645855 0.010323107
0.02509094 -0.066909172 0.0080910027
0.026590738 -0.068072289 0.0062889457
-0.040879995 -0.066036917 0.0065084398
-0.040757153 -0.067571066 0.0084610879
-0.038743705 -0.065969005 0.0089354813
-0.038601246 -0.067552187 0.010344803
-0.037037175 -0.066666916 0.011116415
-0.035751805 -0.066245988 0.011454731
-0.035004489 -0.066826761 0.011617064
-0.033485439 -0.065924458 0.01140824
-0.032551333 -0.066152714 0.012546569
-0.031853113 -0.066891536 0.013175756
-0.030591264 -0.066456884 0.014234811
-0.028858401 -0.0649314 0.015993983
-0.027984925 -0.065298155 0.018019617
-0.026849633 -0.065058731 0.021625459
-0.024908656 -0.062769808 0.028771192
-0.02432137 -0.0638436 0.031457901
-0.023132883 -0.063363984 0.032743841
-0.022090437 -0.063258983 0.033621371
-0.021134563 -0.063403688 0.034660757
-0.020181196 -0.063570775 0.035430312
-0.018953782 -0.06284675 0.036139607
-0.018152114 -0.063532405 0.036651134
-0.017026814 -0.063099369 0.037314653
-0.015845805 -0.062392864 0.037550002
-0.014919145 -0.062660411 0.037794322
-0.01368052 -0.061562344 0.038343489
-0.012946218 -0.062739365 0.038955033
-0.011839281 -0.062156226 0.039734989
-0.010907745 -0.062471636 0.040332377
-0.0098872613 -0.062289748 0.040610403
-0.0088779135 -0.062145401 0.041496664
-0.0079497006 -0.062603891 0.041809887
-0.0069023455 -0.062121112 0.042553812
-0.0059299008 -0.062263962 0.042712748
-0.0048691737 -0.061351594 0.042885214
-0.0038901458 -0.061269797 0.042939544
-0.00293285 -0.061589856 0.042745382
-0.0019494809 -0.061408646 0.042845994
-0.00098577212 -0.06210364 0.042527199
0 -0.061530828 0.042167485
0.00099203619 -0.062498283 0.041461766
0.0019510469 -0.061457977 0.040994048
0.0029415232 -0.061771993 0.040863812
0.0039850688 -0.062764831 0.040437788
0.0049318117 -0.06214083 0.04018864
0.0059548346 -0.062525764 0.039616555
0.0069925613 -0.06293305 0.038721889
0.0079704169 -0.062767036 0.037968069
0.0089380713 -0.062566504 0.037509561
0.0099854115 -0.062908091 0.037379026
0.011012392 -0.063070975 0.036773443
0.011891299 -0.062429324 0.035617322
0.013023699 -0.063114852 0.034992725
0.014026052 -0.063117236 0.033557564
0.015153893 -0.063646354 0.030402929
0.016773153 -0.066044293 0.021726638
0.018032484 -0.066826262 0.01902023
0.01868826 -0.065408915 0.017192423
0.02052564 -0.068058699 0.016074002
0.020793622 -0.065499917 0.014831185
0.02232323 -0.066969693 0.014210999
0.022707038 -0.065024704 0.01317364
0.024278117 -0.066500932 0.012111664
0.02517999 -0.066097476 0.0091055632
0.025541402 -0.064364336 0.0072622001
-0.041199531 -0.065496691 0.0075677633
-0.040455684 -0.066006646 0.0087363124
-0.039622024 -0.066393659 0.010130137
-0.038034625 -0.065504082 0.011375606
-0.036706612 -0.065023147 0.012357682
-0.035959285 -0.065572813 0.012738049
-0.035209995 -0.066152111 0.012661666
-0.033855658 -0.065595344 0.012569875
-0.032442618 -0.064885236 0.013256609
-0.031600192 -0.065307066 0.014234811
-0.03088 -0.066019312 0.015407145
-0.029859046 -0.06611646 0.01703608
-0.02885103 -0.066250518 0.01812008
-0.027169392 -0.06478855 0.021475405
-0.025184246 -0.062456928 0.027836502
-0.024268538 -0.062693723 0.030762583
-0.023292497 -0.062788472 0.032131284
-0.022403285 -0.063136533 0.033371001
-0.021026339 -0.062077764 0.034165531
-0.020009531 -0.062029548 0.034832686
-0.01893812 -0.061798081 0.035503536
-0.0179564 -0.061849829 0.036054581
-0.016897177 -0.061625004 0.036480159
-0.015861474 -0.061463214 0.036937773
-0.01503773 -0.062155955 0.037406236
-0.013976596 -0.061896358 0.037862927
-0.012944105 -0.061733425 0.038394749
-0.011912454 -0.061547682 0.038921356
-0.010847633 -0.061141208 0.039739788
-0.0098609095 -0.061137646 0.040024221
-0.0088634063 -0.061059028 0.040598333
-0.0079344166 -0.061491735 0.040821284
-0.0068817819 -0.060952928 0.041654348
-0.005904688 -0.061015114 0.041703522
-0.004864403 -0.0603186 0.041916013
-0.0039159721 -0.060697567 0.041962177
-0.0029583718 -0.061139684 0.042086333
-0.0019649267 -0.060912732 0.042282909
-0.00097638654 -0.060535967 0.041822284
0 -0.061514948 0.041462719
0.00099090824 -0.06143631 0.040987104
0.0019703498 -0.061080847 0.040518016
0.002986209 -0.061714992 0.040293396
0.0039514005 -0.061246712 0.03982994
0.0048966375 -0.060718309 0.039224684
0.0060004848 -0.06200501 0.038376927
0.0069433544 -0.061498284 0.0382061
0.0079368269 -0.06151041 0.037251294
0.009052624 -0.062362526 0.037183911
0.0099494597 -0.061686657 0.036762238
0.011025865 -0.062145784 0.036075354
0.012095312 -0.062492445 0.0350869
0.013153928 -0.062734127 0.033790678
0.013912521 -0.061612599 0.031863749
0.015171407 -0.062708482 0.02538079
0.016750641 -0.064908743 0.021435469
0.017763019 -0.064782776 0.019444555
0.018849237 -0.064925157 0.017981917
0.020032551 -0.065369383 0.016905367
0.021224018 -0.06579446 0.015335143
0.021932399 -0.064752795 0.014588624
0.023132633 -0.065191969 0.013728857
0.024057662 -0.06485109 0.013030916
0.025307937 -0.065378837 0.010983169
0.026044268 -0.064589784 0.0080894828
-0.042755838 -0.065202653 0.0050505996
-0.041643083 -0.065134056 0.0083585382
-0.040238127 -0.064592786 0.0094535947
-0.038834982 -0.064025238 0.011259794
-0.037739705 -0.063947834 0.012634903
-0.036890551 -0.064294964 0.012988299
-0.036166713 -0.064887337 0.013431042
-0.03524692 -0.065153398 0.013766974
-0.033158742 -0.063208848 0.013656408
-0.032410011 -0.063774534 0.014416903
-0.031633634 -0.064321727 0.015415639
-0.030685792 -0.064545974 0.016803414
-0.029550288 -0.064377412 0.017771631
-0.028580882 -0.064571619 0.020474792
-0.02733439 -0.064130686 0.021549523
-0.025210213 -0.061512917 0.025051296
-0.024253068 -0.061643217 0.02922079
-0.023267997 -0.061710775 0.031663209
-0.022108437 -0.061300669 0.032984734
-0.020954575 -0.060868051 0.033445418
-0.020168744 -0.061514672 0.034268051
-0.019171737 -0.061551366 0.034791321
-0.01803684 -0.06112485 0.035471529
-0.016950609 -0.06082277 0.03601709
-0.015945483 -0.060792152 0.036185652
-0.014983735 -0.060933854 0.036774307
-0.013965815 -0.060851052 0.037171751
-0.012865156 -0.060367271 0.037701041
-0.01181787 -0.060074173 0.038240314
-0.010870925 -0.060284223 0.038915157
-0.0098863048 -0.060306463 0.039736211
-0.008880293 -0.060188651 0.040257514
-0.0079451101 -0.060581461 0.040574491
-0.0068510361 -0.059701886 0.041009367
-0.0059293262 -0.060281482 0.041077822
-0.0049334355 -0.060187913 0.041275024
-0.0039058693 -0.059564505 0.04147926
-0.0029531538 -0.060047459 0.041510671
-0.001959878 -0.05977628 0.041630656
-0.00098579505 -0.060133498 0.041304439
0 -0.060332239 0.040861666
0.00098519225 -0.060096726 0.040484309
0.0019845921 -0.060530055 0.040108204
0.0029898623 -0.060793865 0.03981334
0.0039892909 -0.060836688 0.039303064
0.0048758737 -0.059485659 0.0384745
0.0059983982 -0.060983714 0.038012534
0.0069451174 -0.060521737 0.037459373
0.0080188774 -0.061143935 0.036928385
0.0090158861 -0.061107676 0.036710948
0.0099652465 -0.060788002 0.035886765
0.01096372 -0.060798816 0.035419017
0.011982719 -0.060912158 0.034641296
0.013090723 -0.061425701 0.033311456
0.014014732 -0.061064191 0.030748039
0.015206913 -0.061841447 0.025235742
0.016737649 -0.063812286 0.021373242
0.017585386 -0.063100502 0.019949824
0.018494263 -0.062675007 0.018499523
0.020012602 -0.064250983 0.017576963
0.021354787 -0.065132096 0.016437382
0.021989914 -0.063875459 0.015463382
0.022966502 -0.063679852 0.01508221
0.024191244 -0.064159378 0.014183909
0.024892829 -0.063269272 0.013222814
0.026297677 -0.06416633 0.0098594129
0.028229009 -0.066229604 0.0057489872
-0.042505059 -0.063757591 0.0064569414
-0.040443424 -0.062220655 0.0088067353
-0.039757814 -0.062775493 0.010146737
-0.039853502 -0.064627297 0.01244989
-0.037327576 -0.062212631 0.013267219
-0.036464632 -0.062510796 0.014161348
-0.036086012 -0.0636812 0.01466015
-0.034585532 -0.062882788 0.014879137
-0.033813413 -0.063400149 0.014694691
-0.032818928 -0.063520506 0.015466958
-0.031868976 -0.063737951 0.01651907
-0.030951742 -0.064038083 0.01752314
-0.029257972 -0.062695652 0.01841262
-0.028477687 -0.063283749 0.020570278
-0.026940791 -0.062171057 0.021475255
-0.025168339 -0.060404014 0.023984373
-0.024361689 -0.060904223 0.027836502
-0.023413656 -0.061079103 0.030650139
-0.022287469 -0.060784008 0.03205663
-0.021299955 -0.060857009 0.032876581
-0.019867819 -0.059603456 0.033421457
-0.019072376 -0.060228553 0.034215242
-0.018071689 -0.060238965 0.035072684
-0.017030608 -0.060108028 0.035679042
-0.016174069 -0.060652755 0.035967469
-0.015152872 -0.060611486 0.036207944
-0.01387479 -0.059463382 0.036760032
-0.013063435 -0.060292773 0.037368745
-0.011977743 -0.059888717 0.037844688
-0.010929313 -0.059614435 0.038384378
-0.0098670516 -0.059202313 0.038812339
-0.0088580735 -0.059053827 0.039914936
-0.0080102654 -0.060076986 0.040029526
-0.0068396409 -0.058625493 0.040519953
-0.0059886775 -0.059886772 0.040710658
-0.0049325461 -0.059190553 0.040905774
-0.0039331215 -0.058996819 0.04091239
-0.0029450196 -0.058900394 0.04091239
-0.0019631351 -0.058894053 0.040863991
-0.00098730519 -0.059238311 0.040378988
0 -0.059531551 0.040262312
0.0009894158 -0.059364945 0.039969563
0.0019750746 -0.05925224 0.039441705
0.002953341 -0.059066821 0.039111018
0.0039572404 -0.059358608 0.0383811
0.0049135527 -0.058962636 0.038144052
0.0059662475 -0.059662476 0.037223756
0.0070156334 -0.060134001 0.036836147
0.0080170175 -0.060127631 0.03657034
0.0090029407 -0.060019605 0.036218852
0.0099719437 -0.05983166 0.035515994
0.011030099 -0.06016418 0.034887433
0.012001611 -0.06000806 0.033441126
0.013119063 -0.060549527 0.03148368
0.014081498 -0.060349278 0.027813584
0.01538698 -0.06154792 0.024696559
0.016440149 -0.061650556 0.021693915
0.017372694 -0.061315391 0.020833373
0.018758079 -0.062526934 0.019279361
0.020270623 -0.06401249 0.018495351
0.021098865 -0.063296601 0.017191797
0.02210678 -0.06316223 0.016618878
0.022868998 -0.062369995 0.015918851
0.023698902 -0.061823219 0.015123039
0.024860103 -0.062150259 0.013349593
0.026101224 -0.062642939 0.012123853
0.027715264 -0.063958302 0.0077124834
-0.042294659 -0.062384624 0.0071063638
-0.04122375 -0.062364135 0.010148942
-0.039575886 -0.061446771 0.011471361
-0.038965486 -0.06213415 0.013201058
-0.038327415 -0.062814377 0.015063316
-0.036797523 -0.062030114 0.015380859
-0.035467528 -0.06154659 0.015531331
-0.035189278 -0.06291417 0.015495658
-0.033760212 -0.062245395 0.015925944
-0.032584682 -0.062016007 0.016777456
-0.031781245 -0.062503122 0.01742807
-0.030493572 -0.062038645 0.018105567
-0.029000651 -0.061108515 0.020163655
-0.028000474 -0.06118622 0.021274388
-0.027111765 -0.061522853 0.022126853
-0.025577845 -0.060363714 0.024096757
-0.024413878 -0.060017452 0.025806993
-0.023121562 -0.059311833 0.028332382
-0.022243876 -0.059654031 0.031191885
-0.021160936 -0.059452154 0.03205663
-0.020200375 -0.059591115 0.032795459
-0.019404445 -0.060255907 0.033527166
-0.017990388 -0.058968496 0.034258217
-0.016925115 -0.058740102 0.035277873
-0.015888691 -0.058589544 0.035700798
-0.015064339 -0.059253067 0.036066055
-0.014008122 -0.059034232 0.036125958
-0.012878506 -0.058448602 0.03684029
-0.011759244 -0.057816282 0.037526727
-0.010994311 -0.05896949 0.03804329
-0.0099200895 -0.058528531 0.038620979
-0.008881378 -0.058222372 0.038933694
-0.0080508124 -0.059374742 0.039276749
-0.0068759052 -0.057954058 0.039972812
-0.0058931438 -0.057949249 0.04008916
-0.004979278 -0.05875548 0.040202141
-0.0039253836 -0.057899408 0.040101647
-0.0029735977 -0.058480758 0.040306002
-0.0019964234 -0.058894493 0.040110409
-0.00098899158 -0.058350503 0.039648324
0 -0.057966303 0.039686263
0.0010032881 -0.059193995 0.0392977
0.0019685547 -0.058072362 0.038608789
0.0029954945 -0.058911391 0.038211942
0.0039902879 -0.058856744 0.037934154
0.0049433885 -0.058331985 0.037128031
0.0058931438 -0.057949249 0.03645584
0.0069751218 -0.058790315 0.036382437
0.0080160731 -0.059118539 0.035782516
0.0090219565 -0.059143938 0.035586834
0.0099846153 -0.058909234 0.034839451
0.011062632 -0.05933594 0.033431798
0.012130427 -0.059641272 0.031809837
0.013176346 -0.059800342 0.029601663
0.014063828 -0.059268992 0.027510107
0.015709953 -0.061792485 0.0248698
0.016563779 -0.061078936 0.022173584
0.017808305 -0.061805297 0.021530956
0.018733433 -0.061404034 0.02056703
0.019765079 -0.061375774 0.019528627
0.020871554 -0.061571084 0.018558711
0.021993356 -0.061790854 0.017786503
0.022410842 -0.060101807 0.016635567
0.024347454 -0.062456511 0.016269207
0.024841659 -0.061069079 0.014772832
0.025701271 -0.060655002 0.01327908
0.027717482 -0.062897369 0.0089793801
-0.042472996 -0.061585844 0.007802099
-0.040922128 -0.060858551 0.010939717
-0.039998591 -0.061050482 0.013062537
-0.038472373 -0.060308043 0.015129298
-0.038444892 -0.061938997 0.016079277
-0.03609518 -0.05981487 0.01658386
-0.036150731 -0.061668895 0.016708612
-0.034663927 -0.060924478 0.016921341
-0.033460375 -0.060646933 0.016903698
-0.032987975 -0.061719432 0.017366916
-0.031725764 -0.061336476 0.017928243
-0.030857028 -0.061714057 0.019145817
-0.029292483 -0.060677286 0.020761758
-0.028346971 -0.060893495 0.021342665
-0.027234165 -0.060753137 0.022403449
-0.026299182 -0.061014105 0.023831695
-0.024477527 -0.059154022 0.024715453
-0.023416651 -0.059050687 0.026873231
-0.02246259 -0.059219558 0.028938353
-0.020762255 -0.057343375 0.031422377
-0.020216029 -0.058626488 0.031907946
-0.019157125 -0.058479644 0.032600909
-0.01798271 -0.05794429 0.033640265
-0.017024435 -0.058083367 0.034219086
-0.015972516 -0.057900373 0.035050929
-0.014916857 -0.057678513 0.035548061
-0.01390928 -0.057624165 0.035702258
-0.012985826 -0.057936762 0.036218226
-0.012145624 -0.058703851 0.036760062
-0.010945161 -0.057710852 0.037382811
-0.0099206222 -0.057539616 0.037867546
-0.0089008454 -0.057361007 0.038419545
-0.0079055168 -0.057314999 0.038527638
-0.0069159553 -0.05730363 0.038872182
-0.0059712785 -0.057722364 0.039351434
-0.0048917574 -0.056744389 0.039511472
-0.0039815786 -0.057732891 0.039569855
-0.0029730329 -0.05747864 0.039406419
-0.001997621 -0.05793101 0.039283574
-0.00098687154 -0.057238549 0.038951874
0 -0.057228222 0.0389103
0.0010052163 -0.05830254 0.03855592
0.0019652769 -0.05699303 0.038185954
0.0029643436 -0.057310648 0.037812322
0.0039432016 -0.057176422 0.036969751
0.0049116695 -0.056975372 0.036533505
0.005987932 -0.057883345 0.035764754
0.0069539663 -0.057618581 0.035685271
0.0080421101 -0.058305304 0.034928232
0.0089643728 -0.057770405 0.034788519
0.0099767251 -0.057865012 0.033601761
0.011135599 -0.058714975 0.031856716
0.011951642 -0.05776627 0.030284584
0.01304071 -0.058181632 0.028160721
0.014464841 -0.059925776 0.026637405
0.015527424 -0.060039379 0.024925053
0.016524358 -0.059900798 0.023688167
0.017846445 -0.060887873 0.021981388
0.018480783 -0.059549194 0.021315157
0.019909574 -0.060776595 0.020405114
0.020612612 -0.059776578 0.020065546
0.022069547 -0.060953986 0.018687367
0.022850996 -0.060243536 0.017787278
0.023255911 -0.058645342 0.016670108
0.02478691 -0.059901703 0.01542291
0.02622992 -0.060853414 0.013654977
0.027368817 -0.061053518 0.0091205239
-0.042780958 -0.060962867 0.0087484419
-0.040376339 -0.059011567 0.012379438
-0.03996231 -0.059943464 0.014406353
-0.03925984 -0.060481369 0.015912056
-0.037735354 -0.059747644 0.016840011
-0.037341274 -0.060812935 0.017439842
-0.035774786 -0.059975374 0.017509371
-0.034390144 -0.059401158 0.017580658
-0.033660803 -0.059958301 0.017680198
-0.032210264 -0.059225325 0.018025011
-0.031675473 -0.060183395 0.019284576
-0.030377181 -0.05970687 0.020264447
-0.028864337 -0.05875954 0.021115065
-0.028236566 -0.059610523 0.022014469
-0.026800461 -0.058754858 0.022992939
-0.025909249 -0.059073083 0.023867011
-0.025094977 -0.059600573 0.024376094
-0.023636954 -0.058578536 0.025926411
-0.021986457 -0.056964912 0.027534813
-0.021229096 -0.057621833 0.028938353
-0.020229161 -0.057653107 0.031298041
-0.019050432 -0.057151295 0.031610131
-0.018134488 -0.057425879 0.032532811
-0.017065281 -0.057218883 0.033879697
-0.016024457 -0.057087131 0.034250677
-0.014995397 -0.056982506 0.034907132
-0.014011304 -0.057046022 0.035548061
-0.012879801 -0.056472972 0.035890311
-0.011989878 -0.056951921 0.036250204
-0.010865377 -0.05630241 0.036613196
-0.0099174753 -0.056529611 0.03714782
-0.0089908838 -0.056942265 0.03742364
-0.0079353387 -0.056539286 0.038100749
-0.0069779619 -0.056820545 0.038566649
-0.0059397006 -0.056427155 0.03878805
-0.0049459934 -0.056384329 0.038995743
-0.0039547309 -0.056354914 0.038985461
-0.002973899 -0.056504078 0.038973927
-0.0019630713 -0.055947527 0.038575262
-0.00099017704 -0.056440085 0.038384378
0 -0.057376169 0.038384378
0.0010051476 -0.057293411 0.037649333
0.0019666932 -0.056050755 0.037495077
0.0029787885 -0.056596979 0.036846489
0.0039682523 -0.056547593 0.036120385
0.0050039408 -0.057044923 0.035370409
0.0059186956 -0.056227606 0.034766614
0.0070016221 -0.05701321 0.034554124
0.0079464437 -0.056618411 0.034027785
0.0090864794 -0.057547703 0.033165455
0.010059896 -0.057341404 0.031808406
0.01100477 -0.057024717 0.030104607
0.012149897 -0.057712011 0.028394222
0.013471984 -0.059069466 0.02719149
0.014394759 -0.058607232 0.026335597
0.015643278 -0.059444457 0.025336325
0.016635364 -0.059263483 0.02366215
0.01760767 -0.059037481 0.023358345
0.018710893 -0.059251163 0.021859884
0.019830644 -0.059491929 0.02131322
0.020832079 -0.059371427 0.020985782
0.021705102 -0.058913849 0.020073533
0.022613693 -0.058590021 0.018288165
0.023957161 -0.05937209 0.017646104
0.025139811 -0.059707049 0.016691595
0.02582339 -0.058877327 0.015347093
0.027041668 -0.059283655 0.012632221
-0.041656274 -0.058318783 0.010152489
-0.040181562 -0.0576966 0.01327318
-0.039425436 -0.058100641 0.016025811
-0.038414475 -0.058140825 0.017236501
-0.037620559 -0.058520876 0.017912984
-0.036000181 -0.05760029 0.018484414
-0.035023961 -0.057686523 0.018831193
-0.034541003 -0.05861504 0.019140095
-0.032988533 -0.057729933 0.019178271
-0.032322146 -0.05838839 0.019927919
-0.031133553 -0.058115963 0.020826727
-0.029867122 -0.057674441 0.021005034
-0.029108744 -0.058217488 0.021796107
-0.028698552 -0.059522923 0.022476435
-0.026743896 -0.057602238 0.023660302
-0.025948321 -0.058124237 0.024228394
-0.024817185 -0.057906765 0.024683833
-0.023794873 -0.057935338 0.025198519
-0.022853645 -0.058172915 0.026232362
-0.02124656 -0.056657493 0.027732611
