ply
format ascii 1.0
comment PCL generated
element vertex 1298
property float x
property float y
property float z
element camera 0
property float view_px
property float view_py
property float view_pz
property float x_axisx
property float x_axisy
property float x_axisz
property float y_axisx
property float y_axisy
property float y_axisz
property float z_axisx
property float z_axisy
property float z_axisz
property float focal
property float scalex
property float scaley
property float centerx
property float centery
property int viewportx
property int viewporty
property float k1
property float k2
end_header
-0.0051973145 0.021828722 0.016736895
-0.0041246014 0.021654157 0.017811507
-0.0030905958 0.021634173 0.018686593
-0.0020780878 0.021819921 0.018938005
-0.0010486745 0.022022163 0.020023167
0 0.022818878 0.021954805
0.0010797292 0.022674313 0.023672462
0.0021109688 0.022165174 0.028565049
0.0032559123 0.022791388 0.033305556
0.0041043865 0.021548029 0.037266672
0.0048517804 0.020377479 0.041890949
0.0058128047 0.020344818 0.042586356
0.0067152735 0.020145822 0.043101668
0.0077438857 0.0203277 0.043299586
0.0086500468 0.020183444 0.043182909
0.0096410308 0.020246167 0.042908013
0.010571633 0.020182209 0.041864723
0.011680129 0.020440226 0.040888458
0.012563878 0.020295495 0.039818704
0.013549639 0.020324459 0.037495524
0.014973441 0.020962819 0.030142307
0.016966986 0.022269169 0.015540153
0.017842514 0.022040753 0.013713449
0.01860971 0.021711329 0.012108833
0.020141717 0.022261897 0.011512488
0.021004625 0.022054857 0.010909885
0.022159312 0.022159312 0.010121375
0.023295684 0.022236791 0.009301573
0.02403518 0.021945164 0.008427918
0.025127582 0.021986635 0.0071707368
-0.040843315 0.023646129 0.0054525137
-0.03950404 0.023488889 0.0060094893
-0.038368624 0.023447493 0.0063430965
-0.037491463 0.023566062 0.0071404278
-0.036322858 0.023503024 0.0071988702
-0.035269853 0.023513237 0.0071003735
-0.033982672 0.023363085 0.0074980557
-0.032908317 0.023354288 0.0081017613
-0.03180724 0.023325309 0.0096545517
-0.030868849 0.023417747 0.010837972
-0.029267183 0.022995643 0.013317436
-0.026662052 0.021724634 0.034442514
-0.025141709 0.021273753 0.037199199
-0.024350209 0.021428183 0.038427591
-0.023343289 0.021398015 0.039889753
-0.022468984 0.02149207 0.040900767
-0.021509785 0.021509785 0.041674823
-0.020247532 0.021211699 0.04216969
-0.019435408 0.021378949 0.042522848
-0.018507473 0.021429705 0.042292565
-0.017487239 0.021373294 0.041777015
-0.016305536 0.021101283 0.041421264
-0.01556697 0.021404583 0.041235775
-0.015493453 0.022723731 0.037562221
-0.014979787 0.023539664 0.03107056
-0.013776489 0.023314057 0.026102185
-0.012914192 0.023676019 0.022602171
-0.011970743 0.023941485 0.020588905
-0.010892333 0.023963135 0.018823415
-0.0097406823 0.023810556 0.017791718
-0.0086919563 0.02390288 0.017132998
-0.0074890605 0.023537047 0.016676396
-0.0065140571 0.023884876 0.016755819
-0.0054258271 0.02387364 0.018016905
-0.0043159444 0.023737693 0.01821959
-0.0032036048 0.023493102 0.019063234
-0.0021775356 0.02395289 0.019639313
-0.001076175 0.02367585 0.021445572
0 0.023602255 0.022976488
0.0010778798 0.023713354 0.028038174
0.0021603666 0.023764031 0.035019606
0.0030384932 0.022282284 0.041409403
0.0038491127 0.021170119 0.043193787
0.0047452017 0.020878887 0.043329
0.0057988768 0.021262547 0.044119269
0.0067352545 0.021167941 0.04437688
0.0077559971 0.021328991 0.044189036
0.0087798163 0.021461774 0.043436587
0.0096598249 0.021251615 0.043138027
0.01052871 0.021057419 0.041984528
0.011592394 0.021252722 0.041333884
0.012620735 0.021358166 0.039247245
0.013607455 0.021383144 0.037238181
0.014916681 0.021877797 0.03016603
0.016810926 0.023115022 0.015637517
0.017672604 0.022870429 0.014184743
0.018915955 0.0231195 0.012895823
0.019761179 0.022881364 0.012898386
0.021232886 0.023356177 0.011764824
0.022175502 0.023231478 0.010812521
0.023186916 0.023186916 0.0101794
0.024268236 0.023213094 0.0093358159
0.025074638 0.022985084 0.0082462728
-0.041233636 0.024317272 0.0053537488
-0.040618863 0.024585102 0.0059243739
-0.039106049 0.024309166 0.0063203275
-0.038529176 0.024615863 0.007161051
-0.037318565 0.024523629 0.0076875985
-0.036521971 0.024706041 0.0076716244
-0.035136808 0.024489291 0.007960856
-0.034350768 0.024689613 0.0085099339
-0.033031672 0.02450737 0.0092300475
-0.031926643 0.024477094 0.010147721
-0.030755376 0.024392195 0.011027336
-0.029368522 0.024124144 0.013768613
-0.026558297 0.022623735 0.033569574
-0.025397224 0.022466777 0.03662774
-0.024422754 0.022468934 0.038098067
-0.023354612 0.022381505 0.039648801
-0.022190474 0.022190474 0.040744632
-0.021361019 0.022331977 0.041294158
-0.020602155 0.022564266 0.042168826
-0.019500785 0.022425903 0.042466313
-0.01841246 0.022288766 0.042303652
-0.017451955 0.022299722 0.042196333
-0.016500739 0.02232453 0.042469561
-0.015236814 0.021902921 0.042762965
-0.014469299 0.022186261 0.042229682
-0.013677948 0.022470914 0.040843487
-0.013358514 0.023634296 0.036004037
-0.013186199 0.025273548 0.029939353
-0.012043365 0.025181584 0.022585809
-0.01094071 0.025163634 0.020950973
-0.0096385339 0.024631811 0.019972414
-0.0086975554 0.025005473 0.019737273
-0.0074641514 0.024525071 0.019371063
-0.0064671277 0.024790658 0.019282341
-0.0054427194 0.025036512 0.019326359
-0.0042369366 0.024362385 0.019809633
-0.0032460713 0.024886547 0.020608664
-0.0022143633 0.025465179 0.021664083
-0.0010974521 0.025241399 0.023396313
0 0.024348196 0.030760258
0.00099104294 0.022793988 0.041569948
0.0019063395 0.021922905 0.04306677
0.0028477767 0.021832956 0.044639915
0.0038110758 0.021913687 0.044680268
0.0048504509 0.022312077 0.044493794
0.0058144988 0.022288913 0.044672281
0.0068442333 0.022488195 0.044493794
0.0077461461 0.022270171 0.04438743
0.0086219329 0.022033831 0.043931425
0.0096548209 0.02220609 0.043021113
0.010572083 0.022105267 0.041891336
0.011612675 0.022257628 0.040763825
0.012586538 0.022268491 0.039087325
0.013709461 0.022522688 0.036283106
0.014734834 0.022593413 0.03014341
0.01671125 0.024022421 0.016017407
0.017926551 0.02425357 0.014297724
0.01874911 0.023957198 0.013968945
0.019997571 0.024207585 0.013240874
0.02084445 0.02397112 0.012408733
0.021991123 0.024085516 0.011614949
0.023162279 0.024215112 0.010717809
0.024345919 0.024345919 0.010267645
0.025238849 0.024187231 0.0089424551
-0.041404855 0.025479911 0.0057741106
-0.040645208 0.025670657 0.0067564547
-0.039409842 0.025563141 0.0072444379
-0.038527947 0.025685299 0.0080436766
-0.037572056 0.025763696 0.0084979832
-0.036149621 0.025517378 0.0084578395
-0.035387933 0.025736678 0.0085211992
-0.034017652 0.025513237 0.0093074441
-0.032782309 0.02537985 0.0098702312
-0.03184006 0.025472047 0.010423154
-0.03054668 0.02528001 0.011398792
-0.029660065 0.025422912 0.013837308
-0.026757747 0.023784664 0.030911773
-0.025789902 0.023806063 0.035885483
-0.024347814 0.0233739 0.037602991
-0.023695337 0.023695337 0.038453519
-0.02240107 0.023375029 0.040093571
-0.021394003 0.023338914 0.040758938
-0.020416617 0.023333278 0.041829318
-0.019478485 0.023374181 0.042084426
-0.018360097 0.023191702 0.042158306
-0.017487712 0.02331695 0.042105705
-0.016422862 0.023185216 0.042418629
-0.015456451 0.023184676 0.043085188
-0.014468098 0.023148956 0.043175787
-0.013182018 0.022597745 0.04324919
-0.01229683 0.022701841 0.042954177
-0.011450362 0.022900725 0.042725503
-0.010695691 0.023336053 0.041650176
-0.010090292 0.0242167 0.041114062
-0.0090445578 0.024118822 0.029889226
-0.008189491 0.024568472 0.023216009
-0.0073765819 0.025291137 0.023562968
-0.0063606515 0.025442606 0.023396313
-0.0052614687 0.025255051 0.023396313
-0.0041123992 0.024674393 0.030084133
-0.0030650117 0.024520094 0.03592822
-0.0019806814 0.023768177 0.040469646
-0.00096868176 0.023248361 0.043124765
0 0.022709403 0.044368863
0.00095370872 0.022889009 0.044779152
0.0018935223 0.022722267 0.044896632
0.0028710975 0.02296878 0.045251995
0.0038168479 0.022901086 0.044920772
0.004808051 0.023078647 0.044846088
0.00578334 0.02313336 0.044730037
0.0067618666 0.023183543 0.044605941
0.0076271994 0.022881597 0.044255316
0.0086119091 0.022965092 0.04325667
0.009639414 0.023134595 0.042207152
0.010600654 0.0231287 0.041253656
0.011721217 0.023442434 0.039646596
0.012765801 0.023567632 0.038314193
0.013695536 0.023478061 0.035642087
0.01481023 0.023696369 0.03014341
0.01670978 0.025064671 0.016482711
0.017868107 0.025225563 0.015394181
0.018941192 0.025254922 0.014239162
0.019845631 0.025068166 0.014061719
0.020713747 0.024856497 0.013131827
0.021996848 0.025139254 0.012111872
0.023281908 0.025398444 0.01156655
0.023840621 0.024877168 0.010769457
0.025165176 0.025165176 0.0096726716
-0.042372249 0.026482657 0.0051959455
-0.04134899 0.026505765 0.0067260563
-0.040355887 0.026549926 0.0073433816
-0.039278321 0.026539404 0.0078733861
-0.038480658 0.026722681 0.0085127056
-0.037243839 0.026602743 0.0089180768
-0.036082298 0.0265311 0.0088191032
-0.035148393 0.026627572 0.0091209114
-0.033744603 0.026362972 0.0099284053
-0.03262122 0.026307436 0.010094285
-0.031431057 0.026192546 0.010813177
-0.030526204 0.026315693 0.012100607
-0.030038027 0.026819669 0.014823496
-0.027283216 0.025262237 0.030642837
-0.025754405 0.02476385 0.034661084
-0.024877099 0.024877099 0.036438286
-0.023682987 0.024669779 0.038051486
-0.022552779 0.024513889 0.039440542
-0.021569887 0.024511237 0.04057622
-0.020412236 0.024300283 0.041103095
-0.019225104 0.02403138 0.041695297
-0.018378094 0.024181701 0.041838944
-0.017279318 0.023999054 0.042117208
-0.016402788 0.024121748 0.042380095
-0.015561121 0.024314251 0.043319732
-0.014427581 0.024045968 0.043278992
-0.013534222 0.024168255 0.043715596
-0.012520313 0.024077527 0.04369241
-0.011644975 0.024260366 0.044989824
-0.010566918 0.024015725 0.045073777
-0.0094517795 0.023629451 0.045166641
-0.0085990969 0.023886383 0.045094281
-0.0076459935 0.023893731 0.045100451
-0.0066347593 0.023695569 0.04543364
-0.0057262327 0.023859303 0.045887709
-0.0047671553 0.023835778 0.046585977
-0.003793628 0.023710174 0.04630813
-0.0028341466 0.023617888 0.046340436
-0.0019215924 0.024019906 0.045718819
-0.00095910125 0.023977531 0.04574877
0 0.024032375 0.045682251
0.00096695172 0.024173794 0.045606047
0.0019024835 0.023781044 0.045672983
0.0029186741 0.024322286 0.045321077
0.0038751722 0.024219826 0.044988126
0.0048030582 0.024015293 0.044846088
0.0057733301 0.024055544 0.044697076
0.0067446502 0.024088038 0.04438743
0.0076601091 0.023937842 0.043226987
0.008726134 0.024239263 0.042810708
0.0097352853 0.024338214 0.042075217
0.010732873 0.024392895 0.040777087
0.011873452 0.02473636 0.038951069
0.012841347 0.024694899 0.037102759
0.013770932 0.024590952 0.035603285
0.015204787 0.025341313 0.02671665
0.016742263 0.026159786 0.017337829
0.017867452 0.026275665 0.016017407
0.019020382 0.026417198 0.015395284
0.01993732 0.026233315 0.014562368
0.021088654 0.026360821 0.013957828
0.022173453 0.026396967 0.013052642
0.022821167 0.025933146 0.012039602
0.023834201 0.025906742 0.011280924
0.024990771 0.026032055 0.0099982917
-0.042629573 0.027709223 0.0053916872
-0.041087408 0.027391605 0.0073236823
-0.039868444 0.02727841 0.0082114935
-0.039030027 0.027426504 0.0086809695
-0.038271699 0.027640672 0.0096883774
-0.036535725 0.027140826 0.010072351
-0.03587253 0.027431935 0.010047764
-0.034764629 0.027390314 0.0099340677
-0.033516075 0.027231811 0.010543734
-0.032804139 0.027513146 0.011008084
-0.031706423 0.027478898 0.011971027
-0.030600583 0.027435005 0.013050526
-0.029603289 0.027488768 0.015694946
-0.027137937 0.026132828 0.029234976
-0.025567206 0.025567206 0.033872783
-0.024921747 0.025918616 0.035381466
-0.023739008 0.025717258 0.037112921
-0.022958586 0.025953183 0.037967086
-0.021571821 0.02549397 0.039393097
-0.020550646 0.025443656 0.040411979
-0.019657183 0.025554338 0.040950656
-0.018392505 0.025168689 0.041443735
-0.01734989 0.025060954 0.041734904
-0.01634025 0.02499097 0.042372376
-0.015420518 0.025058342 0.043328792
-0.014482755 0.025103442 0.043587953
-0.013286039 0.024674073 0.044037938
-0.012368115 0.024736229 0.044816256
-0.011606636 0.025147714 0.045242995
-0.010578624 0.025004022 0.04554835
-0.0094721792 0.024627667 0.046140343
-0.0086196326 0.024901161 0.046589106
-0.0076180133 0.024758544 0.046719611
-0.0067039747 0.024900477 0.047237039
-0.005796507 0.025118198 0.047433197
-0.0047989497 0.024954539 0.047428429
-0.003793756 0.024659414 0.047316074
-0.0029200364 0.025306981 0.047304422
-0.0019215308 0.024979901 0.046694219
-0.00095189066 0.024749156 0.046589345
0 0.025008688 0.046240091
0.00094325043 0.02452451 0.045623869
0.0019018167 0.024723615 0.045606047
0.0028966714 0.025104485 0.045299619
0.0037888885 0.024627775 0.04475832
0.0048150728 0.025038378 0.044493794
0.0057778899 0.025037521 0.044299662
0.0067329332 0.025008038 0.043226987
0.0078365337 0.025468733 0.042947531
0.0089240344 0.025780546 0.041965604
0.0097988276 0.025476951 0.041278541
0.010834209 0.02560813 0.039766699
0.011892004 0.025766009 0.038206428
0.012780807 0.025561614 0.036205769
0.013840263 0.025703346 0.034953058
0.015217884 0.026377663 0.026177287
0.016657894 0.027069079 0.018541425
0.0176972 0.027066305 0.0166637
0.018770093 0.027112357 0.015924662
0.01991453 0.027251462 0.01554814
0.020972282 0.027263965 0.014381319
0.02211635 0.027382147 0.013426244
0.022876367 0.027035708 0.012788951
0.023917057 0.027036672 0.011940002
0.02480606 0.026873231 0.010509282
-0.042198855 0.028484229 0.0066092312
-0.041049998 0.02841923 0.0081737339
-0.040075969 0.028475031 0.0091136396
-0.039037094 0.028486526 0.010012031
-0.038293798 0.028720351 0.010797203
-0.03715127 0.028659552 0.010577738
-0.036010932 0.028596917 0.010545462
-0.034882989 0.028540628 0.010532051
-0.034174275 0.028834546 0.010702819
-0.032691579 0.028473312 0.011364877
-0.031677566 0.028509811 0.012341082
-0.030292898 0.028203731 0.013540208
-0.029260272 0.028215265 0.017181486
-0.027228538 0.027228538 0.027741939
-0.025897639 0.026893703 0.033141166
-0.024659598 0.026632367 0.034579217
-0.023863368 0.02684629 0.036270738
-0.022823498 0.026792802 0.037245333
-0.02158431 0.026489837 0.038063645
-0.0207514 0.026680373 0.039517403
-0.019734155 0.026641112 0.040224165
-0.018689677 0.026559016 0.040440947
-0.017634749 0.026452126 0.041230619
-0.016409891 0.026062768 0.041902035
-0.015286676 0.025796264 0.043154716
-0.014445717 0.02600229 0.04342255
-0.013356203 0.025758393 0.043940574
-0.012529704 0.026023233 0.044897676
-0.01148797 0.025847934 0.045267969
-0.01044309 0.025633039 0.045577079
-0.0094979871 0.025644565 0.04652518
-0.0086581726 0.025974518 0.0469459
-0.0077019129 0.025993956 0.047095746
-0.0067279916 0.025950827 0.047483414
-0.0057422644 0.025840191 0.047489047
-0.0047929878 0.025882134 0.047722161
-0.0038668613 0.026101314 0.047458023
-0.0028801335 0.025921203 0.047542125
-0.0019287576 0.026038229 0.04735142
-0.00096262357 0.025990836 0.047243178
0 0.025862794 0.046545178
0.00096304942 0.026002336 0.045630336
0.0019202405 0.025923247 0.045554191
0.0028750233 0.025875211 0.045215964
0.0038768381 0.026168657 0.044347465
0.0048191454 0.026023388 0.043947548
0.0058557736 0.026350982 0.042905152
0.0068301824 0.02634499 0.041828662
0.0078264829 0.026414381 0.041602582
0.0087572513 0.026271755 0.040882081
0.0098519493 0.026600264 0.039631128
0.01073743 0.026355512 0.038704127
0.011788614 0.026524384 0.037409812
0.012884624 0.026760375 0.035875589
0.013860115 0.026730223 0.034080476
0.015281947 0.027507506 0.024340004
0.016616248 0.028039917 0.019073278
0.017772818 0.028227419 0.016928285
0.018791072 0.02818661 0.016409457
0.019898554 0.028276894 0.015867889
0.020953033 0.028286597 0.015338272
0.021890718 0.028145209 0.014179498
0.023051685 0.028290706 0.013017535
0.023830706 0.027975177 0.012699783
0.025086196 0.02822197 0.010974765
0.026268659 0.028370151 0.007612735
-0.042070657 0.029449459 0.0078157783
-0.04091318 0.029373566 0.0089667439
-0.040007044 0.029478874 0.010263115
-0.03892066 0.029453471 0.010838687
-0.037888177 0.029468583 0.011243075
-0.036629591 0.029303674 0.011021346
-0.035920326 0.029581446 0.010948479
-0.035075113 0.029760703 0.010948479
-0.033485483 0.029299797 0.011204153
-0.032691665 0.029527953 0.011985004
-0.031679455 0.029567489 0.012898326
-0.030437291 0.029387727 0.014333278
-0.029600188 0.029600188 0.017789692
-0.027579483 0.028600944 0.027546227
-0.025828524 0.027815333 0.031831563
-0.024992332 0.02799141 0.033761501
-0.023787895 0.027752545 0.035324454
-0.022753961 0.027700474 0.036369056
-0.021696877 0.027614206 0.037365884
-0.020816743 0.027755657 0.038063645
-0.019744152 0.027641814 0.038856655
-0.018756907 0.027641758 0.040109217
-0.017845023 0.027758928 0.040284902
-0.016672602 0.027460758 0.041135311
-0.015653597 0.027393796 0.041948289
-0.014496132 0.027059445 0.043180794
-0.013479877 0.026959755 0.043956101
-0.012396368 0.026699869 0.044904619
-0.01129923 0.026364872 0.045265049
-0.010683425 0.027194174 0.04583475
-0.0094696069 0.026514901 0.046683609
-0.008659428 0.026940444 0.04717803
-0.00770838 0.026979329 0.047160119
-0.0066855461 0.026742185 0.047432482
-0.0057646371 0.02690164 0.047758102
-0.0048450832 0.027132466 0.047611207
-0.0038426006 0.026898203 0.047428429
-0.0028550068 0.02664673 0.047696799
-0.0019197905 0.026877066 0.047403067
-0.00094694807 0.026514547 0.047165364
0 0.026575943 0.046312988
0.00096689921 0.027073177 0.045378387
0.0019141946 0.026798723 0.045289636
0.00292307 0.027281987 0.044808865
0.0039352961 0.027547073 0.043983042
0.0048511657 0.027166529 0.042798311
0.0058241184 0.027179221 0.042362064
0.006866904 0.027467616 0.041528344
0.0078640655 0.027524229 0.040659517
0.0088011799 0.02738145 0.039763004
0.0098983031 0.027715249 0.039029866
0.01075031 0.027364425 0.037989497
0.011807757 0.027551435 0.036745489
0.012906133 0.027797826 0.035410523
0.013973489 0.027946979 0.033512354
0.015594807 0.029110307 0.023025483
0.016481157 0.028842025 0.019756705
0.017688166 0.02913345 0.018122941
0.018800989 0.029245982 0.016830593
0.019910166 0.029341297 0.016206414
0.020923942 0.02929352 0.015701175
0.022055363 0.029407151 0.015163183
0.023197405 0.029523972 0.013723612
0.024237279 0.029506251 0.012919128
0.024928909 0.029083729 0.01201722
0.025989475 0.02910821 0.0088119805
-0.0427742 0.030254923 0.0062615573
-0.042123791 0.030539749 0.0085079372
-0.040429138 0.030062694 0.010442436
-0.039648015 0.030257696 0.01109153
-0.038606845 0.030259419 0.011646926
-0.037779029 0.030433111 0.011980325
-0.036775824 0.030471399 0.011655599
-0.036006723 0.030711617 0.011784494
-0.034692906 0.030487709 0.011559546
-0.033945177 0.030762816 0.012254983
-0.032806203 0.030689675 0.012920946
-0.03150285 0.030452756 0.01417166
-0.030720413 0.030720413 0.01517278
-0.028981734 0.030016799 0.017309457
-0.027333781 0.029358506 0.023752272
-0.026123766 0.029138047 0.030969918
-0.024881696 0.028862769 0.033340961
-0.023633625 0.028557299 0.034603864
-0.022907745 0.028883679 0.035759032
-0.021833317 0.028780283 0.036484778
-0.020635787 0.02849704 0.03739053
-0.019944752 0.028919891 0.037914097
-0.018640479 0.028451256 0.038796723
-0.017672362 0.028472142 0.039698243
-0.016796704 0.028653203 0.040090561
-0.015751945 0.028550403 0.040989012
-0.014669506 0.028361045 0.041737348
-0.013658735 0.028293096 0.043207705
-0.012524555 0.027939394 0.043769211
-0.011607252 0.02805086 0.044945151
-0.010550464 0.02781486 0.045499057
-0.0094715785 0.027467581 0.046564132
-0.0086600827 0.027904714 0.047071546
-0.0076398873 0.027694592 0.047113001
-0.0066554178 0.027572446 0.047256857
-0.0057632504 0.027855713 0.047638208
-0.0047411495 0.02749867 0.047523171
-0.0037971614 0.02752942 0.047403067
-0.0028608863 0.027655236 0.047315478
-0.0019134904 0.02774561 0.047089428
-0.00095790968 0.027779382 0.046575397
0 0.027735375 0.046041131
0.00096228835 0.027906364 0.0451653
0.0019632373 0.02846694 0.044547319
0.0029391542 0.028411826 0.044080168
0.0038353517 0.027806301 0.043170452
0.0048357109 0.028047126 0.042055249
0.0058522755 0.028285999 0.041381001
0.006870795 0.028464723 0.040430129
0.007884562 0.028581537 0.039593309
0.0087957894 0.028341992 0.03897205
0.0098418323 0.028541315 0.038072586
0.010888838 0.028706938 0.036870599
0.011895391 0.028747197 0.035894334
0.01290938 0.028797848 0.035050631
0.014011009 0.029022805 0.032320142
0.015429782 0.029830912 0.023675054
0.016589081 0.03006771 0.019729108
0.017661279 0.030128065 0.018789262
0.018689398 0.0301107 0.017700821
0.019884717 0.030350357 0.01674965
0.020820629 0.030189913 0.01612547
0.021839753 0.03015966 0.015592426
0.022931464 0.03022784 0.014938295
0.023790317 0.029996486 0.013568997
0.024931792 0.030125916 0.012674898
0.0264295 0.030658221 0.0095957518
-0.042771403 0.031296149 0.0074644387
-0.041665986 0.031249491 0.010147482
-0.040787634 0.031375103 0.011136472
-0.040264182 0.031787515 0.01163137
-0.038785767 0.031447917 0.012852281
-0.037732914 0.031444095 0.013239771
-0.036654647 0.031418268 0.012800932
-0.035794169 0.031583089 0.012671202
-0.034774583 0.031613257 0.01268822
-0.033349354 0.031265017 0.01303339
-0.03203157 0.030998293 0.013568848
-0.031386141 0.031386141 0.014729232
-0.030115077 0.031153526 0.01562953
-0.028949274 0.031017078 0.018038273
-0.027676055 0.030751172 0.023665845
-0.025748257 0.029709527 0.030474991
-0.024984874 0.029981846 0.032659918
-0.024056125 0.030070156 0.033596098
-0.022851897 0.029806823 0.035069376
-0.021904126 0.029869264 0.036019415
-0.02077483 0.029678326 0.036743373
-0.019989686 0.02998453 0.037141323
-0.018631298 0.029417839 0.037859082
-0.017860472 0.029767454 0.038741916
-0.016644914 0.029373378 0.039405733
-0.015617829 0.029283429 0.039904088
-0.014865513 0.029731026 0.040664285
-0.013543083 0.029020892 0.041511685
-0.012794038 0.029524703 0.042913944
-0.011726195 0.029315488 0.044499367
-0.010634112 0.029002124 0.045044988
-0.0095038833 0.028511649 0.046405703
-0.0086584957 0.028861655 0.046795696
-0.0076890662 0.028833998 0.046988934
-0.0066486648 0.028494278 0.04713133
-0.0057421303 0.028710652 0.047503352
-0.0047548725 0.028529236 0.04740411
-0.003803032 0.028522739 0.047168672
-0.0028928306 0.028928306 0.046905607
-0.0019198279 0.028797418 0.046405494
-0.00095548417 0.028664526 0.045814902
0 0.028951006 0.045129389
0.00097044214 0.029113263 0.044631243
0.0019508379 0.029262569 0.043680906
0.0029258467 0.029258467 0.042982966
0.0039110156 0.029332619 0.042243838
0.0049269372 0.029561622 0.04103604
0.0058220192 0.029110096 0.040438175
0.0068899631 0.029528413 0.039425254
0.0078471275 0.029426729 0.0389328
0.0089096176 0.029698728 0.037904263
0.0098728538 0.029618561 0.037255585
0.010765827 0.029361347 0.036306769
0.011850182 0.029625455 0.035192668
0.012887264 0.02973984 0.034001082
0.013994832 0.029988926 0.031577528
0.015333991 0.030667981 0.022690237
0.016605487 0.031135287 0.020039707
0.017571297 0.031008169 0.019354045
0.018752676 0.031254459 0.018483102
0.019896081 0.031414863 0.017823398
0.020531394 0.03079709 0.016718417
0.021668714 0.030955303 0.016120195
0.022596017 0.030812752 0.015427768
0.023742685 0.030968718 0.014655828
0.024940347 0.031175435 0.012749434
0.026209235 0.03145108 0.010063529
-0.04269395 0.032280792 0.0093863606
-0.041578319 0.032223199 0.011102378
-0.040711544 0.032360461 0.012421817
-0.03978515 0.032456309 0.012957662
-0.038662009 0.032392494 0.013659477
-0.037658244 0.032427937 0.013889283
-0.036493011 0.032322384 0.013630599
-0.035406414 0.032282319 0.013447434
-0.034606081 0.032508746 0.013447434
-0.033100672 0.032066274 0.014060467
-0.032438919 0.032438919 0.014531612
-0.031520266 0.032570943 0.01492244
-0.030403052 0.032499816 0.016407102
-0.029477011 0.032635264 0.01861468
-0.027665919 0.031764574 0.023206562
-0.025932673 0.030919729 0.029572219
-0.02509089 0.031112703 0.031521797
-0.024015171 0.031019598 0.032945663
-0.022959257 0.030945085 0.033980846
-0.021861259 0.030804504 0.035148919
-0.020798951 0.030703215 0.035941184
-0.019634958 0.030434188 0.036682963
-0.018760459 0.030609172 0.037112385
-0.017786037 0.030631509 0.037834257
-0.016682036 0.030420182 0.038607091
-0.015640141 0.030302776 0.039199024
-0.014579297 0.030130548 0.039771706
-0.013694477 0.030323487 0.040669054
-0.012643116 0.03014897 0.041488051
-0.011616054 0.030008141 0.042660683
-0.010857374 0.030598056 0.043563396
-0.009604184 0.029772973 0.044803917
-0.0085988743 0.029618345 0.04542616
-0.0076613529 0.029687744 0.046049893
-0.0067342054 0.02982291 0.046170801
-0.005706395 0.029483041 0.046515167
-0.0047965236 0.029738447 0.046757907
-0.0038096057 0.029524446 0.046391577
-0.002887541 0.029837925 0.046026498
-0.0019346623 0.029987268 0.045339584
-0.00097171729 0.030123236 0.045111775
0 0.030358905 0.044131368
0.0009732371 0.030170349 0.043494612
0.0019443891 0.030138033 0.042994976
0.0029147146 0.030118719 0.042206287
0.0039063836 0.030274475 0.041061074
0.00486795 0.030181292 0.04021728
0.0058964137 0.030464806 0.039356053
0.0069001461 0.030557791 0.038948476
0.0078466134 0.030405629 0.038045138
0.008906289 0.03067722 0.037363023
0.0098557901 0.030552952 0.036487013
0.010850689 0.030579219 0.035557896
0.011982839 0.030955667 0.034803063
0.0129962 0.03099094 0.033035934
0.013899469 0.030777397 0.03100431
0.015401256 0.031829264 0.022574455
0.016497377 0.031963669 0.020785749
0.017515313 0.031939689 0.019830853
0.018681351 0.03217344 0.019115478
0.019659255 0.032075625 0.018293679
0.020638019 0.031988934 0.01746133
0.021714341 0.032054503 0.016430706
0.022586407 0.031826302 0.015495807
0.023616752 0.031831276 0.015510201
0.02475067 0.031969618 0.013138354
0.025878156 0.032088913 0.01141116
-0.042254318 0.032978978 0.010183007
-0.041696064 0.033356853 0.011691272
-0.040793307 0.033471432 0.013153106
-0.039621077 0.033365116 0.013646364
-0.038544778 0.033336025 0.01428014
-0.037406847 0.033250533 0.014617264
-0.036502887 0.033374067 0.014385074
-0.035467487 0.033381164 0.014218062
-0.034793265 0.033738926 0.014264613
-0.03335404 0.03335404 0.014658242
-0.032712523 0.033767764 0.014970362
-0.031659603 0.033770245 0.015607357
-0.030648543 0.033819079 0.017242193
-0.028826125 0.032944143 0.019128412
-0.027904503 0.033072002 0.02184999
-0.026120018 0.032147717 0.02747944
-0.02530439 0.032389618 0.030819476
-0.023968261 0.031957682 0.03253144
-0.022947803 0.031927377 0.033471137
-0.021810263 0.031724021 0.034740835
-0.020765577 0.03164278 0.035353243
-0.019844811 0.0317517 0.0358105
-0.018782176 0.031633139 0.036669016
-0.017793495 0.031632882 0.037003636
-0.016721103 0.031475019 0.037813306
-0.015725516 0.031451032 0.038455576
-0.014779621 0.031529859 0.038974702
-0.013747929 0.031423837 0.03970468
-0.012581413 0.030969633 0.040486306
-0.011749388 0.031331703 0.041332245
-0.010801785 0.031423375 0.04219678
-0.0097779091 0.031289313 0.043395311
-0.008767277 0.03117254 0.044246882
-0.0077697244 0.031078897 0.04462257
-0.0067792577 0.030990891 0.044852227
-0.0057322625 0.030572068 0.045174658
-0.0047819107 0.030604228 0.045360148
-0.0038069158 0.030455327 0.045195401
-0.0029013806 0.030948061 0.044928312
-0.0019448596 0.031117754 0.044306844
-0.00097158796 0.031090815 0.043936729
0 0.030921696 0.043505043
0.0009737761 0.031160835 0.042931199
0.0019578666 0.031325866 0.042228013
0.0029493358 0.031459585 0.041301608
0.0038895744 0.031116595 0.04035908
0.0049019447 0.031372447 0.039586574
0.0058934367 0.031431664 0.038846344
0.0068307319 0.031226203 0.038197726
0.0079544634 0.031817853 0.0373106
0.0088897813 0.031608112 0.036514491
0.0098319883 0.031462364 0.035993338
0.010832528 0.031512808 0.035275429
0.01194696 0.03185856 0.03377974
0.012944695 0.031863865 0.031733781
0.013959683 0.031907849 0.025191575
0.01537547 0.032801002 0.022393942
0.01643585 0.032871701 0.021048784
0.017407622 0.032767288 0.020338863
0.018661309 0.033175662 0.019435078
0.019730398 0.033230145 0.018958509
0.020827036 0.033323258 0.018108845
0.021787858 0.033200543 0.017415881
0.022635408 0.032924231 0.015963763
0.023740551 0.033030331 0.015782744
0.024658477 0.03287797 0.014959812
0.025983823 0.033259295 0.01217863
-0.042964686 0.03458133 0.011424959
-0.041825607 0.034506127 0.013026297
-0.040686082 0.034426682 0.013819069
-0.039760288 0.034528669 0.014340192
-0.038752008 0.034562599 0.014836103
-0.037822075 0.034670234 0.014817953
-0.036853667 0.034747742 0.01473698
-0.035896841 0.034841053 0.014598876
-0.034602415 0.034602415 0.014719993
-0.033426829 0.034471419 0.015145153
-0.032230765 0.034310166 0.01597324
-0.0311733 0.03429063 0.017175734
-0.030065857 0.034212869 0.018432677
-0.029164912 0.034372933 0.020107716
-0.027802311 0.033980601 0.022128344
-0.026169954 0.033215709 0.024318248
-0.025047598 0.033062827 0.030106425
-0.024055161 0.033075847 0.031409085
-0.022986444 0.03298055 0.032735616
-0.021797867 0.032696802 0.033791333
-0.020870997 0.032797277 0.034837306
-0.019816542 0.032697294 0.035280466
-0.018857975 0.032753322 0.035692751
-0.01776587 0.032570764 0.036542714
-0.016883913 0.032774653 0.036885351
-0.015764123 0.032513503 0.037864208
-0.014846781 0.032662921 0.038390279
-0.013683941 0.032255001 0.038819671
-0.012797592 0.032486197 0.03968218
-0.01184615 0.032576915 0.040535301
-0.010736126 0.032208379 0.041321754
-0.0097315898 0.032114249 0.04210031
-0.0087720705 0.032164261 0.043110162
-0.0077968347 0.032161944 0.043505132
-0.0067893732 0.032007046 0.043603033
-0.0057537099 0.031645402 0.043891132
-0.0047794268 0.031544216 0.044152886
-0.0038797962 0.032008316 0.043851346
-0.0029084517 0.031992968 0.043655604
-0.0019391195 0.031995472 0.043582708
-0.00096458575 0.031831328 0.043053269
0 0.031805355 0.042890221
0.00097309344 0.032112081 0.042215109
0.0019512732 0.032196008 0.041263759
0.0029066289 0.031972915 0.040753484
0.0039179572 0.032323144 0.039683312
0.0049027787 0.032358337 0.038819253
0.0058867792 0.032377284 0.038450062
0.0068638041 0.032357931 0.037539035
0.0078979349 0.032578979 0.036800057
0.008822375 0.032348707 0.036129266
0.009907159 0.032693624 0.035411775
0.010939262 0.032817785 0.033956856
0.011878951 0.032667115 0.03271243
0.012846546 0.032610461 0.030696183
0.013978978 0.032950446 0.024255514
0.015362351 0.033797171 0.022372007
0.016473344 0.033976272 0.021420091
0.017576486 0.034119058 0.020616442
0.0186805 0.034247585 0.019993514
0.019759873 0.034319777 0.019274741
0.02043926 0.033724777 0.01888302
0.021526042 0.033826638 0.01808551
0.022558771 0.033838157 0.017159104
0.023398088 0.033571169 0.016000301
0.024803473 0.034104776 0.015297741
0.025934629 0.034233708 0.01289773
-0.042722899 0.035428744 0.012827516
-0.041705757 0.035449896 0.013632774
-0.040746097 0.035522237 0.014565259
-0.039287806 0.035152245 0.014807343
-0.038638808 0.035505932 0.01512146
-0.037504926 0.035421323 0.015243769
-0.036210526 0.035175942 0.015222639
-0.035206061 0.035206061 0.015166283
-0.034467384 0.035511851 0.015500605
-0.033417989 0.035506614 0.016222566
-0.03218279 0.035297252 0.017152607
-0.031294089 0.035466634 0.01831615
-0.030089511 0.035277355 0.018966734
-0.029145302 0.035390723 0.020191938
-0.028148454 0.035446201 0.021909118
-0.025858721 0.03381525 0.023375601
-0.025180366 0.034245297 0.02741766
-0.023943922 0.033920556 0.030608922
-0.02319932 0.034294646 0.032387316
-0.021778667 0.033657942 0.03321135
-0.020711223 0.033532456 0.034069598
-0.01977602 0.033619236 0.034652293
-0.01893132 0.033877097 0.035028607
-0.017682431 0.033400148 0.035652697
-0.016740065 0.03348013 0.036420375
-0.015814275 0.033605333 0.037100255
-0.014694342 0.033307176 0.037871152
-0.013782258 0.033471197 0.038508296
-0.012806775 0.033494644 0.038957804
-0.011783202 0.033385739 0.039598554
-0.010811392 0.033417031 0.040382355
-0.0096858377 0.032931849 0.040978223
-0.0087850085 0.03318781 0.041510344
-0.0078170821 0.033222601 0.042429209
-0.0068219807 0.033135336 0.04265213
-0.0058254134 0.033010677 0.043062419
-0.0048774593 0.033166721 0.043225408
-0.0038539593 0.032758653 0.04324162
-0.0029000102 0.032866783 0.043109417
-0.0019635048 0.033379581 0.043021828
-0.00096967106 0.032968815 0.042546481
0 0.033181686 0.042033762
0.00097094697 0.033012196 0.041248947
0.0019535408 0.033210196 0.04068771
0.0029311774 0.033220008 0.039716601
0.0039071795 0.033211023 0.038943797
0.004896292 0.033294786 0.038434803
0.0058855559 0.033351485 0.037731826
0.0069189337 0.03360625 0.037133276
0.0078515857 0.033369239 0.036257237
0.008894342 0.033600848 0.035749793
0.0098686581 0.03355344 0.035060376
0.01086751 0.033590488 0.033358127
0.011967577 0.033908136 0.031259149
0.012912558 0.033771306 0.02554217
0.014218346 0.034530271 0.024574339
0.015497589 0.035127871 0.02276054
0.016217379 0.03446193 0.021965623
0.017557358 0.035114717 0.021324664
0.018568464 0.035073768 0.020549804
0.019379867 0.034679763 0.019900769
0.020789398 0.035341978 0.019754738
0.021798069 0.035292111 0.018942326
0.022658197 0.035017215 0.017982244
0.023615064 0.034909226 0.017311335
0.024625123 0.034885593 0.016053051
0.025654865 0.034890618 0.015372515
-0.044772152 0.037310123 0.0054448843
-0.042337257 0.036141559 0.012949347
-0.0416945 0.036482688 0.013928175
-0.040558256 0.036398433 0.014719993
-0.039444927 0.036330853 0.015148699
-0.03852766 0.036445081 0.015447766
-0.037329257 0.036292333 0.016160876
-0.036219779 0.036219779 0.016153365
-0.035513438 0.03655795 0.016300082
-0.034346186 0.03642777 0.016656816
-0.033310127 0.036432948 0.017522544
-0.032337405 0.036509972 0.018108189
-0.031007575 0.036175501 0.018944591
-0.030364225 0.036646478 0.019913048
-0.028994873 0.036243591 0.020652354
-0.027532086 0.035689738 0.022064477
-0.026390636 0.035525855 0.023170739
-0.024977963 0.034969147 0.025074512
-0.023966465 0.034951095 0.029064924
-0.023082787 0.035125978 0.030915946
-0.021968838 0.034950424 0.032580554
-0.020927183 0.034878638 0.033414334
-0.020067863 0.035118759 0.034040391
-0.018692099 0.03443281 0.034658581
-0.017787881 0.034587547 0.034980476
-0.016855137 0.034701753 0.035759002
-0.015686592 0.03431442 0.036277473
-0.014689381 0.034275223 0.037173331
-0.01372152 0.034303799 0.037861645
-0.012688807 0.034162175 0.038310021
-0.011846985 0.034553707 0.038943172
-0.010751638 0.034209758 0.039428443
-0.0096370075 0.033729527 0.040192604
-0.0088241203 0.034316022 0.040757746
-0.0077726557 0.03400537 0.041189253
-0.0067979884 0.033989944 0.041408479
-0.0058518634 0.034135867 0.042135507
-0.0048524234 0.033966962 0.042491019
-0.003864554 0.033814847 0.04244113
-0.0029243545 0.034117468 0.042339772
-0.0019482634 0.034094609 0.042237371
-0.00096782343 0.033873819 0.041763872
0 0.034205586 0.040978819
0.00097158959 0.034005634 0.040391922
0.0019533657 0.034183901 0.039857
0.0029586127 0.03451715 0.038839877
0.0038606664 0.033780832 0.03850165
0.0049125548 0.034387887 0.037754893
0.0059651979 0.034796987 0.037062526
0.0068430533 0.034215268 0.036370605
0.0079174396 0.034638796 0.035699904
0.0089410823 0.034770876 0.034979403
0.0098459003 0.034460653 0.033323348
0.010930642 0.034779318 0.031466424
0.011959918 0.034883093 0.027956426
0.013027397 0.035073761 0.02528739
0.014344491 0.035861228 0.024510443
0.015330386 0.035770901 0.02322492
0.016481943 0.036054254 0.022360176
0.017445279 0.035916749 0.021759361
0.018530635 0.036031794 0.021339476
0.019618979 0.036140226 0.020640612
0.020687893 0.036203813 0.020163953
0.021604884 0.036008138 0.019789964
0.022712072 0.036132842 0.019197077
0.023630949 0.035960138 0.018212289
0.024842525 0.036228679 0.017704427
0.025479643 0.035671499 0.016000301
-0.044508718 0.038150325 0.0061197281
-0.04211748 0.036981199 0.013714314
-0.041322824 0.037190542 0.014807343
-0.040518768 0.037401937 0.015249163
-0.039734993 0.037643675 0.01588428
-0.038503587 0.03746295 0.016876251
-0.037619431 0.037619431 0.018053442
-0.036512554 0.037555769 0.017755091
-0.035297874 0.037374217 0.017688215
-0.034432549 0.03756278 0.017935336
-0.033382263 0.037555046 0.018387198
-0.032003723 0.037165612 0.018648565
-0.030869974 0.037043966 0.019484371
-0.02992194 0.037144475 0.020104498
-0.028547479 0.0367039 0.021163315
-0.027522782 0.036697041 0.022474915
-0.026978884 0.037355375 0.023820996
-0.025557399 0.036802653 0.024924397
-0.024122708 0.036184061 0.026553899
-0.02310561 0.036165301 0.029090255
-0.021974688 0.035958581 0.030840933
-0.02097608 0.035958994 0.032509655
-0.01993244 0.03587839 0.033144057
-0.018877016 0.035766974 0.034053296
-0.017782884 0.035565767 0.034634769
-0.016792638 0.03556088 0.035292327
-0.015878297 0.035726167 0.036010057
-0.014936489 0.035847574 0.036355793
-0.013633532 0.035057653 0.037479728
-0.012908537 0.035746716 0.037917167
-0.011753325 0.035259973 0.038330525
-0.010820726 0.035413284 0.039058119
-0.009759347 0.035133649 0.039465815
-0.0088473149 0.035389259 0.040176809
-0.0078399219 0.035279647 0.040745735
-0.0067811911 0.034874696 0.040864766
-0.00586442 0.035186518 0.041126013
-0.0048124911 0.034649935 0.041546702
-0.0038814356 0.034932919 0.041640103
-0.0028996624 0.034795947 0.041595995
-0.0019444337 0.034999803 0.041345567
-0.00097641628 0.035150982 0.040894181
0 0.034980562 0.040476739
0.00099008053 0.0356429 0.039795458
0.0019388465 0.034899238 0.039253652
0.002918245 0.03501894 0.038558781
0.0039783558 0.035805203 0.038057715
0.0049263514 0.035469729 0.037067205
0.0058687921 0.035212751 0.036529273
0.0068904287 0.035436489 0.035784274
0.0079054972 0.035574738 0.035127074
0.0088189002 0.035275601 0.033314317
0.0099833719 0.035940137 0.031864703
0.010854783 0.035524745 0.029813111
0.011991524 0.03597457 0.026126176
0.013310967 0.03686114 0.025348485
0.014290354 0.036746625 0.024574906
0.0153962 0.036950879 0.02409488
0.016537547 0.037209477 0.022911519
0.017356863 0.036755707 0.022267908
0.018417362 0.036834724 0.022074521
0.019276962 0.036524769 0.021538258
0.020564465 0.037016034 0.021532416
0.02147151 0.036808301 0.02057156
0.022504311 0.036825236 0.020084888
0.02367457 0.037055846 0.019315839
0.024471888 0.036707833 0.018224418
0.025507394 0.036730647 0.016945899
0.027675338 0.038319699 0.0053014755
-0.044714343 0.039391208 0.0078897178
-0.042318556 0.038189914 0.013633847
-0.041059818 0.037980333 0.014991552
-0.040337633 0.038269039 0.016391039
-0.03931722 0.038282558 0.017789483
-0.038255587 0.038255587 0.018374383
-0.037317086 0.038353674 0.018750191
-0.036078833 0.038140483 0.018618435
-0.035053391 0.038146339 0.018540949
-0.033969514 0.038087036 0.018803805
-0.033341836 0.038551498 0.018931866
-0.031846397 0.038010214 0.019471586
-0.030964749 0.038189858 0.020144135
-0.029739583 0.037943605 0.020812839
-0.028758133 0.03800182 0.021844596
-0.027907506 0.038243618 0.02263397
-0.026756987 0.038077254 0.023289233
-0.025719803 0.038065307 0.024418175
-0.024278728 0.037429709 0.02518177
-0.022931704 0.036890134 0.027064383
-0.022063095 0.037106119 0.029418498
-0.020833831 0.03670723 0.0310314
-0.019995861 0.036992345 0.032297432
-0.018910781 0.036826257 0.033182979
-0.017867304 0.036727238 0.034136057
-0.016847627 0.036668368 0.034496039
-0.015932953 0.036844954 0.034846157
-0.014749273 0.036381539 0.035799176
-0.01387851 0.036678921 0.037000269
-0.012763618 0.03632722 0.037685752
-0.011714985 0.036121204 0.037933767
-0.010814274 0.036375288 0.038552761
-0.0097498558 0.036074471 0.039127409
-0.0088108974 0.036222581 0.03946802
-0.0078532035 0.036321066 0.040030152
-0.0067928312 0.035904966 0.040222168
-0.0058354107 0.035985034 0.040793806
-0.0048681679 0.036024448 0.040893108
-0.0038946432 0.03602545 0.041051954
-0.00291376 0.035936374 0.04091236
-0.0019784805 0.03660189 0.04090327
-0.00097164168 0.035950743 0.040484905
0 0.036206957 0.039832175
0.00097753108 0.036168654 0.038834929
0.0019540726 0.036150347 0.038492054
0.0029532851 0.036423851 0.037984401
0.0039704135 0.036726326 0.036901534
0.0049064164 0.036307484 0.036253273
0.0059348531 0.036598261 0.035555065
0.0069203167 0.036578819 0.034999579
0.0078910831 0.036496259 0.033091724
0.0090190414 0.037078284 0.031927764
0.0098651815 0.036501177 0.029655874
0.011117377 0.037394818 0.026532322
0.012352223 0.038086019 0.025661796
0.013281136 0.037800159 0.025250733
0.01426334 0.037695974 0.024676651
0.015331745 0.037818305 0.024494857
0.01633288 0.037769783 0.023272842
0.017381819 0.03783102 0.022819251
0.018454691 0.037934646 0.02274543
0.019562997 0.038096365 0.022651255
0.02053678 0.037993047 0.022565514
0.021359706 0.037633769 0.02250737
0.022413876 0.037696067 0.021532118
0.023313712 0.037504669 0.020316869
0.02436455 0.037562016 0.019154191
0.025374386 0.037554093 0.017456591
0.027317807 0.038875341 0.010609865
-0.044298355 0.040079463 0.0079973936
-0.042041425 0.038965221 0.013997585
-0.040857077 0.038814228 0.015924156
-0.039805248 0.038784605 0.017996192
-0.038956817 0.038956817 0.018604666
-0.038027596 0.039055366 0.01904732
-0.037169185 0.039234143 0.01963675
-0.036117081 0.03921283 0.019284159
-0.035183094 0.039322279 0.019242257
-0.03408945 0.03925452 0.019534886
-0.032985594 0.039170392 0.019900262
-0.031927221 0.039136592 0.020218432
-0.030705171 0.038893215 0.020823181
-0.029822256 0.039077438 0.021648526
-0.028488673 0.038663201 0.022418678
-0.027623054 0.038876891 0.022746205
-0.026604325 0.038883243 0.023928344
-0.025572991 0.038870946 0.02428028
-0.024549421 0.038869917 0.02484864
-0.023504851 0.038834102 0.026294321
-0.022124657 0.038215321 0.027777165
-0.021149803 0.038271073 0.029583126
-0.020055491 0.038105436 0.030696154
-0.018847644 0.037695289 0.031936496
-0.017881718 0.037750293 0.033059537
-0.016896304 0.037768207 0.033928394
-0.015874911 0.037702914 0.034258127
-0.014897804 0.037741102 0.03462863
-0.013762331 0.037354898 0.035948277
-0.012823753 0.037484817 0.036750913
-0.011759591 0.03723871 0.037639439
-0.010750356 0.037137598 0.038190931
-0.009726353 0.036960144 0.03874895
-0.0088372529 0.037312847 0.038956255
-0.0079276068 0.037656132 0.039377779
-0.0068294904 0.037074376 0.039463252
-0.0058821258 0.037253466 0.040104955
-0.0048521669 0.03687647 0.040117711
-0.0039019936 0.037068941 0.03986913
-0.0029139938 0.036910586 0.040149897
-0.0019618741 0.037275609 0.040134102
-0.00097639358 0.037102956 0.039683312
0 0.037439846 0.038841397
0.00098106766 0.037280571 0.038198918
0.0019629668 0.037296366 0.0378519
0.0029615222 0.037512615 0.03698954
0.0039078207 0.037124299 0.036118656
0.0049228794 0.037413884 0.035531223
0.0059520472 0.037696302 0.034884453
0.0068804724 0.037351139 0.032884687
0.0079538245 0.037780669 0.031282932
0.0090398863 0.038168412 0.029628724
0.010137787 0.038523592 0.026844859
0.011172201 0.038594879 0.026147485
0.012259799 0.038822696 0.025576919
0.013229154 0.038669836 0.025281727
0.014328824 0.038892522 0.024782777
0.015249026 0.038630866 0.024517775
0.016310651 0.038737796 0.024019778
0.017314896 0.038703885 0.023523271
0.018243019 0.038513042 0.02363947
0.019390265 0.038780529 0.02359283
0.020179169 0.038340423 0.02363947
0.021433685 0.038784765 0.023198426
0.022250002 0.038431823 0.022697896
0.023210743 0.038348183 0.022198081
0.024281835 0.03844624 0.020154387
0.025351854 0.03853482 0.01932621
0.027221711 0.039785579 0.012088269
-0.044156086 0.041002076 0.010059834
-0.042031504 0.039981186 0.015452892
-0.040989954 0.039965205 0.01815334
-0.040156282 0.040156282 0.018750191
-0.039156541 0.040186975 0.019404948
-0.038206432 0.040271644 0.019880921
-0.037290961 0.040398542 0.020451277
-0.03616355 0.040296525 0.020419866
-0.035014395 0.040163569 0.020299405
-0.034103334 0.040303942 0.020602614
-0.033031985 0.040257733 0.020834923
-0.031934664 0.040175866 0.021115512
-0.030952072 0.040237695 0.021824151
-0.029511502 0.039687883 0.022295415
-0.028744664 0.040037211 0.022646755
-0.027727673 0.040051084 0.022890329
-0.02671768 0.04007652 0.02393952
-0.025591146 0.039922189 0.024323106
-0.024514509 0.039836079 0.024618685
-0.023425408 0.039721344 0.025589943
-0.022386026 0.039684318 0.026546806
-0.021524042 0.039973218 0.027596086
-0.020167099 0.039325844 0.028565377
-0.018894991 0.038784456 0.030005783
-0.017928753 0.038845632 0.031785876
-0.016893314 0.038755249 0.032510459
-0.015809037 0.03853453 0.033204347
-0.014925188 0.038805488 0.03372398
-0.013759903 0.038331158 0.034368545
-0.012827797 0.038483389 0.035738796
-0.011762614 0.038228497 0.036736369
-0.010783164 0.038231216 0.037683398
-0.0097919861 0.038188744 0.038208067
-0.0088837454 0.038496234 0.038536698
-0.0078339763 0.038190633 0.038915485
-0.0068474016 0.038149808 0.038983554
-0.0058530532 0.038044848 0.039434999
-0.0048731593 0.038010646 0.039482892
-0.0038928103 0.0379549 0.039242566
-0.002957721 0.038450375 0.039400905
-0.0019580079 0.038181156 0.039378464
-0.00097707112 0.038105771 0.038883477
0 0.038633693 0.038263381
0.0009823509 0.038311683 0.037468433
0.0019751219 0.038514875 0.036688626
0.0029529876 0.038388837 0.035892576
0.0039500967 0.038513444 0.035197109
0.0049165478 0.038349073 0.034252763
0.0059284191 0.038534723 0.03264758
0.0070517063 0.039288078 0.031104922
0.0081281327 0.039624646 0.02955994
0.0091338381 0.039579969 0.027541101
0.010138405 0.039539784 0.026362002
0.01116954 0.039601095 0.026008546
0.012185542 0.03960301 0.025634646
0.013287509 0.039862528 0.025455713
0.014218424 0.039608467 0.025106877
0.015229022 0.039595459 0.024825096
0.016266989 0.039650783 0.024424821
0.017216977 0.039497767 0.024324238
0.018386003 0.03983634 0.024276376
0.019247437 0.039507896 0.024298072
0.020258019 0.039503139 0.024634361
0.021408224 0.039758131 0.024731934
0.022280708 0.039497621 0.023881108
0.023422621 0.039716616 0.023101658
0.024337132 0.039547838 0.022270292
0.025152009 0.03923713 0.019874811
0.027139671 0.040709507 0.013350427
-0.044515442 0.042395655 0.010891795
-0.042172298 0.041143704 0.017369747
-0.040890679 0.040890679 0.018986821
-0.040285513 0.041318472 0.019746453
-0.038947355 0.040997215 0.020511538
-0.03774114 0.040801227 0.021361023
-0.036970813 0.041078679 0.021773875
-0.035845906 0.040966749 0.021747649
-0.034792121 0.040931903 0.021453738
-0.033969339 0.041174956 0.021611094
-0.032698814 0.040873516 0.021844596
-0.03188752 0.041145187 0.022083789
-0.030783001 0.041044001 0.022418678
-0.029807933 0.041114386 0.02263397
-0.028690217 0.040986024 0.022825837
-0.027627757 0.04093001 0.023740113
-0.026349107 0.040537085 0.024102986
-0.025438065 0.040700901 0.024768949
-0.024450393 0.040750656 0.024603426
-0.023387657 0.040674184 0.025757939
-0.022416556 0.040757377 0.026349872
-0.021254137 0.040484067 0.026705593
-0.020318525 0.04063705 0.027350724
-0.019357892 0.040753454 0.028509647
-0.018233137 0.040518083 0.029888064
-0.016960297 0.039906576 0.03045854
-0.015743101 0.039357748 0.031922579
-0.014886984 0.039698623 0.032605499
-0.013882183 0.039663378 0.033450484
-0.012815204 0.039431393 0.034313917
-0.011769202 0.039230671 0.035360605
-0.010941313 0.039786592 0.036496758
-0.0098205265 0.039282106 0.037738979
-0.0088313501 0.039250445 0.038153797
-0.0078611784 0.039305892 0.038455814
-0.0068690837 0.039251905 0.038721681
-0.005876739 0.03917826 0.038836718
-0.0049032122 0.039225698 0.038790613
-0.00392729 0.039272897 0.038657874
-0.0029375227 0.039166968 0.038671225
-0.0019589856 0.039179709 0.03841126
-0.00098611519 0.039444607 0.038327128
0 0.039500549 0.037052274
0.00098380959 0.039352383 0.036338776
0.0019637179 0.039274354 0.035751224
0.0029671909 0.039562546 0.034821481
0.0039243782 0.03924378 0.032861471
0.0050011915 0.040009532 0.031989962
0.0060692937 0.040461957 0.030560017
0.0071022143 0.04058408 0.029695004
0.0079960888 0.039980441 0.028173417
0.0091141369 0.040507276 0.027516961
0.01011106 0.04044424 0.026376247
0.011104099 0.040378541 0.026018173
0.012255341 0.040851135 0.025759757
0.013190452 0.040586006 0.025507361
0.014229384 0.040655382 0.025355369
0.015228032 0.040608086 0.025336683
0.0161117 0.040279247 0.025169224
0.017330253 0.040777065 0.025115639
0.018205862 0.040457472 0.025082141
0.019362498 0.040763151 0.025065809
0.020146426 0.040292852 0.025320053
0.021232506 0.040442865 0.025574148
0.021843448 0.039715361 0.025142938
0.023231618 0.040402811 0.024731934
0.024133518 0.040222529 0.02299875
0.025164049 0.040262476 0.021592826
0.026676541 0.041040834 0.016805738
