ply
format ascii 1.0
comment PCL generated
element vertex 1300
property float x
property float y
property float z
element camera 0
property float view_px
property float view_py
property float view_pz
property float x_axisx
property float x_axisy
property float x_axisz
property float y_axisx
property float y_axisy
property float y_axisz
property float z_axisx
property float z_axisy
property float z_axisz
property float focal
property float scalex
property float scaley
property float centerx
property float centery
property int viewportx
property int viewporty
property float k1
property float k2
end_header
-0.019055348 0.070203915 0.029337764
-0.018037176 0.070144571 0.029358119
-0.017109348 0.070450246 0.029288352
-0.016121808 0.070532911 0.02940619
-0.014927446 0.069661416 0.029462993
-0.014031831 0.070159152 0.029301375
-0.012948679 0.069723651 0.029718608
-0.011988834 0.06993486 0.03013739
-0.011011004 0.070070021 0.030408531
-0.009954798 0.069683589 0.030901462
-0.0089744255 0.069801092 0.031152934
-0.0079906499 0.069918185 0.031327575
-0.0069543025 0.069543026 0.031314939
-0.0059985407 0.069982976 0.031614512
-0.0050277784 0.070388898 0.031671613
-0.003997108 0.069949381 0.031653047
-0.0029831191 0.06960611 0.031435013
-0.0020028308 0.070099078 0.031404078
-0.00099914218 0.069939949 0.031604528
0 0.069956981 0.031585366
0.0010020852 0.070145965 0.031421334
0.0019721992 0.069026969 0.031308591
0.0030177142 0.070413336 0.030893505
0.0039762068 0.069583617 0.030626357
0.0049800323 0.069720455 0.030447572
0.0059646694 0.069587812 0.030334979
0.0070274486 0.070274487 0.030490756
0.0080036204 0.07003168 0.030444026
0.0090338737 0.07026346 0.03023234
0.010064079 0.070448555 0.030104309
0.0108875 0.069284089 0.029838026
0.01196578 0.069800377 0.029817551
0.012983797 0.069912754 0.029821932
0.01398645 0.069932252 0.030102432
0.015082302 0.07038407 0.030922711
0.015862539 0.069398604 0.03113851
0.016800234 0.069177434 0.031470835
0.017936729 0.069753945 0.031449676
0.018784041 0.06920436 0.031610429
0.019889122 0.069611929 0.032169223
0.020865874 0.069552913 0.032889336
0.021790672 0.069333956 0.032027841
0.022620827 0.068845995 0.031753659
0.023524722 0.068613768 0.031260282
0.024624189 0.068947725 0.030895293
0.025583392 0.06887836 0.027666062
0.028491922 0.073867939 0.0065484345
-0.044412568 0.075078391 0.0071516037
-0.040637635 0.070372485 0.02228424
-0.040334851 0.071594357 0.024936706
-0.038909283 0.070834845 0.027221859
-0.037972618 0.070948832 0.027988523
-0.036840089 0.070693135 0.028812915
-0.035981447 0.070963413 0.029458702
-0.034685865 0.070362754 0.029301167
-0.033909317 0.070810631 0.029171795
-0.032835681 0.070646465 0.029056489
-0.032061405 0.071136236 0.029187083
-0.030935476 0.070852213 0.029415578
-0.030000536 0.071001269 0.029406816
-0.028988309 0.070971377 0.029439926
-0.028229989 0.071583182 0.029545516
-0.027255405 0.071671613 0.029476076
-0.025882505 0.070679143 0.029436976
-0.024938792 0.070826165 0.02969411
-0.023928961 0.070789844 0.029772788
-0.02302203 0.071068004 0.029895931
-0.022002961 0.071009561 0.029893398
-0.021047106 0.071159258 0.029824346
-0.020022163 0.071078673 0.029896557
-0.018992532 0.070972085 0.0298675
-0.017999254 0.070997059 0.029932797
-0.017087774 0.071366578 0.029901803
-0.015812578 0.070168309 0.029892772
-0.015006571 0.071031101 0.029804558
-0.013999802 0.070998989 0.030265003
-0.01300634 0.071034618 0.030265003
-0.011994517 0.070967562 0.030327916
-0.011043272 0.071279295 0.0305866
-0.0098647205 0.070039518 0.031055361
-0.0089403419 0.070529364 0.031398326
-0.0080174897 0.07115522 0.031293035
-0.0069731828 0.070727997 0.031181604
-0.0060161487 0.071191095 0.031388938
-0.0049779047 0.070686251 0.031404078
-0.0039682644 0.070436694 0.031484216
-0.0029804038 0.070536226 0.031318009
-0.0019958515 0.070852727 0.031390876
-0.001003218 0.071228482 0.03186354
0 0.07138215 0.031997085
0.0010007565 0.071053714 0.031724334
0.0019779606 0.070217602 0.031658888
0.0029750008 0.070408352 0.031451374
0.0039245598 0.069660932 0.031319141
0.0049580941 0.070404939 0.031319886
0.0060046227 0.071054697 0.03158471
0.0069172964 0.070161149 0.03166911
0.0079795541 0.070818543 0.03166911
0.0088922642 0.070150085 0.031542748
0.0099487472 0.070636109 0.031407416
0.010905957 0.070392989 0.031493694
0.012036285 0.071214683 0.031460732
0.012869044 0.070284776 0.031370848
0.014004842 0.071024559 0.031498432
0.014942676 0.07072866 0.031877577
0.015953677 0.070794433 0.032345772
0.016692115 0.069714122 0.032302022
0.017999254 0.070997059 0.032699317
0.018867191 0.070503712 0.033008397
0.019817082 0.070350647 0.033137321
0.020715965 0.070039682 0.033594728
0.021667965 0.06992843 0.032768518
0.022587754 0.069727413 0.032983214
0.023547789 0.069662206 0.032078862
0.024727561 0.070226267 0.031098604
0.025517985 0.069683731 0.030152589
0.028437749 0.07478074 0.0072777569
-0.044200495 0.075772271 0.0092432797
-0.040615324 0.071324468 0.023297936
-0.040071495 0.072128691 0.027007461
-0.038915884 0.071844704 0.028250784
-0.038028978 0.0720549 0.029203862
-0.03672697 0.071468696 0.03013429
-0.035791676 0.071583353 0.030562371
-0.035081118 0.072166868 0.030601323
-0.034049269 0.072104327 0.030415416
-0.033159092 0.072347112 0.030378371
-0.031938482 0.07186158 0.03033331
-0.030860944 0.071677029 0.030478925
-0.030115094 0.07227622 0.030478925
-0.029375084 0.072931238 0.030562699
-0.027626075 0.071038477 0.030639023
-0.026883123 0.071688324 0.030440927
-0.02596944 0.071915373 0.030364305
-0.024839686 0.071538292 0.030410379
-0.024068164 0.072204493 0.030467361
-0.023104424 0.072326884 0.030493885
-0.021843176 0.071486756 0.030467361
-0.020939853 0.071793772 0.030372262
-0.020152571 0.072549254 0.030449092
-0.018997993 0.071992397 0.030693531
-0.017945074 0.071780294 0.030935347
-0.01699069 0.071960568 0.030718327
-0.015987078 0.071941845 0.030665249
-0.014838163 0.071223177 0.030647278
-0.014076875 0.072395347 0.030629218
-0.012911823 0.071511626 0.030546844
-0.011890713 0.071344279 0.030763894
-0.010872205 0.07116352 0.030906349
-0.0098868497 0.071185313 0.031290829
-0.0089380946 0.071504757 0.031359673
-0.0079933805 0.071940422 0.031337529
-0.0070256069 0.072263382 0.031270117
-0.0059523401 0.071428083 0.031435013
-0.0050048535 0.072069883 0.031451613
-0.003974468 0.071540423 0.031394511
-0.0029927958 0.071827091 0.031368166
-0.0019987081 0.07195349 0.031606793
-0.00099882309 0.071915254 0.032261133
0 0.070995145 0.032176495
0.00099222176 0.071439967 0.032081276
0.0019713433 0.070968352 0.032067329
0.0029936959 0.071848698 0.032141507
0.0039394232 0.070909612 0.03240636
0.0049904515 0.071862504 0.032478154
0.0059696217 0.071635455 0.03254053
0.0069542038 0.071528949 0.032765269
0.007961221 0.071650982 0.03274402
0.0090363687 0.07229095 0.032716453
0.0099492418 0.071634538 0.032593459
0.010829312 0.070882767 0.032641858
0.012028919 0.072173513 0.033143431
0.012861139 0.071230926 0.032919109
0.013890469 0.071436696 0.033254474
0.014812975 0.071102276 0.033379793
0.015737625 0.070819303 0.033323437
0.01681537 0.071218036 0.033377707
0.017902987 0.071611948 0.033453345
0.018833984 0.071370877 0.033684611
0.019770162 0.071172588 0.033824593
0.020807704 0.071340695 0.03431195
0.021617746 0.070748985 0.033490926
0.022714434 0.071106054 0.033453345
0.023868313 0.071604937 0.032472372
0.024567151 0.070753388 0.032259643
0.025452482 0.070483789 0.031052649
0.027998675 0.074663125 0.013750851
-0.044045985 0.076556124 0.010576427
-0.040972076 0.072950289 0.025767177
-0.040431373 0.073787257 0.028235465
-0.039842106 0.074576251 0.029352218
-0.038942952 0.074811459 0.030399591
-0.037990764 0.074954748 0.030929893
-0.036935512 0.074897021 0.031790763
-0.035699636 0.074459247 0.03116402
-0.033806808 0.07258521 0.031311899
-0.032967072 0.072927162 0.031277478
-0.031444248 0.071732201 0.031774759
-0.031069987 0.073164806 0.031355768
-0.029947618 0.072872542 0.031311899
-0.02880181 0.072501108 0.031455398
-0.027615691 0.071998052 0.031573027
-0.027129948 0.073351346 0.031417072
-0.025592336 0.071855411 0.031417072
-0.0251252 0.073365584 0.031649143
-0.023895249 0.072681382 0.03170079
-0.023030959 0.073098265 0.03160587
-0.02211562 0.073383652 0.031530678
-0.020825021 0.072391741 0.031419426
-0.019930465 0.07274621 0.031477839
-0.019012449 0.073047839 0.031462461
-0.017953398 0.072811015 0.031384081
-0.016827365 0.072258696 0.03151527
-0.01597432 0.072882839 0.03151527
-0.014850546 0.072272658 0.031582892
-0.013864242 0.072292119 0.031928241
-0.012956047 0.072753191 0.031648338
-0.011853124 0.07210651 0.031829596
-0.011087743 0.073582299 0.032032698
-0.010028235 0.073206119 0.032155663
-0.0089536048 0.072623692 0.032211453
-0.0079706851 0.072732501 0.03219524
-0.0069839018 0.072832122 0.032118022
-0.0059529687 0.072427787 0.032087713
-0.0049690693 0.072548419 0.032273978
-0.0039854408 0.072734296 0.032367408
-0.0029621513 0.072079018 0.032270968
-0.0019998709 0.07299529 0.032769471
-0.00099184667 0.072404809 0.032656342
0 0.072536394 0.032638997
0.0010005443 0.07303974 0.032612771
0.0019640005 0.071686022 0.032685518
0.0029749277 0.072389916 0.032742262
0.0039523309 0.072130047 0.033604234
0.004960672 0.07242582 0.03360936
0.0059277778 0.0721213 0.033707231
0.0069011943 0.071969606 0.033999354
0.0079404581 0.07245668 0.033864111
0.0088936947 0.072137751 0.033956498
0.0098915109 0.072208032 0.033849895
0.010926142 0.072509862 0.034139395
0.011853844 0.072110884 0.034173012
0.012790034 0.071820959 0.033867568
0.014006921 0.07303609 0.033854008
0.014806488 0.072058246 0.033924192
0.015734566 0.071788967 0.03387484
0.016930271 0.072700582 0.033978462
0.017913487 0.072649144 0.033951789
0.018713031 0.07189744 0.03421998
0.019686023 0.071853988 0.035008222
0.020560838 0.071473397 0.035601109
0.021597749 0.071665265 0.034604788
0.022616347 0.071782321 0.033716559
0.02361357 0.07182461 0.033103198
0.024285499 0.070913658 0.032810718
0.025340198 0.071147479 0.031889141
0.027970284 0.075623363 0.01435259
-0.043575738 0.076776303 0.013996571
-0.040352371 0.072831102 0.026725769
-0.039590131 0.073241748 0.029318541
-0.038358115 0.072782069 0.030287713
-0.037306063 0.072648652 0.031158835
-0.036632959 0.073265918 0.032261014
-0.03546362 0.072897449 0.032629907
-0.034904025 0.073797084 0.032619148
-0.033761423 0.073480748 0.032425225
-0.032562036 0.073017903 0.03233403
-0.031657983 0.073209085 0.032404035
-0.030796794 0.073514931 0.032049716
-0.029640188 0.073112465 0.031813145
-0.029066579 0.074169897 0.032050848
-0.028077466 0.074204735 0.031938076
-0.026775502 0.07338471 0.031783432
-0.025931055 0.073803775 0.031926215
-0.02498541 0.073956817 0.032031566
-0.023837263 0.073498234 0.032057375
-0.022923006 0.073752284 0.032013834
-0.021808146 0.073354676 0.032006472
-0.020795671 0.073279992 0.032095909
-0.019949179 0.073811963 0.032555372
-0.018916398 0.073674396 0.032902867
-0.018002583 0.074010618 0.032784253
-0.016965536 0.073849984 0.033145666
-0.015748676 0.072837628 0.033185601
-0.014774753 0.072888784 0.03343609
-0.01377252 0.072797611 0.033077449
-0.01293004 0.073601775 0.032941133
-0.011885981 0.073296882 0.033133358
-0.010992496 0.073949523 0.033149511
-0.0098799253 0.073111452 0.032972157
-0.008929668 0.073421724 0.032935739
-0.0079810526 0.073824733 0.032850951
-0.00696863 0.073668376 0.032850951
-0.0059870151 0.073839858 0.033000797
-0.0049587684 0.073389776 0.032850951
-0.0039678426 0.073405087 0.032923728
-0.0029682103 0.073215857 0.03295669
-0.0019826738 0.073358931 0.033138871
-0.00099302491 0.07348384 0.03399539
0 0.072707601 0.033813477
0.00098816818 0.073124453 0.0338687
0.0019663654 0.072755523 0.033942729
0.0029772036 0.073437698 0.034002513
0.0039769555 0.073573679 0.034018815
0.0049866471 0.073802382 0.033972561
0.0059719072 0.073653527 0.034018815
0.0069027459 0.072971888 0.034096926
0.0078860968 0.072946399 0.034155935
0.0088789565 0.07300476 0.034182489
0.009907498 0.073315486 0.034138292
0.010835583 0.072893932 0.034456521
0.01184283 0.073030785 0.034615695
0.012739951 0.07251972 0.034610271
0.013870672 0.073316418 0.034340203
0.014796322 0.072995193 0.035079956
0.015895341 0.073515952 0.03497526
0.016744543 0.072888009 0.035101086
0.017827915 0.073292546 0.034906119
0.018792359 0.073191293 0.035523891
0.019619808 0.072593294 0.035600305
0.020785613 0.073244542 0.0360699
0.02188981 0.073629364 0.035097003
0.022837641 0.073477633 0.03498587
0.0234609 0.072337776 0.034195036
0.024413887 0.072265111 0.033174455
0.025576346 0.072794221 0.032536328
0.027684923 0.075877197 0.018399
-0.043143209 0.077041447 0.015007526
-0.040747568 0.074538231 0.028192759
-0.039901718 0.074815728 0.030339599
-0.038494572 0.07402803 0.031555206
-0.037758801 0.074523948 0.032569438
-0.036550362 0.074088566 0.033133537
-0.035806689 0.074597277 0.033579379
-0.034679446 0.074313104 0.033475339
-0.033730093 0.07440462 0.033355474
-0.032787975 0.074518129 0.033033878
-0.031984143 0.074962839 0.033091277
-0.030894171 0.074743964 0.032937467
-0.030102087 0.075255223 0.032937467
-0.028861137 0.07464087 0.032704026
-0.027972817 0.074927196 0.032601744
-0.0266521 0.074033611 0.032704026
-0.025759265 0.074305579 0.032704026
-0.024567446 0.073702335 0.032875448
-0.023850983 0.074534327 0.033280581
-0.0226884 0.073983915 0.033377439
-0.021698305 0.073971495 0.03305319
-0.020731039 0.074039429 0.033384472
-0.019900721 0.074627705 0.033918381
-0.018814635 0.074268289 0.033867002
-0.017941691 0.074757047 0.033904374
-0.016993543 0.074971519 0.033740669
-0.015689861 0.073546223 0.033925861
-0.014777099 0.073885493 0.034402341
-0.013814964 0.07400874 0.034016788
-0.012870499 0.074252881 0.033952802
-0.011928082 0.074550517 0.034146696
-0.010757562 0.073347017 0.034309596
-0.0098035876 0.073526911 0.034161478
-0.0089337416 0.074447848 0.033911914
-0.0079031624 0.07409215 0.033698738
-0.0070313504 0.075335898 0.033787668
-0.0059958277 0.074947849 0.034221858
-0.0049601332 0.074402004 0.033971012
-0.0039552702 0.074161313 0.033911914
-0.0029550088 0.073875226 0.034683168
-0.0019700357 0.073876336 0.034685522
-0.00098850275 0.07413771 0.034800917
0 0.074016571 0.034463018
0.00098119117 0.07358934 0.034686953
0.001969676 0.073862851 0.034709305
0.002954829 0.073870733 0.034766823
0.0039466405 0.073999509 0.034772813
0.0049688225 0.074532345 0.034779906
0.0058908393 0.073635496 0.034885675
0.0069273249 0.074221343 0.034961909
0.0078777559 0.07385397 0.034991324
0.0088458434 0.073715366 0.035425365
0.0098808752 0.074106567 0.035408378
0.010820167 0.073773868 0.03550303
0.011799406 0.073746294 0.035653919
0.012754471 0.073583491 0.035653919
0.013725242 0.073528081 0.035598993
0.01467738 0.0733869 0.035685927
0.015795259 0.074040279 0.035767317
0.016548702 0.073008984 0.036208838
0.01771214 0.073800586 0.036027253
0.018826008 0.074313194 0.036427945
0.019195581 0.071983434 0.036393821
0.020545019 0.073375069 0.036867678
0.021475805 0.073212974 0.036050171
0.022272782 0.07262864 0.035514712
0.023500636 0.073439494 0.035066813
0.024564456 0.073693365 0.034757674
0.025176125 0.072623439 0.032661259
0.027633773 0.076760478 0.019060999
-0.043686867 0.079052426 0.015267491
-0.040350419 0.074795894 0.029359311
-0.039788336 0.075597838 0.031171113
-0.038502779 0.075031057 0.032815576
-0.037653357 0.075306714 0.033652097
-0.036538266 0.075051568 0.034283638
-0.035706729 0.075380877 0.034783959
-0.034753587 0.075464934 0.034783959
-0.033718895 0.075371645 0.034637839
-0.032782987 0.07550022 0.034567446
-0.031212896 0.074130632 0.034677744
-0.030535769 0.074861884 0.034373164
-0.029495213 0.07472121 0.034288287
-0.028579468 0.074897915 0.034505308
-0.027384499 0.074329354 0.034677744
-0.02659644 0.074864052 0.034350872
-0.025864156 0.075602919 0.034336597
-0.024759589 0.075269148 0.034518808
-0.023824371 0.075443842 0.034637421
-0.022858301 0.075531781 0.03459242
-0.021920057 0.075723834 0.034133762
-0.020893734 0.075615421 0.03459242
-0.019726541 0.074960858 0.034757346
-0.018770836 0.075083345 0.034713805
-0.017823657 0.075255446 0.034760356
-0.016729411 0.074790306 0.034597397
-0.01571816 0.074661262 0.034988612
-0.014727274 0.074618191 0.035006464
-0.01383634 0.075111561 0.034747869
-0.012828837 0.074999362 0.034648031
-0.011850799 0.075055063 0.035029501
-0.0108574 0.075014763 0.03500846
-0.009831463 0.074719116 0.034731716
-0.0089237439 0.075356066 0.03480953
-0.0080193486 0.076183811 0.034626067
-0.0069728056 0.075704746 0.034630477
-0.0059165475 0.074942939 0.035015345
-0.0049375081 0.07505013 0.034901023
-0.0039237575 0.074551396 0.03509739
-0.002933895 0.074325338 0.035408318
-0.0019939381 0.075769648 0.035402387
-0.00097846787 0.074363559 0.035286576
0 0.074618734 0.035264075
0.0009788872 0.074395426 0.035395533
0.0019548812 0.074285492 0.035368323
0.0029718131 0.075285934 0.035396844
0.0039553856 0.075152323 0.035539538
0.0048665274 0.073971219 0.035643846
0.005905766 0.07480637 0.035653919
0.0068663121 0.074548535 0.035789728
0.0079033971 0.075082272 0.035901815
0.0089005679 0.075160354 0.036645055
0.0098488294 0.074851103 0.036573559
0.010748055 0.074259289 0.036955923
0.011795472 0.074704662 0.037034541
0.012744775 0.074507914 0.037119478
0.013639372 0.074042305 0.037146419
0.014769478 0.074832022 0.037153572
0.015577374 0.073992528 0.037625939
0.016410941 0.07336656 0.037653714
0.017809654 0.075196318 0.037563354
0.018786753 0.07514701 0.038063139
0.019469263 0.0739832 0.037983924
0.020687699 0.074869767 0.0381293
0.021467365 0.074159987 0.037828028
0.022331448 0.073790871 0.036942691
0.023431126 0.074198566 0.035918295
0.024771547 0.075305499 0.035452783
0.025349671 0.074099042 0.033865303
0.027526023 0.077480659 0.020709753
-0.043546859 0.079835907 0.01881671
-0.040512752 0.076084919 0.030031443
-0.039336346 0.075722471 0.032506615
-0.038092338 0.075207949 0.033489883
-0.037117351 0.075211473 0.034700036
-0.036523756 0.076008894 0.034975022
-0.035387639 0.075690225 0.035594493
-0.034395251 0.075669549 0.035556555
-0.033228725 0.075253293 0.035506994
-0.032592691 0.076049611 0.035244226
-0.031263534 0.075227879 0.035470784
-0.030543979 0.075867303 0.0355573
-0.029035615 0.074524745 0.035494119
-0.028841749 0.076579809 0.035500973
-0.027510757 0.075654581 0.035510898
-0.026642298 0.075979881 0.035304755
-0.025552426 0.075674489 0.035221964
-0.024906585 0.076712281 0.035371274
-0.023713006 0.076079227 0.035387754
-0.022758421 0.076191232 0.035393298
-0.02173372 0.076068021 0.035280138
-0.020607863 0.075562164 0.035520703
-0.01983827 0.07637734 0.035647452
-0.018806521 0.0762159 0.035862982
-0.017794997 0.076123044 0.035790503
-0.016878329 0.076448895 0.035704046
-0.015583605 0.074996099 0.036019236
-0.01475729 0.075754091 0.035942346
-0.013784727 0.075815998 0.035643607
-0.012792585 0.075771466 0.035398334
-0.01179722 0.07569883 0.035531282
-0.010857662 0.076003641 0.035709143
-0.0098676356 0.075980797 0.035540819
-0.0089120893 0.076247878 0.035678029
-0.0078470726 0.075528078 0.035791487
-0.0068983482 0.075881831 0.036014527
-0.0058901114 0.075589761 0.036190957
-0.0048891306 0.075292617 0.036182076
-0.0039475742 0.075990804 0.036289066
-0.0029523009 0.07577572 0.036653906
-0.0019671523 0.075735368 0.036404729
-0.0009838246 0.075754493 0.036586761
0 0.07549192 0.03642416
0.00098532147 0.075869754 0.0364317
0.0019509859 0.075112954 0.036346734
0.0029575098 0.075909421 0.0364317
0.0038982385 0.075041093 0.036753863
0.0048945192 0.075375594 0.03677702
0.0059317811 0.076124527 0.036984175
0.0069193016 0.076112323 0.037200779
0.0077982228 0.075057894 0.037369192
0.0087369941 0.074749842 0.037806153
0.0098341145 0.075722679 0.037899375
0.010783921 0.07548745 0.038562804
0.011693799 0.075035207 0.039123356
0.012558409 0.074384421 0.039304495
0.013637278 0.075005032 0.039235234
0.01455355 0.074708223 0.039097726
0.015661145 0.075369261 0.039331555
0.016614921 0.075255826 0.039533734
0.017483821 0.074791908 0.039230943
0.018664468 0.075640216 0.039677978
0.019326344 0.07440643 0.039675236
0.020350438 0.074618272 0.03983289
0.02152721 0.075345233 0.039091259
0.022207059 0.074345373 0.0381293
0.023360109 0.074947014 0.037169009
0.02447778 0.075391561 0.036858231
0.025156252 0.074501209 0.035054296
0.026645524 0.07598909 0.02806142
-0.041916497 0.077844925 0.018866211
-0.040403694 0.076865561 0.030559957
-0.039442051 0.076912001 0.033794463
-0.038209483 0.076418966 0.034565389
-0.037294913 0.076552719 0.035025835
-0.036235597 0.076388553 0.035784304
-0.035405587 0.076712109 0.03636992
-0.034577582 0.077058613 0.036507338
-0.033558052 0.076986119 0.036495835
-0.032264575 0.076261722 0.036247075
-0.03154688 0.076895513 0.036471128
-0.030540902 0.076844849 0.036544681
-0.029808212 0.077501349 0.036604524
-0.028656963 0.077077344 0.036626399
-0.027375935 0.076261535 0.036650181
-0.026883062 0.077662177 0.036554247
-0.025273452 0.075820357 0.036381453
-0.024533601 0.076544836 0.036474645
-0.023661826 0.076900937 0.036317706
-0.022735462 0.07710287 0.036364287
-0.021458028 0.07607846 0.036365032
-0.020735081 0.077016011 0.036474645
-0.01970111 0.076834336 0.036509037
-0.018839788 0.077342287 0.03640154
-0.017715676 0.076767929 0.036312163
-0.016700702 0.076626748 0.036010444
-0.015728479 0.076676339 0.036470175
-0.014709144 0.076487549 0.036458552
-0.013539646 0.075435169 0.036423773
-0.012818503 0.076911017 0.036171585
-0.011889349 0.077280767 0.036534697
-0.010800609 0.076586142 0.036736786
-0.0097840568 0.076315649 0.036833167
-0.0087754596 0.076053984 0.03705585
-0.0077778301 0.075833842 0.037106693
-0.0068670646 0.076518722 0.037086934
-0.0059361937 0.077170521 0.037319988
-0.0048808646 0.076141492 0.037184983
-0.0039193998 0.076428294 0.037091345
-0.002944639 0.076560609 0.03722766
-0.0019726979 0.076935217 0.037238806
-0.00098653731 0.076949909 0.03747192
0 0.075960487 0.03742978
0.00098139048 0.076548457 0.037661582
0.0019594117 0.076417051 0.037571907
0.0029090899 0.075636342 0.037712485
0.0039172452 0.076386288 0.037844896
0.004918267 0.076724969 0.038032174
0.0058216564 0.075681537 0.038234293
0.0068096789 0.075879276 0.038917392
0.0077964989 0.076015867 0.039320976
0.0087512266 0.075843967 0.039479315
0.0098073902 0.076497644 0.039599836
0.010659119 0.075582847 0.039759338
0.011624455 0.07555896 0.03998819
0.012721299 0.076327793 0.040322721
0.013622547 0.075897045 0.040372461
0.014539589 0.075605862 0.040402681
0.015469178 0.075412236 0.040521115
0.016406924 0.075278826 0.040809512
0.017521957 0.075928479 0.040530324
0.018338863 0.075285859 0.040655136
0.019407012 0.075687341 0.040628374
0.020160222 0.074880823 0.040915281
0.021329181 0.075621642 0.040542811
0.022302549 0.075634733 0.039705396
0.02320442 0.07541436 0.038356006
0.024240894 0.075631589 0.037931442
0.025158536 0.075475603 0.035927445
0.027029788 0.078086048 0.030516058
-0.042079352 0.079149254 0.026049852
-0.040494617 0.078026205 0.033425897
-0.039164029 0.077348955 0.034510016
-0.038577113 0.078143381 0.034761012
-0.037356667 0.077662542 0.035725117
-0.036450073 0.077825822 0.036376745
-0.035635691 0.078200549 0.036676794
-0.034490444 0.077849858 0.037018716
-0.03341867 0.077649266 0.037007213
-0.032304529 0.077335082 0.036668658
-0.031455733 0.077656344 0.037024558
-0.030397126 0.077463642 0.03723976
-0.029588388 0.077916086 0.03723976
-0.028094957 0.076534532 0.03739661
-0.027448287 0.077443384 0.037502825
-0.026485242 0.077493854 0.037336528
-0.025374871 0.077100568 0.037389666
-0.024639981 0.077862337 0.037371367
-0.023452908 0.077199154 0.037401676
-0.022459639 0.077143975 0.037394792
-0.021742286 0.078074574 0.037311196
-0.020653805 0.07769765 0.037286937
-0.019585477 0.077362634 0.037309468
-0.018576592 0.077239513 0.037371367
-0.017672902 0.077564403 0.037107468
-0.016728392 0.077737816 0.037141412
-0.015729668 0.07766524 0.037380189
-0.014662752 0.07722383 0.037593096
-0.013781843 0.077768967 0.037800729
-0.012705971 0.077213205 0.03763628
-0.011716552 0.077133968 0.037645251
-0.010723814 0.077016488 0.037778199
-0.0097435573 0.076974109 0.037939221
-0.0087691629 0.076973766 0.038092732
-0.0078492779 0.077511616 0.03815639
-0.0068533556 0.077345014 0.038259
-0.0058835065 0.077466168 0.038410753
-0.0049144491 0.07764829 0.038223505
-0.0039192238 0.07740467 0.038053423
-0.0029256616 0.077042423 0.037955105
-0.0019520257 0.077105016 0.038022339
-0.00098397769 0.077734239 0.038210005
0 0.076841295 0.038123369
0.00097901269 0.077342004 0.038734943
0.0019397029 0.076618262 0.038957149
0.0029590402 0.077921391 0.039243191
0.0039051068 0.077125862 0.03939563
0.0048997938 0.077416748 0.039460748
0.0058451057 0.076960564 0.03939563
0.0068211174 0.076981179 0.039818794
0.007808608 0.07711 0.040178657
0.0087411748 0.076728091 0.040243179
0.0096705994 0.076397732 0.0404149
0.010625147 0.076307878 0.040808499
0.011615381 0.076467924 0.040978014
0.012541967 0.076216571 0.041156679
0.013437005 0.075823098 0.041582763
0.014583844 0.076808237 0.041774124
0.015393977 0.076007761 0.041549712
0.016483521 0.076599889 0.041858792
0.017386762 0.076308571 0.04177326
0.018406289 0.07653141 0.042062879
0.019525727 0.07712663 0.042199671
0.020436767 0.07688117 0.042292982
0.021211378 0.076168127 0.041437089
0.022129957 0.076011583 0.040742695
0.023098907 0.076033905 0.040076733
0.023933936 0.075631231 0.038864464
0.025356242 0.077043965 0.037566215
0.026738267 0.078234181 0.031661302
-0.042359218 0.080684215 0.028749585
-0.039868109 0.077791423 0.033808231
-0.03924546 0.07849092 0.034804136
-0.038094588 0.07814274 0.035366803
-0.036900088 0.077684395 0.036401451
-0.03597232 0.077777982 0.037007213
-0.035374358 0.07860969 0.037389666
-0.034250982 0.078287959 0.037675381
-0.033333931 0.078432776 0.037817895
-0.032204624 0.078071818 0.037825286
-0.031360682 0.0784017 0.037919372
-0.030373441 0.078383066 0.037993282
-0.029164663 0.077772431 0.037861496
-0.028245909 0.077919744 0.037930876
-0.027201397 0.07771828 0.037993282
-0.026432373 0.078318134 0.037911475
-0.025477599 0.07839261 0.037930876
-0.024675995 0.078963175 0.038196564
-0.023511931 0.078373104 0.038312584
-0.022678236 0.078880817 0.038218647
-0.021378595 0.077740341 0.038180441
-0.020552421 0.078294933 0.038127244
-0.019672887 0.07869155 0.038107991
-0.018650575 0.078528732 0.03845349
-0.017522546 0.077877983 0.038521469
-0.016643226 0.078321062 0.038312107
-0.01568584 0.078429192 0.038439959
-0.0147651 0.078747198 0.038396448
-0.013683241 0.078189947 0.038682491
-0.012624546 0.077689514 0.0389871
-0.011738929 0.078259528 0.0389871
-0.010762744 0.078274496 0.039120048
-0.0095984358 0.076787487 0.038787574
-0.0087757353 0.078006536 0.03920421
-0.0077895741 0.077895738 0.039148659
-0.0067927497 0.077631421 0.039158225
-0.0058717271 0.078289695 0.039459825
-0.0048878868 0.078206189 0.039376825
-0.0038936746 0.077873491 0.039352357
-0.0029269541 0.078052104 0.039210439
-0.0019637686 0.078550741 0.039212316
-0.0009751367 0.078010932 0.039287567
0 0.07824555 0.039704651
0.00097860466 0.078288369 0.039833695
0.0019571916 0.078287661 0.039863259
0.0029093756 0.07758335 0.039937645
0.0038322117 0.076644234 0.039938569
0.0048152455 0.077043928 0.040015936
0.005863477 0.078179695 0.040962219
0.0067734998 0.077411421 0.041237563
0.0077584884 0.077584885 0.041489005
0.008594431 0.076394945 0.041791528
0.0096348971 0.077079177 0.041823298
0.010723952 0.07799238 0.042221814
0.011685858 0.077905715 0.042247653
0.012641638 0.077794693 0.042566746
0.013545204 0.077401161 0.042586446
0.014491738 0.077289268 0.042903304
0.01551664 0.077583194 0.042677999
0.01639949 0.077174067 0.042476088
0.017296754 0.076874457 0.042427242
0.018407725 0.077506207 0.042845726
0.018989692 0.075958766 0.042882055
0.020147391 0.076751962 0.042915136
0.020963525 0.076231003 0.042364985
0.022352828 0.077748962 0.041954488
0.022943223 0.076477408 0.040950358
0.023840481 0.076289535 0.040362209
0.024810484 0.076339945 0.038873971
0.026303504 0.077936307 0.034089178
-0.042408869 0.081788525 0.030180156
-0.040373195 0.079761669 0.034423113
-0.03915054 0.07927984 0.035366803
-0.038145944 0.079226188 0.036095321
-0.037511013 0.079957686 0.036908239
-0.036347058 0.079570584 0.037534773
-0.035346672 0.079530008 0.038015664
-0.034605507 0.080087028 0.038168788
-0.033168089 0.079018086 0.038472503
-0.032527264 0.079839647 0.038133949
-0.031360865 0.079382189 0.038202345
-0.030366231 0.079344019 0.03864944
-0.02938845 0.07934881 0.038648039
-0.028311845 0.079077907 0.03869617
-0.027084803 0.078352466 0.038840115
-0.026400326 0.079200976 0.038875937
-0.025266843 0.078715935 0.03869617
-0.024268923 0.078631312 0.038987428
-0.023368878 0.078869961 0.038987428
-0.022391463 0.078856885 0.038944781
-0.021464128 0.079027012 0.039046377
-0.020537497 0.079216063 0.039254636
-0.019466417 0.078838989 0.039325744
-0.018585999 0.079235047 0.039492249
-0.017631233 0.07934054 0.039563328
-0.016597638 0.079082854 0.03971839
-0.015564567 0.078795619 0.039596528
-0.014453389 0.078048296 0.039783299
-0.013448355 0.077808335 0.039520741
-0.012531478 0.078080744 0.039557129
-0.0116286 0.078493051 0.039809644
-0.010710887 0.078871079 0.039670646
-0.0096732583 0.07835339 0.039710283
-0.0087252501 0.078527249 0.039773792
-0.0077905906 0.078879729 0.039750874
-0.0068923626 0.079754479 0.039922684
-0.0058653038 0.079181604 0.040018529
-0.0048556454 0.078661457 0.039954066
-0.0039104377 0.079186358 0.039961874
-0.0029122722 0.078631349 0.040042043
-0.0019414246 0.078627691 0.04007259
-0.00097352988 0.078855917 0.040090472
0 0.078807741 0.040218949
0.00096289214 0.077994265 0.040942669
0.0019142927 0.077528849 0.040900558
0.0028493439 0.076932281 0.041321218
0.0038131487 0.07721626 0.041803807
0.0048335353 0.07830327 0.042104393
0.0057344381 0.077414915 0.042325616
0.0068128896 0.078834862 0.042471498
0.007712197 0.078085989 0.042684853
0.0087499861 0.078749873 0.042785197
0.0097515238 0.078987345 0.042921335
0.010743087 0.079108186 0.043009907
0.011551898 0.07797531 0.043396473
0.012634756 0.078724243 0.043695301
0.013594688 0.078654975 0.043445528
0.014299305 0.077216245 0.043453336
0.015421247 0.078070059 0.043457955
0.016283976 0.07758835 0.043167114
0.017269064 0.077710785 0.043328583
0.0185463 0.0790658 0.043583095
0.019278988 0.078079902 0.043563813
0.02007501 0.077432178 0.043929338
0.021243565 0.078214943 0.043520898
0.021955051 0.077319957 0.042711347
0.022912124 0.077328421 0.042063177
0.024136202 0.078201286 0.040983379
0.0247148 0.076996103 0.039698273
0.026434138 0.079302408 0.037272274
-0.04192416 0.081851937 0.030063689
-0.040219627 0.080439255 0.035030276
-0.039264746 0.080492735 0.036095321
-0.038285155 0.080496997 0.036544383
-0.037312027 0.080515429 0.037707686
-0.036109317 0.080026053 0.037901282
-0.035211705 0.08020445 0.038262218
-0.034267921 0.080284849 0.038433582
-0.033012327 0.07961797 0.03905642
-0.03245252 0.080639601 0.039013863
-0.031113138 0.079727426 0.039369404
-0.030074503 0.079551913 0.039426148
-0.029440284 0.080470115 0.039374709
-0.027930023 0.078974552 0.039597124
-0.026923118 0.078846283 0.039708704
-0.026223328 0.079641223 0.040022165
-0.025394032 0.080088876 0.040022165
-0.024510494 0.080394417 0.040136635
-0.02353495 0.080411084 0.040049583
-0.022417584 0.079923563 0.040163457
-0.021313254 0.079440318 0.040256053
-0.020646494 0.080619648 0.040205479
-0.019425897 0.079646185 0.040370524
-0.018514577 0.079905018 0.040442765
-0.017472247 0.079595797 0.040553749
-0.01641807 0.079193048 0.040703356
-0.015528318 0.079582632 0.040758193
-0.01458064 0.079707503 0.040652841
-0.013587214 0.079582259 0.040457249
-0.012521476 0.078981623 0.040476263
-0.011637249 0.079521209 0.040480912
-0.010738495 0.080050603 0.040480912
-0.009716901 0.079678595 0.040551007
-0.0087849442 0.080040611 0.040619731
-0.0077480823 0.079417847 0.040795535
-0.0067372331 0.078921877 0.040733427
-0.0057889731 0.079115964 0.040806442
-0.0049022492 0.080396898 0.040664941
-0.0038729261 0.079394989 0.040682673
-0.0028854026 0.078867681 0.041104645
-0.001934024 0.079294987 0.041154951
-0.00097406929 0.079873689 0.041095585
0 0.078399584 0.041306794
0.00097335246 0.079814903 0.042042315
0.0018986623 0.077845156 0.042453587
0.0029183745 0.079768911 0.042516112
0.0038925179 0.07979662 0.04284057
0.0047738324 0.078290857 0.043307394
0.0057459697 0.078528255 0.043498874
0.0067698434 0.079303883 0.043640018
0.0076835826 0.07875672 0.043877244
0.0086478898 0.078791894 0.043899506
0.0096350908 0.079007752 0.043934733
0.010519113 0.078415215 0.04399997
0.011611456 0.079344951 0.043936729
0.012432996 0.078423515 0.044131041
0.013523694 0.079210214 0.044108361
0.014314706 0.078253731 0.044097632
0.015300074 0.078412876 0.043987244
0.016189788 0.078091927 0.044101745
0.017331531 0.078954764 0.044239581
0.01805996 0.07794299 0.044634461
0.019023776 0.077997491 0.044715524
0.020274429 0.079166822 0.04538399
0.020842165 0.07768444 0.044578135
0.021877138 0.077996753 0.044195533
0.022953911 0.078425869 0.043034017
0.02403501 0.078834832 0.042760313
0.024972454 0.078759283 0.041153073
0.026202409 0.079577684 0.037566215
-0.041367348 0.08174976 0.03366068
-0.039888181 0.080749243 0.035324544
-0.039005458 0.080936328 0.036717057
-0.038029969 0.080935583 0.037045479
-0.037015878 0.080850475 0.038143635
-0.036087207 0.080952391 0.03927806
-0.034922518 0.080515817 0.039608687
-0.034267757 0.081263542 0.039675623
-0.033008259 0.080578983 0.039753318
-0.032026138 0.080550589 0.039810717
-0.030690245 0.079602823 0.040681332
-0.030129848 0.080670238 0.040890038
-0.029131064 0.080595948 0.040767521
-0.02830142 0.081000611 0.040663838
-0.027128348 0.08041618 0.040727675
-0.026509598 0.081492469 0.040612608
-0.025502363 0.081411391 0.040667266
-0.024546094 0.081493028 0.04080686
-0.023343118 0.080728285 0.040866882
-0.022557346 0.0814026 0.04096067
-0.021339471 0.080508009 0.040961742
-0.02031702 0.080300599 0.040918112
-0.019492645 0.080894485 0.04103899
-0.018268615 0.079805002 0.041208297
-0.017394913 0.080209881 0.041163176
-0.016409965 0.080119245 0.041404039
-0.015407063 0.079924144 0.041448593
-0.014700524 0.081342898 0.041325897
-0.013489448 0.079973161 0.041210294
-0.012495898 0.079781502 0.041253299
-0.011633649 0.080466069 0.041278869
-0.010707584 0.080793597 0.04125759
-0.0097204559 0.080679789 0.041147649
-0.0087720072 0.080897406 0.041269362
-0.0077361343 0.0802624 0.041219264
-0.0067723473 0.080300689 0.041432142
-0.0058455695 0.080863714 0.041309327
-0.004859529 0.080668181 0.041553348
-0.0038733997 0.080373049 0.041855246
-0.0029000954 0.080235973 0.042029709
-0.0019472771 0.080812007 0.042089194
-0.00096445298 0.080049597 0.042423636
0 0.080366984 0.042506099
0.00096391566 0.080005005 0.042982191
0.0019321125 0.080182672 0.043466866
0.0028651697 0.0792697 0.043894887
0.0038218182 0.079302728 0.043966234
0.0047607264 0.079028063 0.043814331
0.0057925582 0.080130391 0.043915123
0.006682924 0.079240389 0.043967903
0.0076654591 0.079529136 0.044179231
0.0085936561 0.079252608 0.044083685
0.0096046645 0.079718724 0.044355601
0.010660973 0.080441892 0.044436812
0.011551293 0.07989645 0.044337809
0.012580455 0.080321372 0.044576317
0.013481094 0.07992363 0.044466466
0.014400713 0.079683945 0.044455737
0.015394654 0.079859771 0.045003146
0.016381571 0.079980619 0.045111537
0.017305801 0.079798974 0.045395434
0.018187027 0.079448596 0.045778692
0.019115768 0.079330444 0.045764029
0.0197761 0.078162685 0.046084642
0.020843692 0.07863757 0.045705289
0.021762155 0.078532994 0.045094758
0.022766657 0.078734688 0.044719428
0.02402466 0.07976187 0.043968886
0.024774253 0.079087041 0.04209736
0.026221676 0.080607377 0.03904137
-0.041481514 0.082963027 0.034253985
-0.040477041 0.082928576 0.036035389
-0.039157186 0.082230091 0.036810398
-0.03797406 0.081790283 0.037688375
-0.037309118 0.082472786 0.039098769
-0.036086902 0.081927024 0.039377958
-0.035236888 0.082219414 0.040283561
-0.03459619 0.083030865 0.040850759
-0.033471067 0.082693227 0.040968418
-0.032177072 0.081905276 0.040967643
-0.031209946 0.081926107 0.041004509
-0.030410009 0.082401313 0.041372955
-0.029345112 0.082166314 0.041377991
-0.028128531 0.081475742 0.041418195
-0.026841467 0.0805244 0.041463643
-0.026253641 0.081677996 0.041418195
-0.024926048 0.080530316 0.041397572
-0.024249455 0.081478171 0.041408241
-0.023278588 0.081475064 0.041801035
-0.022317259 0.081506506 0.041850418
-0.021394379 0.081687629 0.041566581
-0.020216782 0.080867127 0.041846484
-0.019326763 0.081172407 0.041983604
-0.018293479 0.080876432 0.041902542
-0.017438812 0.081381135 0.042317659
-0.016515298 0.081604995 0.042342454
-0.015554884 0.081663139 0.042700022
-0.014570636 0.081595562 0.042219758
-0.013494401 0.080966413 0.042323977
-0.012612941 0.081499003 0.042027593
-0.011582028 0.081074201 0.042297065
-0.01058806 0.080854282 0.042215556
-0.0096911397 0.081405573 0.042064637
-0.0087504424 0.081670798 0.041984618
-0.0076726056 0.080562361 0.042085707
-0.0067297025 0.080756433 0.04211688
-0.0057502827 0.080503955 0.042556763
-0.0048254742 0.081067972 0.042479157
-0.0038810105 0.081501223 0.042596251
-0.002880207 0.0806458 0.042662889
-0.001919928 0.080636978 0.04327774
-0.00096414977 0.080988586 0.043347985
0 0.081695609 0.043679386
0.00096540287 0.081093848 0.044195801
0.0019040549 0.079970308 0.044422984
0.0028870096 0.080836274 0.044935435
0.003859529 0.081050113 0.045416355
0.0048389002 0.081293523 0.045568645
0.0057001617 0.079802267 0.045507014
0.0067363852 0.080836624 0.04557246
0.0076143751 0.079950936 0.045541108
0.0085888244 0.080162369 0.045659244
0.0095855482 0.080518603 0.045749962
0.010544753 0.080523573 0.045749962
0.01152906 0.080703422 0.045659244
0.012429178 0.080311611 0.045633823
0.013412576 0.080475457 0.045624405
0.014441826 0.080874227 0.045841545
0.015185664 0.079724744 0.046288311
0.016259873 0.080342904 0.046517134
0.017344382 0.080940455 0.046569675
0.018080551 0.079935074 0.046677738
0.019151531 0.080436438 0.047052324
0.019836323 0.079345293 0.047229916
0.020762512 0.079275049 0.046530813
0.022043191 0.080505565 0.046255976
0.022969771 0.080394201 0.045991659
0.023768486 0.079862118 0.045342356
0.024546692 0.079304695 0.043176264
0.026239172 0.081632979 0.039845258
-0.041398469 0.083782613 0.03457588
-0.039622199 0.082143582 0.036510289
-0.03881941 0.082491249 0.038004547
-0.037610013 0.081970543 0.038552493
-0.037159529 0.083120003 0.039667904
-0.035563309 0.081699491 0.040376306
-0.035097301 0.082868636 0.040905356
-0.033917416 0.082370862 0.041086197
-0.032898508 0.082246274 0.041405141
-0.032119714 0.082732603 0.041636407
-0.030823223 0.081874192 0.041732907
-0.030304383 0.08309266 0.041888237
-0.028962748 0.082061119 0.042393059
-0.028028117 0.082151376 0.042459071
-0.026907938 0.081684813 0.042420119
-0.026219539 0.082542993 0.042483687
-0.024995524 0.081716143 0.042510301
-0.024069063 0.081834815 0.042605102
-0.023102529 0.081821464 0.042814732
-0.022149874 0.081858225 0.043021679
-0.021424215 0.082775384 0.043110102
-0.02012278 0.081449345 0.043050736
-0.019210977 0.081646658 0.043054581
-0.018353304 0.082106888 0.043249428
-0.017415 0.082237504 0.043474525
-0.016400592 0.08200296 0.043486387
-0.015412579 0.081879333 0.043491513
-0.014455995 0.081917301 0.043209493
-0.01347674 0.081823066 0.043172956
-0.012555423 0.082093157 0.043002605
-0.011619819 0.082307056 0.043198973
-0.01061485 0.082023844 0.043253541
-0.0096641835 0.082145557 0.043145448
-0.0086478116 0.081673779 0.043115675
-0.0077374256 0.082210153 0.043147504
-0.0067542712 0.082016148 0.043273956
-0.0058400533 0.082734093 0.043510079
-0.0048403316 0.082285635 0.04345113
-0.0038341992 0.081476733 0.043628305
-0.0028944968 0.082010746 0.043786347
-0.0019437692 0.08261019 0.044436246
-0.0009671218 0.082205355 0.044643044
0 0.081445135 0.04483366
0.00095590885 0.081252255 0.045568317
0.001907029 0.081048727 0.045943797
0.0028819721 0.081655875 0.046515614
0.0038635426 0.08210028 0.046608329
0.0047496795 0.080744557 0.046616942
0.0057742135 0.081801362 0.046448946
0.0066862274 0.081189901 0.046641111
0.0076253172 0.081018999 0.046714127
0.0086295651 0.081501454 0.046943307
0.0096462946 0.081993513 0.046954423
0.010593207 0.081856601 0.046954423
0.01147459 0.081278346 0.046897709
0.012413602 0.081165865 0.046878159
0.013363244 0.081133984 0.046811879
0.014270925 0.080868579 0.046937317
0.015424023 0.081940122 0.047106415
0.016166573 0.080832861 0.0474419
0.01715008 0.080986492 0.047583729
0.018088413 0.080921851 0.047813058
0.018833289 0.080041483 0.047943115
0.020070244 0.081236698 0.048166186
0.020901419 0.080755487 0.047736943
0.02201291 0.081352055 0.047137916
0.022735277 0.080520779 0.046522319
0.023850283 0.081090957 0.046101153
0.02509612 0.082045011 0.044409871
0.026187399 0.082441814 0.039868981
-0.04129535 0.084557138 0.025865048
-0.039089009 0.081991576 0.035732955
-0.038420051 0.082603112 0.037173182
-0.037581712 0.082872495 0.038517833
-0.03649335 0.082590207 0.039790481
-0.035615582 0.082782164 0.040903091
-0.034716081 0.08293286 0.041263759
-0.033933476 0.083379395 0.04183206
-0.032772746 0.082895763 0.042162955
-0.031660251 0.082508542 0.042214006
-0.030843707 0.082892463 0.042426318
-0.029712215 0.082427435 0.042593181
-0.028423646 0.081481121 0.042666137
-0.028339792 0.084042139 0.042910546
-0.026667777 0.081908174 0.043029815
-0.025901048 0.082499631 0.043411672
-0.025097271 0.083014049 0.043468237
-0.024028551 0.082658209 0.043460011
-0.023193602 0.083110407 0.043981463
-0.022494519 0.08410994 0.044180453
-0.021117333 0.082549579 0.043815047
-0.020233801 0.082862236 0.044018596
-0.01940006 0.083420262 0.044121474
-0.018260222 0.082651533 0.044064462
-0.017340727 0.082850151 0.044041783
-0.016564362 0.083796181 0.043983132
-0.015359922 0.082559578 0.044021308
-0.014449514 0.082843877 0.043793827
-0.013602484 0.08355812 0.043701023
-0.012401844 0.08204297 0.043563128
-0.011479458 0.082269445 0.043844014
-0.010536013 0.082372464 0.043798149
-0.0094262296 0.081065573 0.044121087
-0.0086273048 0.082438692 0.044209182
-0.0077477787 0.083288617 0.044244826
-0.0067132702 0.082477316 0.04482767
-0.0058027366 0.08317256 0.044876367
-0.0048548477 0.08350338 0.044993609
-0.0038639531 0.083074987 0.044997513
-0.0029237778 0.083814964 0.0451307
-0.001923581 0.082713984 0.045297295
-0.00095893763 0.082468636 0.045852453
0 0.082043365 0.046603978
0.00095446664 0.082084134 0.047012985
0.0019067702 0.081991114 0.04704088
0.0028608278 0.082010403 0.047071218
0.0037897977 0.081480652 0.047071218
0.0048137172 0.08279594 0.047176987
0.0057991599 0.083121292 0.047096938
0.0066974154 0.082282536 0.047381818
0.007672918 0.082483873 0.04749614
0.0086112125 0.082284927 0.04746899
0.0095412489 0.082054742 0.047548741
0.010597631 0.082854211 0.047548741
0.011506629 0.082464181 0.047460347
0.012325935 0.081540801 0.047464132
0.013394793 0.082282305 0.047210306
0.014306536 0.082024142 0.047460347
0.015200756 0.081704065 0.047659308
0.0163578 0.082751222 0.047926575
0.017033063 0.081380196 0.048101544
0.01832924 0.082963929 0.04807061
0.019016607 0.081771411 0.048236102
0.019674946 0.080573581 0.048378527
0.021047924 0.082278244 0.047924846
0.02205098 0.082451493 0.047010571
0.02285653 0.081902571 0.04631412
0.023800952 0.081875272 0.045992851
0.024667254 0.081591681 0.04296273
0.026296141 0.083758079 0.039248735
-0.03944093 0.083691731 0.034641445
-0.03867792 0.084124483 0.037063003
-0.03759487 0.083865479 0.038187146
-0.036824111 0.084307827 0.039806604
-0.035426084 0.083299167 0.04105252
-0.034777351 0.084045261 0.041415483
-0.033857901 0.084161066 0.042074949
-0.032780163 0.083878651 0.042211682
-0.031981107 0.084313832 0.042328209
-0.030702423 0.083472215 0.04240793
-0.029801944 0.083637707 0.042749256
-0.028797677 0.08351326 0.042839199
-0.028206306 0.084618911 0.043083608
-0.026990285 0.08386267 0.043078154
-0.026149388 0.084259138 0.043444037
-0.02500088 0.083656788 0.043500185
-0.023937387 0.083302103 0.043560207
-0.023048906 0.083552286 0.044014364
-0.021980796 0.083144747 0.044180453
-0.021021379 0.083130002 0.04377386
-0.020109667 0.083311476 0.044018596
-0.019359119 0.084212177 0.044121474
-0.018292656 0.083761103 0.044118077
-0.017463582 0.084407307 0.044012606
-0.016199589 0.082903773 0.043983012
-0.015216734 0.082740992 0.043983012
-0.01437061 0.083349541 0.043769628
-0.01334787 0.082947478 0.043658972
-0.01238848 0.08290752 0.043614805
-0.011582167 0.083970711 0.043874115
-0.010468991 0.082800202 0.043894559
-0.0097108502 0.084484398 0.043996185
-0.0086046234 0.083178028 0.044247776
-0.0076870681 0.083596863 0.044312745
-0.006792374 0.084419504 0.044896692
-0.0057829404 0.083852634 0.044896692
-0.004852341 0.084430732 0.045046896
-0.0038755427 0.084293053 0.045189351
-0.0028829449 0.083605401 0.044988841
-0.0019066198 0.082937956 0.0451307
-0.00096672447 0.08410503 0.045330107
0 0.081990331 0.045860976
0.00094884972 0.082549922 0.046821952
0.0019042365 0.082834288 0.047103137
0.0028114477 0.081531979 0.047191709
0.0037859345 0.082344078 0.04723677
0.0047549307 0.082735799 0.047091097
0.0057085897 0.08277455 0.047360063
0.0067314892 0.083662793 0.047362894
0.0076379813 0.083063044 0.04746899
0.0086346455 0.083468243 0.047425359
0.009576234 0.083313234 0.047537029
0.010517473 0.083183654 0.047537029
0.011422078 0.082810067 0.047448635
0.012588219 0.084244236 0.047086328
0.013372046 0.083097711 0.047148854
0.014166081 0.082163274 0.047203422
0.015472983 0.08413434 0.04756555
0.016078144 0.08228226 0.047733754
0.017322149 0.083723724 0.048101544
0.018234983 0.083497025 0.048159391
0.01888898 0.082167059 0.048394531
0.019909732 0.082483172 0.048426151
0.020818496 0.082327686 0.047914535
0.021698939 0.082078591 0.046741545
0.022527859 0.081663489 0.046204537
0.023921033 0.083245195 0.045300275
0.024533976 0.082094461 0.041223109
0.025918232 0.083514303 0.0085775852
-0.040251434 0.086393319 0.013863713
-0.038297575 0.084254667 0.034934998
-0.037693344 0.085051648 0.037581205
-0.036672115 0.084924899 0.03997013
-0.035379224 0.084145173 0.040881157
-0.034983583 0.085515432 0.041643649
-0.033688761 0.08470317 0.042190462
-0.032821696 0.084950268 0.042374909
-0.031978242 0.085275315 0.042224199
-0.030374924 0.083531037 0.042291433
-0.029661307 0.084199831 0.042421669
-0.028868258 0.084680222 0.042706192
-0.027378559 0.083079763 0.04302749
-0.026984585 0.084808692 0.042851835
-0.025915999 0.084466957 0.043029815
-0.024850361 0.084108911 0.043217927
-0.023745138 0.083582886 0.043134868
-0.023002679 0.084343158 0.043477982
-0.022285262 0.085265353 0.044095784
-0.02119229 0.08476916 0.043815047
-0.020182882 0.084575877 0.044018596
-0.019092087 0.084005184 0.044121474
-0.018168975 0.084151044 0.044118077
-0.017363461 0.084888026 0.043891758
-0.016443014 0.085116774 0.043933302
-0.015385897 0.084622428 0.043933302
-0.014315811 0.083986089 0.043706357
-0.013441734 0.084490903 0.043804675
-0.012543743 0.084911488 0.043821275
-0.011443269 0.083917297 0.043866426
-0.010680935 0.085447483 0.044121087
-0.0095587382 0.084116898 0.044142485
-0.0086194258 0.084278837 0.044142485
-0.0076611484 0.084272631 0.044025928
-0.0066850483 0.084040605 0.044678599
-0.005762775 0.084520698 0.044678599
-0.0048051495 0.084570631 0.045061141
-0.0038120663 0.083865456 0.045191526
-0.0028467826 0.083505623 0.045189351
-0.0019225373 0.084591642 0.045176089
-0.00095514354 0.08405263 0.045157254
0 0.084058113 0.045286775
0.00095067715 0.083659582 0.045895129
0.0018851395 0.082946137 0.046961546
0.0028607172 0.083914369 0.046915054
0.0038123045 0.083870694 0.04712072
0.0048152725 0.084748797 0.047073394
0.0057013244 0.083619423 0.047128528
0.0066762953 0.083930567 0.047216237
0.0075573102 0.083130412 0.047336966
0.0086563984 0.084640339 0.047082543
0.0094878925 0.083493456 0.047082543
0.010599081 0.084792651 0.047170937
0.01160256 0.085085437 0.047065198
0.012281431 0.083135836 0.047120839
0.013284254 0.083501019 0.046943307
0.014257788 0.083645687 0.046974748
0.015095507 0.083025284 0.04712376
0.016321633 0.084488451 0.0474419
0.017301347 0.08458437 0.047380239
0.01793162 0.083051711 0.047487259
0.018712601 0.082335442 0.047766417
0.019755743 0.082785971 0.047668576
0.020692538 0.082770154 0.046580553
