ply
format ascii 1.0
comment PCL generated
element vertex 1328
property float x
property float y
property float z
element camera 0
property float view_px
property float view_py
property float view_pz
property float x_axisx
property float x_axisy
property float x_axisz
property float y_axisx
property float y_axisy
property float y_axisz
property float z_axisx
property float z_axisy
property float z_axisz
property float focal
property float scalex
property float scaley
property float centerx
property float centery
property int viewportx
property int viewporty
property float k1
property float k2
end_header
-0.014843195 0.095985994 0.029315203
-0.014112693 0.097780801 0.028129876
-0.013067189 0.09750133 0.02723217
-0.012003913 0.097031631 0.026254773
-0.011025185 0.097222082 0.025678575
-0.010115931 0.098124534 0.025383532
-0.0089848796 0.096837036 0.025325984
-0.0080575831 0.097698197 0.024924248
-0.007066872 0.097926654 0.02502203
-0.0060212892 0.097344175 0.025470704
-0.0050854534 0.098657794 0.025916815
-0.0040343395 0.097832732 0.026315421
-0.0030457273 0.098478518 0.026642233
-0.0020205595 0.097997136 0.027643919
-0.00099695579 0.096704707 0.02883485
0 0.097906329 0.030115336
0.00099298544 0.096319586 0.03128773
0.0019938936 0.096703842 0.032303274
0.002947954 0.095317177 0.033563018
0.0039428496 0.095614098 0.034882069
0.0049091731 0.095237963 0.035806179
0.0059135691 0.095602699 0.036122501
0.0068441532 0.094840407 0.036393285
0.0077750939 0.094273008 0.036364734
0.0087465411 0.094268277 0.036377668
0.0097705582 0.094774418 0.03602612
0.010782787 0.095084578 0.034000516
0.01219796 0.098600179 0.022881091
0.013683937 0.10210322 0.012703121
0.01463256 0.10138274 0.01121369
0.015886039 0.10272972 0.010554314
0.016830817 0.10203683 0.0095866919
0.017597163 0.10040734 0.0083696544
0.019028911 0.1025447 0.0076597035
0.019852197 0.10135069 0.0071320236
0.021117197 0.10241841 0.0061628222
-0.036929287 0.103402 0.0051881075
-0.036300831 0.1046318 0.0050688982
-0.035123184 0.10430521 0.0051395595
-0.03381025 0.10354389 0.0058435798
-0.0329483 0.10415914 0.0066762865
-0.031795464 0.10386518 0.0075784028
-0.030778628 0.10401053 0.0095467269
-0.027803097 0.097310834 0.029998064
-0.026273541 0.095363215 0.033957481
-0.025507236 0.096142657 0.035563767
-0.024560899 0.09627872 0.03558591
-0.02354922 0.096159309 0.035745502
-0.022447357 0.095645256 0.035745502
-0.021470321 0.095640525 0.035927832
-0.020642314 0.096330799 0.035010934
-0.019826166 0.097148217 0.034057587
-0.018989891 0.097947851 0.033145815
-0.017834758 0.097100355 0.032055974
-0.017007632 0.098043993 0.030590147
-0.015944351 0.097659148 0.02925241
-0.015134738 0.098880284 0.027481407
-0.013946313 0.09762419 0.026440144
-0.013037366 0.098281682 0.02585265
-0.012177455 0.099449217 0.024753451
-0.011319719 0.10084841 0.02335608
-0.01016518 0.09961877 0.022496909
-0.0093863104 0.10220649 0.018547207
-0.0082931183 0.1015907 0.01867795
-0.0072041568 0.1008582 0.021719515
-0.006213957 0.10149463 0.02274251
-0.0051340503 0.10062739 0.02352035
-0.0040260977 0.098639391 0.024668664
-0.0030342045 0.099117346 0.025477648
-0.0020223591 0.09909559 0.02595675
-0.001008168 0.098800458 0.027471155
0 0.098493136 0.028826803
0.0010009427 0.098092377 0.030456215
0.0019650308 0.096286505 0.032015979
0.003001869 0.098061047 0.032995909
0.0039041019 0.095650494 0.0348351
0.0049762297 0.097534105 0.03587535
0.0059432131 0.097072482 0.036295354
0.0068559698 0.09598358 0.036652267
0.0077872039 0.095393248 0.036639541
0.0087420475 0.095191181 0.036726207
0.0096755419 0.094820306 0.036376566
0.01082348 0.096427366 0.035507292
0.012014066 0.09811487 0.028963804
0.013492159 0.10171011 0.013581246
0.014708679 0.10296075 0.011466891
0.015718892 0.10269676 0.010836005
0.01686471 0.10329634 0.009973377
0.01781843 0.102718 0.0088129044
0.018768776 0.10218556 0.0081447065
0.019984685 0.1030789 0.0079491436
0.021005703 0.10292795 0.006398201
0.021930365 0.1023417 0.0061218441
-0.039382342 0.10537437 0.0050801039
-0.038122337 0.10483644 0.0060185194
-0.037457086 0.10595006 0.0059982836
-0.036073327 0.10503704 0.0059866905
-0.034914069 0.10474221 0.0060431361
-0.03376998 0.10447588 0.0063546598
-0.032808527 0.10477562 0.0072014332
-0.032163192 0.10613853 0.0080288649
-0.030502301 0.10412855 0.009876281
-0.027729165 0.098042406 0.032784075
-0.026395505 0.096783519 0.035497874
-0.025474064 0.096997403 0.035954058
-0.024375366 0.096526451 0.036059856
-0.023571057 0.097230613 0.036067069
-0.02245884 0.096670657 0.036067069
-0.021600936 0.097204216 0.035854906
-0.020605542 0.097140409 0.03508845
-0.019806411 0.098041743 0.03359285
-0.018828359 0.098105662 0.032352328
-0.017947899 0.09871345 0.030840993
-0.017018894 0.099110037 0.029224217
-0.016002303 0.099014245 0.027115077
-0.015149923 0.099989496 0.025631666
-0.014428512 0.1020302 0.024552166
-0.013492797 0.10275284 0.02084896
-0.012437345 0.1026081 0.018600017
-0.01133203 0.10198828 0.017534286
-0.01043917 0.10334779 0.017229587
-0.0093526393 0.10287904 0.016729802
-0.008298724 0.10269671 0.016973317
-0.0072567323 0.10263093 0.017735869
-0.0061957929 0.10223059 0.017858207
-0.0051600728 0.10216945 0.018710911
-0.0041369274 0.10238895 0.020852804
-0.0031277959 0.10321727 0.02243498
-0.002039179 0.10093936 0.024166286
-0.0010042092 0.09941671 0.025622189
0 0.099293955 0.027041376
0.0010008946 0.099088565 0.029299676
0.0019956159 0.098782986 0.030770481
0.0029672775 0.097920164 0.032016814
0.0039259852 0.097168133 0.034710348
0.0049339845 0.097692907 0.035910815
0.0059010596 0.097367488 0.036446452
0.0068205083 0.096461475 0.036924213
0.0077949958 0.096463077 0.036790699
0.0086810552 0.095491618 0.036856979
0.0097598722 0.096622743 0.036483943
0.010666857 0.096001714 0.035851568
0.011895634 0.098138988 0.029605746
0.013587394 0.10347323 0.014276832
0.014600773 0.10324833 0.012083977
0.015635252 0.10319267 0.011137366
0.016821817 0.104085 0.010778576
0.017759852 0.10342503 0.0098292232
0.018870734 0.10378904 0.0085408986
0.019892229 0.10364898 0.0084806085
0.020818548 0.10305182 0.0073808432
0.021541536 0.10155296 0.0062693357
-0.040418871 0.10636545 0.0053336918
-0.039285351 0.10617662 0.0061892867
-0.038314462 0.10642907 0.0066434741
-0.037371363 0.10677533 0.0065843761
-0.036170613 0.10638416 0.0065640211
-0.035284881 0.10692389 0.0066320896
-0.033797506 0.10561721 0.0071696639
-0.032469414 0.10474005 0.0074944794
-0.031730287 0.10576762 0.0083725154
-0.030611169 0.10555575 0.010585994
-0.027450252 0.098036617 0.032982141
-0.026367368 0.097656921 0.035640448
-0.025175236 0.096827835 0.035987735
-0.024319813 0.097279251 0.036195904
-0.02338439 0.09743496 0.036226034
-0.022584293 0.09819258 0.036226034
-0.021845637 0.099298351 0.036135554
-0.020595988 0.098076135 0.03492555
-0.019875199 0.099376 0.033463478
-0.019116011 0.10061058 0.031930745
-0.018064002 0.10035557 0.029825747
-0.016998898 0.099993519 0.027802378
-0.016364634 0.10227896 0.025513709
-0.015548078 0.10365386 0.022886842
-0.014502016 0.10358582 0.019990861
-0.01344801 0.10344624 0.018198133
-0.0125436 0.10453001 0.017502397
-0.011398904 0.1036264 0.016591638
-0.010417686 0.10417686 0.016615212
-0.0093626017 0.10402891 0.016609818
-0.0082848771 0.10356097 0.016627878
-0.0072197774 0.10313968 0.016993463
-0.0061868429 0.10311405 0.017058671
-0.0052028936 0.10405788 0.017448545
-0.004125041 0.10312603 0.017955989
-0.0030954415 0.10318139 0.019564658
-0.0020685089 0.10342544 0.021060467
-0.0010321931 0.10321931 0.023705244
0 0.10143904 0.02544716
0.00099977618 0.09997762 0.02762863
0.0019864026 0.099320136 0.030308783
0.0030191336 0.10063779 0.031860024
0.0039693527 0.099233814 0.033293486
0.0048902822 0.097805649 0.035861105
0.0059455154 0.099091925 0.036787152
0.0068152742 0.097361058 0.037353188
0.007733183 0.096664794 0.037431389
0.0087590087 0.09732233 0.03770107
0.0097677633 0.097677641 0.037316322
0.010590365 0.096276045 0.036477715
0.01199369 0.099947423 0.032805741
0.013691667 0.10532052 0.014491975
0.014663416 0.10473869 0.012774915
0.015971053 0.10647369 0.011871904
0.016831845 0.10519903 0.011171669
0.017672103 0.10395355 0.010653853
0.018825665 0.10458704 0.0095793009
0.019874994 0.10460523 0.009043932
0.021007277 0.10503639 0.007973671
0.022098413 0.10523054 0.0067695975
-0.041219387 0.10674765 0.0050801039
-0.039867248 0.10596295 0.0060537159
-0.038759053 0.10580173 0.0069043636
-0.037870072 0.10624659 0.0072208345
-0.036871109 0.10639949 0.0070663095
-0.035856914 0.10651612 0.0070064664
-0.03463991 0.10601912 0.007244736
-0.033628657 0.10614046 0.0073157251
-0.032634929 0.1063267 0.0078722835
-0.031396769 0.10570246 0.0088513792
-0.030653033 0.10675711 0.011913717
-0.027571194 0.099453241 0.035228938
-0.026132047 0.097753212 0.03592664
-0.025275484 0.098185532 0.036332846
-0.024265671 0.098033309 0.036542922
-0.023469778 0.098768651 0.03661254
-0.022607651 0.099277072 0.036631346
-0.021888617 0.10048866 0.036273867
-0.020748762 0.099791668 0.034840643
-0.019999305 0.10099649 0.033217728
-0.018981313 0.10090066 0.030866057
-0.017851353 0.10016593 0.029354483
-0.017484946 0.10388114 0.026113361
-0.01650149 0.10416566 0.021745682
-0.015548656 0.10469428 0.019447744
-0.014466162 0.10436303 0.017949224
-0.01347618 0.10469956 0.017264128
-0.012470246 0.10495792 0.016829342
-0.011487739 0.10547834 0.016345799
-0.010357162 0.10460734 0.016288072
-0.0092836646 0.10418335 0.016262382
-0.0083234897 0.10508406 0.016442955
-0.0072870986 0.10514242 0.016783357
-0.006222913 0.10475238 0.016903162
-0.0051764701 0.1045647 0.01702866
-0.0041216589 0.10407189 0.017224818
-0.0031226997 0.1051309 0.017862409
-0.0020671689 0.10439203 0.018731952
-0.0010198777 0.10300765 0.020730495
0 0.10467986 0.023297548
0.0010075808 0.10176565 0.02629143
0.0020080495 0.1014065 0.028792113
0.0029781549 0.10026455 0.031089187
0.003989236 0.10072821 0.033209473
0.0048814826 0.098605953 0.035782367
0.0059675416 0.10045362 0.037162483
0.0067835269 0.097876608 0.038058221
0.0077811056 0.098236457 0.038222671
0.0086889407 0.097509228 0.038306326
0.0096709793 0.097676896 0.037872612
0.010646523 0.097754441 0.037354767
0.011787344 0.099210151 0.035505593
0.013702793 0.10646017 0.014964998
0.014658901 0.1057535 0.013161033
0.015635505 0.10527907 0.012207985
0.016423983 0.10367639 0.011766672
0.01808746 0.10746079 0.010848641
0.018475423 0.10366765 0.010408998
0.019866643 0.1056069 0.0099957585
0.020411478 0.10307797 0.0087230206
0.022034558 0.10597572 0.0080409646
-0.04102299 0.10729089 0.0061455071
-0.040006902 0.10738695 0.0069161057
-0.039206464 0.10808268 0.0074686706
-0.037985414 0.10762535 0.0077697039
-0.037055355 0.10798989 0.0077279508
-0.035891753 0.10767525 0.0075444579
-0.034629118 0.10703546 0.0077696145
-0.034191221 0.10898452 0.00801754
-0.032646645 0.10741799 0.0085918605
-0.031616829 0.10749722 0.010152906
-0.030704938 0.10799668 0.012716085
-0.027170254 0.098977357 0.035906583
-0.026159527 0.098824874 0.0366126
-0.025263548 0.099110842 0.036910266
-0.024332358 0.099276021 0.037121117
-0.023325602 0.099133804 0.037227571
-0.022373058 0.09921965 0.037227571
-0.021691294 0.10056873 0.036973804
-0.020579059 0.099955425 0.035307616
-0.020170365 0.10286886 0.032778054
-0.019031707 0.10217021 0.029939115
-0.01840706 0.10430668 0.028052539
-0.017496623 0.10497974 0.023794413
-0.016666433 0.10624851 0.020010024
-0.015664285 0.10651714 0.018895656
-0.014439366 0.1052011 0.01770705
-0.013455874 0.10557686 0.017109603
-0.012425261 0.10561471 0.016950667
-0.011436719 0.10604958 0.016358465
-0.010281885 0.10487524 0.016327649
-0.0094115771 0.10666455 0.016237557
-0.0082504787 0.10519361 0.016526192
-0.0072136973 0.10511388 0.016781896
-0.006207509 0.10552765 0.016866028
-0.0051798853 0.10566966 0.017054826
-0.0041492172 0.10580503 0.017198592
-0.0031055957 0.10559025 0.017604977
-0.002056838 0.10489874 0.018217325
-0.0010355184 0.10562287 0.01957351
0 0.10474931 0.021205544
0.001013657 0.10339301 0.025016755
0.0020417126 0.10412734 0.027389377
0.0029648594 0.10080522 0.03026256
0.0040083653 0.10221332 0.032755643
0.0049137273 0.10024004 0.035969526
0.0058714696 0.099814989 0.03818202
0.0067360653 0.098154098 0.039149255
0.0077358284 0.098631807 0.039231896
0.0087454356 0.09911494 0.039232373
0.0096817594 0.098753951 0.038650095
0.010659025 0.098838232 0.037992209
0.011672601 0.099217109 0.036064208
0.013683888 0.10736589 0.016806275
0.014618763 0.10650813 0.013993293
0.015660742 0.10649304 0.013093203
0.016643763 0.10610399 0.012457401
0.017712396 0.10627437 0.011564761
0.018669503 0.10579385 0.010704488
0.019858196 0.10660716 0.010564983
0.020599999 0.10506 0.0095536411
0.02213423 0.10750911 0.0081338584
-0.041988429 0.1081202 0.0063638985
-0.041445635 0.10945899 0.0076216757
-0.0403294 0.1093139 0.0079981387
-0.038834911 0.10810799 0.008167088
-0.038000878 0.10872474 0.0086703002
-0.037261833 0.10965625 0.008636117
-0.035792295 0.1084296 0.0082284808
-0.035055202 0.10941473 0.0084737241
-0.033714883 0.10851979 0.0088694692
-0.032592449 0.10829104 0.0095663369
-0.031666834 0.10872279 0.010724813
-0.030240731 0.10740673 0.01326409
-0.027523512 0.10124721 0.036052614
-0.026010234 0.099224225 0.036823094
-0.025276007 0.10013188 0.037895739
-0.024188114 0.099655032 0.038415551
-0.023184299 0.099499285 0.038690507
-0.022023357 0.098626338 0.038690507
-0.021610839 0.10117802 0.037519485
-0.020693043 0.10149445 0.036236465
-0.020271512 0.10439829 0.032735586
-0.019202977 0.10410035 0.029687673
-0.01854362 0.10611071 0.025881827
-0.017616516 0.10673536 0.021082878
-0.016492162 0.10616829 0.019351274
-0.015280462 0.10492584 0.018210381
-0.014397649 0.10592556 0.017350346
-0.013427847 0.10638987 0.016947299
-0.012430549 0.10669555 0.016717494
-0.011367517 0.1064413 0.016548008
-0.010337694 0.10647825 0.016487151
-0.009291159 0.10633216 0.016409248
-0.0083272317 0.1072131 0.016526192
-0.0072899545 0.10726648 0.016689241
-0.0061956313 0.10635833 0.016705513
-0.0051983241 0.10708548 0.016818434
-0.0041424725 0.10666867 0.016951919
-0.0030808779 0.10577681 0.017027229
-0.0020678842 0.10649604 0.017459929
-0.0010393247 0.10705044 0.018731952
0 0.10481255 0.020501345
0.0010296997 0.10605907 0.022205949
0.0020417848 0.10515191 0.026444137
0.0029777803 0.10223713 0.030046254
0.0040260325 0.10367034 0.033243537
0.0049193366 0.10133833 0.037205487
0.0058828206 0.10098843 0.039460748
0.0067142467 0.098795347 0.040194511
0.0077349595 0.099587604 0.040206522
0.0085993828 0.098415166 0.039919943
0.0095236413 0.09809351 0.039615482
0.010563019 0.098908268 0.039262533
0.011736422 0.10073762 0.037205487
0.013720173 0.10870599 0.017021865
0.014544716 0.10700755 0.014391154
0.015542469 0.10672495 0.013568014
0.016639439 0.10711639 0.012865096
0.017723834 0.10738559 0.0119977
0.018818647 0.10768448 0.011121154
0.019960606 0.10820749 0.010714203
0.021013483 0.10821944 0.010258377
0.022016931 0.10798781 0.0084974766
-0.042000812 0.10920211 0.0067014396
-0.040909767 0.10909271 0.0079103112
-0.039923299 0.10926376 0.0082512796
-0.039118208 0.10995387 0.0088895559
-0.037781186 0.10914566 0.009077698
-0.036914226 0.10968798 0.0089332163
-0.035740748 0.10932463 0.0088771582
-0.034834139 0.10978032 0.0089690089
-0.033263411 0.10810608 0.0095663369
-0.032888409 0.11033531 0.01022169
-0.03156475 0.10942446 0.011923105
-0.03034541 0.10882491 0.013919771
-0.027464041 0.1020093 0.03618288
-0.025977045 0.10005973 0.03828752
-0.025034111 0.10013644 0.039047301
-0.024113128 0.10031061 0.039686352
-0.023178777 0.10044137 0.040006518
-0.022047997 0.09969528 0.04024151
-0.02136182 0.10098316 0.03986609
-0.020790687 0.1029634 0.036834002
-0.020474993 0.10646997 0.033205241
-0.019549785 0.10700935 0.029619813
-0.018373216 0.10615636 0.024447441
-0.017590819 0.10761442 0.020444125
-0.016422741 0.10674781 0.018877149
-0.015413637 0.10686789 0.017995596
-0.014289021 0.10614701 0.017328143
-0.013444254 0.10755403 0.016950667
-0.012296313 0.10656805 0.016844183
-0.011349601 0.10730531 0.016696036
-0.010247657 0.10657564 0.016643167
-0.0092828758 0.10726879 0.016733259
-0.008246664 0.10720663 0.016596138
-0.0072752107 0.10808884 0.016733617
-0.006231884 0.10801932 0.016769081
-0.0051237731 0.10657448 0.016922355
-0.0041137612 0.10695779 0.017014205
-0.0031202601 0.10816902 0.017161459
-0.002058133 0.10702292 0.017669708
-0.0010353309 0.10767442 0.018400878
0 0.10712236 0.019896656
0.0010213448 0.10621986 0.021347731
0.0020656867 0.10741571 0.025960147
0.0031222075 0.10823653 0.031044453
0.0038689843 0.10059359 0.034111321
0.0049712341 0.10340168 0.038485646
0.0058413735 0.10125047 0.041034698
0.006654005 0.098859504 0.041699618
0.0077288575 0.10047515 0.041704297
0.008621254 0.099623382 0.04128474
0.0096541541 0.1004032 0.0409998
0.010565706 0.09989395 0.039685905
0.011683303 0.10125529 0.038542777
0.013517867 0.10814293 0.017356724
0.014511964 0.10780317 0.015568614
0.015677255 0.10869563 0.014721364
0.016475577 0.10709125 0.013849646
0.017767239 0.1086937 0.012865096
0.018769057 0.10844345 0.011917025
0.019707715 0.10787381 0.011564761
0.020897036 0.10866459 0.010784417
0.021690486 0.10741955 0.0093091726
0.023600813 0.11156747 0.0055612326
-0.042665765 0.10926598 0.0051153004
-0.041475222 0.10887246 0.0076149404
-0.041246798 0.11104907 0.0081830323
-0.040064257 0.11070386 0.009126395
-0.03920316 0.11125221 0.009601742
-0.037861913 0.11043058 0.0098119378
-0.036904167 0.11071251 0.0097572505
-0.035643108 0.1100743 0.0097707808
-0.034863424 0.11092908 0.0097619593
-0.034157686 0.1120799 0.010275662
-0.032339696 0.10953768 0.011081517
-0.031490851 0.11021798 0.012322456
-0.030117095 0.10904465 0.014336973
-0.02725786 0.10221697 0.036806732
-0.026000962 0.10111485 0.039581865
-0.024861241 0.10040116 0.040139556
-0.023998367 0.10079314 0.040823042
-0.023393577 0.1023469 0.041530788
-0.022272935 0.10168079 0.041786075
-0.021277539 0.1015519 0.0420461
-0.020916549 0.10458274 0.040461302
-0.019745 0.10366125 0.03520456
-0.020580016 0.11373167 0.029876322
-0.018495642 0.10789125 0.024450541
-0.017416798 0.10757434 0.020444125
-0.016206216 0.10635329 0.018906325
-0.015325545 0.10727882 0.017995596
-0.0143818 0.10786349 0.017260164
-0.013321862 0.10759965 0.016816676
-0.012554091 0.1098483 0.016832024
-0.011352397 0.10836378 0.016809046
-0.010371699 0.10890284 0.016660392
-0.0093281493 0.10882841 0.016718328
-0.0082628531 0.10844994 0.016611725
-0.007298422 0.10947633 0.0168266
-0.0061548334 0.10770959 0.016737729
-0.0051669357 0.10850565 0.016970485
-0.0041303546 0.1084218 0.017020077
-0.0030744746 0.10760661 0.017198592
-0.0020447259 0.10734811 0.017510861
-0.0010364675 0.10882909 0.018350631
0 0.10722551 0.019358784
0.0010322211 0.10838322 0.021285981
0.0020357615 0.10687748 0.025268018
0.00317957 0.11128495 0.03140825
0.0039763125 0.1043782 0.037306815
0.0048222374 0.10126699 0.041018307
0.0057369629 0.10039685 0.042387247
0.0067019504 0.10052925 0.042671353
0.0076538473 0.10045674 0.042407751
0.008477482 0.098903961 0.042059213
0.0097072171 0.10192578 0.041700184
0.010559252 0.10079286 0.041038811
0.011613915 0.10162175 0.039442211
0.013708859 0.1107254 0.018435776
0.014613683 0.10960262 0.016619682
0.015528001 0.10869601 0.015507936
0.016618278 0.10905745 0.014770597
0.017707311 0.10936868 0.013801426
0.018732155 0.1092709 0.012686074
0.019877037 0.10984679 0.01212737
0.020696962 0.10865906 0.01152125
0.021800958 0.10900478 0.010588139
0.023096664 0.11023408 0.0074196756
-0.042485815 0.10984137 0.0065099597
-0.041980255 0.11124767 0.0079062581
-0.040862296 0.11106163 0.0089332163
-0.039955013 0.11145345 0.0094867349
-0.038781691 0.11110429 0.0098443031
-0.037959248 0.11176889 0.0098298192
-0.036955584 0.11192262 0.0097698867
-0.035607304 0.11101101 0.0098299682
-0.035138723 0.11286984 0.010455698
-0.033375155 0.1105552 0.010931641
-0.032134026 0.10987763 0.012068212
-0.031351622 0.11077573 0.013232112
-0.030235033 0.11051425 0.014571398
-0.02680479 0.10147528 0.037790209
-0.025964361 0.10193416 0.040109903
-0.025200812 0.10274177 0.041165113
-0.024036581 0.1019151 0.041673213
-0.023051575 0.10181112 0.04219237
-0.022224057 0.10242391 0.042650551
-0.021167345 0.10198811 0.043100595
-0.020174349 0.10183242 0.042222917
-0.01996717 0.10582601 0.04028821
-0.019755179 0.11021311 0.03359285
-0.019198664 0.1130588 0.026195526
-0.017533228 0.10932483 0.021181107
-0.016484601 0.10921048 0.019571364
-0.015350571 0.10847737 0.018240452
-0.014416654 0.10915466 0.017421782
-0.013467597 0.10981271 0.017067552
-0.012380924 0.10936482 0.016730785
-0.011337628 0.1092535 0.01671508
-0.010274569 0.10891043 0.016643167
-0.0092598218 0.10906013 0.016677976
-0.0082516335 0.10933414 0.016543418
-0.007199869 0.10902658 0.016723722
-0.0061612958 0.10884956 0.016736299
-0.0051201382 0.10854694 0.016956478
-0.0041238018 0.10928074 0.017058671
-0.0030826589 0.10892061 0.017424941
-0.0020642127 0.10940327 0.017817974
-0.0010319975 0.10939173 0.018543273
0 0.10781138 0.020152688
0.0010228617 0.10842333 0.021953434
0.0020921505 0.11088397 0.028088778
0.0029663122 0.10480969 0.035141855
0.0040365728 0.10696917 0.041108012
0.0047276192 0.10022552 0.042593509
0.0057783364 0.10208394 0.044161409
0.006732061 0.10194264 0.044032693
0.0076962765 0.10197566 0.043415546
0.0087257652 0.10277012 0.042671353
0.0096069602 0.10183378 0.041898936
0.010500251 0.10118424 0.041193634
0.011562929 0.1021392 0.039763898
0.013563329 0.1105933 0.019276083
0.014415005 0.10914218 0.017096728
0.015586475 0.11014442 0.016387671
0.016579779 0.10984103 0.015848845
0.017702423 0.11037981 0.014711618
0.018808605 0.11076179 0.013701171
0.019718263 0.11000714 0.013037145
0.020677174 0.10958902 0.012115449
0.021610783 0.109083 0.010710239
0.022868814 0.1101861 0.0085673928
-0.042389978 0.1106275 0.0065039098
-0.041743334 0.11166343 0.0079048276
-0.040647294 0.1115195 0.0093900263
-0.039954916 0.11250463 0.0098531842
-0.038794685 0.11219004 0.0099943578
-0.037870344 0.11255909 0.010507852
-0.036719136 0.11225566 0.010534793
-0.035589322 0.11200169 0.010739326
-0.034351639 0.1113826 0.011381805
-0.033471063 0.11191887 0.012122333
-0.032205217 0.11115994 0.012718767
-0.031080203 0.11085273 0.013898909
-0.030563964 0.11277049 0.014745176
-0.027303271 0.10433751 0.038702518
-0.025973689 0.10293277 0.040179968
-0.024960523 0.10272216 0.041438043
-0.02401288 0.10277513 0.04202053
-0.023109278 0.10302886 0.042776823
-0.02228469 0.10367226 0.043385595
-0.021053292 0.10239556 0.043668509
-0.020076601 0.10229506 0.042543441
-0.019179337 0.10260946 0.042652726
-0.018987156 0.10692767 0.04066813
-0.019443102 0.11557845 0.031139076
-0.018374808 0.1156532 0.023910373
-0.01641316 0.10976301 0.020546049
-0.015219192 0.10856358 0.019347966
-0.014362376 0.1097696 0.01822108
-0.013264829 0.10917975 0.017676979
-0.012276439 0.10946492 0.017391711
-0.011274884 0.10967387 0.017371625
-0.010239921 0.10956717 0.017436236
-0.0092742117 0.11026008 0.017092705
-0.0082366141 0.11016472 0.01700744
-0.0072032292 0.11010651 0.017092705
-0.0062235519 0.11098668 0.017057538
-0.0051252032 0.10967936 0.017437667
-0.0041019199 0.10972636 0.01764515
-0.0031010651 0.11060466 0.018054783
-0.0020441988 0.10936464 0.018606991
-0.0010189865 0.10903155 0.019657284
0 0.10927137 0.02062735
0.0010736496 0.11488052 0.024595201
0.002104752 0.11260424 0.034626395
0.0030302047 0.10807731 0.041892111
0.0037942168 0.1014953 0.043917447
0.0047317497 0.10125946 0.045032829
0.0057422346 0.10240319 0.045175254
0.00667552 0.1020401 0.044741124
0.0076952646 0.10292417 0.044157296
0.0086307731 0.1026103 0.043415546
0.0095397504 0.10207534 0.042295277
0.010513163 0.10226441 0.0412772
0.011593197 0.10337269 0.039672971
0.013393413 0.1102381 0.020033628
0.01440441 0.11009085 0.017540783
0.015587398 0.11119011 0.016714543
0.016533706 0.11056916 0.016275704
0.017591389 0.11072227 0.015297651
0.0186211 0.11069211 0.014190614
0.019537218 0.11002538 0.013696581
0.020524325 0.10980515 0.012803823
0.021602329 0.11006901 0.011608928
0.022918055 0.11146509 0.0084293187
-0.042423725 0.1117503 0.0077117085
-0.041630711 0.11240292 0.0090853572
-0.040763773 0.1128843 0.010016114
-0.03966501 0.11273213 0.01048404
-0.038577493 0.11260457 0.011483222
-0.037095185 0.11128557 0.012222379
-0.036716826 0.11329764 0.012030095
-0.035467438 0.11266128 0.01223281
-0.034413524 0.11262608 0.012368798
-0.033564787 0.11328116 0.012979895
-0.032119639 0.11190068 0.013755411
-0.031270444 0.1125736 0.014398575
-0.030206015 0.11249137 0.015907198
-0.027074102 0.10442869 0.036723286
-0.026032032 0.10412813 0.040572792
-0.025175611 0.10457561 0.041598111
-0.023820139 0.102903 0.042417318
-0.023124469 0.10406011 0.043309838
-0.022061232 0.10359187 0.043829054
-0.021020744 0.10319275 0.044032514
-0.020288762 0.10434221 0.043921709
-0.019065039 0.10295122 0.043930769
-0.018320544 0.10413782 0.043069839
-0.018181775 0.10909066 0.041776776
-0.017999349 0.11434881 0.029908001
-0.016823603 0.11355932 0.023406297
-0.015702952 0.11306126 0.020378113
-0.014207599 0.10960148 0.019254595
-0.013391151 0.11124957 0.018897802
-0.012342191 0.11107973 0.018268675
-0.011072983 0.10871657 0.018271983
-0.010233511 0.11052193 0.018074244
-0.0091958381 0.11035006 0.01791954
-0.0081532951 0.11006948 0.01788339
-0.007179766 0.11077353 0.01791954
-0.0061260648 0.11026917 0.017925054
-0.0051408294 0.11104193 0.018164694
-0.004120071 0.11124191 0.018324465
-0.0030577986 0.11008075 0.019268602
-0.002039504 0.11013322 0.019574016
-0.0010454271 0.11290613 0.02086404
0 0.11683552 0.022103697
0.0010527855 0.11370084 0.033430755
0.0019711005 0.10643943 0.042040646
0.0028714873 0.10337355 0.044042051
0.0038224503 0.10320616 0.045371056
0.0048485729 0.10472918 0.045769542
0.0057012029 0.10262166 0.045981526
0.0066511515 0.10261777 0.045256585
0.0075732036 0.10223825 0.044736713
0.0085623367 0.10274804 0.043508828
0.0095608495 0.10325719 0.042287558
0.010437966 0.10248186 0.041161448
0.01161348 0.10452132 0.038118094
0.013528834 0.11239339 0.020680487
0.014365746 0.11082147 0.01863122
0.015482344 0.11147287 0.017433554
0.016695602 0.11269531 0.016789854
0.017522395 0.11131874 0.016159624
0.018573463 0.11144079 0.014680773
0.019758523 0.1123116 0.014583915
0.020328045 0.10977145 0.013634771
0.021778967 0.11200612 0.012072861
0.022637326 0.1111287 0.009272933
-0.042529214 0.11306547 0.0078106821
-0.04157187 0.11328335 0.0098531842
-0.041108314 0.11489247 0.010620564
-0.039335176 0.11282986 0.012060225
-0.038379878 0.11306504 0.012542695
-0.037943345 0.11488403 0.012929171
-0.036416817 0.11341238 0.012760431
-0.035423264 0.11356281 0.012760431
-0.034672543 0.11452447 0.013225138
-0.033203982 0.11310107 0.013872474
-0.032410465 0.11395938 0.014306486
-0.03096387 0.11250206 0.014892131
-0.029906219 0.11240613 0.017835885
-0.02683028 0.10444645 0.032259703
-0.025800094 0.10415594 0.0393565
-0.025091078 0.10518952 0.041516513
-0.023736153 0.10348963 0.042238802
-0.022890024 0.10395886 0.043447554
-0.022074366 0.1046133 0.044032514
-0.021298308 0.10552344 0.044567317
-0.020027978 0.10395474 0.044587404
-0.019122368 0.10421691 0.045021534
-0.018178357 0.10428637 0.044688702
-0.01706793 0.10335581 0.043124348
-0.017028695 0.10918399 0.04103139
-0.016475324 0.11223815 0.030930161
-0.016544947 0.12022661 0.024002671
-0.0150646 0.11728867 0.020222902
-0.013787082 0.11559939 0.019943416
-0.012263837 0.11139652 0.019351065
-0.011325406 0.11222448 0.01923728
-0.010114131 0.11024404 0.019397706
-0.0092556737 0.1120965 0.019018382
-0.0081655588 0.11125574 0.019215912
-0.0071562929 0.11143371 0.019158751
-0.0060932557 0.11069415 0.019215912
-0.0051452313 0.11216605 0.01960817
-0.0041087628 0.11196379 0.019689292
-0.0031700546 0.11517866 0.020660132
-0.0021891734 0.11930995 0.02111268
-0.0010830066 0.11804773 0.022937357
0 0.11091735 0.035006821
0.0010162343 0.11076954 0.042586088
0.001893495 0.10319548 0.045684487
0.0028352593 0.10301442 0.046104908
0.0037739158 0.10283921 0.046122044
0.004712271 0.10272751 0.046131283
0.0056968974 0.10349364 0.046123415
0.0066716578 0.10388725 0.045349151
0.0076432419 0.10413917 0.044248492
0.0085733421 0.10383271 0.042798012
0.009561874 0.10422443 0.041617572
0.010476664 0.10381421 0.040735632
0.011581454 0.10519821 0.038033336
0.013342954 0.11187554 0.021388799
0.014336929 0.11162324 0.019458294
0.015480517 0.11249176 0.018583
0.016497897 0.11239193 0.017501861
0.017586293 0.11275917 0.017019302
0.018635815 0.11285023 0.015948266
0.019392109 0.11124946 0.015191376
0.020717172 0.11290859 0.014594793
0.021765249 0.11297201 0.013469487
0.022626949 0.11210625 0.01069957
-0.042058628 0.11284022 0.0086279809
-0.041625243 0.11446942 0.010261416
-0.040527645 0.11430874 0.012038112
-0.039619599 0.11468831 0.012610376
-0.038710989 0.11508673 0.013041496
-0.037493438 0.11456329 0.013404399
-0.036736235 0.11545674 0.01336965
-0.035564236 0.11506076 0.01336965
-0.034306355 0.11435452 0.013836801
-0.033203609 0.11413741 0.014313638
-0.032137319 0.11403564 0.014688373
-0.030988246 0.11362357 0.015093684
-0.030263165 0.11479131 0.018200129
-0.026892118 0.10564761 0.032032132
-0.025988085 0.10587738 0.038805932
-0.024899723 0.10534499 0.040330857
-0.02407762 0.10594153 0.041820288
-0.02291072 0.10500747 0.042789519
-0.021968547 0.10506697 0.044278383
-0.020910218 0.1045511 0.044810712
-0.019822905 0.10383426 0.045304984
-0.019183043 0.10550674 0.045385391
-0.018038481 0.10443331 0.045619696
-0.017162817 0.10488388 0.045747906
-0.016082147 0.10406096 0.045313299
-0.015328406 0.10538279 0.045182288
-0.015162216 0.11118958 0.038259834
-0.014929159 0.11730054 0.026895583
-0.013989925 0.11837629 0.023733735
-0.012851245 0.11780308 0.021299034
-0.012126969 0.1212697 0.02113381
-0.010984635 0.12083098 0.02080825
-0.0097729778 0.11944751 0.020005971
-0.0087519465 0.12033927 0.020033717
-0.0076570529 0.12032512 0.020415932
-0.0066819498 0.12250242 0.020706534
-0.0055408385 0.12189845 0.021183282
-0.0043692933 0.12015557 0.021410078
-0.0032772131 0.12016448 0.022509128
-0.0021342791 0.11738535 0.025624424
-0.0010108253 0.11119078 0.043220431
0 0.1054482 0.046214581
0.00093239563 0.10256352 0.046807319
0.0019058122 0.10481967 0.046795189
0.0028673189 0.10513503 0.046623349
0.003775982 0.1038395 0.046550423
0.0047078021 0.10357165 0.046594054
0.0057176105 0.10482286 0.046359211
0.0066488958 0.10448265 0.045461655
0.0075546731 0.10387675 0.044288337
0.0085107544 0.10402034 0.042536229
0.0095081832 0.10459002 0.041290194
0.01056051 0.1056051 0.040415168
0.011626981 0.10658066 0.037028581
0.013273356 0.11231301 0.021590084
0.014331927 0.11260799 0.020378053
0.015471559 0.1134581 0.019570768
0.016239256 0.11164488 0.018435776
0.017591098 0.11382475 0.017464727
0.018433666 0.11265019 0.016937494
0.019571725 0.11330999 0.016051739
0.020500829 0.11275456 0.01482439
0.021589899 0.11308995 0.014257014
0.022429178 0.11214589 0.012151688
-0.042290814 0.11449464 0.0096008778
-0.041350815 0.11474852 0.011490881
-0.040611383 0.11558625 0.012579054
-0.039674439 0.11589112 0.013129652
-0.038270604 0.11481181 0.013820857
-0.037505392 0.11564163 0.014075369
-0.036389068 0.11540533 0.013987601
-0.035209075 0.11494727 0.014097631
-0.034187846 0.11499549 0.014394701
-0.03326679 0.11539418 0.01485002
-0.032641746 0.11687851 0.01522401
-0.031126698 0.11516878 0.016174972
-0.029818907 0.11413444 0.018364757
-0.027833534 0.11034009 0.026966751
-0.026170952 0.10759169 0.036097139
-0.025162827 0.10742591 0.039399147
-0.023711804 0.10528041 0.041590035
-0.022753889 0.10523674 0.042675495
-0.022031408 0.10632549 0.044267535
-0.020831011 0.10510192 0.044810712
-0.020108433 0.10628743 0.045372218
-0.018984143 0.10536199 0.045548409
-0.018214287 0.10640978 0.045989037
-0.017112734 0.10552853 0.046060473
-0.016128736 0.10531116 0.046339393
-0.015215253 0.10555582 0.046559185
-0.01408591 0.10423573 0.04604128
-0.013263048 0.10515702 0.046267658
-0.012731202 0.10870488 0.046328008
-0.012249593 0.11330874 0.04034856
-0.011944754 0.12053343 0.026742667
-0.010747339 0.11929546 0.025011688
-0.010070699 0.1242053 0.023321122
-0.0087933298 0.12200745 0.021938086
-0.0077459025 0.12282789 0.021916926
-0.0065278541 0.12076531 0.025065303
-0.0054335888 0.12062568 0.025329828
-0.0041338308 0.11471381 0.04597801
-0.0029477938 0.10906837 0.047157556
-0.0018759173 0.10411341 0.047131002
-0.00093432405 0.10370997 0.047352254
0 0.10491028 0.048419237
0.00095165678 0.1056339 0.048257053
0.0019029445 0.10561342 0.047964752
0.0028309326 0.10474451 0.047051311
0.0037453589 0.10393371 0.046623349
0.0047347457 0.10511135 0.046370178
0.0056772837 0.10502975 0.046222091
0.0066302391 0.10513665 0.045068502
0.0075056534 0.10414094 0.043038577
0.0085967584 0.10602669 0.0415712
0.0097652348 0.10839411 0.040640444
0.010655175 0.10752041 0.038329601
0.011735816 0.1085563 0.034163803
0.01326027 0.1132223 0.022366643
0.014304657 0.1134155 0.020739764
0.015271406 0.1130084 0.020109802
0.016466519 0.11423647 0.019227743
0.017540909 0.11453182 0.018510789
0.018519072 0.11420095 0.017287016
0.019589309 0.1144428 0.016966492
0.020366814 0.11303582 0.015873164
0.021584712 0.11409062 0.01481092
0.022760766 0.11483841 0.013762772
-0.042862687 0.1170883 0.011237055
-0.041768532 0.11695189 0.012675762
-0.040856678 0.117332 0.01354894
-0.039480135 0.1163625 0.014336795
-0.038246062 0.11577185 0.01461795
-0.037477117 0.11659548 0.015197635
-0.036699507 0.11743843 0.01508382
-0.035283964 0.11622953 0.015013099
-0.03427019 0.11631095 0.015276462
-0.032874484 0.11506069 0.015606761
-0.032530002 0.11752775 0.016268849
-0.031138306 0.11624967 0.017044306
-0.030068114 0.11612513 0.01911974
-0.02823884 0.11295536 0.025939584
-0.026473675 0.10981672 0.034369141
-0.025362983 0.10925593 0.037600994
-0.024372028 0.10918668 0.039248109
-0.023043111 0.10753452 0.04194963
-0.021812251 0.10621617 0.042854488
-0.021098796 0.10741206 0.04391858
-0.019703856 0.10508723 0.045088768
-0.018840525 0.10550694 0.045570016
-0.018074375 0.10654368 0.045894951
-0.017098524 0.10639082 0.046090871
-0.01610237 0.10608619 0.046180099
-0.015084331 0.10559031 0.046693385
-0.014065373 0.10502145 0.04750818
-0.013187937 0.1055035 0.04852277
-0.012184337 0.10497275 0.049350202
-0.011213383 0.10465824 0.049693644
-0.010177603 0.1036265 0.049903452
-0.0092869764 0.10401414 0.050593942
-0.0084242504 0.10483512 0.050488919
-0.0075670243 0.10593834 0.050565839
-0.0065495148 0.10479224 0.050324112
-0.0056140814 0.10479619 0.050421566
-0.0046635782 0.10446415 0.050315678
-0.0037368317 0.10463128 0.050013959
-0.0028254034 0.10548173 0.049677163
-0.0018988962 0.10633818 0.049275488
-0.0009472837 0.10609577 0.049268454
0 0.10627364 0.049082696
0.00095632614 0.10710853 0.048504382
0.0018602605 0.10417458 0.048275143
0.0028752531 0.10734279 0.047376901
0.0037088837 0.10384874 0.047085196
0.004696751 0.10520723 0.046807319
0.0056535355 0.10553266 0.045929253
0.0067147226 0.10743556 0.044422597
0.0077699139 0.10877879 0.042616755
0.0086947568 0.10820142 0.041119993
0.0096767461 0.10837957 0.039887547
0.01066056 0.10854388 0.038222969
0.01207828 0.11273061 0.029185295
0.013259335 0.11423428 0.02260077
0.014450699 0.11560559 0.021271229
0.01537861 0.11482695 0.020660877
0.01644838 0.11513866 0.01989457
0.017474735 0.11512767 0.019356698
0.018539855 0.11535911 0.018157184
0.019462997 0.11472924 0.017433554
0.020224649 0.11325804 0.016995698
0.021728426 0.11588494 0.016140461
0.02243134 0.11419591 0.014801979
-0.042162258 0.11620329 0.01188308
-0.041538309 0.11734573 0.013218522
-0.040668521 0.11783443 0.014008105
-0.039305858 0.1168832 0.014604807
-0.03833596 0.11708008 0.014965564
-0.037229802 0.11686022 0.015641063
-0.036096606 0.11654047 0.015396535
-0.03517165 0.11689402 0.015280634
-0.034303989 0.11746517 0.015362829
-0.032819495 0.11589384 0.015965223
-0.032200549 0.11737619 0.016487479
-0.031000491 0.11676851 0.017724335
-0.030026555 0.11700002 0.02008763
-0.028510684 0.11506098 0.024557352
-0.026786933 0.11210827 0.032342076
-0.025175987 0.10941871 0.035933465
-0.024214169 0.10944805 0.037914604
-0.023449939 0.11041012 0.039500117
-0.022292638 0.1095247 0.04186815
-0.021439604 0.11012161 0.042289108
-0.020065185 0.1079698 0.043599218
-0.01883297 0.10640629 0.045447916
-0.017851014 0.10616656 0.045875937
-0.017090574 0.10729083 0.046029806
-0.016144725 0.10731493 0.046460032
-0.015059511 0.10635779 0.047193944
-0.014163537 0.10669864 0.048659563
-0.013229439 0.10678047 0.049264878
-0.012306025 0.10696775 0.049903452
-0.011351782 0.10689595 0.050372154
-0.010330353 0.10612091 0.050648868
-0.009315541 0.10526561 0.051252633
-0.0085343951 0.10715408 0.051252633
-0.0075832177 0.10711295 0.051512271
-0.0066199964 0.10686566 0.05134505
-0.0057016029 0.10738019 0.051442504
-0.0046860646 0.10590506 0.050950915
-0.0037904924 0.10708141 0.050890476
-0.0028427509 0.10707695 0.050315678
-0.0018845153 0.10647511 0.049750477
-0.00094226585 0.10647604 0.04958567
0 0.10620448 0.049144536
0.00093422685 0.10556763 0.048537374
0.0018828722 0.10638228 0.04769066
0.0028392302 0.10694434 0.047331601
0.0037233667 0.10518511 0.047008544
0.0046910518 0.10601778 0.046044439
0.0058195358 0.10960126 0.0453192
0.0067953635 0.10969658 0.042912841
0.0078141363 0.11037467 0.041756928
0.0087302793 0.10961351 0.040720582
0.0096851122 0.10944176 0.03893584
0.010607163 0.1089645 0.037166029
0.012110539 0.1140409 0.026957691
0.013238507 0.11507318 0.023409367
0.014314035 0.11553471 0.021625727
0.015262173 0.11497504 0.021531463
0.016396403 0.11579959 0.02088064
0.017469352 0.11611981 0.020564318
0.01860589 0.11680365 0.019121528
0.019386861 0.1153008 0.018434227
0.02027129 0.11453279 0.017647952
0.021255262 0.11437355 0.016846806
0.022635922 0.11626633 0.015172452
-0.042000864 0.11678288 0.011933029
-0.041541651 0.1183937 0.013870507
-0.040321011 0.11786141 0.014329046
-0.039404545 0.11821362 0.014838576
-0.03810785 0.11741337 0.015439034
-0.037306506 0.11813727 0.016010314
-0.036220334 0.11797481 0.015956819
-0.035422951 0.11877106 0.01580739
-0.034241103 0.11828745 0.016002685
-0.032820534 0.11692315 0.01656574
-0.031840533 0.11709099 0.017790079
-0.031092547 0.11815168 0.019106746
-0.029745691 0.11693133 0.021350622
-0.028306939 0.11524968 0.024712026
-0.026804186 0.11317322 0.031219631
-0.025673859 0.11257 0.034313738
-0.024300771 0.11081151 0.037042856
-0.023382613 0.11106741 0.03818813
-0.022675321 0.11239072 0.03967768
-0.021421708 0.1110034 0.040617645
-0.020619024 0.11193184 0.04215306
-0.019530542 0.11132409 0.044263542
-0.018192148 0.10915288 0.045647532
-0.01698236 0.10755494 0.045935035
-0.016072389 0.10777955 0.046373278
-0.015071205 0.10738233 0.047193944
-0.014227213 0.10812682 0.048870087
-0.013247022 0.10786861 0.049400568
-0.012240048 0.1073358 0.050143093
-0.011309168 0.1074371 0.050809443
-0.010216539 0.10588049 0.051010281
-0.0094090905 0.10726364 0.051499993
-0.0084222136 0.10668137 0.051412642
-0.0075182058 0.10713443 0.051721662
-0.0066131912 0.10770054 0.051737159
-0.0056545897 0.1074372 0.051834613
-0.0047140671 0.10748073 0.0517461
-0.0038044234 0.10842606 0.051410228
-0.0028342004 0.10769962 0.05083093
-0.0018970002 0.10812901 0.050308645
-0.00094059191 0.10722747 0.049846292
0 0.10655259 0.049291104
0.00093120942 0.10615788 0.048683345
0.0018808155 0.10720648 0.047826797
0.0028282192 0.10747233 0.047253102
0.0038647032 0.11014404 0.04616037
0.0048829396 0.11133102 0.045673043
0.0058273268 0.11071921 0.043194771
0.0068356418 0.1113233 0.041884482
0.0077569457 0.11053647 0.04137063
0.0087419637 0.11073155 0.039834827
0.0097678676 0.1113537 0.038344771
0.010855556 0.11250303 0.035915703
0.012060394 0.11457374 0.026753783
0.013204683 0.11579491 0.023507565
0.014256242 0.11608654 0.022356451
0.015419187 0.11718582 0.021814615
0.016319091 0.11627352 0.021394014
0.017364277 0.11644279 0.020930976
0.018417591 0.11664476 0.020042747
0.019405328 0.11643197 0.019257575
0.020545024 0.11710664 0.018007755
0.021543898 0.11695258 0.017603457
0.022242351 0.11525582 0.015372962
-0.042212468 0.11840082 0.012290388
-0.041064102 0.11805929 0.014081717
-0.040048823 0.11809269 0.014751345
-0.039378706 0.11917239 0.015488386
-0.038234033 0.11883549 0.015977591
-0.037412331 0.11951161 0.016285241
-0.036374371 0.11951578 0.016207337
-0.035457272 0.119929 0.016131461
-0.034164626 0.11905854 0.016086906
-0.0330065 0.11861711 0.017010987
-0.032261636 0.11968025 0.018230349
-0.030905513 0.11847113 0.019183099
-0.029509114 0.11701889 0.021350622
-0.028375074 0.11654048 0.023870289
-0.026723379 0.1138218 0.030448109
-0.025787726 0.11406109 0.033241272
-0.024552381 0.11294094 0.036142468
-0.023591861 0.11304434 0.037440449
-0.022443702 0.11221851 0.039095104
-0.021540191 0.11259645 0.040001512
-0.020299386 0.1111633 0.0415968
-0.019564485 0.11249579 0.042822838
-0.018747404 0.11347113 0.045475572
-0.017297845 0.11051401 0.045956969
-0.016080692 0.10878115 0.046233654
-0.015180245 0.10910801 0.048193693
-0.014122944 0.10827591 0.049460888
-0.01310708 0.1076653 0.049859077
-0.012121552 0.10722911 0.05074811
-0.011248275 0.10779596 0.051010281
-0.010336734 0.10806586 0.05154106
-0.0094099026 0.10821389 0.0522677
-0.0084619951 0.10812549 0.052178621
-0.0075746397 0.10888544 0.052451581
-0.0066506551 0.10926076 0.052489698
-0.0056663211 0.10860448 0.05253607
-0.0047264784 0.10870901 0.052105874
-0.0037805785 0.10869163 0.051993549
-0.0028082416 0.10764926 0.051620394
-0.0018711335 0.10759017 0.050973624
-0.0009352818 0.1075574 0.050502658
0 0.10849446 0.049674451
0.00093914953 0.10800219 0.04886809
0.0019125057 0.10996908 0.047732919
0.0028980761 0.11109291 0.046744347
0.0038337861 0.11022135 0.046012968
0.0047967955 0.11032631 0.045132458
0.0058329673 0.11179854 0.042596936
0.0068110256 0.11189542 0.041861892
0.0077813487 0.11185689 0.041007221
0.0088078994 0.11254538 0.039373785
0.009795391 0.112647 0.03789559
0.0107775 0.11267386 0.035129309
0.012241513 0.1173145 0.026289374
0.01317997 0.11659204 0.023523271
0.014266505 0.11718915 0.022366643
0.015248246 0.11690322 0.021923423
0.016298009 0.11714194 0.02156955
0.017374713 0.11753482 0.021293819
0.018391738 0.11750277 0.020286411
0.019665033 0.11902519 0.019678533
0.020081928 0.11547109 0.01891464
0.021486672 0.1176651 0.017968148
0.022091215 0.11547681 0.015783519
-0.044666722 0.12336523 0.0051677525
-0.041537061 0.11751949 0.012682915
-0.040981036 0.11884502 0.014405698
-0.040304359 0.11987964 0.015630037
-0.039006967 0.1190739 0.01602605
-0.038059838 0.11932274 0.016252518
-0.036923405 0.11897542 0.016599506
-0.036017384 0.11937191 0.016533941
-0.035094455 0.11973403 0.016262501
-0.034226779 0.12031232 0.016962349
-0.033063121 0.11985382 0.017916381
-0.031447291 0.11767374 0.018495739
-0.030874521 0.11938148 0.019740641
-0.029575957 0.11830383 0.021999359
-0.028981233 0.12006512 0.023870289
-0.026899735 0.11556923 0.028287351
-0.026112543 0.11650212 0.032445461
-0.025145506 0.11667515 0.035320252
-0.023581812 0.11397877 0.036940604
-0.022691054 0.11444183 0.03818813
-0.021416523 0.1129235 0.039584011
-0.020565944 0.11360236 0.040037453
-0.019509366 0.11315434 0.04200986
-0.01824142 0.11136867 0.045225322
-0.01728213 0.11137374 0.045890957
-0.016534543 0.11282394 0.046395332
-0.015178576 0.11004468 0.048968434
-0.01420397 0.10984404 0.049787015
-0.013171286 0.10913352 0.050604492
-0.012105877 0.10802167 0.051130116
-0.011196533 0.10823316 0.051557124
-0.01030989 0.10872249 0.052279115
-0.0092502488 0.10730289 0.052656531
-0.0084110443 0.10840902 0.052872241
-0.007469824 0.10831245 0.052907854
-0.0065048174 0.10779412 0.052672595
-0.005634089 0.10892572 0.052931249
-0.0046729702 0.10841292 0.052692562
-0.0037492488 0.10872822 0.052670062
-0.0027996954 0.10825489 0.051702768
-0.0018854648 0.10935695 0.051721573
-0.00093969516 0.10900465 0.051215351
0 0.1112875 0.050404459
0.00095902086 0.11124642 0.049379408
0.0019013936 0.11028083 0.047702104
0.002896497 0.11199789 0.046578526
0.0038635579 0.11204318 0.045684129
0.0048436685 0.11237311 0.043254346
0.0058347038 0.11280428 0.042173326
0.0068085389 0.11282723 0.041417062
0.0078412779 0.11369853 0.040471554
0.0087777954 0.11313604 0.038929582
0.0097830156 0.113483 0.037489086
0.010807033 0.11396507 0.034438342
0.012124484 0.11720336 0.026289374
0.013169678 0.11751405 0.023524791
0.014495462 0.12010527 0.022235215
0.015211768 0.11763767 0.022277385
0.016216947 0.11757287 0.021582156
0.017277613 0.1178943 0.021560013
0.018416369 0.11868329 0.020768493
0.019352956 0.1181549 0.020178795
0.020149305 0.11686598 0.019108295
0.021480994 0.11865693 0.017850429
0.022259237 0.1173669 0.016411126
-0.043597668 0.12145065 0.0055470765
-0.042345237 0.12083884 0.013354331
-0.040711448 0.11908099 0.014948189
-0.03995258 0.11985775 0.016050488
-0.039158184 0.120566 0.016709149
-0.038045287 0.12030536 0.016851604
-0.03700586 0.12026906 0.017903656
-0.036164839 0.1208939 0.017609
-0.034833081 0.11986678 0.017159671
-0.033793878 0.11981466 0.017609984
-0.03265268 0.11938636 0.018383116
-0.032039635 0.12092379 0.019317001
-0.030838151 0.12026879 0.020501703
-0.03003535 0.12117711 0.022131294
-0.028605454 0.11952993 0.023948371
-0.027064672 0.11728024 0.027631968
-0.025598491 0.11519321 0.032500505
-0.024680335 0.11550397 0.034409493
-0.023881547 0.11642255 0.036360413
-0.022587171 0.11489996 0.037655681
-0.021519193 0.11444299 0.039152563
-0.020566907 0.11458705 0.03967768
-0.019510336 0.11413547 0.040429741
-0.018370276 0.11312223 0.042037517
-0.017531563 0.11395517 0.045225322
-0.016456865 0.11326195 0.045839429
-0.015348993 0.11223952 0.049205452
-0.014383068 0.11218793 0.050400138
-0.013432686 0.11225888 0.050765038
-0.012285589 0.1105703 0.051601499
-0.01111251 0.10834698 0.052168429
-0.010186498 0.1083473 0.052528888
-0.0092604272 0.108347 0.053304404
-0.0084322589 0.10961936 0.053385526
-0.0074858777 0.10948096 0.053515375
-0.0065811463 0.10999916 0.05355981
-0.005565004 0.10851759 0.053491265
-0.0046171681 0.10804174 0.053087384
-0.0037502444 0.10969465 0.05341357
-0.0028288919 0.11032679 0.05228737
-0.0019120564 0.1118553 0.052080512
-0.00096621946 0.11304768 0.051346034
0 0.11175388 0.050262868
0.00097599288 0.11419117 0.048171312
0.0019106518 0.11177313 0.046892434
0.0029054387 0.11331212 0.04597199
0.0039150389 0.11451489 0.043543041
0.0048500746 0.11349176 0.042349756
0.0057718051 0.1125502 0.041839451
0.0068310066 0.11417539 0.041022956
0.0078023146 0.11410885 0.039756894
0.0087634828 0.11392528 0.039028108
0.0098215062 0.11491162 0.036618233
0.010878297 0.11570553 0.033641815
0.011991402 0.11691617 0.025502235
0.013288603 0.11959743 0.023766696
0.014248277 0.1190749 0.022633284
0.015189292 0.11847648 0.02241838
0.016342692 0.11950593 0.0219464
0.017296856 0.11904307 0.022079498
0.018450344 0.11992724 0.02108869
0.019511061 0.12014706 0.020605832
0.020147508 0.11786293 0.019919306
0.021325462 0.11881329 0.018813193
0.02214277 0.11775928 0.017458886
-0.043839782 0.12316892 0.0080327392
-0.041794289 0.120286 0.014572918
-0.041091703 0.12122054 0.016109169
-0.040127933 0.12141272 0.016924232
-0.038766757 0.12038098 0.017210662
-0.037808541 0.12057859 0.017960638
-0.036913916 0.12099562 0.018866032
-0.036334351 0.12249868 0.018187344
-0.035378493 0.12278419 0.018063158
-0.034109797 0.12196837 0.018225789
-0.032895714 0.12130295 0.018508166
-0.031622145 0.12036817 0.019358695
-0.030679166 0.12067139 0.020702958
-0.029331602 0.11934928 0.02236554
-0.028373804 0.11957531 0.024068564
-0.027484521 0.12011754 0.027778
-0.025582774 0.11610644 0.032665998
-0.024793608 0.11702583 0.034594506
-0.023695903 0.11650486 0.035924315
-0.022735808 0.11664458 0.037542611
-0.021543238 0.1155501 0.038413465
-0.020437744 0.11484065 0.039363593
-0.019473813 0.11489551 0.04011032
-0.018662039 0.11590108 0.040538549
-0.017516581 0.11483093 0.042289108
-0.016487483 0.11444253 0.045347661
-0.01532087 0.11299142 0.046395332
-0.014497851 0.11404976 0.049923509
-0.013449804 0.11336264 0.050747991
-0.012689171 0.11517864 0.051493824
-0.011448048 0.11257248 0.05195421
-0.010379623 0.11134505 0.052515686
-0.0093816305 0.11070324 0.052996933
-0.0083418395 0.1093708 0.053070605
-0.0074901767 0.11048011 0.053536654
