ply
format ascii 1.0
comment PCL generated
element vertex 1292
property float x
property float y
property float z
element camera 0
property float view_px
property float view_py
property float view_pz
property float x_axisx
property float x_axisy
property float x_axisz
property float y_axisx
property float y_axisy
property float y_axisz
property float z_axisx
property float z_axisy
property float z_axisz
property float focal
property float scalex
property float scaley
property float centerx
property float centery
property int viewportx
property int viewporty
property float k1
property float k2
end_header
-0.0028924972 0.0048208288 0.047207385
-0.0019311664 0.0048279157 0.047062337
-0.00096217782 0.0048108893 0.046684176
0 0.0048880326 0.046271086
0.00096156815 0.0048078406 0.045401216
0.0019672606 0.0049181515 0.044152558
0.0029184704 0.0048641171 0.043987006
0.0039229118 0.0049036397 0.042340845
0.004941606 0.004941606 0.041197807
0.0059227734 0.0049356441 0.040681005
0.006810193 0.0048644235 0.040374786
0.0078787841 0.0049242401 0.039932668
0.0088702934 0.0049279407 0.038958549
0.0099022295 0.0049511148 0.038334012
0.01100303 0.0050013773 0.037542731
0.011837895 0.0049324562 0.036509901
0.012918451 0.0049686348 0.035187274
0.013998872 0.0049995966 0.033973992
0.015057752 0.0050192508 0.032625496
0.016571796 0.0051786862 0.025235951
0.017659569 0.0051939907 0.019907326
0.018858589 0.0052384967 0.018081009
0.019879693 0.0052314978 0.017267257
0.020830888 0.0052077221 0.016495258
0.021671452 0.0051598693 0.015838057
0.023165133 0.0052648028 0.014633268
0.023993498 0.0052159773 0.01402846
0.025075387 0.0052240388 0.012835264
0.026248565 0.0052497126 0.012041539
0.027518805 0.005292078 0.0087418556
-0.042180024 0.0063270042 0.0078536868
-0.040491872 0.0062295184 0.010052294
-0.039465331 0.0062313681 0.011608303
-0.039246596 0.0063643125 0.012105376
-0.038266651 0.0063777757 0.01226905
-0.036746331 0.0062993714 0.012981743
-0.036094457 0.0063696099 0.012885243
-0.034769438 0.0063217161 0.013200611
-0.033800416 0.0063375779 0.013293326
-0.032882467 0.0063643479 0.013558984
-0.031359017 0.0062718028 0.013993621
-0.030455062 0.0063010473 0.015838057
-0.02896392 0.0062065544 0.01718995
-0.028008183 0.0062240404 0.019767165
-0.026386842 0.006089271 0.024895221
-0.02510977 0.0060263448 0.029978871
-0.024015576 0.0060038939 0.031924009
-0.022980496 0.0059949122 0.033122003
-0.021917459 0.0059774891 0.03402853
-0.021032695 0.0060093412 0.034718126
-0.019885119 0.005965536 0.035530388
-0.018868862 0.0059585879 0.036127627
-0.017907426 0.0059691421 0.036674023
-0.016819146 0.0059361691 0.037299126
-0.015725167 0.005896938 0.038122654
-0.014990523 0.0059962091 0.038790584
-0.013671677 0.0058592898 0.040020078
-0.01276591 0.0058919583 0.040756375
-0.011896724 0.0059483619 0.041629434
-0.010736501 0.0058562732 0.042675376
-0.0096977083 0.005818625 0.04319495
-0.0087926388 0.0058617592 0.044800848
-0.0078502307 0.0058876728 0.045779943
-0.0067540593 0.0057891938 0.045975953
-0.005736758 0.005736758 0.046465456
-0.0048210323 0.0057852389 0.046596199
-0.0038783939 0.0058175907 0.046141505
-0.0028547205 0.0057094409 0.046155125
-0.0019208574 0.0057625719 0.046072453
-0.00097214367 0.0058328616 0.045637935
0 0.0058456841 0.04469645
0.00097915507 0.0058749299 0.044282198
0.0019663395 0.0058990186 0.043327391
0.0028945929 0.0057891859 0.042003274
0.0038630306 0.0057945456 0.041116685
0.0049389978 0.0059267972 0.040737927
0.0058336873 0.0058336873 0.040356666
0.0068795141 0.0058967262 0.040155083
0.007902896 0.005927172 0.039306492
0.0088941259 0.0059294174 0.038433641
0.0099244406 0.0059546642 0.037604332
0.01093427 0.0059641474 0.036672562
0.011979361 0.0059896805 0.035814017
0.013033666 0.0060155378 0.034506708
0.014020571 0.006008816 0.033722371
0.014900962 0.0059603844 0.032041848
0.016680395 0.0062551484 0.022931218
0.017597867 0.0062110117 0.020530522
0.01882286 0.0062742867 0.018963993
0.019685775 0.0062165605 0.0178307
0.020827739 0.0062483218 0.017217398
0.021972453 0.0062778434 0.016649157
0.023089336 0.006297092 0.015464783
0.024061274 0.0062768538 0.014794588
0.024897793 0.0062244483 0.013962477
0.026001224 0.0062402934 0.012277544
0.027323296 0.0063053761 0.0091325045
-0.041620221 0.0072835386 0.0083857179
-0.041008499 0.0073604998 0.011594653
-0.039710522 0.007315096 0.012282521
-0.03886766 0.0073533407 0.012826234
-0.037705503 0.0073316265 0.013484865
-0.036604553 0.0073209107 0.013805717
-0.035322603 0.0072723003 0.013681591
-0.03460763 0.0073410128 0.013502657
-0.033378996 0.0073016556 0.013543695
-0.03231585 0.0072971266 0.013985366
-0.031496365 0.0073491521 0.014860362
-0.03007823 0.0072602625 0.016171962
-0.029442968 0.007360742 0.017693073
-0.028186068 0.0073074987 0.018951744
-0.026570842 0.0071536885 0.024214208
-0.025174167 0.0070487666 0.029676437
-0.024121225 0.0070353574 0.031196028
-0.023200752 0.0070610982 0.032657087
-0.022173705 0.00705527 0.033656061
-0.020971753 0.0069905841 0.034201741
-0.019923283 0.0069731493 0.034846127
-0.019128432 0.0070473175 0.035478771
-0.017801456 0.0069227889 0.036077797
-0.016695241 0.0068745106 0.036934584
-0.015989644 0.0069954693 0.037150681
-0.014570457 0.0067995465 0.03794682
-0.013834046 0.0069170231 0.038729697
-0.012695683 0.0068361368 0.039966673
-0.011709037 0.0068302718 0.040411681
-0.010703217 0.0068111387 0.041662365
-0.0099331811 0.0069532269 0.04229781
-0.0087994132 0.0068439879 0.042999446
-0.0079449993 0.0069518746 0.04348141
-0.0067810938 0.0067810938 0.043677717
-0.0058488119 0.0068236142 0.04469645
-0.0048589371 0.0068025119 0.044922799
-0.0038738472 0.0067792325 0.044432759
-0.0029253843 0.0068258969 0.044415832
-0.0019518718 0.0068315514 0.044356197
-0.00098259037 0.0068781325 0.043943524
0 0.0068333438 0.043467522
0.00097344542 0.006814118 0.043089598
0.0019495551 0.0068234429 0.041527241
0.0029495263 0.0068822284 0.040936381
0.0039277389 0.0068735429 0.04040879
0.0048555844 0.006797818 0.040011764
0.0059446404 0.0069354139 0.039617002
0.0069372659 0.0069372659 0.039379537
0.0079601156 0.0069651012 0.038462907
0.0089914082 0.0069933175 0.037596643
0.0099557312 0.0069690123 0.037279606
0.010909023 0.0069421055 0.036450356
0.012044689 0.0070260684 0.035436034
0.01304581 0.0070246672 0.03401199
0.014032796 0.007016398 0.033563733
0.015020072 0.007009367 0.031077862
0.016241113 0.0071054865 0.023075551
0.017825998 0.0073401164 0.020901203
0.018628055 0.0072442438 0.019748837
0.019901346 0.0073320749 0.018642545
0.020921882 0.0073226593 0.017986983
0.021784898 0.0072616325 0.017439812
0.022997335 0.0073173339 0.016162008
0.02371172 0.0072166105 0.015155166
0.024861732 0.007251339 0.014493883
0.026092965 0.00730603 0.012628734
0.027307956 0.0073521421 0.010002762
-0.041771155 0.0083542308 0.010306567
-0.040774692 0.0083640395 0.012143165
-0.039950833 0.0084107015 0.013100654
-0.039014097 0.0084354794 0.013578147
-0.037402108 0.0083115799 0.014034003
-0.036541212 0.0083522769 0.014665008
-0.035810437 0.0084259845 0.014600784
-0.034483712 0.0083596883 0.014305472
-0.033198535 0.0082996339 0.014317274
-0.032645963 0.0084247645 0.015494466
-0.031204917 0.0083213113 0.015890032
-0.030097988 0.0083028926 0.017139673
-0.029138492 0.0083252834 0.01842773
-0.028314495 0.0083894795 0.019959301
-0.026258007 0.0080793863 0.021993637
-0.025160821 0.0080514625 0.028623164
-0.024020785 0.0080069285 0.030869454
-0.023209469 0.0080728587 0.032347232
-0.022084285 0.0080306493 0.033191919
-0.021089669 0.0080341604 0.033585906
-0.019967409 0.0079869637 0.034380764
-0.018910022 0.0079621151 0.034903884
-0.01801439 0.0080063958 0.035444915
-0.016883945 0.0079453858 0.036284298
-0.01578325 0.0078916252 0.036839366
-0.014915193 0.0079547698 0.037415445
-0.013853017 0.00791601 0.038113147
-0.012660235 0.0077909138 0.038680822
-0.011794044 0.0078626964 0.039086223
-0.010981578 0.0079866033 0.040510595
-0.0096578561 0.0077262851 0.041372508
-0.0087880306 0.0078115831 0.042195082
-0.0078485683 0.0078485683 0.042489558
-0.006826431 0.0078016352 0.043003559
-0.0058730431 0.0078307241 0.043412298
-0.0048486516 0.0077578425 0.043617904
-0.0038553774 0.0077107549 0.043617904
-0.0029398783 0.0078396751 0.043623298
-0.0019512926 0.0078051705 0.04354471
-0.00097400945 0.0077920756 0.043181062
0 0.0078462362 0.042523772
0.00097339979 0.0077871983 0.041815817
0.001967143 0.0078685721 0.040966004
0.002943353 0.0078489417 0.040792495
0.0038626925 0.007725385 0.040024996
0.0049300315 0.0078880507 0.039916039
0.0058927932 0.0078570573 0.03925404
0.0069198734 0.0079084272 0.038401157
0.0079499912 0.0079499912 0.037791014
0.0089904387 0.0079915021 0.03709805
0.0098571442 0.007885715 0.036243558
0.010872982 0.0079076244 0.035478741
0.011946871 0.0079645803 0.03473261
0.012856678 0.0079118023 0.033748657
0.01397158 0.00798376 0.032440156
0.014947178 0.0079718279 0.027124107
0.016512277 0.0082561383 0.023796648
0.017628429 0.0082957316 0.021718204
0.018565794 0.0082514649 0.02032429
0.019911986 0.008383994 0.019438565
0.020883154 0.0083532622 0.018693179
0.02167521 0.0082572233 0.018343776
0.022648076 0.0082356641 0.01712963
0.02392759 0.0083226403 0.015993804
0.02477002 0.0082566738 0.015207171
0.025863579 0.0082763443 0.014473349
0.026691396 0.0082127368 0.01142481
-0.04205041 0.0094613414 0.011972189
-0.040658969 0.0093828393 0.01287061
-0.039969485 0.0094664562 0.013830453
-0.038353983 0.009329346 0.014069438
-0.037515979 0.0093789948 0.015338004
-0.036862358 0.0094788922 0.015805274
-0.035699096 0.0094497595 0.015659779
-0.034628253 0.0094440691 0.015723884
-0.033696525 0.0094771469 0.015757114
-0.03214683 0.0093329502 0.016135693
-0.030944305 0.0092832912 0.016910374
-0.030605966 0.0094984025 0.018259197
-0.028806629 0.0092592733 0.018994182
-0.028089659 0.0093632191 0.020415127
-0.026884522 0.0093061803 0.022087574
-0.025247712 0.0090891756 0.026346713
-0.024168478 0.0090631787 0.030027121
-0.023332821 0.0091302339 0.031656981
-0.022067046 0.009027428 0.032393575
-0.020942817 0.0089754919 0.033314764
-0.020196492 0.0090884212 0.033695668
-0.018767875 0.0088900458 0.034262657
-0.017843528 0.0089217639 0.035024226
-0.016868556 0.0089304112 0.035679281
-0.015833091 0.008906113 0.036252975
-0.014791044 0.0088746268 0.03689456
-0.013970839 0.008981253 0.037564963
-0.012837779 0.0088876924 0.038115174
-0.011828515 0.0088713858 0.038502663
-0.010865034 0.0088895727 0.039322704
-0.0097895861 0.0088106273 0.040558159
-0.0088380268 0.0088380268 0.04137969
-0.0078476639 0.0088286223 0.041881591
-0.0069433986 0.008927227 0.04215315
-0.005783495 0.0086752428 0.042481363
-0.0049005114 0.0088209203 0.042651206
-0.0038905283 0.0087536881 0.042806834
-0.0029494143 0.0088482434 0.042470872
-0.001940948 0.0087342653 0.042494059
-0.00098163867 0.0088347476 0.042339712
0 0.0087585142 0.041644156
0.0009762742 0.0087864669 0.041011155
0.0019683796 0.0088577075 0.040553331
0.0029472201 0.0088416599 0.04012078
0.0039680656 0.0089281471 0.039806604
0.0049181879 0.008852738 0.039155066
0.0058855312 0.0088282963 0.038475513
0.0069007333 0.0088723712 0.03810811
0.0079232398 0.0089136446 0.037260741
0.0088923285 0.0088923285 0.036502987
0.0099699711 0.0089729745 0.035866201
0.010913966 0.0089296084 0.034897923
0.011934538 0.0089509031 0.033857852
0.012992231 0.0089946212 0.032848477
0.014088541 0.0090569193 0.031015635
0.014994813 0.0089968881 0.0255602
0.016620556 0.0093490621 0.024471223
0.017444232 0.0092351809 0.022482216
0.018788429 0.0093942145 0.021098167
0.019982662 0.0094654709 0.0201931
0.020639729 0.0092878779 0.019845784
0.021916959 0.0093929823 0.019304752
0.022733919 0.0093002394 0.018054456
0.023656169 0.0092567615 0.017143816
0.025068095 0.0094005354 0.01594311
0.026014313 0.0093651526 0.014855653
0.026844982 0.0092924936 0.012149334
-0.043791942 0.010680961 0.0059524179
-0.041159961 0.01028999 0.012529075
-0.040753592 0.010449639 0.013469875
-0.039706558 0.010449094 0.01428628
-0.038558338 0.010421172 0.015435278
-0.037251499 0.010347639 0.016132325
-0.036787927 0.010510836 0.016648024
-0.036033601 0.010598117 0.016465247
-0.034437764 0.010435686 0.01632899
-0.033216216 0.010380067 0.016307116
-0.032286238 0.010414915 0.017008722
-0.031179544 0.010393181 0.0176256
-0.029974731 0.010336113 0.018520117
-0.02896327 0.010344025 0.019929469
-0.028372083 0.010508178 0.021013677
-0.026753251 0.010289712 0.02253592
-0.025080437 0.010032174 0.024287552
-0.023961144 0.0099838097 0.02778393
-0.023072496 0.010031519 0.030577868
-0.022083148 0.010037795 0.031878233
-0.021047678 0.010022703 0.032629341
-0.019945689 0.0099728443 0.033355057
-0.019001609 0.010000846 0.034070015
-0.017940024 0.0099666798 0.034583151
-0.017009396 0.010005526 0.035086453
-0.015977357 0.0099858474 0.035876572
-0.01474357 0.0098290462 0.03656441
-0.013945277 0.0099609112 0.037294626
-0.012809297 0.0098533053 0.037525505
-0.011748117 0.0097900983 0.038060635
-0.010897232 0.0099065751 0.038576305
-0.0098115513 0.0098115513 0.039390415
-0.0088797342 0.0098663718 0.040847838
-0.0078779152 0.0098473933 0.041359335
-0.0068981913 0.0098545589 0.041673422
-0.0058650686 0.0097751142 0.04187721
-0.0049416674 0.0098833349 0.042144567
-0.0039112652 0.0097781625 0.042000741
-0.0029048033 0.0096826777 0.041715652
-0.001959851 0.0097992541 0.041497678
-0.00097121781 0.0097121783 0.041461349
0 0.0098329028 0.040943861
0.00099675858 0.0099675851 0.04068464
0.0019626548 0.0098132743 0.040060341
0.0029720976 0.0099069914 0.039680481
0.0039407667 0.0098519158 0.039042622
0.0049072299 0.0098144598 0.038665831
0.0058837193 0.0098061981 0.037933588
0.0069532269 0.0099331811 0.03722173
0.0079149688 0.0098937107 0.036577165
0.0089713288 0.0099681439 0.035892904
0.009924286 0.009924286 0.035237938
0.010952865 0.0099571496 0.034361273
0.011998171 0.0099984761 0.033508271
0.012971661 0.0099782003 0.031934381
0.013990479 0.0099931993 0.027355909
0.015290881 0.01019392 0.025430202
0.016229758 0.010143599 0.024471223
0.017644051 0.010378853 0.023146063
0.018796084 0.010442269 0.022021085
0.01966681 0.010350952 0.021135539
0.02077488 0.01038744 0.020677894
0.021865809 0.010412289 0.019922197
0.022621434 0.01028247 0.019434959
0.023884319 0.010384486 0.01852861
0.024685469 0.010285611 0.017471462
0.025805928 0.010322371 0.0158059
0.026634635 0.010244091 0.013798624
-0.043868657 0.011769639 0.0067271888
-0.041458111 0.011400981 0.013450146
-0.040308513 0.011369067 0.014127553
-0.039639417 0.011474567 0.01573965
-0.038495194 0.011444516 0.016513228
-0.037275299 0.011389676 0.016985178
-0.036645267 0.011517084 0.017680496
-0.035605874 0.011519548 0.017746329
-0.034397434 0.011465811 0.017619133
-0.03335404 0.011465451 0.017619133
-0.032419775 0.011503791 0.018042296
-0.030989697 0.011362889 0.018400311
-0.030242512 0.011471298 0.01955691
-0.029140141 0.011447913 0.020474672
-0.028164981 0.011474621 0.021821946
-0.026606012 0.011256389 0.02292794
-0.02562174 0.011273566 0.024689287
-0.024114359 0.011052415 0.026207596
-0.023247339 0.011118292 0.029020667
-0.022168735 0.011084368 0.030521423
-0.021140892 0.011073801 0.031763494
-0.020292597 0.011160929 0.032902092
-0.018870804 0.010925202 0.033583283
-0.017970635 0.010982055 0.033994943
-0.016839536 0.01089617 0.034511387
-0.015912972 0.010940168 0.035203069
-0.014962793 0.010972715 0.035882682
-0.013871022 0.01089866 0.0366624
-0.012829049 0.01085535 0.037139207
-0.011870174 0.010880992 0.037819207
-0.01084089 0.01084089 0.03821975
-0.0097761769 0.010753795 0.03873232
-0.0087804338 0.010731642 0.039758712
-0.0078276703 0.010763046 0.040648669
-0.0068559316 0.010773607 0.041009724
-0.0058811391 0.010782088 0.041098297
-0.004889233 0.010756313 0.041328013
-0.0039010129 0.010727786 0.041294634
-0.0029386233 0.010774952 0.041036934
-0.0019598443 0.010779143 0.04105559
-0.00098425895 0.010826848 0.040908635
0 0.010762516 0.04048273
0.00098163798 0.010798017 0.040302217
0.0019698404 0.010834122 0.039658308
0.0029594686 0.010851385 0.038944811
0.003938558 0.010831034 0.03834784
0.0049520093 0.010894421 0.037810743
0.0059820656 0.01096712 0.037105501
0.006880248 0.010811818 0.036635846
0.0080100046 0.011013756 0.036021411
0.0089603206 0.010951503 0.035085529
0.009923636 0.010916 0.034570158
0.011023191 0.011023191 0.033622772
0.01192062 0.010927235 0.032250047
0.012962892 0.0109686 0.028187037
0.014081668 0.011064167 0.026691377
0.015415049 0.011304369 0.025241584
0.016533703 0.011366921 0.024505824
0.017744351 0.011481639 0.023657143
0.018576745 0.011352455 0.022655427
0.019642387 0.011371907 0.022165626
0.020537321 0.011295526 0.021432459
0.021464288 0.011243198 0.021150351
0.022644056 0.011322028 0.02008149
0.023854764 0.0114088 0.019624233
0.024619602 0.011283984 0.018617451
0.025493991 0.011217355 0.017397463
0.026754666 0.011319282 0.014834106
0.028570553 0.011639854 0.0051197708
-0.043795932 0.012818321 0.0067022443
-0.041578885 0.012473665 0.013783097
-0.040580072 0.012486176 0.015575647
-0.039210048 0.01238212 0.016436309
-0.038847249 0.012599107 0.017096072
-0.037159011 0.012386337 0.017959982
-0.036670282 0.012572668 0.018479735
-0.03547119 0.012519242 0.018535137
-0.034621488 0.012589632 0.018303752
-0.033606339 0.012602377 0.018313497
-0.032208361 0.012467752 0.018927753
-0.031304743 0.012521897 0.01924631
-0.030065827 0.012441031 0.020106018
-0.029066559 0.012457097 0.02129069
-0.027995497 0.012442443 0.022155106
-0.026474439 0.012218972 0.023436517
-0.025904287 0.012434057 0.024734676
-0.024530234 0.012265117 0.025939554
-0.022996563 0.011998206 0.027490079
-0.022029247 0.012015954 0.029249132
-0.021003893 0.012002224 0.030520082
-0.020084176 0.012050506 0.031823963
-0.018985122 0.011990604 0.032991707
-0.018008802 0.012005868 0.033489645
-0.016960481 0.011972103 0.033990711
-0.015837776 0.011878331 0.034406185
-0.014870361 0.011896289 0.035374939
-0.013811187 0.01183816 0.036427528
-0.012893857 0.011902022 0.036697805
-0.011849583 0.011849583 0.037101626
-0.010893726 0.011884064 0.038041204
-0.0098272655 0.011792718 0.038306773
-0.0088861929 0.011848257 0.038952023
-0.0079952925 0.011992938 0.039679557
-0.0069032153 0.011834083 0.040054023
-0.0058730384 0.011746077 0.040441006
-0.0048763882 0.011703332 0.04081583
-0.0039458321 0.011837496 0.040701032
-0.0029378638 0.011751455 0.04051283
-0.0019555592 0.011733355 0.040479958
-0.00098674814 0.011840977 0.040273011
0 0.011752517 0.039853573
0.00099162397 0.011899487 0.039610893
0.0019634822 0.011780893 0.038835853
0.0029279904 0.011711962 0.03826049
0.0039465637 0.011839691 0.037648767
0.0049388553 0.011853253 0.036823988
0.0059436085 0.011887217 0.036377192
0.006934355 0.011887466 0.035995603
0.0079192445 0.011878867 0.035217553
0.0089925816 0.011990109 0.034494311
0.0099948207 0.011993784 0.0335145
0.01094667 0.011941822 0.032190472
0.011929998 0.011929998 0.029318511
0.013100546 0.012092811 0.027517676
0.014438814 0.012376126 0.02661252
0.015358213 0.012286571 0.025358289
0.0164799 0.012359926 0.024590731
0.017294846 0.012208126 0.024210364
0.018440612 0.012293741 0.023465216
0.019612061 0.012386565 0.022708416
0.020520022 0.012312014 0.022313923
0.021554777 0.012317016 0.021984935
0.022602271 0.012328511 0.021333337
0.023410816 0.012214337 0.020611405
0.024831021 0.012415511 0.01948911
0.025511937 0.01224573 0.018903792
0.026338445 0.012156205 0.016868353
0.028951066 0.01286714 0.0089803636
-0.043203447 0.013698653 0.0097520947
-0.04200016 0.013650052 0.014885068
-0.040555645 0.013518548 0.016338617
-0.039266955 0.013433432 0.017160326
-0.038336795 0.013469684 0.01836133
-0.037285056 0.013464049 0.019147754
-0.036223337 0.013454382 0.019576013
-0.034972925 0.013372 0.019764483
-0.034354229 0.013533485 0.01964283
-0.032641459 0.013260593 0.019412339
-0.03203069 0.013432224 0.019955397
-0.030988723 0.013428446 0.020321161
-0.029851964 0.013381914 0.021245897
-0.02900983 0.013468849 0.021794677
-0.027722437 0.013347839 0.022524059
-0.026775971 0.013387986 0.023444414
-0.025940288 0.013488949 0.024566591
-0.02480573 0.013436437 0.025570959
-0.023401998 0.013227215 0.026354045
-0.022248425 0.013146796 0.027728707
-0.021050826 0.013031463 0.029375851
-0.02008505 0.013055283 0.030821592
-0.019010248 0.013007011 0.031848669
-0.017915348 0.012938863 0.032963514
-0.016933281 0.01294898 0.033336043
-0.015806338 0.012842649 0.033946604
-0.015008057 0.013006982 0.034418344
-0.013977236 0.012978862 0.035708338
-0.012884934 0.012884934 0.035954177
-0.01197366 0.012971465 0.036392093
-0.010882825 0.01286152 0.037346542
-0.0099562677 0.012943148 0.037856191
-0.0088871447 0.012836986 0.038257152
-0.007953723 0.012924799 0.038749099
-0.0068672742 0.012753509 0.039494336
-0.0059000016 0.012783337 0.039585143
-0.0048799692 0.01268792 0.04020524
-0.0038743459 0.012591624 0.039922357
-0.0029354405 0.012720243 0.039922357
-0.001980515 0.012873347 0.039866954
-0.00097509183 0.012676193 0.039544582
0 0.012749121 0.039136201
0.00098539121 0.012810086 0.038895279
0.0019616226 0.012750547 0.038233817
0.0029639616 0.012843833 0.037615806
0.0039833072 0.012945749 0.036999792
0.0049256729 0.012806751 0.03664881
0.0059811696 0.012959201 0.035729438
0.0069521558 0.012911147 0.035220087
0.0079698088 0.012950938 0.034468502
0.0090242326 0.013035003 0.033451676
0.0099666249 0.012956613 0.032115608
0.011044324 0.013052383 0.02993536
0.012198075 0.013214581 0.027823508
0.013409927 0.013409927 0.027113706
0.0143149 0.013292408 0.026394784
0.015325045 0.013281706 0.025315464
0.016418207 0.013339794 0.024741501
0.017494308 0.013378001 0.024210751
0.018350409 0.013253074 0.023749411
0.019301716 0.013206437 0.023505151
0.020457558 0.013297413 0.023170382
0.021351168 0.013217389 0.022623241
0.022419782 0.013248053 0.022510678
0.023693072 0.013391735 0.021883249
0.024678707 0.013367632 0.020962536
0.02545521 0.013236709 0.020194411
0.026823409 0.013411704 0.018457085
0.028554799 0.013748606 0.0092137754
-0.043170024 0.014740982 0.012443662
-0.041324809 0.014463684 0.015499473
-0.03988995 0.014319469 0.01784429
-0.03873346 0.014270222 0.018480808
-0.038380742 0.014522443 0.019589424
-0.037214205 0.014472191 0.020294219
-0.035988711 0.014395485 0.020486474
-0.035205349 0.01449632 0.020621508
-0.034088813 0.014461921 0.020540088
-0.032819502 0.014358532 0.020525932
-0.031771857 0.01434858 0.020898253
-0.030822052 0.014383624 0.021358758
-0.029942878 0.014455182 0.021794677
-0.028695909 0.014347955 0.022349149
-0.02781368 0.014421908 0.022694945
-0.026734199 0.014395338 0.023566306
-0.025871208 0.014487877 0.02456978
-0.024599263 0.01434957 0.025386095
-0.023740055 0.014450467 0.026054025
-0.022694996 0.01444227 0.02690503
-0.02115768 0.01410512 0.027746648
-0.020124746 0.014087322 0.028877974
-0.018991301 0.01399359 0.030370623
-0.017942328 0.013955145 0.031438321
-0.017164735 0.014135664 0.032807976
-0.015680306 0.013720267 0.033073843
-0.015087175 0.014081364 0.033512503
-0.01399567 0.01399567 0.033948243
-0.012954317 0.013950803 0.034723014
-0.011847662 0.013822272 0.035498738
-0.01099515 0.013993828 0.036196321
-0.009713579 0.013599011 0.036884546
-0.0088924272 0.013832665 0.037394196
-0.0079009002 0.013826575 0.037449419
-0.0069114785 0.013822957 0.038216621
-0.0059324079 0.013842285 0.038479388
-0.0048801671 0.013664468 0.039156735
-0.0039069247 0.013674237 0.038845718
-0.0029414089 0.013726575 0.038940549
-0.0019764479 0.013835136 0.038839102
-0.00098067697 0.013729477 0.038713127
0 0.01382507 0.038404852
0.00097543624 0.013656108 0.03805092
0.0019833948 0.013883763 0.037283152
0.0029560337 0.013794824 0.036711931
0.0039720037 0.013902012 0.036507249
0.0049450612 0.013846172 0.035660356
0.0059762783 0.013944649 0.034626871
0.0069528492 0.013905698 0.034263492
0.0078916391 0.013810369 0.033148974
0.0090410188 0.014063807 0.031298101
0.010129049 0.014180669 0.029856056
0.011269208 0.014342628 0.028941989
0.01223067 0.014269115 0.027556837
0.013267071 0.014287614 0.026937783
0.014291527 0.014291527 0.026399463
0.015330148 0.014308139 0.025925905
0.016424621 0.014371543 0.02500087
0.017336549 0.014277158 0.024532527
0.018374067 0.014290942 0.024093032
0.019463163 0.014341278 0.023935169
0.020409582 0.014286708 0.024054766
0.02136982 0.014246547 0.024056822
0.022441994 0.01428127 0.024056137
0.023576342 0.014350816 0.023093969
0.024253268 0.01414774 0.022472024
0.025526056 0.014294591 0.020827532
0.026375297 0.014202083 0.019248068
0.028311087 0.014679822 0.012824297
-0.043479294 0.015907058 0.012803048
-0.041435085 0.015538158 0.017157674
-0.040037747 0.015399133 0.018964529
-0.039121851 0.015442835 0.019823998
-0.03805178 0.015426396 0.020692587
-0.037394382 0.015580994 0.021627665
-0.036629219 0.015698235 0.022270501
-0.035340492 0.015591393 0.022191733
-0.033863302 0.015392412 0.021799445
-0.033205282 0.015564975 0.021949023
-0.031812314 0.015393055 0.021887064
-0.031274997 0.015637498 0.02217859
-0.029896125 0.015463512 0.022315532
-0.02855717 0.015298484 0.022705168
-0.027742233 0.015412352 0.023274988
-0.026692266 0.015399384 0.023915917
-0.025473583 0.01528415 0.024848849
-0.024722584 0.015451615 0.025431633
-0.023577012 0.015376312 0.025994867
-0.022443984 0.015302717 0.026493251
-0.021411337 0.015293812 0.027293503
-0.020531887 0.015398917 0.028033078
-0.019335354 0.015264753 0.028678119
-0.018233256 0.015194381 0.030045539
-0.016857883 0.014874603 0.031328052
-0.015844492 0.014854212 0.032191277
-0.01488579 0.01488579 0.032733351
-0.013904036 0.014897181 0.032997757
-0.012830431 0.014804344 0.033613354
-0.0119818 0.01497725 0.034282535
-0.010967354 0.014955483 0.03524226
-0.0097821429 0.014673214 0.03571564
-0.0089294519 0.014882421 0.036510974
-0.0079338131 0.014875899 0.03716436
-0.006967573 0.014930514 0.037345678
-0.0059018955 0.01475474 0.037369341
-0.0049132355 0.014739707 0.037917227
-0.0039075459 0.014653297 0.037809223
-0.0029660026 0.014830013 0.038038999
-0.0019785846 0.014839385 0.03781876
-0.00099045923 0.014856888 0.037646621
0 0.014700643 0.037304282
0.00098442682 0.014766403 0.037139684
0.0019828498 0.014871374 0.036583841
0.0029550351 0.014775175 0.036470473
0.0039616516 0.014856193 0.035353959
0.0049132355 0.014739707 0.03433159
0.0059413756 0.014853439 0.033607453
0.0069560586 0.014905839 0.031937689
0.008084896 0.01515918 0.031144291
0.0091493027 0.015248839 0.029741585
0.010206102 0.015309154 0.02907449
0.011210567 0.015287138 0.027772069
0.012159401 0.015199251 0.02711615
0.013350585 0.015404521 0.026470363
0.014282562 0.015302745 0.026027113
0.015278529 0.015278529 0.025975525
0.016474765 0.015445093 0.025630534
0.017248049 0.015218866 0.024789661
0.018455679 0.015379733 0.024515957
0.019434808 0.015343268 0.024370283
0.020251945 0.015188959 0.024419785
0.021507176 0.015362267 0.024952322
0.022426583 0.015290853 0.024829268
0.023494462 0.015322475 0.024342597
0.024280274 0.015175171 0.023935378
0.025361078 0.015216647 0.022450179
0.026224313 0.015129412 0.020701885
0.027991734 0.015550963 0.016746908
-0.042893641 0.016738981 0.014002949
-0.040980075 0.01639203 0.018288553
-0.039818697 0.016335877 0.019929796
-0.039090443 0.016459133 0.020907193
-0.037774272 0.016334821 0.022599071
-0.036993206 0.016441427 0.022999138
-0.035686743 0.01631394 0.023111045
-0.034905706 0.016426215 0.02296257
-0.034018353 0.016493747 0.022800714
-0.032687072 0.016343536 0.022596866
-0.031752761 0.016388521 0.022469789
-0.030843657 0.016449951 0.022554547
-0.029798085 0.016440323 0.022745609
-0.028508471 0.016290555 0.023245066
-0.027603334 0.01635753 0.023863375
-0.026487356 0.016299911 0.024467438
-0.025425524 0.016272334 0.024913937
-0.02452315 0.016348768 0.025424182
-0.023489399 0.016340451 0.025922745
-0.022431115 0.016313538 0.026262105
-0.021376049 0.016286515 0.027089119
-0.02042768 0.016342144 0.027392268
-0.019291863 0.016245779 0.027988702
-0.018464854 0.016413204 0.028614789
-0.017185329 0.016174426 0.029407978
-0.016176088 0.016176088 0.030302018
-0.014919054 0.015913658 0.030893266
-0.013965774 0.015960885 0.032367945
-0.012885397 0.01585895 0.032722205
-0.011814753 0.015753003 0.033016175
-0.01091873 0.015881788 0.034181416
-0.0099413842 0.015906217 0.034381717
-0.0088244304 0.015687877 0.035341501
-0.0078779804 0.015755961 0.036264449
-0.006876071 0.015716733 0.036480367
-0.0059250831 0.015800223 0.036683828
-0.0049349973 0.015791992 0.037144393
-0.0039227642 0.015691057 0.036898255
-0.0029381167 0.015669955 0.036905915
-0.0019802209 0.015841767 0.036827981
-0.00098884036 0.015821446 0.036670983
0 0.015809797 0.036447912
0.00099475018 0.015916003 0.036265373
0.0019534135 0.015627308 0.035733789
0.0029783272 0.015884412 0.034941465
0.0039914865 0.015965946 0.033683151
0.0049316469 0.01578127 0.032000244
0.0060237739 0.016063398 0.031151831
0.0071366155 0.016312264 0.030854166
0.0081464918 0.016292984 0.029859215
0.0091758287 0.016312586 0.02936855
0.010164307 0.016262893 0.028344154
0.011119042 0.016173152 0.027772099
0.012254691 0.016339587 0.027141839
0.013295462 0.016363647 0.026549727
0.014298232 0.016340837 0.026148558
0.015363813 0.016388068 0.025997519
0.016333885 0.016333885 0.02579248
0.017272254 0.016256239 0.02549848
0.018540449 0.016480399 0.025290161
0.019209765 0.016176645 0.02527675
0.020247558 0.016198048 0.025414497
0.021236781 0.016180405 0.025652349
0.02201622 0.016011797 0.025958687
0.023285143 0.016198361 0.025459379
0.024477903 0.016318602 0.024966061
0.02503635 0.016023263 0.024066776
0.026179105 0.016110219 0.022103041
0.02792831 0.016550109 0.017434031
-0.042633343 0.017677238 0.014003128
-0.040941946 0.017400328 0.019726515
-0.039790992 0.017344791 0.021227032
-0.038650881 0.017291183 0.022631228
-0.037826527 0.017379755 0.02341333
-0.037030932 0.017486829 0.023574919
-0.035906129 0.017440122 0.023972064
-0.034997076 0.017498538 0.023723006
-0.033880632 0.017453659 0.023628026
-0.032984935 0.017523246 0.023575306
-0.03183236 0.017456455 0.023291081
-0.030705631 0.017399857 0.02347362
-0.029599441 0.017351396 0.023486435
-0.028840773 0.01751047 0.024040401
-0.027582452 0.01736673 0.024298191
-0.026369257 0.017241439 0.024808168
-0.025941255 0.017640052 0.02510336
-0.024403878 0.017286081 0.025665313
-0.023706611 0.017522277 0.025952816
-0.022455575 0.017352035 0.026378274
-0.021288261 0.017233353 0.026948661
-0.020361083 0.017306922 0.027328908
-0.019259822 0.017232472 0.02788505
-0.01823291 0.017219972 0.028305173
-0.017272547 0.017272547 0.028758377
-0.016277667 0.017295022 0.029362261
-0.015447158 0.01750678 0.029989958
-0.014198741 0.017241329 0.030353099
-0.012996472 0.016995387 0.030986845
-0.011870534 0.01681659 0.031811625
-0.01105225 0.01708075 0.032227278
-0.0097424323 0.016562136 0.032866329
-0.0089221895 0.016853025 0.03340888
-0.0078659616 0.016715169 0.034336507
-0.0068941237 0.016742872 0.035062104
-0.0059025446 0.016723877 0.035483867
-0.0049201739 0.016728593 0.035981447
-0.0039140759 0.016634822 0.035944164
-0.0029845997 0.016912732 0.035882533
-0.0019801389 0.016831182 0.035826296
-0.00098715455 0.016781628 0.035363704
0 0.016834497 0.035312772
0.00098965236 0.016824089 0.034264743
0.0019890333 0.016906783 0.033823311
0.0029853308 0.016916875 0.032411188
0.0040483382 0.017205438 0.031114489
0.0050916523 0.01731162 0.030913919
0.006116352 0.017329665 0.030497074
0.0070676603 0.017164318 0.029757679
0.0081169046 0.017248422 0.029425621
0.0090614194 0.017116014 0.028899997
0.010119412 0.017203001 0.028263837
0.011176847 0.017273309 0.027915627
0.012152592 0.017216172 0.027186751
0.01317378 0.017227251 0.02661401
0.01422005 0.017267203 0.026487082
0.015245349 0.017278062 0.026347518
0.016211437 0.017224653 0.026274294
0.017364638 0.017364638 0.02603212
0.018167181 0.017157894 0.025908738
0.019352315 0.017315229 0.025825977
0.020324577 0.01727589 0.026005119
0.021035299 0.017028576 0.026736885
0.022094252 0.017072832 0.026828468
0.023442226 0.017326862 0.026734918
0.02422874 0.017162025 0.026349127
0.025211629 0.017143907 0.025509894
0.026271261 0.017177364 0.024162501
0.027310027 0.017195201 0.018397778
-0.04245482 0.0186387 0.01796636
-0.040966615 0.018434977 0.020741016
-0.039843433 0.018389275 0.022746056
-0.038987745 0.018467877 0.023569018
-0.037804484 0.018391369 0.024417192
-0.036819436 0.018409718 0.024474353
-0.035832148 0.018427961 0.024476618
-0.03458881 0.01831172 0.024448812
-0.033750746 0.018409498 0.024329931
-0.03277928 0.018438345 0.024417132
-0.03144107 0.018256104 0.024191916
-0.030560158 0.018336093 0.024319172
-0.029932749 0.018578947 0.024416596
-0.028441204 0.01828363 0.024462432
-0.027730426 0.018486949 0.024808168
-0.026736213 0.018509684 0.025021583
-0.025441429 0.018317828 0.025403827
-0.024585096 0.018438822 0.025869668
-0.023534788 0.018418528 0.026023597
-0.022395594 0.018323667 0.026474684
-0.021306381 0.018262612 0.026835948
-0.020403886 0.018363498 0.027193725
-0.019354831 0.018336155 0.027494878
-0.018328408 0.018328408 0.027580976
-0.017112372 0.018118981 0.028207421
-0.016076254 0.018085785 0.028373837
-0.015202599 0.018243117 0.028903455
-0.014008839 0.018011363 0.029440135
-0.01325624 0.018354792 0.029653758
-0.012249172 0.018373756 0.030111939
-0.011016885 0.01802763 0.03078559
-0.0099953003 0.017991541 0.031735808
-0.0089047728 0.017809546 0.032150298
-0.0079893433 0.017976021 0.032840312
-0.0068844194 0.017702792 0.03320995
-0.0059647565 0.01789427 0.033711612
-0.0048675593 0.017523214 0.034306943
-0.0039282674 0.017677203 0.034233779
-0.0029660005 0.017796002 0.034116685
-0.0019568976 0.017612077 0.033969522
-0.0009844884 0.017720791 0.03387925
0 0.017846938 0.03287378
0.0010048336 0.018087003 0.032089859
0.0020306027 0.018275423 0.03101486
0.0030546277 0.018327765 0.031100154
0.0040535005 0.01824075 0.030753016
0.0050536375 0.018193094 0.030410409
0.0060542901 0.018162871 0.03001076
0.0070540993 0.018139113 0.02946198
0.0080638872 0.018143745 0.029065073
0.009107017 0.018214034 0.028773218
0.010162761 0.018292971 0.028209448
0.011081186 0.018132849 0.027896911
0.012168801 0.018253202 0.027531356
0.013102695 0.018142194 0.027033478
0.014207418 0.01826668 0.026818663
0.015234556 0.018281467 0.02685973
0.016238885 0.018268745 0.026643813
0.017219972 0.01823291 0.026484787
0.018445611 0.018445611 0.02659145
0.019316681 0.018300014 0.026699513
0.02020677 0.018186092 0.027050883
0.021273168 0.018234143 0.027742833
0.022326015 0.018266739 0.027803361
0.023134755 0.018105458 0.02788499
0.024369119 0.018276839 0.027564436
0.025046259 0.018033305 0.026639789
0.026051885 0.018035918 0.02497685
0.027236499 0.018157665 0.020206809
-0.042082317 0.019501561 0.018704742
-0.040775273 0.019368256 0.022359252
-0.039909806 0.01944324 0.023533404
-0.03874366 0.01937183 0.024410486
-0.037858497 0.01944085 0.024787664
-0.036902573 0.01947636 0.025063246
-0.035740975 0.019402245 0.025051743
-0.03528228 0.019716568 0.02507925
-0.033798963 0.019460009 0.02514264
-0.032880433 0.019522758 0.024880379
-0.032028567 0.01963041 0.024982363
-0.030664157 0.019420633 0.025175869
-0.029390236 0.019255672 0.025336623
-0.02847877 0.019324878 0.025045693
-0.027733801 0.019516379 0.025259882
-0.026304891 0.019222805 0.025464952
-0.025368597 0.019280134 0.025649637
-0.024309408 0.019244948 0.025954723
-0.023443975 0.019366762 0.026172787
-0.022458578 0.019396044 0.026663154
-0.021495523 0.019448329 0.026853353
-0.020312725 0.019297089 0.027247429
-0.019223139 0.019223139 0.02744925
-0.01832849 0.01934674 0.027504265
-0.017245919 0.019274849 0.027940363
-0.016205857 0.019244453 0.028112203
-0.015122332 0.019154953 0.028553307
-0.014156356 0.019212198 0.028997988
-0.013110681 0.019161766 0.029297471
-0.01203882 0.019061465 0.029466689
-0.011128798 0.01922247 0.029999793
-0.010087308 0.019165885 0.030565262
-0.009059933 0.019126527 0.03098768
-0.0081165442 0.019276792 0.031298548
-0.0070068203 0.019018512 0.031106412
-0.0059633376 0.018883903 0.031348318
-0.0049881935 0.018955138 0.032070696
-0.0039857947 0.018932525 0.031994849
-0.0030215692 0.019136606 0.031540871
-0.0020138018 0.019131118 0.03153953
-0.0010050831 0.019096578 0.031214654
0 0.01927601 0.031021953
0.00101562 0.019296778 0.030998439
0.0020293938 0.019279242 0.030999035
0.0030111547 0.019070646 0.030833393
0.0040074768 0.019035514 0.030505091
0.0050274753 0.019104408 0.030017704
0.006126672 0.019401129 0.029700786
0.0070566959 0.019153889 0.029427946
0.0080502899 0.01911944 0.029046208
0.0091558369 0.019328991 0.028753817
0.010069041 0.019131178 0.028452694
0.011102009 0.019176198 0.027963072
0.012236801 0.019374935 0.02760154
0.013112264 0.019164078 0.027293891
0.014174251 0.019236485 0.027462035
0.015178022 0.019225495 0.027264625
0.016260386 0.019309208 0.027370781
0.01727592 0.019308381 0.027358532
0.018448964 0.019473907 0.027492255
0.019261286 0.019261286 0.02754119
0.019917322 0.018921457 0.027954906
0.02119025 0.019172132 0.028571099
0.022043819 0.019037843 0.028724611
0.022883154 0.018903475 0.028645813
0.023959212 0.01896771 0.028159142
0.025081372 0.019061843 0.02793017
0.025954075 0.01896644 0.026660889
0.027221885 0.019156139 0.023943812
0.030149385 0.020458512 0.0052801371
-0.042166669 0.020569105 0.019397676
-0.041259997 0.020629998 0.023150653
-0.039763168 0.020391367 0.024228334
-0.039017756 0.020535659 0.024825841
-0.037732776 0.020396093 0.025585711
-0.036629543 0.020349745 0.025936753
-0.035844959 0.020482833 0.025824189
-0.034700334 0.020411961 0.02577436
-0.033654675 0.020396773 0.025759459
-0.032709397 0.020443372 0.025811553
-0.031744238 0.020480152 0.025942236
-0.030549314 0.020366209 0.02604571
-0.029656189 0.020452542 0.026053995
-0.028386869 0.020276334 0.025918305
-0.027446628 0.020330833 0.025918305
-0.026415473 0.020319594 0.026125371
-0.02545822 0.020366574 0.026172787
-0.024364823 0.020304019 0.026586622
-0.023459312 0.020399399 0.026622921
-0.022343483 0.020312257 0.026900321
-0.021305179 0.020290645 0.027038187
-0.020273767 0.020273767 0.027255625
-0.019286687 0.020301774 0.027435601
-0.018230991 0.020256657 0.027484179
-0.017295543 0.020347696 0.027863532
-0.016129896 0.020162368 0.028007627
-0.015188959 0.020251945 0.028173357
-0.014179347 0.020256208 0.02869308
-0.013018091 0.020027833 0.029079199
-0.012172494 0.02028749 0.029171735
-0.011071865 0.020130664 0.02944392
-0.010055033 0.020110065 0.029915065
-0.0090599274 0.020133171 0.030082226
-0.0080950996 0.020237748 0.030402035
-0.0070562642 0.020160755 0.03047809
-0.0060656434 0.020218812 0.030433536
-0.0050807563 0.020323025 0.030736178
-0.0040359762 0.020179879 0.030529737
-0.0030429424 0.020286283 0.030623615
-0.0020173327 0.020173326 0.030561119
-0.001013426 0.020268518 0.030677348
0 0.020288069 0.030677348
0.0010075187 0.020150375 0.030441016
0.002005762 0.020057619 0.03033343
0.0030180961 0.020120639 0.030191004
0.0040357327 0.020178663 0.030127764
0.0050740577 0.020296231 0.029891521
0.0060974294 0.020324765 0.029482096
0.0070251497 0.020071855 0.029335827
0.0081589101 0.020397274 0.029223502
0.0090330783 0.020073507 0.028814316
0.010151224 0.020302448 0.02872318
0.011207134 0.020376606 0.028267086
0.012127936 0.020213228 0.028029084
0.013076647 0.020117918 0.027796328
0.014106069 0.020151526 0.027981877
0.01522091 0.020294545 0.027976751
0.01612892 0.02016115 0.027988732
0.017342089 0.020402458 0.028165728
0.01826713 0.020296812 0.028320074
0.019083267 0.020087648 0.028562605
0.020180099 0.020180099 0.029186577
0.02093864 0.019941561 0.030424654
0.022019742 0.020017946 0.03048268
0.022909744 0.019921515 0.03007713
0.024109501 0.020091251 0.029146522
0.025364008 0.020291205 0.028736889
0.025876671 0.019905131 0.028104514
0.027377725 0.020279795 0.024899304
0.030674759 0.021910543 0.0057058334
-0.041597564 0.02130607 0.02206251
-0.040610094 0.0213203 0.023965508
-0.039630499 0.0213395 0.024604946
-0.038759425 0.021419683 0.025359333
-0.037873819 0.021495951 0.025754869
-0.036865063 0.021504622 0.026013613
-0.035623852 0.021374313 0.026092529
-0.034485519 0.021299878 0.026088595
-0.033546265 0.021347625 0.026339054
-0.032524608 0.021344274 0.026409835
-0.031047624 0.021032261 0.026565224
-0.030397879 0.021278515 0.026615798
-0.029596061 0.021431629 0.026575893
-0.028463198 0.0213474 0.026518464
-0.027553041 0.021430142 0.026654303
-0.026705965 0.021570204 0.026769698
-0.02536382 0.021305608 0.026890308
-0.024446331 0.021390541 0.027151138
-0.023478694 0.021437069 0.027247906
-0.022221589 0.021211518 0.027365535
-0.021296078 0.021296078 0.027228504
-0.020192122 0.02120173 0.027625024
-0.019194089 0.021214519 0.027561903
-0.018270276 0.021315323 0.027591646
-0.017116485 0.021143893 0.028190911
-0.01623784 0.021312164 0.028056651
-0.015154164 0.02121583 0.028551519
-0.014055707 0.02108356 0.028968155
-0.013172292 0.02127832 0.029108495
-0.012059924 0.021104869 0.029141724
-0.011135399 0.021258492 0.029255629
-0.010134709 0.021282891 0.029489577
-0.0090664411 0.021155031 0.02991873
-0.0080239316 0.021062821 0.030012548
-0.0070668696 0.02120061 0.030088335
-0.00606158 0.021215532 0.030200034
-0.0050140442 0.021058988 0.030251265
-0.0040198728 0.021104334 0.030337274
-0.0029981649 0.020987155 0.030321419
-0.0020260869 0.021273911 0.030248612
-0.0010092168 0.021193551 0.030382335
0 0.021234537 0.030382335
0.00099983939 0.020996628 0.029958427
0.0020100116 0.021105122 0.029704988
0.0030266612 0.021186629 0.029572815
0.0040123225 0.021064695 0.029535979
0.0050362684 0.021152327 0.029415876
0.0060561006 0.021196354 0.029187143
0.0070114667 0.021034401 0.029431313
0.0080375699 0.021098621 0.029292166
0.0090571279 0.021133298 0.029139459
0.01011462 0.021240706 0.029079676
0.011081166 0.021154953 0.028801382
0.01220819 0.021364333 0.028764486
0.013086845 0.021140289 0.028586864
0.014155386 0.02123308 0.028723389
0.015166942 0.021233719 0.028586864
0.0161658 0.021217614 0.028850317
0.017178539 0.021220548 0.028813988
0.017768791 0.020730257 0.029403955
0.019149018 0.021164704 0.030103832
0.019838173 0.020830084 0.031053454
0.021191366 0.021191366 0.031596065
0.022071777 0.021068515 0.031728417
0.022803361 0.020820459 0.031487018
0.023982437 0.020984633 0.03057003
0.025146553 0.021123104 0.029640287
0.025743829 0.020793093 0.028816342
0.027293865 0.021228561 0.026525646
0.02958744 0.02219058 0.0073705912
-0.041775811 0.022416288 0.022101343
-0.040558666 0.022307266 0.024075329
-0.039391272 0.022220718 0.02505368
-0.0389846 0.022570031 0.02561897
-0.037689336 0.022409873 0.026088595
-0.036644045 0.022393584 0.026852697
-0.03556817 0.022357134 0.026900113
-0.034602627 0.022389933 0.026870519
-0.033537801 0.022358535 0.026795864
-0.0325028 0.022345673 0.026725262
-0.031500757 0.022355376 0.026755273
-0.030665219 0.022487827 0.027112633
-0.029463559 0.022351664 0.02707085
-0.028289342 0.022227339 0.027011693
-0.027380433 0.022309981 0.027046651
-0.0260737 0.022062361 0.027158111
-0.025178136 0.02215676 0.027300268
-0.024346801 0.022317899 0.027476102
-0.023433616 0.022414763 0.027479649
-0.022502154 0.022502154 0.027640313
-0.021155339 0.022162734 0.027598143
-0.020171182 0.022188302 0.027834773
-0.01930476 0.02235288 0.027715236
-0.018227326 0.022277843 0.028186858
-0.017157627 0.022203987 0.028416008
-0.016078958 0.022108566 0.028443217
-0.015172212 0.022252576 0.028683513
-0.014191826 0.022301439 0.029102713
-0.013100123 0.022169439 0.029186219
-0.01211235 0.022205975 0.029241353
-0.011151314 0.022302628 0.029262811
-0.010043272 0.0220952 0.029519975
-0.0090685142 0.02216748 0.029857218
-0.0081421658 0.022390954 0.030001223
-0.0070599578 0.022188438 0.030138731
-0.0060264342 0.022096924 0.030260116
-0.00508034 0.022353496 0.030388534
-0.004034189 0.022188039 0.030226052
-0.0030222377 0.022163076 0.030391008
-0.0020286161 0.022314776 0.030122459
-0.001003115 0.022068528 0.030122459
0 0.022170395 0.030336261
0.0010037847 0.022083262 0.029967576
0.0020181441 0.022199586 0.030149162
0.0030368494 0.022270229 0.030126393
0.004011055 0.0220608 0.030022889
0.0049972404 0.021987857 0.030029148
0.0060362965 0.022133086 0.029747218
0.0070701842 0.02222058 0.029789597
0.0080613289 0.022168653 0.029596359
0.0091468515 0.022358971 0.029378414
0.010093181 0.022204999 0.029549003
0.011008048 0.022016097 0.029225409
0.012118192 0.022216685 0.02910012
0.013117527 0.022198891 0.02911815
0.014153492 0.022241201 0.029415995
0.015103767 0.022152191 0.029303193
0.016118865 0.02216344 0.029952198
0.016912548 0.021886826 0.03055644
0.018044494 0.022054382 0.030977637
0.018913049 0.02189932 0.031683296
0.020213749 0.022235123 0.031974941
0.020869335 0.021863112 0.032562315
0.021770583 0.021770583 0.032915473
0.022959689 0.021961441 0.03213796
0.023885887 0.021895396 0.031775147
0.025109775 0.022096602 0.03097868
0.025996299 0.021996869 0.029436171
0.027204936 0.022166984 0.027690738
0.029767156 0.023388479 0.0097945333
-0.041856918 0.02348071 0.022889018
-0.040368892 0.023212112 0.024363935
-0.039390527 0.023230312 0.025533855
-0.038723562 0.023437945 0.026299626
-0.037264686 0.023164533 0.026890576
-0.036689151 0.023440292 0.027518988
-0.035459217 0.023301771 0.027664214
-0.034575123 0.023389054 0.027624279
-0.033495087 0.023345061 0.02755928
-0.032521572 0.023374882 0.02766481
-0.031304453 0.023225885 0.027627736
-0.030198371 0.023152085 0.027648985
-0.02911434 0.023090683 0.027617365
-0.028365314 0.02330008 0.02754429
-0.027150303 0.023128035 0.02754429
-0.026243798 0.023215668 0.027692527
-0.025545238 0.023501618 0.027824342
-0.024385691 0.023369621 0.028386086
-0.023265403 0.023265403 0.028134942
-0.02218342 0.023191759 0.028425038
-0.021230254 0.023252184 0.028545082
-0.020219432 0.023252349 0.028538823
-0.019224655 0.023271952 0.028675884
-0.0182401 0.023306796 0.028780133
-0.01732376 0.023438029 0.02888307
-0.016113689 0.023163429 0.028988391
-0.015189252 0.023290187 0.028997988
-0.014152362 0.02325031 0.029347658
-0.01309117 0.023161301 0.029321462
-0.012140591 0.023269465 0.029262811
-0.011121639 0.023254337 0.029467136
-0.010120369 0.023276851 0.029552013
-0.0090551935 0.023141053 0.029932439
-0.0080270898 0.023077883 0.029994875
-0.0069694952 0.022899771 0.030250221
-0.0060489634 0.023187693 0.030312389
-0.0050443229 0.023203887 0.030378461
-0.0040192581 0.023110732 0.030260116
-0.003044276 0.02333945 0.03019312
-0.0020055647 0.023063993 0.030192584
-0.0010039483 0.023090811 0.030302227
0 0.023307903 0.030292779
0.0010034613 0.023079609 0.030021429
0.0020064169 0.023073796 0.030206889
0.003003004 0.023023032 0.030493647
0.0039788391 0.022878325 0.030310392
0.0050455406 0.023209488 0.030286074
0.0060803713 0.023308091 0.030256659
0.0070406473 0.023133555 0.030274093
0.0080864923 0.023248665 0.030117065
0.0090310927 0.02307946 0.029879659
0.010044908 0.023103289 0.029963791
0.011124985 0.023261335 0.029757887
0.011993095 0.022986766 0.029974818
0.013096707 0.023171099 0.030359328
0.014073151 0.023120178 0.030633777
0.01496113 0.022940399 0.031580567
0.016057244 0.023082286 0.031897783
0.017071476 0.023096705 0.03213954
0.017863542 0.022825638 0.0323762
0.019020163 0.023024408 0.033097506
0.019833963 0.02280906 0.03312701
0.020766841 0.022744635 0.033396006
0.022224875 0.023235098 0.033436507
0.023029169 0.023029169 0.033335
0.023940885 0.02294335 0.033029556
0.024810079 0.022825273 0.032000184
0.026027417 0.023024254 0.030859262
0.026646852 0.02269917 0.028766811
0.02954196 0.02426661 0.010242492
-0.044553917 0.025459381 0.0051681995
-0.041480955 0.024281533 0.022951305
-0.039994806 0.023996884 0.025170982
-0.039110754 0.024068156 0.025884748
-0.03841861 0.024264386 0.026843637
-0.037189759 0.024123086 0.027584821
-0.036367379 0.024244919 0.029041231
-0.035583522 0.02440013 0.02921477
-0.033922616 0.023945376 0.029157788
-0.033350095 0.024254613 0.028973699
-0.032043111 0.024032332 0.029108852
-0.031106135 0.024082167 0.029117018
-0.030408842 0.024327073 0.029240072
-0.029249182 0.024206217 0.029078692
-0.028434288 0.024372246 0.029009432
-0.027211936 0.024188386 0.029037058
-0.026500542 0.024462039 0.029037058
-0.025105648 0.024101419 0.029051542
-0.024420049 0.024420049 0.029027551
-0.023217283 0.024226729 0.029053688
-0.02229517 0.024322003 0.029202342
-0.021200351 0.024228971 0.029207468
-0.020423166 0.024507802 0.029140472
-0.019276138 0.024348807 0.029002458
