ply
format ascii 1.0
comment PCL generated
element vertex 1254
property float x
property float y
property float z
element camera 0
property float view_px
property float view_py
property float view_pz
property float x_axisx
property float x_axisy
property float x_axisz
property float y_axisx
property float y_axisy
property float y_axisz
property float z_axisx
property float z_axisy
property float z_axisz
property float focal
property float scalex
property float scaley
property float centerx
property float centery
property int viewportx
property int viewporty
property float k1
property float k2
end_header
-0.009486814 -0.031622715 0.013115734
-0.0084856944 -0.031821355 0.011423111
-0.0074202218 -0.031800952 0.010846019
-0.0063516917 -0.031758457 0.010758966
-0.0053124097 -0.031874459 0.01058194
-0.0042714491 -0.032035865 0.010726213
-0.0031916173 -0.031916171 0.01058194
-0.0020977408 -0.031466112 0.010719597
-0.0010642029 -0.031926088 0.010895282
0 -0.031479269 0.012560785
0.0010584872 -0.031754617 0.013649076
0.0021016321 -0.031524483 0.014487147
0.0031600604 -0.031600606 0.015742272
0.0041739228 -0.031304419 0.016618669
0.0051905052 -0.031143034 0.017443419
0.0062761805 -0.031380903 0.018076807
0.0072951047 -0.031264734 0.019164234
0.0082420371 -0.03090764 0.020527095
0.0093117403 -0.031039136 0.02136749
0.010199882 -0.030599646 0.021775484
0.01115161 -0.030413482 0.021685541
0.012241833 -0.030604584 0.02159071
0.013385784 -0.030890269 0.021610439
0.014347893 -0.030745486 0.021358103
0.015499872 -0.030999744 0.020547807
0.017126534 -0.032112252 0.0070792735
-0.024650596 -0.029786138 0.020479381
-0.02378054 -0.029984159 0.022378266
-0.022533353 -0.029703058 0.023116529
-0.021383164 -0.029529132 0.023327202
-0.020606823 -0.029879896 0.023446381
-0.01959501 -0.029908175 0.023498803
-0.018484898 -0.029781226 0.023145229
-0.017474316 -0.029809128 0.022154063
-0.01648213 -0.029873861 0.021141738
-0.015592048 -0.030144628 0.020013332
-0.014506237 -0.030048633 0.018845767
-0.013685349 -0.030528858 0.017145157
-0.0125096 -0.030231535 0.015249968
-0.011629116 -0.030658579 0.013911754
-0.010583557 -0.030692317 0.011888146
-0.009502233 -0.03061831 0.010569662
-0.008537353 -0.030947905 0.0091745257
-0.0074283932 -0.030774772 0.0085208118
-0.006438233 -0.031118127 0.0085402727
-0.0053404449 -0.030974582 0.0087697208
-0.0042610425 -0.030892558 0.0087697208
-0.003205521 -0.030986704 0.0087184906
-0.0021254923 -0.03081964 0.0092789233
-0.0010533904 -0.030548323 0.0093097389
0 -0.030841187 0.0097929835
0.0010611749 -0.030774072 0.011123091
0.0020998283 -0.030447511 0.013455272
0.003135463 -0.030309476 0.014418453
0.0041856342 -0.03034585 0.01560998
0.0052312883 -0.030341474 0.017052442
0.0062361029 -0.030141165 0.017873228
0.0072764372 -0.030145241 0.018942297
0.0082975421 -0.03007859 0.020312339
0.0093922447 -0.030263903 0.021442622
0.010317873 -0.029921835 0.021804988
0.01117104 -0.029450925 0.021760225
0.012396533 -0.029958289 0.021749079
0.013352677 -0.029786743 0.021692485
0.014324143 -0.02967144 0.021419138
0.015434341 -0.029839726 0.020648181
0.016889516 -0.030612249 0.0072531402
-0.026892519 -0.03011962 0.0055015385
-0.024740927 -0.028864415 0.02106595
-0.023656243 -0.028798904 0.022589713
-0.022389017 -0.028495112 0.023185164
-0.021614002 -0.028818667 0.023673832
-0.020665141 -0.028931199 0.023642123
-0.019518821 -0.028764578 0.023552537
-0.018473949 -0.028737254 0.023186237
-0.01764271 -0.029058581 0.022268474
-0.016483102 -0.028845429 0.021038502
-0.015734307 -0.029370707 0.019543141
-0.014726674 -0.029453348 0.017953515
-0.013558158 -0.029202186 0.015229762
-0.012578939 -0.029350858 0.014093876
-0.011722807 -0.029839871 0.011689365
-0.010619485 -0.029734557 0.009740293
-0.0097299526 -0.030270966 0.0073635876
-0.0087217949 -0.030526284 0.0054565668
-0.0021793961 -0.030511543 0.0056431592
-0.0010835646 -0.030339807 0.0076110959
0 -0.029835772 0.0084764659
0.0010608763 -0.029704537 0.0089925826
0.0021306137 -0.029828589 0.010109663
0.0031882066 -0.029756594 0.013310611
0.0042077862 -0.029454503 0.01423642
0.0052255252 -0.029262941 0.016095847
0.0062981495 -0.029391365 0.017298043
0.0072564404 -0.029025761 0.018866509
0.0083247973 -0.02913679 0.020284027
0.0092302654 -0.028716384 0.021394074
0.010265582 -0.028743632 0.021902233
0.011197765 -0.028503403 0.021781951
0.012280535 -0.028654581 0.021760225
0.013193023 -0.028415741 0.021741718
0.014426252 -0.028852504 0.021695107
0.015463513 -0.028865224 0.020906925
0.017119087 -0.029958401 0.010646194
-0.026883442 -0.029034117 0.0056669712
-0.02495065 -0.028069483 0.021529317
-0.023609987 -0.02771607 0.023016751
-0.022542516 -0.027665816 0.023589373
-0.021506693 -0.027651463 0.023727179
-0.020541068 -0.027730444 0.023601115
-0.019310858 -0.027441746 0.023356318
-0.01864448 -0.027966723 0.023099899
-0.017647788 -0.02802884 0.022119701
-0.016661961 -0.028117059 0.020430118
-0.015613886 -0.028104994 0.019301385
-0.014665351 -0.028283179 0.01632306
-0.013743073 -0.028543305 0.014546067
-0.012872976 -0.028964199 0.012187093
-0.011907436 -0.029227346 0.0079993904
0.001084845 -0.029290818 0.0072421134
0.0021334114 -0.028801054 0.0087548792
0.0031922194 -0.028729975 0.010718167
0.0042703133 -0.028824616 0.013322532
0.0052245939 -0.02821281 0.015432805
0.0062189307 -0.027985189 0.016722858
0.0072942991 -0.028135154 0.018395633
0.0082576107 -0.027869437 0.02028656
0.0092422441 -0.027726734 0.021816403
0.010251525 -0.027679119 0.022392452
0.011158874 -0.027389964 0.022177249
0.012222067 -0.027499653 0.022169471
0.013403961 -0.027838999 0.022055715
0.014323168 -0.027623255 0.021946073
0.015354901 -0.027638821 0.021400183
0.016774785 -0.028307449 0.011331558
-0.026798282 -0.027870212 0.0064664781
-0.024859997 -0.026931664 0.022069544
-0.023518858 -0.026586534 0.023280054
-0.022674536 -0.026797181 0.023726135
-0.021387728 -0.026480043 0.023962796
-0.020650191 -0.02684525 0.023800671
-0.019529982 -0.026725238 0.023772866
-0.018577522 -0.026834201 0.023129493
-0.017507041 -0.026775476 0.022236645
-0.016613146 -0.026996363 0.020502865
-0.01571952 -0.027247168 0.018395156
-0.014700118 -0.027300218 0.015418887
-0.01398805 -0.027976099 0.013000607
-0.013056828 -0.028289793 0.0082246959
0.0021765991 -0.028295789 0.0064858794
0.0032405702 -0.028084943 0.0083297789
0.0042427862 -0.02757811 0.010616034
0.0052723037 -0.02741598 0.014426321
0.0063488162 -0.027511537 0.01609382
0.0072443979 -0.026907763 0.017699867
0.0083334344 -0.027083661 0.019791603
0.0093154879 -0.02691141 0.021917939
0.010282412 -0.026734274 0.022490919
0.011273785 -0.02664713 0.022384971
0.012301444 -0.026653128 0.022383928
0.013244097 -0.026488194 0.022177249
0.014282109 -0.026523918 0.022147745
0.015523426 -0.026907271 0.02165252
0.016668595 -0.027086467 0.011510462
-0.026829852 -0.026829852 0.006744951
-0.024808526 -0.025842216 0.022169501
-0.023697255 -0.025757885 0.023255944
-0.022484286 -0.025550324 0.023734242
-0.021397496 -0.025473209 0.02450341
-0.020635227 -0.025794035 0.024249196
-0.019499581 -0.025657345 0.024082184
-0.01859688 -0.025829 0.023217797
-0.017532554 -0.025783168 0.02232793
-0.016318064 -0.025496975 0.020388842
-0.015802288 -0.026337149 0.017571032
-0.01502601 -0.026832161 0.014452428
-0.014202182 -0.027311889 0.0094995797
0.0042943335 -0.026839584 0.0083297789
0.0053221271 -0.026610637 0.012602687
0.0062468653 -0.026028607 0.015594125
0.0073499014 -0.026249647 0.017457515
0.0082948422 -0.025921382 0.01973325
0.0092173079 -0.025603633 0.021986425
0.010231114 -0.025577787 0.022853643
0.011143746 -0.025326697 0.022741258
0.012192442 -0.025400924 0.022632003
0.013278617 -0.025535801 0.022624224
0.014336313 -0.02560056 0.022532701
0.015298745 -0.02549791 0.021555424
0.016827881 -0.026293566 0.011909187
-0.026446661 -0.025388792 0.0082886219
-0.024729183 -0.024729183 0.022268653
-0.023658931 -0.024687579 0.023159325
-0.022464974 -0.024507245 0.024204135
-0.021639444 -0.024730792 0.024391174
-0.020708883 -0.024850661 0.024293989
-0.019384723 -0.024485966 0.024159074
-0.018497923 -0.024663899 0.023596346
-0.017336736 -0.024475392 0.022480756
-0.016574522 -0.024861785 0.02039507
-0.015679704 -0.025087526 0.016514242
-0.015110906 -0.02590441 0.012019604
0.0043743537 -0.026246121 0.0059938729
0.0053777141 -0.025813028 0.0091803372
0.0062927324 -0.02517093 0.014238477
0.0073710438 -0.02527215 0.017010808
0.0083530657 -0.025059197 0.019850731
0.009341388 -0.02491037 0.022208363
0.010351326 -0.024843182 0.023321986
0.011275284 -0.024600619 0.023121864
0.012267306 -0.024534613 0.023012608
0.013305156 -0.024563365 0.022983104
0.014300177 -0.024514589 0.022853673
0.015292865 -0.024468584 0.021523029
0.01712626 -0.02568939 0.012973905
-0.026688986 -0.024553867 0.0089522004
-0.024827583 -0.023793101 0.022214621
-0.023570128 -0.023570128 0.023482203
-0.022469589 -0.023490936 0.024344563
-0.021479197 -0.023524834 0.024475902
-0.020471141 -0.023541814 0.024406075
-0.019415284 -0.023502713 0.024346411
-0.018495154 -0.023632698 0.024053752
-0.017538821 -0.023728995 0.022678733
-0.016747259 -0.024074184 0.020350307
-0.016054289 -0.024616577 0.015207767
-0.01519403 -0.024961621 0.0062211156
0.0054466757 -0.02505471 0.0071909428
0.00641819 -0.024603063 0.012087464
0.007342298 -0.024124695 0.016979635
0.0083640274 -0.024046578 0.020284027
0.0092594996 -0.023663167 0.022828192
0.010280421 -0.023644971 0.023706615
0.01117385 -0.023363505 0.023516029
0.012271292 -0.023519976 0.023471445
0.013402808 -0.023712663 0.023419917
0.014217945 -0.023358053 0.023173422
0.015332512 -0.023509851 0.021371841
0.016757965 -0.024089575 0.012837678
-0.026603086 -0.023410713 0.0094593465
-0.024650188 -0.022596005 0.022308528
-0.023444802 -0.022425462 0.023593098
-0.022449994 -0.022449994 0.0242396
-0.0213941 -0.022412866 0.024953008
-0.020497113 -0.022546824 0.025033385
-0.019422621 -0.02248935 0.024964631
-0.018318193 -0.022388903 0.024322718
-0.017435798 -0.022563973 0.02282232
-0.016250269 -0.02234412 0.021191806
-0.016331233 -0.023952473 0.015202314
-0.01519275 -0.02387432 0.0051469505
0.006485567 -0.023780411 0.010187805
0.0072666258 -0.022837967 0.016979635
0.0082497867 -0.022686912 0.021425188
0.0092509361 -0.022613401 0.023342043
0.010263602 -0.022579925 0.024349868
0.01126981 -0.022539619 0.024209499
0.012216048 -0.02239609 0.024168849
0.013258337 -0.022437187 0.0240224
0.01438264 -0.02260129 0.023420006
0.015351998 -0.022516264 0.021424443
0.016895607 -0.02323146 0.013834298
-0.026374178 -0.022154311 0.011691809
-0.024560116 -0.021490103 0.022404164
-0.023329087 -0.02130047 0.023413867
-0.022529237 -0.021505183 0.024382144
-0.021380357 -0.021380357 0.025300264
-0.020469444 -0.021492917 0.025433481
-0.019481843 -0.021532565 0.025386304
-0.018482694 -0.021563146 0.024958253
-0.017515698 -0.021637039 0.023508012
-0.016132703 -0.021174174 0.021852136
-0.016316989 -0.022843786 0.015148282
-0.015116402 -0.022674603 0.0051109791
0.0064024143 -0.02240845 0.010186344
0.0074350871 -0.022305261 0.016979635
0.0082401764 -0.021630464 0.022296876
0.0092675164 -0.021624206 0.023730487
0.010264977 -0.021556454 0.0250853
0.01112067 -0.02123037 0.024775922
0.012212572 -0.021372002 0.024515748
0.013350307 -0.021565881 0.024303854
0.014270402 -0.021405602 0.023474991
0.015201625 -0.021282276 0.022522062
0.016873531 -0.022146508 0.012907118
0.01804729 -0.022293711 0.0053398311
-0.0261724 -0.020937918 0.012531132
-0.024574913 -0.020479094 0.022693634
-0.023473294 -0.020411558 0.023728758
-0.022467896 -0.020425361 0.024985224
-0.021307733 -0.020293077 0.025363803
-0.020378385 -0.020378385 0.025538623
-0.019260103 -0.020273792 0.025553793
-0.018243039 -0.020270042 0.025474936
-0.017468281 -0.020550918 0.024891049
-0.016261332 -0.020326665 0.023317099
-0.015746715 -0.020995617 0.019758731
-0.014999893 -0.021428417 0.0052804053
0.0064821499 -0.021607166 0.01236555
0.0074654468 -0.021329848 0.018870413
0.0082295388 -0.020573847 0.022931814
0.0091651361 -0.020366969 0.024539739
0.010197493 -0.020394986 0.025443584
0.011187044 -0.020340079 0.025257736
0.012206096 -0.020343492 0.025072694
0.013135992 -0.020209217 0.024656624
0.014241548 -0.020345068 0.024156034
0.015468294 -0.02062439 0.022592872
0.0167238 -0.02090475 0.011696488
-0.02663908 -0.020245701 0.012531132
-0.02456622 -0.019448258 0.022664756
-0.023662148 -0.019546991 0.023814023
-0.02253484 -0.019461907 0.025118023
-0.021379288 -0.019343166 0.025490522
-0.020478185 -0.019454276 0.025583059
-0.019454326 -0.019454326 0.025586128
-0.018176254 -0.019186046 0.025710851
-0.017280057 -0.019313006 0.025069803
-0.016439551 -0.019521968 0.024142653
-0.01546378 -0.019587455 0.022041827
-0.015105681 -0.020500567 0.0090326965
0.005375836 -0.020428177 0.005782336
0.0065856148 -0.020854447 0.01425153
0.007302661 -0.019821508 0.022396356
0.0081808483 -0.019429516 0.024203598
0.0091700861 -0.019359071 0.025550216
0.010180466 -0.019342886 0.025965095
0.01112545 -0.019216686 0.025616467
0.012083384 -0.019132026 0.025358737
0.013213559 -0.019312127 0.024910182
0.014307191 -0.019416902 0.02381891
0.015322271 -0.019408209 0.022474289
0.016726805 -0.01986308 0.010923654
-0.026067626 -0.018768689 0.010879815
-0.02465952 -0.01849464 0.021376133
-0.023499819 -0.018391162 0.023657173
-0.022463836 -0.018379502 0.02485019
-0.021434125 -0.018372105 0.025315404
-0.020459857 -0.018413872 0.025547922
-0.019159457 -0.018151063 0.025742412
-0.018401796 -0.018401796 0.025858939
-0.017358609 -0.018379701 0.025646687
-0.016314846 -0.0183542 0.024967015
-0.015959533 -0.019151438 0.023464739
-0.015320489 -0.01969777 0.021362156
-0.013920278 -0.019274231 0.0052261651
0.0055031474 -0.01981133 0.009878546
0.0065129204 -0.01953876 0.021721542
0.0071721938 -0.018442784 0.024726629
0.0081481747 -0.018333394 0.025926888
0.0090883821 -0.018176764 0.026103467
0.010107347 -0.018193224 0.026298672
0.011215816 -0.018353153 0.026104748
0.012244788 -0.018367181 0.02585876
0.013134354 -0.018186027 0.02528137
0.014215941 -0.018277638 0.023966163
0.015472868 -0.018567439 0.021328181
0.016929343 -0.019045509 0.01105693
-0.026339509 -0.017910866 0.0086823106
-0.024586312 -0.017415306 0.017329216
-0.023688426 -0.017508836 0.023170024
-0.022442194 -0.017341696 0.024591953
-0.021453068 -0.017366769 0.025035143
-0.020594727 -0.017505519 0.025296479
-0.019249415 -0.017223161 0.025714219
-0.01831726 -0.017299635 0.025944918
-0.017034562 -0.017034562 0.025848895
-0.016242605 -0.017257767 0.025309801
-0.015223432 -0.017253224 0.024410903
-0.015027242 -0.018247366 0.02396211
-0.01471493 -0.019242601 0.021047503
0.004447714 -0.018902784 0.0076096058
0.0057385787 -0.019511169 0.02112186
0.0063210218 -0.017909562 0.023806721
0.007109019 -0.017264761 0.025921792
0.0081013124 -0.017215287 0.026274711
0.0090849893 -0.017160535 0.026451856
0.010200412 -0.017340701 0.026543856
0.011142013 -0.017219475 0.026120573
0.012249047 -0.017352818 0.02582553
0.013225231 -0.017294534 0.025335819
0.014168908 -0.017205102 0.023331136
0.015300139 -0.017340157 0.020700276
0.016788017 -0.017837269 0.010301173
-0.026340691 -0.016858041 0.007422775
-0.024730418 -0.016486945 0.012950689
-0.023574738 -0.016399818 0.021632344
-0.02245119 -0.016328137 0.023598522
-0.021434827 -0.016331296 0.024873912
-0.020433763 -0.016347012 0.025022328
-0.019296488 -0.016249673 0.025690317
-0.018308187 -0.016273944 0.025944918
-0.017333308 -0.016313702 0.026053101
-0.016227715 -0.016227715 0.02585277
-0.015247828 -0.016264351 0.025498539
-0.01424538 -0.016280433 0.025319546
-0.013796566 -0.016980389 0.023939341
-0.013738934 -0.018318579 0.016870767
0.0033544793 -0.017890556 0.0069088638
0.0044203904 -0.017681561 0.017052054
0.0052447869 -0.016783318 0.024423897
0.0060976087 -0.016260291 0.025946438
0.0070500514 -0.016114403 0.0262146
0.008087039 -0.016174078 0.02642861
0.0090256212 -0.01604555 0.026404709
0.010135072 -0.016216116 0.026430279
0.011180007 -0.016261829 0.026126534
0.012131917 -0.01617589 0.02582255
0.013137137 -0.016168782 0.02517578
0.01439456 -0.016450925 0.022540271
0.015151023 -0.016161092 0.016481519
0.016913448 -0.016913448 0.0085591376
-0.02480579 -0.015503619 0.010453761
-0.023525244 -0.015342549 0.015644729
-0.022539016 -0.015367512 0.022561252
-0.021489285 -0.01534949 0.024417281
-0.020361489 -0.015271117 0.024839401
-0.019302975 -0.01523919 0.025453925
-0.018366931 -0.015305776 0.025928795
-0.017349472 -0.015308358 0.026099026
-0.016226359 -0.015212211 0.02617529
-0.015147921 -0.015147921 0.026087016
-0.013926201 -0.01492093 0.025949508
-0.01322787 -0.015262927 0.025542498
-0.01253068 -0.01566335 0.02467519
-0.012236349 -0.016685931 0.020757675
-0.011236154 -0.016854232 0.0059501827
0.0023014024 -0.017260518 0.0076677501
0.0032354395 -0.016177198 0.022044539
0.0041151945 -0.015431979 0.02592212
0.0050107208 -0.015032163 0.026129365
0.0060148523 -0.015037131 0.026248544
0.0071147033 -0.015245792 0.026427716
0.0081048785 -0.015196647 0.026806295
0.0091268243 -0.015211374 0.026693165
0.010081838 -0.015122758 0.026426584
0.011214587 -0.015292619 0.025856495
0.012186443 -0.015233053 0.025451571
0.013364836 -0.015420964 0.023717761
0.014245051 -0.015262554 0.019305527
0.015369865 -0.015369865 0.013332278
0.017020287 -0.015956519 0.0078040063
-0.0249073 -0.014529259 0.0078778863
-0.02367009 -0.014407881 0.011606753
-0.022534359 -0.014340047 0.019412547
-0.021495059 -0.014330039 0.023029566
-0.020534959 -0.014374471 0.024538815
-0.019517519 -0.01438133 0.024994552
-0.018181209 -0.014140941 0.025690317
-0.017102635 -0.014084523 0.026049107
-0.016232697 -0.01420361 0.02616787
-0.015161163 -0.014150418 0.026238859
-0.014127824 -0.014127824 0.026405215
-0.013053291 -0.014057389 0.026277751
-0.011974113 -0.013969799 0.026026994
-0.01128931 -0.014368213 0.025577962
-0.010425117 -0.014595164 0.02271083
-0.009780135 -0.015213544 0.015691012
-0.0091603659 -0.016030639 0.0050987005
-0.0011389332 -0.015945064 0.0051341057
0 -0.015914401 0.0069064796
0.0010864045 -0.015209663 0.013987571
0.0020944229 -0.014660961 0.023724318
0.003056579 -0.014264035 0.025961965
0.0040346454 -0.014121258 0.02612713
0.0050385944 -0.014108065 0.026597798
0.0060599982 -0.014139997 0.026597798
0.00710767 -0.01421534 0.026319474
0.0081519159 -0.014265852 0.026319474
0.0090618543 -0.014096218 0.026091546
0.010151589 -0.014212225 0.026015401
0.011149266 -0.014189974 0.025398612
0.01225479 -0.014297255 0.024346799
0.013252027 -0.014271414 0.021686435
0.014294937 -0.014294937 0.014992893
0.015548459 -0.014511895 0.0099735856
0.016992601 -0.014868525 0.007276237
-0.025410175 -0.013763846 0.0070201457
-0.024181457 -0.013667779 0.0095354617
-0.022722337 -0.013426836 0.012300849
-0.021590164 -0.013365339 0.020092964
-0.020638943 -0.013415313 0.023158014
-0.019351453 -0.013240467 0.02469334
-0.018364655 -0.013263363 0.02519235
-0.017214831 -0.013164282 0.025736779
-0.015995355 -0.012996226 0.026062459
-0.015184364 -0.013159783 0.026326686
-0.013978089 -0.012979654 0.02670452
-0.013156537 -0.013156537 0.026524454
-0.012006554 -0.013007101 0.026734501
-0.011152884 -0.013180682 0.02687487
-0.0099069187 -0.012878994 0.026788384
-0.0091328062 -0.013191831 0.026402771
-0.0082164584 -0.013351744 0.025607705
-0.0072882683 -0.013535355 0.023039341
-0.0065182643 -0.014122906 0.017142773
-0.0055314032 -0.014381649 0.016610563
-0.0045232391 -0.014700526 0.0085306764
-0.0033029194 -0.014312651 0.014799654
-0.0021539577 -0.014000725 0.017173886
-0.0010630939 -0.01382022 0.023549795
0 -0.013533464 0.024234682
0.0010106218 -0.013138083 0.026071399
0.0019784428 -0.012859878 0.026887864
0.0030072911 -0.013031594 0.027063251
0.0040152399 -0.01304953 0.027109027
0.0050317063 -0.013082436 0.027109027
0.0060736714 -0.013159622 0.026888072
0.007022108 -0.013041058 0.026274383
0.0080906954 -0.01314738 0.026129365
0.0090818098 -0.013118169 0.025870562
0.010129293 -0.013168082 0.025534421
0.011200463 -0.013236912 0.024071246
0.012190765 -0.013206662 0.022116095
0.013239681 -0.013239681 0.016295582
0.014457299 -0.013424635 0.011684746
0.015542461 -0.013470132 0.009282738
0.017013516 -0.013823481 0.0069252849
-0.025597589 -0.012798795 0.0057731867
-0.02437507 -0.012717427 0.0078982413
-0.02323688 -0.012674662 0.0096287429
-0.022076264 -0.012615007 0.012156308
-0.020757424 -0.012454455 0.020071566
-0.019454749 -0.012287209 0.022842646
-0.01842746 -0.012284973 0.024498224
-0.017252402 -0.012178167 0.024867535
-0.016188556 -0.012141418 0.025677711
-0.015325325 -0.012260259 0.026440352
-0.014041429 -0.012035511 0.026918203
-0.01312668 -0.012116935 0.026906163
-0.012107644 -0.012107644 0.027470648
-0.01114169 -0.012154572 0.027534038
-0.01003869 -0.012046427 0.027866095
-0.0090677114 -0.012090283 0.028005481
-0.0080182049 -0.012027306 0.028040975
-0.007011991 -0.012020556 0.027877599
-0.0060090595 -0.012018119 0.028318524
-0.0049812109 -0.011954906 0.027946591
-0.0039855684 -0.011956706 0.028136611
-0.0030159364 -0.012063745 0.027330816
-0.0020129716 -0.01207783 0.026993513
-0.001003326 -0.012039912 0.027332008
0 -0.01203556 0.027260184
0.00099887676 -0.011986521 0.027229071
0.0019927372 -0.011956423 0.027237177
0.0030349516 -0.012139807 0.027141571
0.0040099467 -0.01202984 0.027064472
0.0050528194 -0.012126767 0.026926517
0.0060134474 -0.012026895 0.02669248
0.0070734178 -0.012125859 0.02604726
0.0081181396 -0.012177209 0.025734633
0.0091538094 -0.012205079 0.025164753
0.010250114 -0.012300136 0.023933768
0.01128645 -0.01231249 0.022216171
0.012351084 -0.012351084 0.016937584
0.013462448 -0.012426876 0.013308644
0.014598278 -0.01251281 0.01009953
0.015941992 -0.012753593 0.008374691
0.01718536 -0.01288902 0.0053320229
-0.024536369 -0.011734785 0.006675601
-0.023475535 -0.011737768 0.0081245899
-0.022228679 -0.011643593 0.0096503198
-0.021118082 -0.011614945 0.012123376
-0.019685186 -0.011396687 0.019347906
-0.018491253 -0.01130021 0.022724956
-0.017303331 -0.011196272 0.023457885
-0.01630763 -0.011211495 0.024716765
-0.015148264 -0.011108726 0.025908202
-0.014190828 -0.011149936 0.026213557
-0.012986651 -0.010988705 0.026474208
-0.012194051 -0.011177881 0.026946574
-0.011095575 -0.011095575 0.027596176
-0.010056471 -0.011062118 0.027876675
-0.0090546515 -0.011066796 0.027962714
-0.0081114089 -0.011153187 0.028022766
-0.0070269993 -0.011042427 0.028055817
-0.0060420362 -0.011077066 0.028516829
-0.0050668963 -0.011147171 0.028205246
-0.0040024333 -0.011006691 0.028375298
-0.0030326096 -0.011119569 0.028197795
-0.0020227465 -0.011125105 0.02799347
-0.0010115657 -0.011127221 0.027782619
0 -0.011068924 0.027732521
0.0010080304 -0.011088334 0.027247071
0.0019933677 -0.010963522 0.027185649
0.0030348038 -0.011127613 0.026936352
0.003998776 -0.010996633 0.026699126
0.005051659 -0.01111365 0.026443273
0.0060745813 -0.011136732 0.025788397
0.0071310904 -0.011205998 0.025630593
0.0080811828 -0.011111626 0.024071246
0.0091747586 -0.011213594 0.022972882
0.010261208 -0.011287329 0.021786511
0.011456156 -0.011456156 0.016801715
0.012668537 -0.011612826 0.013254642
0.013861773 -0.011729192 0.011095196
0.014701664 -0.011551307 0.0091660917
0.015929431 -0.011681583 0.0078042448
-0.024641551 -0.010713717 0.0058625042
-0.023443595 -0.010656179 0.0074991286
-0.022305552 -0.010621691 0.0083302855
-0.021325242 -0.010662621 0.009832114
-0.02024756 -0.01065661 0.011997759
-0.019026268 -0.010570149 0.012462735
-0.017528094 -0.010310643 0.019957751
-0.016444154 -0.010277596 0.023187697
-0.015284484 -0.010189656 0.023801535
-0.014261692 -0.010186923 0.025794536
-0.013134024 -0.010103095 0.026064038
-0.012042772 -0.010035643 0.026467115
-0.011109037 -0.010099124 0.027619094
-0.010127817 -0.010127817 0.027887791
-0.0090459203 -0.010051023 0.027991325
-0.0080397828 -0.010049729 0.028186351
-0.0070308736 -0.010044105 0.028388113
-0.006058523 -0.010097538 0.028687418
-0.0050541232 -0.010108246 0.028657734
-0.0040531647 -0.010132912 0.02867803
-0.0030501806 -0.010167268 0.028658986
-0.00201081 -0.010054049 0.028641433
-0.0010123025 -0.010123024 0.028318644
0 -0.0099822469 0.028094739
0.001003098 -0.01003098 0.02774474
0.0020365333 -0.010182666 0.027237177
0.0030346373 -0.010115458 0.026834756
0.0040590162 -0.01014754 0.02583167
0.0050724093 -0.010144819 0.025683492
0.006075345 -0.010125575 0.023916721
0.0071012676 -0.010144668 0.023014158
0.0082075018 -0.010259377 0.02216354
0.0093711643 -0.010412404 0.019150585
0.010495881 -0.010495881 0.016372681
0.011649944 -0.010590858 0.01326409
0.012740289 -0.010616907 0.011344701
0.013640123 -0.010492402 0.0095081329
0.014821175 -0.010586553 0.0081175268
0.015961541 -0.010641027 0.0063682497
-0.023522649 -0.0096229017 0.0067030489
-0.022433436 -0.0096143289 0.0077771246
-0.021226652 -0.0095519936 0.0082980096
-0.020119181 -0.0095301373 0.0095612407
-0.019145783 -0.0095728915 0.010975331
-0.018062359 -0.0095624253 0.011936903
-0.016897338 -0.0095047513 0.015762031
-0.015425195 -0.0092551168 0.021483511
-0.014193451 -0.009124361 0.023497045
-0.01317995 -0.0091245808 0.025079459
-0.012110756 -0.0090830671 0.026058823
-0.011102323 -0.009083719 0.027106315
-0.010007146 -0.0090064313 0.028000265
-0.0091067934 -0.0091067934 0.028107464
-0.0080680521 -0.0090765581 0.028339326
-0.0070905951 -0.0091164792 0.028641433
-0.0060603456 -0.0090905176 0.028811961
-0.005029127 -0.0090524284 0.028707713
-0.0040531619 -0.009119614 0.028776914
-0.0030426809 -0.0091280425 0.02867803
-0.0020088567 -0.0090398546 0.028641433
-0.0010077296 -0.0090695657 0.028318644
0 -0.0090860529 0.027896464
0.00099968293 -0.0089971451 0.027260184
0.0020014197 -0.0090063885 0.026892841
0.0030474358 -0.0091423066 0.025926828
0.0041016839 -0.0092287883 0.025516033
0.0051205601 -0.009217008 0.023317993
0.0061404379 -0.0092106564 0.022172809
0.0072441916 -0.0093139596 0.018530875
0.0084093614 -0.0094605312 0.016361386
0.0094430251 -0.0094430251 0.0137178
0.010558663 -0.0095027965 0.01302126
0.011553441 -0.0094528152 0.011387736
0.012548009 -0.0094110062 0.0096844733
0.013705089 -0.0094881384 0.0084241629
0.014818641 -0.0095262695 0.0074340701
0.016068483 -0.0096410885 0.0050413609
-0.02369263 -0.0086155022 0.0050963163
-0.022434622 -0.0085465228 0.006721735
-0.021328852 -0.0085315406 0.0077378452
-0.020244045 -0.0085238088 0.0083136559
-0.018998805 -0.0084439144 0.009485364
-0.018078849 -0.0085076932 0.010891944
-0.017010316 -0.0085051581 0.011858761
-0.015826263 -0.0084406734 0.012542874
-0.014562685 -0.0083215348 0.0179407
-0.013316891 -0.00819501 0.022931844
-0.012289087 -0.0081927255 0.024884403
-0.011133077 -0.0080967834 0.026018023
-0.010066793 -0.008053435 0.027106315
-0.0090963058 -0.0080856057 0.027919054
-0.0081562502 -0.0081562502 0.028388917
-0.0069787549 -0.0079757199 0.028588504
-0.006013487 -0.0080179824 0.028707713
-0.0050104968 -0.0080167949 0.028687418
-0.0040280172 -0.0080560343 0.028679281
-0.0030331495 -0.0080883987 0.028641433
-0.002047248 -0.0081889918 0.028565615
-0.0010053446 -0.0080427565 0.028151214
0 -0.0080023026 0.027298063
0.0010113189 -0.008090551 0.026752353
0.0020244478 -0.0080977911 0.026083857
0.0030611309 -0.0081630163 0.02389735
0.0040638619 -0.0081277238 0.022172809
0.0051385099 -0.008221616 0.019732088
0.0063166847 -0.0084222462 0.01624313
0.0073875133 -0.0084428722 0.013612121
0.0084024938 -0.0084024938 0.012838036
0.0094945403 -0.0084395921 0.012339264
0.010528751 -0.0084230015 0.011586547
0.011621087 -0.0084517002 0.0098630786
0.012752688 -0.0085017923 0.0090676546
0.013774728 -0.0084767565 0.0077834427
0.014843311 -0.0084818918 0.0054029226
-0.02238453 -0.0074615097 0.0054975152
-0.021620903 -0.0075673158 0.0068315864
-0.020184824 -0.0074365139 0.0078053474
-0.019191545 -0.0074633788 0.0082384646
-0.018155284 -0.0074757054 0.009409368
-0.016899021 -0.007393322 0.010703802
-0.015839797 -0.0073919054 0.011583656
-0.014902862 -0.0074514309 0.011689544
-0.013667642 -0.0073595 0.014428496
-0.012407396 -0.0072376477 0.021052748
-0.011293148 -0.0071865488 0.024519235
-0.01002643 -0.0070185009 0.025562346
-0.0091389697 -0.0071080881 0.026109755
-0.0080937268 -0.0070820111 0.027240366
-0.0071233064 -0.0071233064 0.028318644
-0.0060807015 -0.0070941518 0.028679281
-0.0050439551 -0.0070615374 0.028641433
-0.0040335706 -0.007058749 0.028630495
-0.0030382299 -0.0070892032 0.028451115
-0.0020286883 -0.0071004089 0.028208077
-0.0010063061 -0.007044143 0.027198136
0 -0.0071670725 0.026144743
0.0010168533 -0.0071179727 0.024588346
0.002059293 -0.0072075254 0.023454964
0.0030898058 -0.0072095469 0.021348417
0.0041523273 -0.0072665727 0.016672075
0.0052710366 -0.0073794518 0.014028698
0.0063411207 -0.0073979739 0.013040215
0.007260703 -0.007260703 0.0125283
0.0084360456 -0.0073815398 0.011794686
0.0094845612 -0.0073768813 0.011441737
0.01062737 -0.0074391593 0.0099838078
0.011665877 -0.0074237399 0.0091069341
0.012755479 -0.0074406965 0.0082519352
0.013797554 -0.0074294521 0.0058433414
-0.021445191 -0.0064335573 0.0056097209
-0.020316396 -0.0064157038 0.0068328083
-0.019274546 -0.0064248489 0.0077769458
-0.018089747 -0.0063846163 0.008363843
-0.017161908 -0.0064357151 0.009341687
-0.016134711 -0.0064538843 0.010478109
-0.01478916 -0.0063382112 0.011189163
-0.013731572 -0.0063376483 0.011321336
-0.012557084 -0.0062785419 0.011971503
-0.011469251 -0.0062559554 0.016645044
-0.010199933 -0.0061199605 0.022236139
-0.0091991359 -0.0061327578 0.024495006
-0.0081457477 -0.0061093108 0.024898291
-0.0070950058 -0.0060814335 0.02600798
-0.0061321566 -0.0061321566 0.026190668
-0.0050362353 -0.0060434821 0.026196897
-0.0041068937 -0.0061603403 0.026229441
-0.0030517052 -0.0061034104 0.026114851
-0.0020265759 -0.0060797273 0.02573809
-0.0010195773 -0.0061174631 0.024905384
0 -0.0061130929 0.022921741
0.001033661 -0.0062019657 0.019996285
0.0020896168 -0.0062688505 0.018272728
0.0031693105 -0.006338621 0.014170915
0.0042059016 -0.0063088527 0.013390034
0.005252962 -0.0063035544 0.01241684
0.0062956563 -0.0062956563 0.011839509
0.0074129086 -0.0063539217 0.011482418
0.0084973453 -0.0063730087 0.010882705
0.0094794603 -0.0063196407 0.0097944736
0.010594279 -0.0063565671 0.0091125071
0.011585231 -0.0063192169 0.0082698464
0.012810113 -0.0064050565 0.0061900318
-0.020282378 -0.0053374679 0.0056097209
-0.019096499 -0.0053045829 0.0067127347
-0.018114185 -0.0053277016 0.0077990592
-0.017042601 -0.0053258128 0.0081410706
-0.015927805 -0.0053092679 0.0092725754
-0.014848529 -0.0053030457 0.010153532
-0.013869886 -0.0053345715 0.010562181
-0.012701585 -0.0052923271 0.011161327
-0.011593675 -0.005269852 0.011579812
-0.010594033 -0.0052970164 0.013698041
-0.0093815876 -0.0052119931 0.017497987
-0.0081777256 -0.0051110783 0.020368487
-0.0071374956 -0.0050982111 0.023332208
-0.0060694525 -0.0050578769 0.0245924
-0.0051001175 -0.0051001175 0.024986506
-0.0040826476 -0.0051033092 0.024608582
-0.0031063161 -0.0051771933 0.023256391
-0.0020256701 -0.005064175 0.022030264
-0.0010353427 -0.0051767132 0.019772142
0 -0.0051398422 0.018378377
0.0010478416 -0.0052392082 0.014463305
0.0021079797 -0.0052699493 0.013668984
0.0031743578 -0.0052905963 0.012633502
0.0042075096 -0.0052593867 0.012173653
0.005221135 -0.005221135 0.011674315
0.0062560025 -0.0052133352 0.011128604
0.0074135903 -0.0052954215 0.010610342
0.0084713027 -0.0052945637 0.0094823837
0.0095549449 -0.0053083026 0.0089653134
0.01062329 -0.0053116451 0.0083066523
0.011605742 -0.0052753375 0.0056754649
-0.019240664 -0.0042757033 0.0051639974
-0.018134369 -0.0042669103 0.0065606833
-0.017060626 -0.0042651566 0.0076227486
-0.016066259 -0.0042843353 0.0082213581
-0.014837856 -0.0042393873 0.008951664
-0.013717376 -0.0042207311 0.009511292
-0.012735585 -0.0042451951 0.010136664
-0.011728089 -0.0042647598 0.011049718
-0.010442556 -0.0041770227 0.011413753
-0.0095980056 -0.0042657801 0.012560308
-0.0084656887 -0.0042328443 0.01374948
-0.0072046947 -0.0041169687 0.015506387
-0.0061358316 -0.0040905545 0.017028421
-0.0051100161 -0.004088013 0.018882215
-0.0040898346 -0.0040898346 0.018933564
-0.0031064036 -0.0041418714 0.0170964
-0.0020973077 -0.0041946154 0.014948368
-0.0010514074 -0.0042056297 0.014772534
0 -0.0042524701 0.013673544
0.001061163 -0.0042446521 0.012870491
0.0020846257 -0.0041692513 0.012372732
0.0031599968 -0.0042133294 0.0118047
0.0042100665 -0.0042100665 0.011417508
0.0053038932 -0.004243115 0.010845363
0.0063648191 -0.0042432128 0.010292679
0.0074253208 -0.0042430405 0.0089816451
0.0084398407 -0.0042199204 0.0083612502
0.0095431441 -0.0042413976 0.007846415
0.010733304 -0.0042933216 0.005058974
-0.018198973 -0.0032115835 0.0050461292
-0.016937198 -0.0031757248 0.0057995617
-0.015966073 -0.0031932145 0.0070460141
-0.014670118 -0.0031435965 0.0071273148
-0.013767588 -0.0031771357 0.0079639554
-0.012665653 -0.0031664132 0.0089169741
-0.011627777 -0.0031712118 0.0099189579
-0.010599438 -0.0031798317 0.010298073
-0.0094561214 -0.0031520405 0.010931075
-0.0084692873 -0.0031759827 0.011883408
-0.007463038 -0.0031984448 0.012429208
-0.0062281485 -0.0031140742 0.012970775
-0.0051598172 -0.0030958904 0.013404489
-0.0041421154 -0.0031065864 0.013404489
-0.0031607975 -0.0031607975 0.013292134
-0.0021030854 -0.003154628 0.013107598
-0.0010544183 -0.0031632548 0.013043046
0 -0.0031585086 0.012372732
0.0010556377 -0.0031669131 0.011905611
0.0021072314 -0.0031608471 0.011499494
0.0031551272 -0.0031551272 0.010910273
0.0042491802 -0.003186885 0.010459214
0.0053204708 -0.0031922825 0.00926283
0.0063755671 -0.0031877835 0.0087993145
0.0073759803 -0.0031611344 0.0080558658
0.0085131805 -0.0031924425 0.0062536001
-0.01606686 -0.002142248 0.0052685738
-0.014937373 -0.0021339105 0.0059081614
-0.013812169 -0.0021249489 0.0068876147
-0.012668775 -0.0021114626 0.007568568
-0.011728529 -0.0021324598 0.0087586045
-0.010577659 -0.0021155321 0.0090974271
-0.0095078396 -0.0021128533 0.0098498464
-0.0084606409 -0.0021151602 0.010852873
-0.0073620123 -0.0021034321 0.011193305
-0.0063379877 -0.0021126627 0.011585355
-0.0052501336 -0.0021000535 0.012111843
-0.0041909572 -0.0020954786 0.012141705
-0.0031628592 -0.002108573 0.012294829
-0.0021154347 -0.0021154347 0.012174278
-0.001051386 -0.002102772 0.012172908
0 -0.0021070468 0.011693358
0.0010558371 -0.0021116743 0.011124313
0.002098362 -0.002098362 0.010422438
0.0031760293 -0.002117353 0.0096192956
0.0041841283 -0.0020920641 0.0087791681
0.0052537918 -0.0021015168 0.0080257952
0.0064005409 -0.0021335138 0.0064626038
-0.013767932 -0.0010590716 0.0057381094
-0.012765436 -0.0010637863 0.0066412389
-0.011654886 -0.0010595352 0.007019192
-0.010558862 -0.0010558863 0.0082203746
-0.0096308244 -0.0010700916 0.0089793801
-0.0084899822 -0.0010612478 0.0096335411
-0.0074013434 -0.0010573348 0.010080934
-0.0063932845 -0.0010655475 0.010577589
-0.0053157262 -0.0010631452 0.010913938
-0.004210508 -0.001052627 0.011009932
-0.0031709373 -0.0010569792 0.011011839
-0.0021124058 -0.0010562029 0.011095852
-0.0010474934 -0.0010474934 0.011079609
0 -0.001049021 0.010491639
0.0010518227 -0.0010518227 0.0099900961
0.0021088694 -0.0010544347 0.0089172423
0.0031650839 -0.0010550279 0.0080322623
0.0042790407 -0.0010697602 0.0067668259
-0.012837882 0 0.0058099627
-0.011676378 0 0.0071122348
-0.010529027 0 0.0074645579
-0.0096544456 0 0.0082168579
-0.0085309772 0 0.0090788603
-0.0074504442 0 0.0093593597
-0.0063951346 0 0.0095589757
-0.0053078169 0 0.0096595287
-0.0042193015 0 0.0096065998
-0.0031585086 0 0.0095445514
-0.0021287538 0 0.0095228255
-0.0010562162 0 0.0093287826
0 0 0.0089532435
0.0010570699 0 0.0082136691
0.0021326563 0 0.0067072809
-0.010610065 0.0010610066 0.0061622858
-0.0094953105 0.0010550346 0.0069509447
-0.0085494826 0.0010686853 0.0073007047
-0.0074393256 0.0010627608 0.0074805319
-0.006370239 0.0010617065 0.0076142251
-0.0053462116 0.0010692424 0.0082168579
-0.0042392868 0.0010598217 0.0082911849
-0.003178986 0.001059662 0.0081695318
-0.0021210643 0.0010605322 0.0080096126
-0.00106103 0.00106103 0.0075303018
0 0.0010635332 0.0070473552
0.0010826151 0.0010826151 0.0055808723
-0.033326726 0.0021501111 0.0050264895
-0.010741631 0.0021483263 0.005176127
-0.0096411575 0.0021424796 0.0060361028
-0.0085450131 0.0021362533 0.0061471462
-0.0074247457 0.0021213559 0.0063857734
-0.0063994434 0.0021331478 0.0064712167
-0.0053022634 0.0021209053 0.0067913234
-0.0042309547 0.0021154773 0.0064154565
-0.0031860899 0.0021240599 0.0065203905
-0.0021332393 0.0021332393 0.0060970783
-0.034305047 0.0032160981 0.0053146482
-0.033184864 0.0032114384 0.0059278011
-0.031987309 0.003198731 0.0056409538
-0.031099575 0.0032171973 0.0052758753
-0.0086833844 0.0032562693 0.0050882697
-0.0075475345 0.0032346577 0.0052102208
-0.03526289 0.0042742901 0.0057641268
-0.034115642 0.0042644553 0.0063890219
-0.033063535 0.0042662625 0.0067154169
-0.032194559 0.0042926078 0.0063816905
-0.030873159 0.0042583668 0.0062527061
-0.029892191 0.0042703133 0.0058850646
-0.028956018 0.0042897803 0.0055191517
-0.027649298 0.0042537381 0.0055192113
-0.027000846 0.0043201353 0.0050711632
-0.025825437 0.0043042395 0.0052846968
-0.036890019 0.0052700029 0.0050671697
-0.036308441 0.0053394767 0.0058503151
-0.035287976 0.0053466628 0.0064859986
-0.03394549 0.0053039822 0.0069747865
-0.03320206 0.0053551709 0.0076162219
-0.031741306 0.0052902177 0.0075263083
-0.030956944 0.0053374036 0.007032156
-0.029681884 0.0053003361 0.0067194402
-0.028901007 0.005352038 0.0065457821
-0.027882641 0.0053620464 0.0064052939
-0.02676733 0.0053534657 0.0061837435
-0.025745837 0.0053637158 0.005941838
-0.024542304 0.0053352835 0.005443275
-0.023592381 0.0053619044 0.0051806569
0.024738308 0.0053778924 0.0053472519
-0.037012056 0.0063449242 0.0057837665
-0.036187403 0.0063860123 0.0065024793
-0.035108309 0.0063833292 0.0075548291
-0.033792637 0.006336119 0.0079693198
-0.032971036 0.0063814903 0.0088670254
-0.032002866 0.0064005735 0.0083717704
-0.030904748 0.006394085 0.0080356002
-0.029372631 0.006294135 0.0077024102
-0.02874399 0.0063875527 0.0077008009
-0.027517864 0.0063502765 0.007676512
-0.026597554 0.006383413 0.0072134733
-0.025667541 0.0064168852 0.0069527626
-0.024664661 0.006434259 0.0066969693
-0.023355857 0.0063697789 0.0063744783
-0.022636037 0.0064674392 0.0060080588
-0.021400129 0.0064200391 0.0054011345
-0.020362679 0.00643032 0.0052589476
-0.019366639 0.0064555462 0.0051017404
0.024418266 0.0063699824 0.0055729151
0.02587349 0.0064683724 0.0054682493
0.02678619 0.006428685 0.0052618086
-0.038133953 0.0074149356 0.0052620769
-0.036955293 0.0073910588 0.0066242814
-0.035661329 0.0073420382 0.0076301098
-0.034902375 0.0074035344 0.0088962317
-0.033886563 0.007412686 0.0096160471
-0.032660674 0.0073749912 0.0099619627
-0.031934094 0.0074512879 0.0097092688
-0.030526133 0.0073683769 0.009254992
-0.029763112 0.007440778 0.0087042153
-0.02860651 0.0074165021 0.0087042153
-0.027557876 0.0074194283 0.0083501637
-0.026544757 0.007432532 0.0082719624
-0.025459103 0.0074255718 0.0081825554
-0.024656661 0.007504201 0.0080794096
-0.023507584 0.0074796858 0.0079153478
-0.022278411 0.0074261371 0.0066287518
-0.02146746 0.0075136111 0.0066156685
-0.02041045 0.0075196391 0.0063406527
-0.019294595 0.0075034536 0.0060307384
-0.017982356 0.0074044997 0.0060397685
-0.017308388 0.0075724195 0.0055586696
-0.015933923 0.0074358308 0.0054778159
-0.015095642 0.0075478209 0.0050862134
0.022535397 0.0075117988 0.0053431988
0.023666952 0.007530394 0.0055786669
0.024547467 0.0074709682 0.0060828626
0.025574489 0.0074592261 0.0058668554
0.026632987 0.0074572363 0.0054177344
-0.037856765 0.0084126145 0.0062536597
-0.036651742 0.0083775409 0.0077697635
-0.035820764 0.0084284144 0.009085238
-0.034906767 0.0084622465 0.010138988
-0.033486336 0.0083715841 0.010444641
-0.032736409 0.0084481053 0.010774583
-0.031724695 0.0084599182 0.010471761
-0.030443596 0.008398233 0.010291517
-0.029409239 0.00840264 0.0098273456
-0.028677437 0.0084970184 0.009603709
-0.027284538 0.0083952425 0.0091984868
-0.026706278 0.0085460087 0.009260118
-0.025447691 0.0084825633 0.0090119243
-0.024592517 0.0085539194 0.0090287924
-0.023422116 0.008517134 0.0085963905
-0.022481926 0.008564543 0.008262068
-0.021159584 0.0084638335 0.0079579651
-0.020233633 0.0085194241 0.0075923502
-0.019242169 0.0085520763 0.0073283613
-0.018162718 0.0085471617 0.0073078275
-0.016986925 0.0084934626 0.0068057477
-0.016010851 0.0085391207 0.0063325763
-0.015070199 0.0086115422 0.0061017275
-0.013922061 0.0085674217 0.0057154
-0.01292526 0.0086168395 0.005591929
0.021400698 0.0085602794 0.0051677525
0.022181487 0.00845009 0.0057640076
0.023317661 0.00847915 0.0059978962
0.024549123 0.0085388254 0.0062251091
0.025570372 0.0085234577 0.0060003698
0.026773209 0.0085674264 0.0057964921
-0.037894115 0.0094735287 0.0070495307
-0.036879364 0.0094832648 0.0091982186
-0.035775509 0.0094699869 0.010202199
-0.034830749 0.0094992947 0.010865927
-0.033620685 0.0094558178 0.011460304
-0.032299444 0.0093772579 0.011947542
-0.031197796 0.0093593383 0.01150474
-0.030702943 0.0095284991 0.011118412
-0.029394064 0.0094480915 0.010747284
-0.028549472 0.0095164897 0.010693967
-0.027586766 0.0095492648 0.010614902
-0.026557326 0.0095606362 0.01029402
-0.025449265 0.0095434738 0.0098699331
-0.024552023 0.0096073123 0.0095492303
-0.023356602 0.0095549729 0.0093043447
-0.022343948 0.009575977 0.0092227459
-0.021266837 0.0095700761 0.0089627802
-0.020094885 0.0095186289 0.008706212
-0.019134821 0.0095674107 0.0082958043
-0.018101705 0.0095832553 0.0083271563
-0.017063016 0.009597946 0.0078234375
-0.015946038 0.009567623 0.0073575079
-0.014970462 0.0096238675 0.0072234571
-0.013754197 0.0095221363 0.0065847933
-0.012812702 0.009609526 0.0063129663
-0.011771961 0.0096316049 0.0061283708
-0.010742705 0.009668435 0.0057885945
-0.0096766874 0.0096766874 0.0050494969
0.015920455 0.009552272 0.0053331256
0.017107846 0.0096231634 0.0054911971
0.018137943 0.0096024396 0.0053738952
0.019359536 0.0096797682 0.0055399239
0.02051254 0.0097164661 0.0058250725
0.021350855 0.009607885 0.0059561729
0.022544656 0.0096619949 0.0062363148
0.023419539 0.0095807202 0.0061682761
0.024477836 0.0095782829 0.0063301921
0.025698997 0.0096371239 0.0062618256
0.02672464 0.0096208695 0.0058520138
0.027593093 0.0095514553 0.0052138865
-0.037623055 0.010450849 0.0053324997
-0.036991961 0.010569132 0.0082328618
-0.035831224 0.010538595 0.010291517
-0.035051223 0.010621582 0.010829657
-0.033636205 0.010511314 0.01145798
-0.032730866 0.010558343 0.011947542
-0.031471316 0.010490439 0.011492252
-0.030408457 0.010485674 0.010984182
-0.029377006 0.010491787 0.010700971
-0.028485388 0.010550143 0.010647655
-0.027128074 0.010433874 0.010536045
-0.026558798 0.010623518 0.010393411
-0.025460904 0.010608709 0.0099480152
-0.024287429 0.010559751 0.0097871423
-0.02324542 0.0105661 0.0094952881
-0.022295328 0.010616822 0.0092190802
-0.021159647 0.010579824 0.009108752
-0.020245245 0.010655392 0.0089502335
-0.019025171 0.01056954 0.0087082386
-0.018044723 0.010614543 0.0085324049
-0.017090267 0.010681416 0.0081987977
-0.015780626 0.010520417 0.008040905
-0.014927783 0.010662702 0.0078941882
-0.013840504 0.010646542 0.0073134005
-0.012752718 0.010627265 0.007124275
-0.01168815 0.010625591 0.0069352388
-0.01059399 0.01059399 0.0065036118
-0.0096196206 0.010688468 0.006239593
-0.008605835 0.010757293 0.0057409704
0.0042750356 0.010687589 0.005050838
0.0053299302 0.01065986 0.0052160025
0.0063697319 0.01061622 0.0052902102
0.007472863 0.010675518 0.0052069128
0.0085604917 0.010700614 0.005359143
0.0096497871 0.010721985 0.005359143
0.010712209 0.010712209 0.0055176914
0.011648604 0.01058964 0.0055912733
0.012939162 0.010782635 0.0054514408
0.013984651 0.010757424 0.0055176914
0.015053154 0.010752253 0.0055601299
0.016161643 0.010774428 0.0060668886
0.016981117 0.010613198 0.0064497888
0.018248683 0.010734519 0.0060736537
0.019291526 0.010717515 0.0062373579
0.020178147 0.010620077 0.0062066019
0.02128993 0.010644965 0.0064142048
0.022535652 0.010731262 0.006450206
0.023514563 0.010688437 0.0063015223
0.024647148 0.010716151 0.0065712333
0.025698939 0.010707891 0.0063015223
0.026633324 0.010653329 0.0061004162
0.027706917 0.010656507 0.0057618022
-0.03689817 0.011596567 0.0079581738
-0.035998214 0.011646481 0.010027975
-0.034597896 0.011532633 0.010792881
-0.033558186 0.011535627 0.011192381
-0.032487594 0.011527855 0.011981577
-0.031195745 0.01143844 0.011192381
-0.030473465 0.0115589 0.010984182
-0.029397219 0.011548907 0.010672152
-0.028426057 0.011580985 0.010618836
-0.027059883 0.011448411 0.010413498
-0.026385207 0.01160949 0.010119736
-0.025421271 0.011651416 0.0097836256
-0.024477586 0.011706672 0.0096788406
-0.023266662 0.011633331 0.0093855858
-0.022143036 0.011598733 0.0091530979
-0.021206962 0.011663829 0.0089928508
-0.020078499 0.011624393 0.0088715553
-0.019022832 0.011625065 0.0086700022
-0.017921381 0.011596188 0.0085054934
-0.016887434 0.01161011 0.0081222355
-0.015983336 0.011721113 0.0079036057
-0.014893547 0.011702073 0.0076988637
-0.013805543 0.011681614 0.0072130859
-0.012684622 0.01162757 0.0067588091
-0.011709501 0.011709501 0.0066337287
-0.010677993 0.011745793 0.0063405931
-0.0095899235 0.011721018 0.0056797266
-0.0085906442 0.011812136 0.0055202246
0.0064753601 0.011871493 0.0052218437
0.007419474 0.011659173 0.00513798
0.0086003942 0.011825542 0.0053024888
0.0095751155 0.011702919 0.0052902102
0.010671291 0.01173842 0.0053580403
0.011721565 0.011721565 0.0054856837
0.012822799 0.011754232 0.0053024888
0.013794455 0.01167223 0.0053244233
0.014925101 0.011726865 0.0054824352
0.016009834 0.011740544 0.0058881342
0.017062837 0.011730701 0.0057583749
0.018206077 0.011780403 0.0057911575
0.019380139 0.011843419 0.0060065389
0.020397775 0.011809237 0.0060207546
0.021421248 0.011781686 0.0061715543
0.022309208 0.011685775 0.0063116252
0.023262646 0.011631323 0.0062863529
0.024499981 0.011717382 0.0063808858
0.025383307 0.011634015 0.0062618256
0.026474936 0.011648972 0.0058756769
0.027608639 0.011680578 0.0054090619
-0.035508353 0.01253236 0.0099347532
-0.03455935 0.012567037 0.010410607
-0.033824082 0.01268403 0.010994732
-0.032436296 0.012555985 0.011687577
-0.031570949 0.012628378 0.011022329
-0.030305577 0.012540238 0.010883749
-0.029301487 0.01255778 0.01058802
-0.028534031 0.012681791 0.010602802
-0.027040552 0.012480254 0.010471642
-0.026196269 0.012574208 0.0098290145
-0.025293883 0.012646941 0.0097167492
-0.024131557 0.012590377 0.0095063448
-0.023191359 0.012649832 0.009396255
-0.022182351 0.012675629 0.009175092
-0.02107396 0.012644376 0.0089999735
-0.020020381 0.01264445 0.0088579953
-0.018957902 0.012638602 0.0085951686
-0.017912852 0.012644365 0.0083715916
-0.016800476 0.012600357 0.0081009865
-0.015767498 0.012613999 0.0078951716
-0.014698051 0.012598329 0.0076605678
-0.013696854 0.01264325 0.007142216
-0.01275243 0.01275243 0.0066218674
-0.011602103 0.01265684 0.0065386593
-0.010646762 0.012776115 0.0062271655
-0.0095014917 0.012668656 0.0054821074
-0.008536892 0.012805337 0.0052705109
0.010696115 0.012835339 0.0050080121
0.011715362 0.012780395 0.0052218437
0.012751698 0.012751698 0.0050080121
0.014959846 0.012822724 0.0052280724
0.015941992 0.012753593 0.0053134859
0.016973916 0.012730437 0.0053841472
0.01803604 0.012731322 0.005307138
0.018955711 0.012637141 0.0056751072
0.020237843 0.012781795 0.0055303574
0.021280924 0.012768555 0.0056650341
0.02243159 0.012818051 0.0059304535
0.023579622 0.012861612 0.0060234368
0.024496825 0.012780952 0.0061838925
0.025784487 0.012892243 0.0058141947
0.026634242 0.012784436 0.005335331
-0.034602769 0.013631394 0.0099149942
-0.033288807 0.013523578 0.010591567
-0.032582585 0.013663664 0.011607558
-0.031435404 0.013622008 0.010781407
-0.030236242 0.013554176 0.010531813
-0.029353684 0.013628497 0.010362804
-0.028336447 0.013643474 0.010349274
-0.027269306 0.013634653 0.0099149942
-0.026422324 0.013739608 0.0096587837
-0.025240814 0.013672108 0.0092812181
-0.024132477 0.013640095 0.0093624592
-0.023126634 0.013665739 0.0091050863
-0.022100108 0.013681019 0.0087634623
-0.021052841 0.013684347 0.008792758
-0.02001998 0.01369788 0.0084340572
-0.018807387 0.013583114 0.007997781
-0.017846245 0.013647128 0.0080719292
