ply
format ascii 1.0
comment PCL generated
element vertex 1260
property float x
property float y
property float z
element camera 0
property float view_px
property float view_py
property float view_pz
property float x_axisx
property float x_axisy
property float x_axisz
property float y_axisx
property float y_axisy
property float y_axisz
property float z_axisx
property float z_axisy
property float z_axisz
property float focal
property float scalex
property float scaley
property float centerx
property float centery
property int viewportx
property int viewporty
property float k1
property float k2
end_header
-0.014390044 -0.062699474 0.019452393
-0.013367983 -0.062726691 0.019595861
-0.012355078 -0.062804982 0.019488335
-0.011372681 -0.063066684 0.019558102
-0.010324398 -0.062978826 0.019628465
-0.0092897853 -0.062964104 0.019678533
-0.0082724802 -0.063077658 0.0192931
-0.007241704 -0.063106276 0.019361645
-0.0062547955 -0.063590422 0.019430101
-0.0051440937 -0.062757947 0.019429684
-0.004129854 -0.062980272 0.019356698
-0.0031140933 -0.063319899 0.01937893
-0.0020668111 -0.063037738 0.019367635
-0.0010334754 -0.063042 0.019226521
0 -0.063428275 0.019258678
0.0010260008 -0.062586047 0.019338429
0.0020821218 -0.063504711 0.019602507
0.0030956487 -0.062944859 0.019721359
0.0041296133 -0.062976599 0.019799739
0.0051236004 -0.062507927 0.019392699
0.0062229717 -0.063266881 0.017299235
0.0075598075 -0.065878324 0.0082591474
-0.01985633 -0.062704198 0.010833293
-0.018580247 -0.061934154 0.019603908
-0.017399324 -0.06140938 0.020083636
-0.016482567 -0.061809629 0.020642877
-0.015584933 -0.062339731 0.020769596
-0.014325329 -0.061394271 0.020639926
-0.013470858 -0.062173195 0.020556688
-0.012380618 -0.061903089 0.020444274
-0.011279412 -0.061524063 0.019791305
-0.010245627 -0.061473761 0.019721717
-0.0092378752 -0.061585836 0.019869953
-0.008310264 -0.062326979 0.01960057
-0.0072199022 -0.06188488 0.019502014
-0.0062552989 -0.062552989 0.01951015
-0.0051969457 -0.062363353 0.019389272
-0.0041817902 -0.062726855 0.019254208
-0.0031119885 -0.06223977 0.01927042
-0.0020603391 -0.061810177 0.019577891
-0.0010380785 -0.062284708 0.019595921
0 -0.062520064 0.019723922
0.0010360283 -0.062161691 0.019803166
0.0020745702 -0.062237103 0.019831568
0.0030645933 -0.061291866 0.019982129
0.0041219746 -0.061829619 0.020127743
0.0050691175 -0.060829412 0.020198643
0.0061199982 -0.061199982 0.020084977
0.0072131502 -0.061827 0.020138592
0.0083039934 -0.062279951 0.01767841
0.0098081212 -0.06538748 0.0066835284
0.011508547 -0.069051281 0.0051281452
-0.020683575 -0.061016548 0.015745968
-0.019757064 -0.061350886 0.020046324
-0.018478518 -0.060568482 0.021428704
-0.017473267 -0.060642518 0.021703243
-0.016386328 -0.060424585 0.021517038
-0.015444112 -0.060746841 0.021495283
-0.014554201 -0.06133556 0.021112233
-0.01335897 -0.060629174 0.021180987
-0.012228108 -0.060121533 0.020890951
-0.01144337 -0.06137808 0.020620137
-0.010307245 -0.060812749 0.019943684
-0.0093649877 -0.061392702 0.02005294
-0.0084020644 -0.061965227 0.019575804
-0.0072706598 -0.061281275 0.019343376
-0.0062297089 -0.061258804 0.019418806
-0.0052416627 -0.061851621 0.019389272
-0.004174626 -0.061575729 0.019254208
-0.0031219881 -0.061399098 0.019208372
-0.0021024698 -0.062022861 0.019091159
-0.0010363449 -0.061144348 0.019489259
0 -0.061030649 0.019797117
0.0010418342 -0.061468221 0.019832611
0.0020679657 -0.061004989 0.019854873
0.0031149304 -0.061260298 0.020158052
0.0040957271 -0.060411975 0.020317018
0.0050643268 -0.059759058 0.020336092
0.0061500911 -0.060475897 0.02032721
0.0071870647 -0.060576688 0.0205217
0.0082196835 -0.06062017 0.020608634
0.0090778619 -0.059510428 0.02040413
0.010392877 -0.061317977 0.0086027384
0.012301689 -0.06598179 0.0054164529
-0.021543087 -0.059499957 0.017076313
-0.020584887 -0.059696175 0.020386338
-0.019515596 -0.059573926 0.021498173
-0.018557826 -0.059797443 0.021571249
-0.017479515 -0.059635989 0.022360474
-0.016425952 -0.059544075 0.022129804
-0.015540089 -0.060088344 0.021956027
-0.014456398 -0.059890792 0.021113992
-0.013415498 -0.059853759 0.021128774
-0.012537932 -0.060600005 0.020810843
-0.011442819 -0.060334865 0.020459086
-0.010449079 -0.060604662 0.019830853
-0.0093547655 -0.060286269 0.019585401
-0.0083288113 -0.060383882 0.019186229
-0.0072943792 -0.060439143 0.018858522
-0.0062833461 -0.060739014 0.018857121
-0.005186216 -0.060160108 0.018629849
-0.0041864985 -0.060704231 0.018681705
-0.0031475446 -0.060852535 0.018624246
-0.0020977918 -0.060835961 0.018447578
-0.0010384056 -0.060227524 0.018749028
0 -0.060280211 0.019426137
0.0010430521 -0.060497023 0.019713551
0.0020690679 -0.060002975 0.019831568
0.0030914259 -0.05976757 0.020213306
0.0041041928 -0.059510801 0.020493865
0.0050914823 -0.059061199 0.02077052
0.0062210774 -0.060137082 0.020912468
0.0071507809 -0.05924933 0.021446586
0.0082868198 -0.060079444 0.021110117
0.0092445426 -0.059575945 0.020925105
0.010250607 -0.059453521 0.019972503
0.01139239 -0.060068969 0.012798965
0.012687039 -0.061320689 0.0065900087
-0.022595128 -0.05854192 0.014894694
-0.021516472 -0.058401853 0.020886421
-0.020595735 -0.058697842 0.021788865
-0.019497249 -0.058491748 0.022634774
-0.018639248 -0.059024289 0.022621632
-0.017557429 -0.058869027 0.022956938
-0.016426902 -0.058520839 0.022669971
-0.015460497 -0.058749888 0.022304356
-0.014368576 -0.058500629 0.021398395
-0.01337394 -0.058639586 0.021211416
-0.012490211 -0.0593285 0.020902872
-0.011403037 -0.059088465 0.019889981
-0.010361632 -0.059061304 0.019913971
-0.0094178049 -0.0596461 0.019168526
-0.0083578164 -0.05954944 0.018540204
-0.0073349723 -0.059727632 0.018064201
-0.0062522404 -0.059396286 0.018046319
-0.0052254661 -0.059570313 0.017803967
-0.0041843513 -0.059627004 0.01720804
-0.0031303626 -0.05947689 0.017515749
-0.0020819902 -0.059336722 0.017705113
-0.0010411859 -0.059347592 0.01788193
0 -0.059953365 0.01839456
0.001047464 -0.05970544 0.018820584
0.0020667785 -0.058903184 0.01978448
0.0030937819 -0.058781859 0.019947797
0.0041428213 -0.059035204 0.020451039
0.0051765735 -0.059012938 0.020852327
0.0061493884 -0.058419187 0.021368206
0.0071494961 -0.058217328 0.021904498
0.0082197264 -0.05856555 0.022132695
0.0092092333 -0.058325145 0.022024453
0.010289819 -0.058651969 0.020927817
0.011260989 -0.058352396 0.019566268
0.012359878 -0.05870942 0.012566417
0.013771606 -0.060383193 0.0067526698
-0.023764366 -0.057861064 0.0093984604
-0.022885481 -0.058253955 0.020309031
-0.02156443 -0.057505142 0.022853345
-0.020435179 -0.057218503 0.022815764
-0.019588796 -0.057735398 0.02292189
-0.01857728 -0.057795983 0.023107857
-0.017563498 -0.057856228 0.023067117
-0.016419066 -0.05746673 0.02287516
-0.015495714 -0.057850666 0.02241689
-0.014534922 -0.058139689 0.021230191
-0.013460952 -0.057985637 0.020997554
-0.012312727 -0.057459392 0.020133257
-0.011403663 -0.058055013 0.019534379
-0.010429812 -0.058406949 0.01902163
-0.0093487995 -0.058170311 0.018488944
-0.0084481314 -0.05913692 0.01761809
-0.007251292 -0.058010336 0.017064273
-0.0062826625 -0.058638185 0.016888142
-0.0052318042 -0.058596209 0.017064333
-0.004253671 -0.059551395 0.016845256
-0.0031548154 -0.058889892 0.016978651
-0.0020975664 -0.058731854 0.01703614
-0.0010520536 -0.058915004 0.017076641
0 -0.058164462 0.017991543
0.0010463774 -0.058597133 0.018095583
0.002075586 -0.058116406 0.018942744
0.0031347072 -0.058514535 0.019982547
0.0041058515 -0.057481922 0.020261675
0.005191952 -0.058149863 0.020599782
0.0061424603 -0.057329629 0.021446586
0.0072014201 -0.057611361 0.021966219
0.008295021 -0.05806515 0.022376984
0.0093064187 -0.057906609 0.022394598
0.010293983 -0.057646308 0.022020757
0.011225709 -0.057149064 0.020664603
0.012398922 -0.057861637 0.019384265
0.013478214 -0.058059998 0.011518896
0.014501972 -0.058007888 0.0060780346
-0.0238293 -0.05698311 0.019089431
-0.022736663 -0.05684166 0.022575736
-0.021528676 -0.056384631 0.023234874
-0.020612258 -0.056683712 0.023316562
-0.019445261 -0.056288913 0.023206383
-0.018430429 -0.056315199 0.023253322
-0.017449422 -0.056454014 0.023152798
-0.016493214 -0.056695428 0.022805482
-0.015535389 -0.056963094 0.022004157
-0.014551695 -0.057167377 0.020896018
-0.013506343 -0.05714222 0.020357966
-0.012553847 -0.057538468 0.01964286
-0.011432118 -0.05716059 0.018870533
-0.010418262 -0.057300445 0.018163741
-0.0094992761 -0.058051135 0.017318964
-0.0084051061 -0.057785105 0.016701639
-0.0073556509 -0.057794403 0.01634109
-0.0063156048 -0.057893045 0.016173989
-0.0052619735 -0.057881713 0.016351998
-0.0041893995 -0.057604242 0.016405553
-0.0031711115 -0.058137044 0.016331881
-0.0021089118 -0.057995077 0.016294092
-0.0010469147 -0.057580311 0.016526967
0 -0.057929337 0.017237097
0.0010594794 -0.058271367 0.017314583
0.0020748426 -0.05705817 0.018159688
0.0031330558 -0.057439361 0.019241303
0.0041306866 -0.056796938 0.020063043
0.005185564 -0.057041209 0.020599782
0.0062652309 -0.057431284 0.021494269
0.0071675107 -0.056316156 0.022110254
0.0082683712 -0.05684505 0.022874594
0.0091514178 -0.055925332 0.02298066
0.010251589 -0.056383744 0.022715986
0.01126141 -0.056307051 0.02210173
0.012367634 -0.056684993 0.021037877
0.013407447 -0.056723818 0.018980324
0.014586349 -0.057303514 0.0079613626
-0.024958378 -0.056156352 0.01223433
-0.023755377 -0.055773497 0.022277474
-0.022521235 -0.0552794 0.02290234
-0.021478832 -0.055231284 0.023131251
-0.020720528 -0.055945434 0.023506165
-0.019583637 -0.055658761 0.023336321
-0.018568061 -0.055704191 0.023338228
-0.01750554 -0.055605832 0.023142189
-0.01657794 -0.055950552 0.02254805
-0.015763402 -0.056748249 0.021495283
-0.014496529 -0.055915188 0.020852476
-0.013644332 -0.056676459 0.019703358
-0.012481214 -0.056165464 0.018920273
-0.011562849 -0.056763083 0.01782757
-0.010435035 -0.056349196 0.017261505
-0.0094366632 -0.056619983 0.016500354
-0.0082924012 -0.055973709 0.015874356
-0.0073775658 -0.056912653 0.015148163
-0.0063093784 -0.05678441 0.015290558
-0.0052598058 -0.056805909 0.015421212
-0.0042355149 -0.057179451 0.015464813
-0.003163652 -0.056945741 0.015409142
-0.0020945105 -0.056551784 0.015540391
-0.0010490173 -0.056646936 0.01607886
0 -0.056369748 0.016482204
0.0010488965 -0.056640409 0.016830236
0.0021018826 -0.056750834 0.017483503
0.0031324723 -0.056384504 0.018281192
0.0041221585 -0.055649139 0.019653291
0.0052108634 -0.056277327 0.020556808
0.0061980835 -0.055782754 0.021134317
0.0072680269 -0.056067638 0.02205804
0.0082547022 -0.055719238 0.022803605
0.0092528891 -0.055517338 0.023061365
0.01029247 -0.055579342 0.022813499
0.011259194 -0.055272408 0.022409439
0.012328279 -0.055477258 0.021985114
0.013290229 -0.055205569 0.020918548
0.014559095 -0.056156509 0.016697168
0.015636591 -0.056291729 0.006162554
-0.024817389 -0.054805066 0.019031614
-0.023761768 -0.054755375 0.023089111
-0.022503383 -0.054212697 0.022862643
-0.021616438 -0.054555774 0.023356199
-0.020511186 -0.054354642 0.023404837
-0.01952352 -0.054460343 0.023360938
-0.018524149 -0.054543331 0.023308873
-0.017661178 -0.055061322 0.022997797
-0.016597874 -0.054980457 0.022495598
-0.015564704 -0.054995287 0.021279484
-0.014585862 -0.055217903 0.020522743
-0.013479946 -0.054956704 0.019428611
-0.012436007 -0.054925695 0.018338621
-0.011515466 -0.055483613 0.017345071
-0.010410665 -0.055176523 0.016724795
-0.0094647808 -0.055737045 0.015877873
-0.0084271161 -0.05582964 0.014993399
-0.0073436047 -0.055601578 0.014472097
-0.006287517 -0.055539731 0.014162481
-0.0052999151 -0.056179099 0.01441136
-0.0042093438 -0.055773802 0.014530659
-0.0031617901 -0.055858292 0.014459074
-0.0021089807 -0.055887982 0.014729261
-0.0010486366 -0.055577736 0.014818013
0 -0.055606741 0.015436113
0.0010488784 -0.055590551 0.016193807
0.0021023315 -0.05571178 0.017064333
0.0031365845 -0.055412989 0.01779142
0.0041856491 -0.05545985 0.018158048
0.0051660342 -0.054759964 0.019959658
0.0062360214 -0.055084858 0.021054178
0.0073216055 -0.055435009 0.021980882
0.0083265509 -0.055163398 0.022755921
0.0092804022 -0.05465126 0.022990316
0.01025778 -0.054366231 0.022853494
0.011293466 -0.054413971 0.022651434
0.012365677 -0.054615077 0.022267252
0.013337003 -0.054373935 0.021492511
0.014342284 -0.054295786 0.018997788
0.015754076 -0.055664402 0.0073642731
-0.02682904 -0.055804398 0.0069500506
-0.024823919 -0.05378516 0.020241708
-0.023648612 -0.053466424 0.022872299
-0.022517264 -0.053222626 0.022987336
-0.021490244 -0.053213939 0.023357779
-0.020666352 -0.053732514 0.023433954
-0.019494228 -0.053352624 0.023311794
-0.018571431 -0.053650804 0.023230612
-0.017529245 -0.053618871 0.022853404
-0.016611921 -0.053988744 0.022135139
-0.015412917 -0.053431448 0.02104795
-0.014589715 -0.054190367 0.019842327
-0.013533788 -0.054135151 0.018568277
-0.012521972 -0.054261882 0.017518133
-0.011635534 -0.055004343 0.016181558
-0.010475074 -0.054470383 0.014971375
-0.009457496 -0.054643314 0.014535367
-0.0084636882 -0.055013973 0.013815194
-0.0073586693 -0.054664399 0.012961507
-0.0063562924 -0.055087868 0.012981027
-0.0053001125 -0.055121172 0.012901276
-0.0042305333 -0.054996934 0.012823999
-0.0032036242 -0.055529486 0.012921423
-0.0021171586 -0.055046126 0.013290972
-0.0010538728 -0.054801382 0.014252007
0 -0.055263758 0.01495856
0.00105351 -0.054782517 0.015391469
0.0021155865 -0.055005249 0.016526848
0.0031814938 -0.055145893 0.017415464
0.0041722464 -0.054239202 0.017656624
0.0052169771 -0.054256562 0.018980324
0.0062841037 -0.054462232 0.020566911
0.0072266296 -0.053683534 0.021907926
0.0083190808 -0.054074023 0.022613496
0.009145746 -0.052842092 0.022849858
0.010254438 -0.053323075 0.023059845
0.011261202 -0.053234778 0.022817671
0.012273926 -0.053187016 0.022594631
0.01332716 -0.05330864 0.022213697
0.014398513 -0.053480193 0.021306098
0.015712021 -0.054468341 0.01444155
-0.026676014 -0.054419067 0.0096859634
-0.024789726 -0.052678172 0.022079587
-0.023528295 -0.052171435 0.023234874
-0.022610741 -0.052415807 0.023375362
-0.021528745 -0.052284095 0.023563951
-0.020635424 -0.052620336 0.023667097
-0.019591076 -0.05258657 0.023550719
-0.018599054 -0.052697323 0.023341149
-0.017516294 -0.052548882 0.022891104
-0.016456649 -0.052455571 0.021809995
-0.015462219 -0.052571543 0.020867884
-0.014639184 -0.053328454 0.019768387
-0.013688964 -0.053702861 0.017943114
-0.012533189 -0.053266056 0.016600281
-0.011542111 -0.053513426 0.014971375
-0.010555183 -0.053831432 0.014339209
-0.0095192669 -0.053942516 0.013102323
-0.0085399039 -0.054441888 0.012451053
-0.0075197509 -0.054786757 0.011739105
-0.0063956813 -0.054363292 0.010649949
-0.0052948357 -0.054007325 0.010718554
-0.0042710658 -0.054456092 0.010995388
-0.0031937514 -0.054293778 0.010849565
-0.0021494024 -0.05480976 0.012181193
-0.001064852 -0.05430745 0.012332857
0 -0.054048494 0.013143599
0.0010461619 -0.053354256 0.014556736
0.0020976269 -0.053489488 0.015588343
0.0031333277 -0.053266574 0.016572446
0.0042130025 -0.05371578 0.017065555
0.005219839 -0.053242359 0.018020689
0.0062476275 -0.053104836 0.020086825
0.0072272248 -0.052655496 0.021335602
0.0082830098 -0.052804191 0.022495776
0.0093042934 -0.052724332 0.022908956
0.010244381 -0.05224634 0.023053408
0.0111936 -0.0518976 0.022811234
0.012257496 -0.052094359 0.022554338
0.013200914 -0.051788207 0.022085488
0.014395451 -0.052440573 0.021692216
0.015693417 -0.05335762 0.01752159
0.017098745 -0.054502252 0.0062681139
-0.026794478 -0.053588957 0.012267739
-0.024803199 -0.051673334 0.022366405
-0.023732871 -0.051593196 0.02336055
-0.02244496 -0.051011276 0.023668081
-0.02137427 -0.050891116 0.023927569
-0.020508874 -0.051272187 0.023872852
-0.01967179 -0.051767867 0.023834586
-0.018379606 -0.051054467 0.023654163
-0.017589552 -0.051733982 0.022875875
-0.016515924 -0.051612265 0.021541595
-0.01575361 -0.052512031 0.020377636
-0.014592933 -0.052117623 0.018744409
-0.01358158 -0.052236848 0.017529219
-0.012579899 -0.052416246 0.015485287
-0.011626197 -0.052846354 0.014304221
-0.010553622 -0.052768108 0.012329727
-0.0095439991 -0.053022224 0.011519194
-0.0085198116 -0.053248823 0.009504348
-0.0074589895 -0.053278498 0.0093557537
-0.00641364 -0.053447004 0.0090795755
-0.0053439727 -0.053439733 0.0090362728
-0.0042631966 -0.053289961 0.0092256069
-0.0031900245 -0.053167075 0.0092017353
-0.0021317981 -0.053294953 0.009811461
-0.0010695391 -0.053476956 0.010741591
0 -0.053449895 0.012192935
0.001075287 -0.053764354 0.012968391
0.0021026351 -0.052565876 0.014637053
0.0031637056 -0.052728429 0.015701652
0.0042147953 -0.052684944 0.016612977
0.0052281152 -0.052281156 0.017625809
0.0062775193 -0.052312665 0.018980324
0.0072544538 -0.051817529 0.021006495
0.0082396083 -0.051497549 0.022182614
0.0092696184 -0.051497888 0.022800833
0.010289902 -0.051449511 0.022858381
0.011238989 -0.051086321 0.022532552
0.012297588 -0.051239952 0.022445142
0.013275766 -0.051060643 0.022318542
0.014440553 -0.051573407 0.022199541
0.015623917 -0.052079722 0.01766932
0.017214324 -0.053794764 0.0062837899
-0.026517188 -0.051973686 0.012498766
-0.024620784 -0.050267432 0.022767991
-0.023701167 -0.050493788 0.023682624
-0.022641901 -0.050429691 0.02393657
-0.021266531 -0.049621902 0.024066567
-0.020604573 -0.050481204 0.024093151
-0.019522704 -0.050348025 0.024093151
-0.018596333 -0.05062335 0.023823678
-0.017623687 -0.050797686 0.022875875
-0.01658191 -0.050782096 0.021317542
-0.015666775 -0.051178131 0.020118535
-0.014619393 -0.051167876 0.017861754
-0.013576278 -0.051172122 0.016287208
-0.012690444 -0.051819313 0.014772356
-0.011723573 -0.052223191 0.01226598
-0.010691761 -0.052389625 0.0090327561
-0.0098235505 -0.053483777 0.0079328716
-0.0086976467 -0.053273082 0.0058257878
-0.0021795342 -0.053398587 0.0062253773
-0.001085359 -0.053182587 0.0085603297
0 -0.052284162 0.0098144114
0.0010615129 -0.052014127 0.010972351
0.0021320845 -0.052236065 0.013056725
0.0032018903 -0.05229754 0.015348762
0.0041771047 -0.05116953 0.015827537
0.005290227 -0.051844228 0.016910434
0.0062137111 -0.050745305 0.01839456
0.0072481921 -0.050737344 0.020902932
0.0082295313 -0.050405879 0.022114962
0.0092898691 -0.050578177 0.022838593
0.010219825 -0.050077144 0.022862941
0.011185844 -0.049827851 0.022480726
0.012188082 -0.049768001 0.022456378
0.013212964 -0.049802709 0.022243649
0.014451724 -0.050581031 0.02201423
0.015597826 -0.050952896 0.01817894
0.017466303 -0.053490553 0.0064821839
-0.026218427 -0.050339378 0.015194923
-0.024889192 -0.049778383 0.023064077
-0.023400994 -0.048836853 0.023947448
-0.022483736 -0.049055424 0.024190724
-0.021515369 -0.049177986 0.024543732
-0.020378523 -0.048908453 0.024535626
-0.01948601 -0.049227815 0.024523795
-0.018580103 -0.049546946 0.024052441
-0.017575473 -0.049624864 0.022926956
-0.016545236 -0.049635705 0.02145046
-0.015673265 -0.050154444 0.020034999
-0.014661874 -0.05026928 0.017449766
-0.013676298 -0.0504971 0.014687568
-0.012846002 -0.051384009 0.012218565
-0.011820939 -0.051582281 0.0079154372
0 -0.052612782 0.0057631433
0.001091919 -0.052412111 0.0089144111
0.0021075369 -0.050580882 0.010963678
0.0031703373 -0.050725397 0.012759417
0.0041974825 -0.050369788 0.014581352
0.0052591176 -0.050487529 0.016209722
0.0061625382 -0.049300306 0.017389804
0.0073245089 -0.050225202 0.020290047
0.0083152782 -0.049891669 0.021667153
0.0091635408 -0.048872218 0.022517025
0.010219244 -0.049052376 0.022724032
0.011171876 -0.048750006 0.022544831
0.012323158 -0.049292631 0.022337824
0.013236574 -0.048873503 0.022169977
0.01434507 -0.049183097 0.021839797
0.015458189 -0.049466204 0.020480126
0.017127909 -0.051383726 0.006560415
-0.026006969 -0.048893098 0.016815573
-0.024781834 -0.048531093 0.02336055
-0.023445368 -0.047910098 0.02414307
-0.022571448 -0.048220821 0.02460584
-0.021533083 -0.04819309 0.025055557
-0.020407459 -0.047957528 0.025130183
-0.019322749 -0.047798377 0.025080264
-0.018417833 -0.048091009 0.024694532
-0.017536379 -0.048482932 0.023107469
-0.016608164 -0.04878648 0.021763623
-0.01558344 -0.048828114 0.018694699
-0.014755976 -0.049537919 0.016450703
-0.014013926 -0.050665732 0.012329727
-0.012960898 -0.050763518 0.0082941651
0.002182398 -0.051286355 0.0083211958
0.0031787141 -0.049799856 0.010545194
0.004205978 -0.049420241 0.013310283
0.0052391603 -0.049248107 0.015127808
0.0062210201 -0.048731323 0.016979456
0.0072931689 -0.048968419 0.020302832
0.0082794456 -0.048641745 0.021835178
0.0092719309 -0.048420087 0.02295211
0.010302755 -0.048422948 0.022879124
0.011257716 -0.048101149 0.022670358
0.01236744 -0.048439141 0.022589862
0.013264838 -0.047957491 0.022432983
0.014299273 -0.048004702 0.021865964
0.015460894 -0.048444133 0.020942658
0.017363343 -0.051004823 0.0062806308
-0.026319718 -0.048428282 0.020013303
-0.024698939 -0.047339637 0.023546338
-0.023581432 -0.047162864 0.024608076
-0.022564596 -0.047180519 0.02517879
-0.02136647 -0.046802741 0.025601923
-0.020449597 -0.047034077 0.025540173
-0.019569712 -0.0473793 0.025488287
-0.018391512 -0.047000535 0.024938464
-0.017451888 -0.047222756 0.023291349
-0.01648121 -0.047383476 0.021427155
-0.015675072 -0.048070218 0.017680705
-0.015185677 -0.049895797 0.014313579
-0.014206841 -0.05027036 0.008635968
0.0033039248 -0.050660182 0.0074256063
0.0042524934 -0.048903674 0.010969311
0.0052988115 -0.048749071 0.014189035
0.0063056629 -0.048343416 0.016713023
0.0072253048 -0.047480576 0.02030763
0.0083302706 -0.04789906 0.021918863
0.0091388719 -0.046709795 0.02311033
0.010191252 -0.046879765 0.02311033
0.011119064 -0.046497907 0.023069263
0.012215493 -0.046826061 0.02309379
0.01318442 -0.046652567 0.022364646
0.014290657 -0.046955016 0.021609396
0.015471676 -0.047446474 0.02068609
0.017085526 -0.049120888 0.0062648058
-0.025920374 -0.046656676 0.020666361
-0.024734883 -0.046377908 0.023900926
-0.023554638 -0.046085164 0.025138587
-0.022355281 -0.045726713 0.025720805
-0.021410573 -0.045879804 0.025850862
-0.020337919 -0.045760319 0.025850862
-0.019486643 -0.046152577 0.025850862
-0.018494731 -0.046236832 0.025537223
-0.017424876 -0.046124674 0.023350626
-0.016557515 -0.046568014 0.021217912
-0.016013712 -0.048041135 0.017432809
-0.015206891 -0.048879296 0.012108535
-0.014139967 -0.048946042 0.0050917268
0.0043569328 -0.0490155 0.008369416
0.005313931 -0.047825385 0.01301229
0.0062114634 -0.046585977 0.015626341
0.0073066372 -0.046971243 0.019784719
0.008280267 -0.046576504 0.021885365
0.0091774194 -0.045887101 0.023903728
0.010221371 -0.045996174 0.023922533
0.011142839 -0.045584343 0.023751587
0.012222555 -0.045834582 0.023903728
0.013259763 -0.045899179 0.023557544
0.01434214 -0.046099741 0.021632969
0.015441502 -0.046324506 0.020644754
0.017144565 -0.048219092 0.0063407719
-0.025965277 -0.045698885 0.020613134
-0.024671957 -0.04523192 0.024033308
-0.023293871 -0.044562187 0.025117159
-0.022559786 -0.045119572 0.025855541
-0.021468556 -0.044981733 0.025970787
-0.020374972 -0.044824939 0.026085556
-0.019394208 -0.044912901 0.026085556
-0.018472556 -0.045155138 0.025670469
-0.017379211 -0.044981483 0.02470839
-0.016594036 -0.045633595 0.021615267
-0.016218888 -0.047575403 0.017345279
-0.015278059 -0.048016757 0.0088115633
0.0043615238 -0.047976762 0.0075334907
0.0054153902 -0.047655433 0.011791527
0.0062811668 -0.046061888 0.016119361
0.0073311278 -0.046081372 0.019847125
0.0082500605 -0.045375332 0.02288276
0.0092295678 -0.045122333 0.024675727
0.010138744 -0.044610474 0.02469629
0.011131236 -0.044524945 0.024576783
0.012193195 -0.044708382 0.024159104
0.013200399 -0.044678275 0.023695081
0.014290107 -0.044911765 0.022833645
0.015504791 -0.045480721 0.020825535
0.016904114 -0.046486311 0.0065412521
-0.025907181 -0.04456035 0.021234959
-0.024550747 -0.043986756 0.024141818
-0.023467166 -0.043873396 0.025845408
-0.022187604 -0.043366682 0.026060462
-0.02127724 -0.04356768 0.026635796
-0.020640805 -0.044377733 0.026795924
-0.019236021 -0.043534152 0.026822954
-0.018390294 -0.043932371 0.026524335
-0.017392112 -0.043991812 0.025001854
-0.01639688 -0.044066615 0.022856653
-0.01617144 -0.046358131 0.017083913
-0.015054828 -0.046239827 0.0077195168
0.0053789564 -0.046259027 0.011295468
0.0063010403 -0.045157455 0.016132593
0.0071875546 -0.044152122 0.021395326
0.0082018459 -0.044084921 0.023993224
0.0091594951 -0.043762036 0.025124848
0.010112981 -0.043485824 0.025166065
0.011188223 -0.043735784 0.025090724
0.012195014 -0.043698803 0.024917781
0.013155893 -0.043515645 0.024615675
0.01430497 -0.043936696 0.023489565
0.015466241 -0.044336557 0.020897865
0.016792336 -0.045129403 0.0073658228
-0.025786858 -0.043321919 0.020997792
-0.024759116 -0.043328457 0.023813307
-0.023299249 -0.042546455 0.025397927
-0.022329293 -0.042628653 0.026142031
-0.021444326 -0.042888653 0.026875585
-0.020339742 -0.042713463 0.027048081
-0.019264081 -0.04258376 0.027110487
-0.018318783 -0.042743832 0.02681601
-0.01745641 -0.043127604 0.026043177
-0.016185952 -0.042488124 0.024641752
-0.016124779 -0.045149382 0.019881755
-0.014928111 -0.044784334 0.0082372129
0.0052818335 -0.044367403 0.011108041
0.0065606381 -0.04592447 0.017109096
0.0072102402 -0.043261442 0.021738619
0.0081884777 -0.042989511 0.025402278
0.0091264332 -0.042590022 0.025764495
0.010150192 -0.04263081 0.025645256
0.011144483 -0.042551666 0.025393248
0.012179304 -0.042627566 0.025163978
0.013232623 -0.042751554 0.024969965
0.014291753 -0.04287526 0.023490399
0.015448482 -0.04325575 0.020752937
0.017037179 -0.044722598 0.0073702931
-0.025731396 -0.042199489 0.020283729
-0.024640474 -0.042094145 0.023813307
-0.023413852 -0.041737735 0.02552253
-0.022376312 -0.041701313 0.02659151
-0.021275539 -0.041537955 0.027083457
-0.020300118 -0.041615248 0.027264804
-0.01938759 -0.041836381 0.027467459
-0.018217672 -0.041495811 0.027220219
-0.017354768 -0.041855618 0.026829898
-0.016337501 -0.04186485 0.026183993
-0.015781583 -0.043136332 0.02438426
-0.015320641 -0.044867594 0.014044642
0.005510638 -0.045187235 0.014724046
0.0065990766 -0.045093693 0.021489233
0.0071683615 -0.041986119 0.025852829
0.0080862679 -0.041442126 0.026341975
0.0090141594 -0.041064508 0.026450843
0.010084273 -0.041345522 0.02634114
0.011177355 -0.041661054 0.025988787
0.012169329 -0.041578546 0.025735915
0.013169024 -0.041533079 0.025006562
0.014175752 -0.041514702 0.024487793
0.015552457 -0.042510051 0.019759715
0.016920326 -0.043358337 0.007252425
-0.025748413 -0.04119746 0.019478589
-0.024666976 -0.041111626 0.022957802
-0.023500508 -0.040870443 0.024880916
-0.022289939 -0.040527161 0.026349097
-0.021165067 -0.040314414 0.026882261
-0.020293074 -0.040586147 0.02722913
-0.019266924 -0.040561941 0.027468771
-0.018180769 -0.040401708 0.027516365
-0.017043769 -0.040102985 0.027271807
-0.016253321 -0.040633298 0.02676928
-0.015920132 -0.042453688 0.02588132
-0.015475581 -0.044215944 0.02389285
-0.014128572 -0.043472528 0.00920102
0.0043092687 -0.043092683 0.0085624456
0.0056063579 -0.044850864 0.019630015
0.006178129 -0.041187525 0.025368541
0.0070758867 -0.040433638 0.026440531
0.0081115868 -0.040557932 0.026804775
0.0091141369 -0.040507276 0.026751935
0.010182632 -0.040730529 0.026356757
0.011100762 -0.040366407 0.025921434
0.012175287 -0.040584289 0.025600433
0.013113984 -0.040350717 0.024888396
0.014216651 -0.040619001 0.023326606
0.015524517 -0.041398708 0.019043148
0.01689934 -0.042248346 0.0071525872
-0.025971228 -0.040515114 0.011863947
-0.02475586 -0.040228274 0.021758944
-0.02366231 -0.040123045 0.024037063
-0.022362029 -0.039641779 0.025357217
-0.021469316 -0.039871585 0.026815653
-0.020304086 -0.039592966 0.027090698
-0.019257803 -0.039529171 0.027395695
-0.018192844 -0.039417829 0.027542412
-0.017219037 -0.039502494 0.027328938
-0.015917704 -0.038799401 0.026798368
-0.015237209 -0.039616745 0.02651003
-0.014653171 -0.040819548 0.025832087
-0.014866934 -0.044600803 0.019870043
-0.013190084 -0.042867776 0.0082034469
0.0032781442 -0.042615872 0.0060408413
0.0045916568 -0.044768654 0.019304305
0.0052063097 -0.040609218 0.024219453
0.0061155595 -0.039751135 0.026414275
0.0070066829 -0.039037231 0.027053654
0.0080829896 -0.039404571 0.027042001
0.0091283778 -0.039556306 0.027020246
0.010104432 -0.039407283 0.026903093
0.011089462 -0.039317183 0.026112556
0.012207379 -0.03967398 0.025735915
0.013322204 -0.039966613 0.024757564
0.014195499 -0.039544605 0.023034513
0.015396404 -0.040030651 0.017336071
0.01726051 -0.042072497 0.0073339939
-0.025862284 -0.039310671 0.0086065233
-0.024610499 -0.038966626 0.016901165
-0.0234937 -0.038815677 0.022848248
-0.022480691 -0.038830284 0.024704009
-0.021277105 -0.038501427 0.026560843
-0.02045563 -0.0388657 0.026920676
-0.019345334 -0.038690668 0.027259409
-0.018114217 -0.038241126 0.027907908
-0.017216951 -0.03848495 0.028033882
-0.016217487 -0.038516529 0.027467459
-0.015034289 -0.038086865 0.027304679
-0.014325428 -0.038883306 0.026825577
-0.013633765 -0.039852545 0.025966257
-0.013601693 -0.04307203 0.023930937
-0.012223475 -0.042226549 0.0090129077
0.0022611327 -0.042961523 0.0062500834
0.0033308247 -0.042190447 0.021893948
0.0042584199 -0.040454991 0.025333732
0.0049969302 -0.037976671 0.026197642
0.0060339859 -0.038215246 0.027026743
0.0070567857 -0.038308267 0.027045995
0.008051415 -0.038244221 0.027297556
0.009168786 -0.038712654 0.027083516
0.010104411 -0.038396765 0.026828349
0.011032031 -0.038110655 0.026120007
0.01219791 -0.038626716 0.025006294
0.013270167 -0.038789719 0.023979664
0.014281263 -0.03876343 0.02010107
0.015570221 -0.039444558 0.010900915
0.016996773 -0.040367335 0.0074330866
0.01831086 -0.040930159 0.0050119162
-0.026003104 -0.038484592 0.0067383945
-0.024703471 -0.038084522 0.011796147
-0.023748701 -0.038204432 0.019450545
-0.022587264 -0.037987672 0.023406953
-0.021424646 -0.037748188 0.02520901
-0.020376688 -0.037696876 0.026657343
-0.019326771 -0.037636343 0.027065694
-0.018215587 -0.037443157 0.027846664
-0.01719413 -0.037422519 0.027988762
-0.016163979 -0.037379202 0.027687192
-0.015144262 -0.037355848 0.027771711
-0.014220865 -0.037583716 0.027721614
-0.01299161 -0.036976125 0.027260989
-0.012494235 -0.038523894 0.026201934
-0.012018679 -0.040426467 0.025595546
-0.011264262 -0.041677773 0.01052016
-0.010056485 -0.041343331 0.0063208044
0 -0.041452549 0.0062645674
0.001145715 -0.04239146 0.0088604391
0.0021918353 -0.040548954 0.022159189
0.0031288723 -0.038589425 0.025789231
0.0040017418 -0.037016112 0.026782066
0.005029358 -0.037217252 0.027228415
0.0060670781 -0.037413649 0.027626753
0.0070320782 -0.037169557 0.027423024
0.0080829095 -0.037383456 0.02741763
0.0090993494 -0.037408438 0.027020246
0.01017656 -0.037653275 0.026408106
0.011143415 -0.037482399 0.025393248
0.012256819 -0.037791859 0.024092019
0.013205402 -0.037584607 0.022166759
0.01435254 -0.037931714 0.014139026
0.015595677 -0.038469341 0.009771049
0.017034689 -0.039392721 0.0073080361
-0.02643477 -0.038066067 0.0061795115
-0.025101872 -0.037652805 0.01036638
-0.023525357 -0.036822297 0.011966854
-0.022456285 -0.036746647 0.019827902
-0.021339055 -0.036581237 0.023679227
-0.020264829 -0.03647669 0.02519384
-0.019228553 -0.036433049 0.026596993
-0.018350748 -0.036701497 0.026963562
-0.017245462 -0.036519799 0.027287632
-0.016225884 -0.036508236 0.027256072
-0.015130388 -0.036312927 0.027771354
-0.014119564 -0.036307447 0.028009027
-0.012986656 -0.035963047 0.028193235
-0.011956559 -0.035869677 0.027902484
-0.011077153 -0.036252502 0.027086258
-0.010073224 -0.036263607 0.025843978
-0.0097079482 -0.038831793 0.022756845
-0.0088284127 -0.039727855 0.015543193
-0.0079385927 -0.040827047 0.0096358657
-0.0070073553 -0.042044133 0.0070117414
-0.005863952 -0.042220455 0.0068178475
-0.004591214 -0.041320927 0.0069596469
-0.0035298413 -0.042358097 0.0069692731
-0.0022733442 -0.040920194 0.0070549548
-0.0011337677 -0.040815633 0.01401484
0 -0.038590122 0.020810366
0.0010359316 -0.037293538 0.025143683
0.0020208312 -0.03637496 0.026444197
0.0029911194 -0.035893429 0.027063578
0.0040043471 -0.036039125 0.027252138
0.0050687524 -0.036495019 0.027228415
0.0060535125 -0.036321074 0.027549118
0.0070804241 -0.03641361 0.027022749
0.0081099961 -0.036494978 0.026934773
0.0090839202 -0.036335681 0.026540011
0.010102972 -0.036370702 0.025766581
0.011088506 -0.036289655 0.024864703
0.012180189 -0.036540564 0.023045301
0.01318866 -0.036522441 0.017511934
0.014297153 -0.036764104 0.011022419
0.015717542 -0.0377221 0.00900352
0.017077373 -0.03842409 0.006529808
-0.026748246 -0.037447542 0.0055159032
-0.025507573 -0.037198544 0.0087361336
-0.024346489 -0.037049003 0.01087594
-0.022725418 -0.036154073 0.012405485
-0.021730999 -0.03621833 0.019797176
-0.020524086 -0.035917152 0.023329884
-0.019481791 -0.03588751 0.025129467
-0.018354779 -0.035689849 0.026200533
-0.017092433 -0.035190303 0.026441514
-0.016158558 -0.035346847 0.027109981
-0.015025362 -0.03505918 0.02764684
-0.014052127 -0.035130318 0.028193235
-0.01313947 -0.035375498 0.028200626
-0.012029863 -0.035087101 0.0282754
-0.011039515 -0.035125732 0.028067261
-0.0099126976 -0.034694441 0.027939349
-0.0089607583 -0.034847394 0.027209222
-0.0080670817 -0.035293482 0.026595861
-0.0071189697 -0.035594847 0.026618898
-0.0061288229 -0.035751466 0.026797384
-0.0051512583 -0.03605881 0.026821494
-0.0042102886 -0.036840025 0.026792884
-0.0031435718 -0.036675002 0.026792884
-0.0020297803 -0.035521153 0.026491433
-0.0010031761 -0.035111163 0.026594818
0 -0.034794495 0.027256787
0.0010022649 -0.035079274 0.02704978
0.0020139872 -0.035244774 0.027596533
0.0030074492 -0.035086907 0.027361512
0.0040640258 -0.035560224 0.027125567
0.0049811895 -0.034868326 0.02674818
0.0060872789 -0.035509128 0.026639402
0.0071423519 -0.035711762 0.026440531
0.008082144 -0.035359379 0.026188254
0.0090984898 -0.035383016 0.025656849
0.010133735 -0.035468075 0.025051117
0.011201154 -0.035640035 0.023285776
0.012308187 -0.035898879 0.018153518
0.013365197 -0.03598322 0.012504339
0.014329193 -0.035822984 0.0099951029
0.015788376 -0.036839545 0.0086945593
0.01718601 -0.037594397 0.0061357021
-0.025419857 -0.036011465 0.0073984861
-0.02468372 -0.036488976 0.009937197
-0.023380237 -0.036133092 0.010940075
-0.021976449 -0.035580918 0.012692004
-0.021032123 -0.03575461 0.019210935
-0.019587424 -0.035051178 0.022376239
-0.018486524 -0.03491899 0.024395317
-0.01736645 -0.034732901 0.025596946
-0.016356278 -0.034757093 0.025742233
-0.015278109 -0.034630381 0.026708096
-0.014095086 -0.034230921 0.027544558
-0.013138332 -0.034361791 0.027924627
-0.011933326 -0.033811092 0.028098345
-0.011128058 -0.034395814 0.027938843
-0.01000714 -0.03402428 0.028176308
-0.0091080908 -0.034408342 0.028199822
-0.0079711303 -0.033877306 0.028237343
-0.0069763395 -0.033885077 0.028493971
-0.0060200556 -0.034113649 0.028768331
-0.0049752691 -0.033831831 0.028844059
-0.0040194518 -0.034165341 0.028815627
-0.0030013493 -0.03401529 0.027799428
-0.0020006874 -0.034011684 0.027651727
-0.0009985303 -0.033950031 0.02754125
0 -0.03428065 0.028589875
0.0009968899 -0.033894256 0.028233677
0.0020202508 -0.034344263 0.02786693
0.003035068 -0.034397438 0.027403593
0.0040374347 -0.034318198 0.027105778
0.0050281235 -0.034191243 0.026110113
0.0061181062 -0.034669269 0.025799006
0.0070588342 -0.034285769 0.025482953
0.0082335463 -0.034992572 0.024969965
0.0091436245 -0.034542583 0.024387717
0.010230654 -0.034784228 0.023288518
0.011273029 -0.03484391 0.017729729
0.012399727 -0.035132561 0.012482554
0.013716188 -0.035873108 0.010331452
0.014862702 -0.036095135 0.0090053976
0.015993018 -0.036250841 0.0078435242
0.016985703 -0.036094621 0.0054649115
-0.025874984 -0.035578102 0.0066583455
-0.024524176 -0.035186861 0.0086205304
-0.023471855 -0.035207782 0.009913981
-0.022280494 -0.0350122 0.010971457
-0.021127528 -0.034860421 0.012367845
-0.020079345 -0.034874648 0.0160653
-0.018724209 -0.034327716 0.02011615
-0.017422695 -0.033820525 0.021833032
-0.01598952 -0.032978382 0.024384439
-0.015233914 -0.033514611 0.025595546
-0.013860792 -0.032671869 0.026597053
-0.013148958 -0.033378124 0.027083933
-0.01202619 -0.033072021 0.027856976
-0.011045507 -0.033136521 0.027856976
-0.010042025 -0.033138681 0.028077483
-0.0090514775 -0.033188753 0.028210253
-0.0081254095 -0.033517312 0.028218657
-0.0071551478 -0.033731412 0.028451681
-0.0060665146 -0.033365831 0.028707772
-0.0050619813 -0.033409078 0.028863847
-0.0040426496 -0.033351857 0.028914452
-0.0030444493 -0.033488944 0.028800815
-0.0020211567 -0.033349086 0.028683215
-0.0010163002 -0.033537906 0.028669477
0 -0.033275302 0.028823286
0.0010013509 -0.03304458 0.028391063
0.0020402381 -0.033663929 0.02786693
0.0030325998 -0.033358596 0.027383804
0.0040253918 -0.03320948 0.025771886
0.0050352453 -0.033232618 0.025511205
0.0060574003 -0.0333157 0.024676114
0.0071028336 -0.033484787 0.023683399
0.0081662377 -0.033685733 0.02237767
0.0093172146 -0.034163121 0.021970659
0.010524382 -0.03473046 0.014591575
0.011616826 -0.034850478 0.012653083
0.012755093 -0.035076506 0.011029959
0.013836686 -0.035123896 0.0097981989
0.014826678 -0.034948599 0.0087571144
0.015895229 -0.034969501 0.0072678924
0.01727486 -0.035629399 0.0051940382
-0.025705449 -0.034273934 0.005518496
-0.024656117 -0.034304164 0.0075894296
-0.023469901 -0.034138039 0.0093840063
-0.022269681 -0.03393475 0.0099957585
-0.021185201 -0.033896323 0.01087594
-0.020164134 -0.033960648 0.011677504
-0.019083194 -0.033925682 0.014070302
-0.017818501 -0.033540707 0.01647383
-0.016600074 -0.033200148 0.019491613
-0.01527525 -0.0325872 0.02392143
-0.014109358 -0.032249961 0.025802612
-0.013153188 -0.032377079 0.02662459
-0.012060692 -0.032161847 0.027226567
-0.011178731 -0.032519944 0.027972579
-0.01001063 -0.032034017 0.028218657
-0.0091178371 -0.032418977 0.028413057
-0.0081746913 -0.032698765 0.028266102
-0.0069774962 -0.031897128 0.028616905
-0.0060856058 -0.032456566 0.028919071
-0.0050572292 -0.032366268 0.029121995
-0.0040480844 -0.032384675 0.028915793
-0.0030266477 -0.032284241 0.028768331
-0.0020226587 -0.032362539 0.028685749
-0.0010037413 -0.032119721 0.028641135
0 -0.032184005 0.028484792
0.0010135878 -0.03243481 0.028091431
0.0020047894 -0.032076631 0.027654439
0.0030244596 -0.032260902 0.026186854
0.0040544057 -0.032435246 0.02545929
0.0050857943 -0.032549083 0.023469865
0.0061548892 -0.032826077 0.021408737
0.0072680479 -0.033225361 0.019572496
0.0084085325 -0.03363413 0.01597032
0.0095055848 -0.033797637 0.013213426
0.010575723 -0.033842314 0.012431949
0.011531616 -0.033546519 0.011393934
0.012715381 -0.033907682 0.010116547
0.01370206 -0.033728149 0.0093863308
0.01483647 -0.033911929 0.0081024766
0.016156271 -0.03446671 0.0068072081
-0.024877299 -0.033530273 0.0069230795
-0.023356959 -0.032912079 0.0080320537
-0.0223365 -0.032972928 0.0095817447
-0.021241555 -0.032924414 0.01020667
-0.020121921 -0.032830503 0.010578454
-0.019097853 -0.032890748 0.011122286
-0.018100774 -0.033007294 0.012384474
-0.01684824 -0.032643463 0.014457524
-0.015683748 -0.03241308 0.017286897
-0.014451502 -0.031999756 0.02181682
-0.013218951 -0.031522118 0.025400579
-0.012273057 -0.031705402 0.026193291
-0.011122091 -0.031344075 0.027307242
-0.010070324 -0.031218005 0.028071165
-0.0091322009 -0.03145536 0.02824524
-0.0080673713 -0.031261064 0.02835083
-0.0070209843 -0.031092932 0.028598964
-0.0061473404 -0.031761263 0.028919071
-0.0050956034 -0.031592742 0.029031128
-0.0040153204 -0.031118732 0.028885782
-0.0030398238 -0.031411514 0.028768331
-0.0020222038 -0.031344157 0.028722614
-0.0010146979 -0.03145564 0.028612912
0 -0.03164608 0.028523654
0.0010042415 -0.031131489 0.027747929
0.0020180696 -0.031280082 0.026510894
0.0030896121 -0.031925995 0.02535525
0.0040882686 -0.031684082 0.021807939
0.0051205265 -0.031747267 0.019455284
0.0062655094 -0.0323718 0.016171128
0.0073345695 -0.032481667 0.013446629
0.0084194159 -0.032625239 0.012853205
0.0095238546 -0.032804389 0.011836648
0.010610001 -0.032891005 0.011481613
0.011625453 -0.032762643 0.010553092
0.012709844 -0.032833766 0.0099726319
0.013831913 -0.032983795 0.008723408
0.014869992 -0.03292641 0.0073205829
0.016026383 -0.033121195 0.0057798922
-0.02448687 -0.031939395 0.0052362382
-0.023378737 -0.031880096 0.0074081123
-0.022507766 -0.032153953 0.0086474717
-0.021307515 -0.031961273 0.0094262958
-0.020313827 -0.032074463 0.009956032
-0.019144107 -0.031906847 0.010341614
-0.018092837 -0.031928536 0.010682523
-0.016745469 -0.031397752 0.011327237
-0.016035795 -0.03207159 0.012308031
-0.014717118 -0.031536683 0.015066504
-0.013472688 -0.03109082 0.019506752
-0.012262983 -0.030657459 0.02477774
-0.011107483 -0.030293135 0.025966972
-0.010213255 -0.030639766 0.027022481
-0.0091065755 -0.030355254 0.027347654
-0.0081306649 -0.030489994 0.028028429
-0.0070623183 -0.030267078 0.028325438
-0.0060573076 -0.030286539 0.028537005
-0.0050655613 -0.030393368 0.02869913
-0.0040552379 -0.030414281 0.02869913
-0.0030331034 -0.030331034 0.02866596
-0.0020168712 -0.030253069 0.028488845
-0.0010163496 -0.03049049 0.028343022
0 -0.030215139 0.027137548
0.0010198156 -0.030594466 0.026510894
0.002061015 -0.030915225 0.024155527
0.0030974941 -0.030974941 0.020295739
0.0041690585 -0.031267941 0.016310304
0.0052886978 -0.031732187 0.013742477
0.0063232384 -0.031616192 0.012902409
0.0074083055 -0.031749882 0.012376666
0.0084205251 -0.031576969 0.012041658
0.0095081516 -0.031693839 0.011432886
0.010582225 -0.031746678 0.010804087
0.011554778 -0.031513028 0.010215998
0.012729026 -0.031822566 0.0091227293
0.013865342 -0.031996943 0.0075960457
0.014880462 -0.031886704 0.0066215992
-0.023537982 -0.031027341 0.0059223473
-0.022318024 -0.030820128 0.0077090859
-0.021344213 -0.03094911 0.0086632371
-0.020449124 -0.031211821 0.0095283687
-0.019108243 -0.030785505 0.0095509887
-0.017961867 -0.030640831 0.0097633898
-0.016951742 -0.030725034 0.010356724
-0.015984949 -0.030904233 0.010806501
-0.01468833 -0.030425828 0.011779487
-0.013784123 -0.030749198 0.013735056
-0.012457808 -0.030106373 0.016275316
-0.011480659 -0.030267194 0.021105707
-0.010195672 -0.02956745 0.024929196
-0.0091202836 -0.029387582 0.025951982
-0.0081326421 -0.029480828 0.026193291
-0.007138527 -0.029573899 0.027094275
-0.0061456189 -0.029703826 0.027555823
-0.0050476384 -0.029276304 0.027785271
-0.0040518455 -0.029375883 0.027785271
-0.0030644925 -0.029623428 0.027233392
-0.0020385266 -0.029558634 0.027033865
-0.0010103937 -0.029301418 0.026259691
0 -0.02941262 0.025143623
0.0010365444 -0.03005979 0.020508021
0.0020851109 -0.03023411 0.01674974
0.0031527949 -0.030477017 0.014144182
0.0042058243 -0.030492226 0.013130933
0.005278721 -0.030616583 0.012652665
0.0063225739 -0.030559108 0.01218608
0.0073930644 -0.030628411 0.011685073
0.0084711984 -0.030708093 0.011270791
0.0095925219 -0.03090924 0.010500103
0.010623076 -0.030806921 0.0099022985
0.011667233 -0.030759072 0.0092382729
0.012812329 -0.03096313 0.0081013739
0.013845758 -0.030886691 0.0068852305
0.014975936 -0.031021582 0.0056346655
-0.022477593 -0.029970123 0.0063228905
-0.021486498 -0.030081099 0.0076505542
-0.020236865 -0.029822748 0.0086010396
-0.019145528 -0.029781934 0.0091620684
-0.018188201 -0.029957037 0.009083271
-0.017083107 -0.029895436 0.0094821155
-0.016083512 -0.030022556 0.010216147
-0.014871354 -0.029742708 0.010316133
-0.013656158 -0.029413264 0.010767221
-0.012676705 -0.029578978 0.012603074
-0.011672644 -0.029712185 0.014448553
-0.01033916 -0.028949648 0.01852867
-0.0092817126 -0.028876439 0.021699131
-0.0082299262 -0.028804742 0.024429351
-0.0071295747 -0.028518299 0.025001913
-0.0061536413 -0.028716993 0.025235891
-0.0051215193 -0.028680511 0.026094496
-0.0040535373 -0.028374759 0.025252163
-0.0030502551 -0.028469048 0.025046706
-0.0020311021 -0.02843543 0.022655696
-0.001035025 -0.028980698 0.020734102
0 -0.029416796 0.017576993
0.0010479811 -0.029343469 0.014180392
0.0021112708 -0.029557792 0.013406128
0.0031739734 -0.029623752 0.012882918
0.0042109489 -0.029476643 0.01233384
0.0052830018 -0.02958481 0.012084097
0.0063780672 -0.029764313 0.011685073
0.0073862853 -0.029545141 0.011131138
0.0085558929 -0.029945625 0.010644227
0.009463964 -0.029443445 0.0099510849
0.010575095 -0.029610267 0.0093548
0.011684683 -0.029742831 0.0078232288
0.012800006 -0.029866681 0.0067656338
0.013790514 -0.029702647 0.0056458116
-0.021471938 -0.028987117 0.0065194964
-0.020241473 -0.028764199 0.0072649419
-0.019155363 -0.028733047 0.007573396
-0.01810554 -0.02875586 0.0083234906
-0.017060734 -0.02878999 0.0087392032
-0.01591482 -0.028646676 0.0092541873
-0.014847509 -0.028634483 0.0098372698
-0.013849786 -0.028764941 0.010168314
-0.012828464 -0.028864045 0.010715038
-0.011568944 -0.0283965 0.011881351
-0.010613394 -0.028656166 0.013912946
-0.0095236059 -0.028570822 0.014494598
-0.0082031116 -0.027685503 0.017193586
-0.0071499548 -0.027578397 0.01910907
-0.0060889972 -0.027400488 0.019962341
-0.0050813332 -0.027439201 0.020938218
-0.0040771044 -0.027520454 0.020052999
-0.003105164 -0.027946476 0.018654287
-0.0020945978 -0.028277069 0.015612274
-0.0010549742 -0.028484304 0.014510214
0 -0.028530383 0.013935596
0.0010547916 -0.028479375 0.012902409
0.0021113886 -0.028503746 0.012457132
0.0031765241 -0.028588718 0.012048125
0.0042605796 -0.028758915 0.01170224
0.0052677849 -0.028446041 0.011485726
0.0063346303 -0.028505838 0.011086226
0.0074339597 -0.028673846 0.010474354
0.0084770676 -0.028610105 0.0099804997
0.0095164897 -0.028549472 0.0091496706
0.010596973 -0.028611828 0.0079624355
0.011570951 -0.028401427 0.006713897
0.012817519 -0.028839419 0.0050210059
-0.020324485 -0.027812453 0.0062250197
-0.019205563 -0.027741369 0.0069407821
-0.018108523 -0.027695386 0.0073228478
-0.017011015 -0.027642898 0.0082535446
-0.016093468 -0.027895346 0.008708626
-0.014927426 -0.027722362 0.009042114
-0.013897131 -0.027794262 0.009180963
-0.012697017 -0.027510203 0.010048777
-0.011658499 -0.027556453 0.010427207
-0.01063035 -0.02763891 0.011223286
-0.0094928732 -0.027423859 0.011996299
-0.0084770052 -0.027550265 0.012647629
-0.0072835772 -0.027053287 0.013779044
-0.0062236064 -0.026968962 0.013945282
-0.0051600495 -0.026832256 0.013990849
-0.0041561439 -0.027014935 0.014038563
-0.0031670083 -0.027447404 0.013897955
-0.0021020016 -0.027326019 0.01373595
-0.0010615978 -0.027601544 0.01315704
0 -0.027277315 0.01249367
0.0010574602 -0.027493967 0.012097478
0.0021139274 -0.027481055 0.011970639
0.0031644525 -0.027425256 0.011225492
0.0042422991 -0.027574945 0.010814488
0.0052990746 -0.027555188 0.010860771
0.0063962713 -0.027717177 0.010209858
0.0073862108 -0.027434498 0.0093598664
0.0085300533 -0.027722672 0.0085512698
0.0095322924 -0.027537735 0.0077546239
0.010668672 -0.027738547 0.0064966679
-0.019274265 -0.026769813 0.0054204762
-0.018201318 -0.026766643 0.0065009296
-0.016873609 -0.026365016 0.0068680346
-0.016036727 -0.026727879 0.0078608394
-0.014903397 -0.026613209 0.0083298087
-0.013746724 -0.02643601 0.0085651577
-0.012764728 -0.026593182 0.00871858
-0.01182095 -0.026865795 0.0097163022
-0.010604658 -0.026511649 0.010358214
-0.009575421 -0.026598394 0.010563165
-0.0084729949 -0.02647811 0.011039883
-0.0073924945 -0.026401768 0.011274695
-0.0062965192 -0.026235497 0.011763036
-0.0052609709 -0.026304856 0.012045771
-0.0041955067 -0.026221918 0.012289822
-0.0031742661 -0.026452217 0.012240291
-0.0021147497 -0.026434371 0.012250245
-0.0010524553 -0.026311385 0.012142956
0 -0.026751157 0.011602819
0.0010541592 -0.026353983 0.011290461
0.0021145062 -0.02643133 0.010855049
0.0031914271 -0.026595226 0.010210872
0.0042020786 -0.026262993 0.0099686682
0.0053081312 -0.026540658 0.0095892847
0.0063213459 -0.026338942 0.0089530945
0.0074521252 -0.026614733 0.0078564882
0.008510476 -0.026595237 0.0073093474
-0.017077606 -0.025616409 0.0056147873
-0.015977129 -0.025563408 0.0063734055
-0.014860533 -0.0254752 0.0074009299
-0.013840558 -0.0255518 0.0077085197
-0.012603137 -0.025206273 0.0081317127
-0.011663463 -0.025447557 0.0084676445
-0.010519873 -0.025247695 0.0091082752
-0.0095878346 -0.02556756 0.0098686516
-0.0084961951 -0.025488585 0.010264009
-0.0074894712 -0.025678188 0.01045537
-0.0063511576 -0.02540463 0.010656774
-0.0052602515 -0.025249207 0.010702908
-0.0042497064 -0.025498237 0.010734081
