ply
format ascii 1.0
comment PCL generated
element vertex 1296
property float x
property float y
property float z
element camera 0
property float view_px
property float view_py
property float view_pz
property float x_axisx
property float x_axisy
property float x_axisz
property float y_axisx
property float y_axisy
property float y_axisz
property float z_axisx
property float z_axisy
property float z_axisz
property float focal
property float scalex
property float scaley
property float centerx
property float centery
property int viewportx
property int viewporty
property float k1
property float k2
end_header
-0.053617414 0.0023311919 0.025805235
-0.052583795 0.0023370574 0.0257155
-0.050869361 0.0023122437 0.023467928
-0.050519098 0.0023497255 0.024322957
-0.048402093 0.0023048616 0.034129024
-0.04662016 0.002274154 0.035156816
-0.045443509 0.0022721756 0.038126439
-0.04426619 0.0022700611 0.041509956
-0.042652428 0.0022448648 0.041738391
-0.043038052 0.0023263812 0.033150733
-0.040887397 0.0022715221 0.034737229
-0.040060155 0.0022891518 0.030784428
-0.039206911 0.0023062888 0.032783806
-0.037845097 0.0022936424 0.032839239
-0.03728918 0.0023305737 0.030390352
-0.036093272 0.0023285982 0.028548181
-0.034335453 0.0022890302 0.027094275
-0.033738464 0.0023267907 0.031575263
-0.032204453 0.0023003181 0.030899614
-0.030898632 0.0022887874 0.031172574
-0.029982209 0.0023063237 0.033903658
-0.028953815 0.0023163052 0.02646023
-0.027672812 0.0023060679 0.02717033
-0.027204115 0.0023655752 0.021500796
-0.025820045 0.0023472768 0.020602733
-0.02470853 0.0023531932 0.01785323
-0.021410137 0.0023789043 0.016836435
-0.018651193 0.0023313991 0.018107235
-0.016839843 0.0024056919 0.016233742
-0.015240604 0.0023447082 0.017210215
-0.01428949 0.0023815818 0.015090585
-0.010794937 0.0023988751 0.016239583
0.060062323 0.0024024928 0.015053421
0.064445086 0.002386855 0.015082508
0.067150801 0.0023561683 0.01661247
0.067891836 0.0023410979 0.020758271
0.069984369 0.0023723515 0.019568533
0.070815422 0.0023605139 0.017414719
0.077032201 0.0023702215 0.016972303
-0.0581812 0.0035621144 0.015856624
-0.056118749 0.0035074218 0.016781569
-0.05502262 0.0035120822 0.022939086
-0.054302052 0.0035414381 0.02910006
-0.051762272 0.0034508179 0.030005008
-0.050911244 0.0034712211 0.026861608
-0.049663268 0.0034648792 0.032664537
-0.047543041 0.0033959313 0.032163769
-0.046980038 0.0034375638 0.033239573
-0.045746166 0.0034309626 0.034704
-0.04441461 0.0034165082 0.034591109
-0.04364593 0.003445731 0.03491497
-0.042224173 0.0034235814 0.033077389
-0.041302148 0.0034418458 0.03199175
-0.040087175 0.0034360434 0.041596025
-0.038931571 0.0034351386 0.034095615
-0.038159348 0.0034690315 0.03189075
-0.037129115 0.0034808542 0.03107062
-0.035487775 0.0034343007 0.032608598
-0.034759935 0.0034759934 0.030401558
-0.033312909 0.0034461629 0.033739775
-0.031963814 0.0034246945 0.032626569
-0.03094743 0.0034386031 0.034019172
-0.030192142 0.0034837087 0.028232336
-0.028831653 0.0034597984 0.028285474
-0.02811791 0.0035147388 0.023542374
-0.026842467 0.0035011913 0.022644907
-0.02593483 0.0035365678 0.020797282
-0.023834189 0.0035751285 0.016759098
-0.022641763 0.0035750151 0.01651749
-0.020096233 0.0035463939 0.016253144
-0.019081766 0.0035778307 0.018716216
-0.017801316 0.003560263 0.015525252
-0.016406201 0.0035156142 0.018085986
-0.015440011 0.0035630795 0.017209947
-0.014362402 0.0035906006 0.015163451
-0.012964672 0.0035358197 0.018334001
0.040230874 0.0035497828 0.015213013
0.05514634 0.0035965003 0.015749425
0.063693605 0.0035385336 0.015009761
0.065858081 0.003592259 0.01534304
0.066554524 0.0035028697 0.022576183
0.068058804 0.0035202827 0.023316503
0.06858819 0.0034875348 0.024321556
0.070604496 0.0035302248 0.021273583
0.072354048 0.0035583957 0.021193415
-0.060286991 0.0048229592 0.016867906
-0.058040567 0.0047380058 0.02035901
-0.057436787 0.0047863987 0.018500507
-0.05331172 0.0046358015 0.019989222
-0.052134693 0.0046341945 0.029689282
-0.050678141 0.0046071038 0.032533824
-0.048960965 0.0045545083 0.029802442
-0.04840539 0.004610037 0.031920493
-0.046988972 0.0045842896 0.03658697
-0.045509778 0.0045509776 0.033878118
-0.044427849 0.0045567024 0.038862526
-0.043352045 0.004563373 0.033748806
-0.042252459 0.0045678336 0.031886667
-0.041419305 0.0046021449 0.035318881
-0.039945994 0.0045652562 0.031487852
-0.038932789 0.0045803282 0.03144601
-0.038218677 0.0046325671 0.030407369
-0.03670821 0.0045885262 0.031361639
-0.035624571 0.0045967186 0.029689968
-0.034589544 0.0046119392 0.032565475
-0.03291009 0.0045393226 0.034128219
-0.032145344 0.0045921924 0.034839869
-0.031076513 0.004603928 0.035502821
-0.029830802 0.0045893542 0.031565964
-0.029258523 0.0046813637 0.025996745
-0.028023811 0.0046706353 0.022056788
-0.026855886 0.0046705888 0.024908811
-0.026174013 0.0047589117 0.02598381
-0.024667967 0.0046986602 0.023478687
-0.023616878 0.0047233757 0.017733037
-0.022760458 0.0047916756 0.021048397
-0.021211985 0.0047137747 0.017615438
-0.019965308 0.0046977196 0.023343593
-0.019039433 0.0047598584 0.016839325
-0.017605342 0.004694758 0.018790752
-0.016788028 0.0047965795 0.018183082
-0.015503051 0.0047701695 0.022304147
-0.014022015 0.0046740049 0.02152583
-0.013304304 0.0048379293 0.016163826
0.030075487 0.0048120776 0.015529901
0.035014033 0.0048295218 0.016005993
0.040899258 0.0048116776 0.017302603
0.042516764 0.0047240853 0.016517758
0.044424724 0.0048026727 0.016684055
0.045084283 0.0047457139 0.017044365
0.061174419 0.0047979937 0.023588389
0.062725179 0.0048250137 0.016833127
0.062196918 0.004694107 0.017045319
0.064217575 0.0047568572 0.016145438
0.065587573 0.0047700056 0.020948172
0.065337121 0.004666937 0.022341996
0.067547448 0.0047401721 0.02358982
0.067836851 0.0046784035 0.024981409
0.0685369 0.0046465695 0.023114622
0.070993714 0.0047329143 0.024119228
0.071778908 0.0047068135 0.021458179
0.073103808 0.0047163744 0.021353692
0.07605318 0.004828773 0.015322536
-0.055182129 0.0058704391 0.021072894
-0.054257579 0.0058975625 0.02086091
-0.052591294 0.0058434764 0.026659042
-0.050623398 0.0057526589 0.026496649
-0.049785934 0.005789062 0.032420456
-0.048798796 0.0058093802 0.030003458
-0.046741471 0.0057001789 0.033965737
-0.046673339 0.0058341674 0.028781027
-0.044791073 0.0057424451 0.029540598
-0.04302562 0.0056612659 0.037705362
-0.04270504 0.005770951 0.033998549
-0.041654252 0.005785313 0.033058912
-0.04052949 0.0057899267 0.025826126
-0.039326224 0.0057832683 0.032004058
-0.037822582 0.0057306942 0.035559386
-0.036571044 0.0057142251 0.038702577
-0.035478473 0.0057223337 0.03447926
-0.03405232 0.0056753862 0.034558773
-0.033334177 0.0057472717 0.036924601
-0.032169994 0.0057446412 0.033768386
-0.031042796 0.0057486654 0.034455508
-0.030347249 0.005836009 0.030056179
-0.029352024 0.0058704047 0.025679618
-0.027739657 0.005779095 0.030576766
-0.027056735 0.0058818986 0.028633416
-0.025941573 0.0058958121 0.016412944
-0.024763171 0.0058959927 0.020263195
-0.023755055 0.0059387637 0.022823334
-0.02225299 0.0058560497 0.021924824
-0.020972382 0.0058256616 0.024168789
-0.020124227 0.0059188898 0.024756193
-0.018409207 0.0057528773 0.024807483
-0.017826017 0.0059420057 0.01842463
-0.016710781 0.0059681353 0.019864321
-0.015153255 0.0058281748 0.024594814
-0.014270269 0.0059459452 0.01913628
-0.010802458 0.0060013658 0.016555488
0.032410979 0.0060020327 0.017154723
0.041560531 0.0059372182 0.01562205
0.042769171 0.0059401626 0.015059888
0.044037119 0.0059509613 0.016805023
0.044847764 0.005901021 0.015732795
0.046483222 0.0059593874 0.016797096
0.048318665 0.0060398332 0.015798002
0.053130038 0.0060375039 0.015781581
0.054853849 0.0059623746 0.018123031
0.058101237 0.0059286975 0.017138839
0.059287064 0.0059287059 0.017666012
0.061326955 0.0060124462 0.015362293
0.061538145 0.0059171291 0.016639173
0.062518746 0.0058979951 0.022121996
0.064838998 0.0060036108 0.026320219
0.063878179 0.0058071068 0.026867092
0.065480731 0.0058464934 0.026761353
0.066912524 0.0058695194 0.026100159
0.068013474 0.0058632302 0.019888043
0.069495887 0.0058894814 0.025333673
0.069465064 0.0057887547 0.026096284
0.071571045 0.0058664787 0.026062518
0.073142886 0.0058986195 0.024992347
0.074009702 0.0058737854 0.023416847
0.076438457 0.0059717544 0.018398702
-0.058238633 0.0071312613 0.018154979
-0.056605134 0.0070756418 0.016344339
-0.05610235 0.0071620019 0.01918298
-0.054634664 0.0071262601 0.018485874
-0.052608594 0.0070144786 0.021423429
-0.051266979 0.006990952 0.025841236
-0.050097041 0.0069902847 0.023981094
-0.048430413 0.0069186301 0.027431518
-0.048070259 0.007034672 0.025934398
-0.046577111 0.0069865668 0.026693165
-0.044614419 0.006863757 0.032427996
-0.043870613 0.0069269384 0.027240187
-0.042627215 0.0069125206 0.032613188
-0.041783992 0.006963999 0.030604541
-0.039909501 0.0068416288 0.040183425
-0.039376523 0.006948798 0.034262866
-0.037378151 0.0067960275 0.039130956
-0.03674677 0.0068900194 0.03843388
-0.035286941 0.0068297302 0.034842819
-0.034317449 0.0068634893 0.038935065
-0.033523493 0.006935895 0.034831494
-0.031712499 0.0067955349 0.033548266
-0.031378429 0.0069729839 0.027592659
-0.030256048 0.0069821645 0.0308339
-0.02886726 0.0069281422 0.0324696
-0.027973866 0.0069934665 0.027386695
-0.027041808 0.0070543848 0.021693438
-0.026071934 0.0071105273 0.017240316
-0.024841594 0.0070975982 0.025693417
-0.023505799 0.0070517403 0.019948453
-0.022239499 0.0070229997 0.023702323
-0.021172291 0.0070574302 0.024167955
-0.019820124 0.0069953375 0.024950296
-0.018734131 0.0070252991 0.024538577
-0.017842771 0.0071371081 0.022591323
-0.016235916 0.0069582495 0.024616301
-0.015239874 0.0070337881 0.021693408
-0.014288062 0.0071440311 0.020963818
-0.011902259 0.0071413554 0.016797751
-0.010753811 0.007169208 0.01601851
-0.0095340945 0.0071505709 0.015604854
-0.0084105711 0.0072090607 0.023579091
-0.0060043433 0.007205212 0.015411705
-0.004830922 0.007246383 0.01599741
-0.0023976271 0.0071928808 0.018046528
0.014541822 0.0072709108 0.015430361
0.034891944 0.0072190226 0.017926574
0.036128622 0.0072257239 0.020622671
0.036811404 0.0071247877 0.015731543
0.038539864 0.0072262245 0.016360521
0.039802387 0.0072367974 0.017912775
0.040351432 0.0071208407 0.016232342
0.041792952 0.0071645058 0.019241363
0.042802688 0.0071337814 0.018727094
0.043685202 0.0070840861 0.020544142
0.045362875 0.0071625588 0.020029545
0.04621185 0.0071095149 0.025413245
0.047683664 0.0071525499 0.019510269
0.049156945 0.007193699 0.016933799
0.049945693 0.0071350988 0.019015282
0.054687604 0.0071331654 0.017225981
0.056523554 0.0072157728 0.017293721
0.056660339 0.0070825424 0.018814147
0.058879141 0.0072096912 0.019776791
0.059747875 0.0071697449 0.019649774
0.05990912 0.0070481314 0.017079324
0.062221438 0.0071793967 0.01997605
0.063090034 0.0071422681 0.02349931
0.062725827 0.0069695362 0.024047494
0.064749725 0.0070636058 0.022009939
0.065052472 0.0069699078 0.026132494
0.066235937 0.006972204 0.029962271
0.068284146 0.0070638768 0.029517293
0.068354771 0.0069513326 0.028686434
0.070334584 0.007033458 0.027180672
0.071539223 0.007036645 0.029364556
0.072692178 0.0070347269 0.029787332
0.073844068 0.0070327683 0.029511005
0.075025693 0.0070336587 0.027717561
0.077799216 0.0071814661 0.016537338
-0.054334361 0.0082682725 0.016328901
-0.053102668 0.0082604149 0.019750476
-0.052046191 0.0082800761 0.02314949
-0.05010806 0.0081571257 0.022646546
-0.049284123 0.0082140202 0.023040563
-0.048212551 0.0082314108 0.025933355
-0.046014708 0.0080525735 0.028196543
-0.045518983 0.0081700739 0.027499557
-0.043628991 0.0080369189 0.032919914
-0.042605281 0.0080604581 0.030353576
-0.041673012 0.0081030857 0.034149438
-0.04040318 0.0080806362 0.027792007
-0.038464088 0.0079190768 0.038003504
-0.03796012 0.008052147 0.033588082
-0.036354404 0.0079525253 0.036876559
-0.035598308 0.0080383271 0.032872021
-0.034755617 0.0081096441 0.033072799
-0.032922588 0.0079468312 0.031765461
-0.032945812 0.0082364529 0.028340966
-0.031252343 0.0081024589 0.033577025
-0.029834067 0.0080322493 0.030321658
-0.029311802 0.0082073044 0.02721104
-0.028048685 0.0081808669 0.025559872
-0.027184904 0.0082736658 0.020085692
-0.026103022 0.0083055068 0.022353023
-0.024873832 0.0082912771 0.015025765
-0.023513371 0.0082296804 0.027083963
-0.022224711 0.0081880512 0.026941121
-0.020873245 0.0081173731 0.029307336
-0.019681599 0.0081041874 0.027142078
-0.018876649 0.0082585337 0.025536656
-0.017206918 0.0080298958 0.030339897
-0.016435714 0.0082178572 0.027125567
-0.015212324 0.0081912512 0.024617374
-0.014052745 0.0081974352 0.023156792
-0.01313467 0.0083584264 0.01972121
-0.012045612 0.0084319282 0.019088656
-0.010589357 0.0082361661 0.020211309
-0.0095571131 0.0083624739 0.023455113
-0.0082728323 0.0082728323 0.015336782
-0.0036176371 0.008441153 0.015484989
-0.0024188678 0.008466037 0.01892367
0 0.0084059685 0.016704738
0.0084836213 0.0084836213 0.016604692
0.015568787 0.0083831931 0.01591602
0.02066946 0.0085109537 0.015861332
0.022539431 0.0083040008 0.018634677
0.024356091 0.0085246321 0.019436151
0.03233958 0.0083843349 0.016715497
0.034775916 0.0083941864 0.015444875
0.037126482 0.0083833989 0.021590531
0.038561646 0.0084353602 0.018644869
0.04060385 0.0083596157 0.019147545
0.041476659 0.0082953321 0.021062642
0.042018391 0.0081702434 0.025138468
0.04379575 0.0082856817 0.027488202
0.045185767 0.0083236936 0.021121174
0.045739066 0.0082095759 0.025921911
0.047240112 0.0082670199 0.0231736
0.049348921 0.0084254257 0.018194616
0.049289215 0.0082148695 0.020469725
0.051481705 0.0083807427 0.020294607
0.052590143 0.0083666136 0.019222617
0.053222623 0.008279074 0.018199503
0.05549895 0.008445492 0.020568609
0.055983424 0.0083379569 0.016687512
0.057349596 0.0083634825 0.016367882
0.058918301 0.0084169004 0.019049823
0.058320809 0.0081649125 0.02197203
0.060236748 0.0082677891 0.020997584
0.062520757 0.0084162559 0.025271356
0.062094513 0.0082011623 0.023764312
0.06456995 0.0083701788 0.026656598
0.064574398 0.0082185594 0.02536723
0.065195277 0.0081494097 0.027049154
0.066831917 0.0082074283 0.030419827
0.066811658 0.0080634756 0.031736493
0.069220334 0.0082125822 0.031652719
0.070552453 0.0082311193 0.028771311
0.070635647 0.0081057297 0.040380716
0.07247638 0.0081828171 0.035304785
0.07486935 0.0083188163 0.026763588
0.074768439 0.0081777982 0.025501043
0.07711944 0.0083051706 0.029631227
0.080763958 0.0085658738 0.016963184
-0.054384783 0.0094582224 0.017418325
-0.054155242 0.0096275983 0.016744703
-0.051198561 0.0093088299 0.023851395
-0.050942402 0.0094776563 0.025336802
-0.049223267 0.00937586 0.026847064
-0.047357455 0.0092404792 0.028042644
-0.046376538 0.0092753079 0.029481202
-0.044922914 0.0092149572 0.030143768
-0.044187378 0.0093026059 0.031437546
-0.041913759 0.0090624345 0.047713637
-0.041356314 0.0091902921 0.031670541
-0.039748743 0.009085427 0.037046194
-0.038836118 0.0091379099 0.04084456
-0.037557356 0.0091048134 0.041290492
-0.03661523 0.0091538075 0.032450825
-0.036092199 0.0093141161 0.031922281
-0.034188624 0.0091169663 0.034433007
-0.033788599 0.009320993 0.02901563
-0.032510057 0.0092885885 0.027099013
-0.031209828 0.0092473561 0.028928399
-0.030231269 0.0093019288 0.027083755
-0.029334771 0.0093871262 0.02411887
-0.027986033 0.0093286773 0.029940188
-0.02731522 0.0095009459 0.022884488
-0.025709422 0.0093488814 0.02688086
-0.02457862 0.0093632834 0.028053343
-0.023434335 0.0093737347 0.030078381
-0.021950621 0.009242367 0.029667944
-0.020951197 0.0093116434 0.033057511
-0.019830819 0.0093321502 0.030308038
-0.018506382 0.0092531908 0.035501122
-0.017688604 0.0094339224 0.028315902
-0.016411915 0.0093782376 0.028805852
-0.015103091 0.00929421 0.026297927
-0.014233434 0.0094889561 0.019621402
-0.013189693 0.0095925042 0.021353513
-0.011747639 0.0093981111 0.022135019
-0.010551012 0.0093786782 0.020966113
-0.0093957549 0.0093957549 0.02715984
-0.0082690315 0.0094503211 0.022821218
-0.0071081449 0.0094775269 0.020969093
-0.0058922637 0.009427622 0.019360453
-0.0046968744 0.0093937488 0.022262752
-0.003586194 0.0095631843 0.019849151
-0.0011867711 0.0094941687 0.019313157
0 0.0094902972 0.023068547
0.0024033915 0.0096135661 0.015679568
0.0060199723 0.009631956 0.016751409
0.0072101858 0.0096135819 0.017799318
0.0083291931 0.0095190778 0.018286258
0.0096775936 0.0096775936 0.017480791
0.013290915 0.0096661197 0.017648339
0.015517362 0.0095491465 0.018693715
0.018034024 0.0096181463 0.017520785
0.019295836 0.0096479179 0.017787069
0.020447943 0.0096225617 0.018321246
0.021215389 0.0094290618 0.018246204
0.022723498 0.0095677888 0.022652864
0.024112621 0.0096450495 0.016317815
0.024992844 0.009521083 0.022768945
0.026676307 0.0097004753 0.01521787
0.03010902 0.0096348859 0.017791003
0.03097309 0.009530182 0.017374516
0.032050673 0.0094964961 0.020558864
0.033717353 0.009633529 0.022574365
0.034626175 0.0095520476 0.015687376
0.035848267 0.0095595382 0.018675536
0.037311289 0.0096287197 0.016289383
0.037778109 0.0094445273 0.0207102
0.039496172 0.0095748305 0.023792446
0.040752728 0.0095888767 0.021965206
0.040775407 0.0093200933 0.024438322
0.042718098 0.0094929114 0.024335802
0.043730825 0.009455313 0.027438343
0.044198908 0.0093050329 0.026460975
0.046030372 0.0094421273 0.024197519
0.047123879 0.0094247758 0.025234967
0.047944266 0.0093549779 0.024597943
0.050577991 0.0096339025 0.022675723
0.050767776 0.0094451671 0.024682134
0.051427864 0.0093505206 0.027850866
0.054029837 0.0096053043 0.023529828
0.054554723 0.0094877779 0.021682084
0.056108892 0.0095504494 0.023976624
0.057698499 0.0096164169 0.016996622
0.057756241 0.0094295908 0.02122733
0.05963384 0.0095414137 0.024487466
0.060246311 0.0094504012 0.028955013
0.060543668 0.0093144104 0.026551783
0.062697038 0.0094637042 0.027582705
0.064642012 0.0095765945 0.026534498
0.064013377 0.0093110362 0.027830213
0.06610515 0.0094435923 0.028158844
0.066526115 0.0093369987 0.026145339
0.067109533 0.0092564877 0.031759143
0.068598002 0.009301424 0.037248194
0.069970444 0.0093293926 0.030747503
0.071481638 0.0093746418 0.03117007
0.072181724 0.0093137706 0.032700628
0.074004702 0.009397422 0.033507168
0.076267563 0.0095334454 0.03139931
0.075997278 0.009353511 0.03547883
0.076810189 0.0093103256 0.032360941
0.081249818 0.0097014708 0.016185939
-0.054852735 0.010732056 0.017853469
-0.053083796 0.010616759 0.016622633
-0.052534293 0.010745651 0.01638487
-0.051150836 0.010705988 0.02208671
-0.048879474 0.010474172 0.02354753
-0.048150595 0.010569642 0.025203079
-0.0466507 0.010496407 0.025670379
-0.045351207 0.010465663 0.028443307
-0.043472465 0.010296109 0.043888927
-0.042567372 0.010354225 0.031467497
-0.04121862 0.010304655 0.032178879
-0.040526699 0.010421151 0.034250766
-0.039189287 0.010373634 0.03335911
-0.037926279 0.010343531 0.034240901
-0.037074149 0.010427103 0.039425045
-0.03544781 0.010291299 0.034886569
-0.034728453 0.010418535 0.02988413
-0.034169432 0.010604306 0.028746516
-0.032172907 0.010341291 0.032619238
-0.031636789 0.010545596 0.027540147
-0.030846503 0.010677635 0.025257409
-0.029082248 0.010469609 0.028473854
-0.028429979 0.010661243 0.024729759
-0.027063217 0.010589954 0.026194006
-0.025855362 0.010577193 0.028486341
-0.024600331 0.010542998 0.031533986
-0.02335638 0.01051037 0.033875942
-0.021870788 0.010359846 0.030348331
-0.020884315 0.010442157 0.030790359
-0.01962062 0.010387387 0.03349787
-0.018572645 0.010447113 0.027605087
-0.01744095 0.01046457 0.032627374
-0.016164551 0.010391496 0.028341323
-0.015216348 0.010534394 0.026881456
-0.014129581 0.010597185 0.027541608
-0.012884674 0.010542005 0.022595525
-0.011746406 0.010571766 0.025595307
-0.010633276 0.010633276 0.029082835
-0.0094147595 0.010591604 0.026475787
-0.0083428305 0.010726496 0.024234086
-0.007033526 0.010550288 0.023942471
-0.0059202951 0.010656531 0.019456983
-0.00479245 0.010783012 0.017311811
-0.0035953305 0.010785991 0.020238191
-0.0023648597 0.010641868 0.019019336
-0.0011919506 0.010727555 0.01977542
0 0.010640355 0.019677937
0.0011921945 0.01072975 0.015947163
0.0023931449 0.010769151 0.022725642
0.003528398 0.010585194 0.016897678
0.0048419475 0.010894381 0.022895485
0.0059763738 0.010757473 0.019042492
0.007087287 0.01063093 0.01870048
0.0083611766 0.010750084 0.022381127
0.0095688356 0.01076494 0.020990491
0.01077863 0.01077863 0.015236199
0.012040752 0.010836677 0.022450745
0.013162182 0.010769057 0.01874429
0.016988471 0.01092116 0.017448336
0.017830214 0.010698128 0.018665075
0.019280195 0.010845109 0.019296706
0.020084474 0.010632956 0.021243751
0.021562848 0.010781424 0.020096511
0.022745434 0.010774152 0.022749066
0.023719249 0.010673663 0.016779661
0.025372487 0.010873922 0.018725544
0.026585175 0.010875753 0.024006456
0.030130243 0.010846887 0.016986966
0.03067885 0.010619601 0.021558791
0.032178711 0.010726237 0.022212178
0.033233698 0.010682261 0.022038072
0.034188829 0.010610325 0.019748062
0.036192872 0.010857861 0.016972452
0.036666833 0.010645209 0.025502443
0.038328361 0.010779851 0.020368814
0.039273556 0.01071097 0.022503227
0.040135153 0.01062401 0.024903923
0.041259997 0.010609712 0.032914698
0.042610932 0.010652733 0.025718868
0.043277092 0.010526859 0.025008887
0.04468317 0.010582856 0.030125111
0.046077643 0.010633302 0.023613781
0.047111694 0.010600131 0.027174681
0.048476309 0.01064114 0.026585728
0.049424388 0.01059094 0.025608897
0.051406253 0.010759448 0.023541391
0.052520964 0.010742924 0.028212994
0.052963853 0.010592769 0.023843586
0.05429836 0.010623591 0.027010262
0.055875462 0.010699555 0.028915733
0.055432282 0.010393553 0.027115732
0.058859132 0.010810861 0.021831334
0.058959287 0.01061267 0.022163391
0.059502997 0.010500528 0.023680389
0.061310656 0.01061146 0.030806243
0.062879533 0.010677656 0.028572381
0.063421823 0.010570303 0.029892057
0.065395139 0.010701022 0.032587588
0.06530045 0.010494715 0.033156127
0.065851852 0.010397661 0.030078858
0.06820827 0.010584041 0.02958563
0.068455674 0.01044239 0.037704587
0.069717228 0.010457584 0.030528873
0.072018318 0.010625653 0.031505913
0.07239835 0.010509437 0.037301332
0.073207974 0.010458281 0.035022944
0.075261973 0.010583715 0.029302925
0.075175919 0.010408972 0.032733202
0.077838339 0.010614319 0.028341442
0.080758207 0.010848116 0.022510022
-0.052827142 0.012006168 0.017401785
-0.050035015 0.011636049 0.023152113
-0.049375661 0.011756109 0.026140839
-0.048269596 0.011773071 0.02270326
-0.046332557 0.011583139 0.025838703
-0.045660868 0.011707915 0.023127049
-0.044362318 0.011674293 0.025244325
-0.043308228 0.011704926 0.024837464
-0.042208459 0.011724573 0.025935918
-0.040998269 0.011713792 0.025917321
-0.039818894 0.011711439 0.03257969
-0.038419217 0.011642187 0.034214586
-0.036651973 0.011453741 0.031499296
-0.036253959 0.011694824 0.030727565
-0.035258889 0.011752963 0.02895844
-0.033368725 0.011506457 0.028915077
-0.03290654 0.011752335 0.025636584
-0.031948563 0.0118328 0.030652404
-0.03004759 0.011556765 0.029343516
-0.02932084 0.011728335 0.028545141
-0.028146457 0.01172769 0.024971694
-0.027025223 0.011750096 0.024293751
-0.025703864 0.011683574 0.032720834
-0.024391785 0.011615136 0.029778957
-0.023011634 0.011505817 0.03316772
-0.022038396 0.011599155 0.040405214
-0.020817311 0.011565173 0.034052461
-0.019712636 0.011595668 0.033983111
-0.018772297 0.011732685 0.031038702
-0.017216973 0.011477982 0.030432522
-0.016474036 0.011767169 0.030021042
-0.015141789 0.01164753 0.032874793
-0.013907203 0.011589336 0.028149277
-0.012891282 0.011719348 0.029564947
-0.011773131 0.011773131 0.02671504
-0.01048072 0.011645244 0.02859357
-0.0093542319 0.011692789 0.026839882
-0.0082339719 0.011762817 0.024915218
-0.0070601702 0.011766951 0.020113409
-0.0059272577 0.011854515 0.027184516
-0.0047082934 0.011770733 0.023357362
-0.0035486694 0.011828898 0.02899012
-0.0023965382 0.011982691 0.018408656
-0.0011752389 0.011752388 0.024845809
0 0.01187312 0.024358243
0.0011943792 0.011943791 0.018286914
0.002345823 0.011729115 0.024065375
0.003585974 0.011953246 0.023504198
0.0047853384 0.011963345 0.020797372
0.0059095821 0.011819164 0.023186028
0.0071069798 0.011844966 0.023916662
0.0083534289 0.011933469 0.020331979
0.0095463283 0.011932909 0.025523514
0.010837774 0.012041971 0.017575413
0.011928522 0.011928522 0.018695623
0.013178158 0.011980143 0.019303739
0.014491393 0.012076161 0.019009918
0.015643137 0.012033181 0.015328586
0.017957989 0.011971992 0.024194986
0.01873624 0.011710149 0.022779584
0.020316232 0.011950724 0.022704154
0.021649258 0.012027366 0.02333498
0.022328772 0.011751984 0.022820771
0.024090435 0.012045218 0.020188004
0.025441293 0.012114901 0.020794094
0.028000807 0.012174264 0.021202326
0.029927697 0.011971079 0.018470407
0.031092985 0.01195884 0.022019804
0.031807341 0.011780496 0.024789542
0.033327084 0.011902531 0.025417656
0.034548253 0.01191319 0.023808151
0.035512369 0.011837455 0.023852408
0.036544096 0.011788418 0.022194803
0.038415544 0.012004858 0.023721695
0.03869788 0.01172663 0.023425341
0.040308319 0.011855388 0.027939349
0.041484982 0.011852851 0.027131766
0.041843466 0.011623185 0.025328785
0.043512598 0.011760161 0.030688703
0.045346968 0.011933412 0.031725347
0.045234971 0.011598711 0.024922818
0.04710165 0.011775413 0.026226878
0.048003569 0.011708187 0.028039515
0.049212705 0.01171731 0.026625842
0.051590875 0.011997877 0.02715221
0.052115314 0.011844389 0.024139613
0.053017993 0.011781775 0.024157166
0.054601599 0.011869912 0.031635284
0.055357181 0.011778123 0.027097821
0.057021029 0.011879381 0.029413998
0.058387261 0.011915768 0.025048852
0.05875624 0.011751247 0.025452554
0.059465602 0.011659921 0.030209512
0.061816294 0.011887749 0.03177157
0.060736451 0.011459707 0.034686118
0.064246692 0.011897535 0.0297454
0.0647038 0.011764327 0.027730525
0.065053247 0.01161665 0.03445816
0.06664262 0.011691687 0.030270189
0.067452036 0.011629661 0.036726505
0.068707876 0.011645402 0.032612681
0.070794657 0.011799108 0.033300072
0.071267933 0.011683268 0.031528205
0.072162591 0.011639127 0.036239028
0.074827366 0.011877359 0.030950367
0.073924735 0.011550739 0.028867841
0.07720916 0.011878332 0.030348659
0.078560263 0.01190307 0.026703864
0.078070894 0.011652372 0.023927569
-0.052285217 0.013071304 0.015268058
-0.051436387 0.013158145 0.017187178
-0.04833607 0.012968213 0.022871554
-0.047549825 0.013076203 0.018777341
-0.045974936 0.01296729 0.019825369
-0.04554002 0.013182636 0.020849526
-0.043097381 0.013168645 0.016269565
-0.040832255 0.013210435 0.015815049
-0.038322497 0.012774165 0.029717118
-0.037328135 0.012831546 0.029625893
-0.036735751 0.013035267 0.02557224
-0.034545444 0.012666662 0.030366659
-0.033958916 0.012880968 0.028232336
-0.032856718 0.012907996 0.029161572
-0.031366851 0.012779088 0.031234235
-0.030273352 0.012807957 0.034840167
-0.029314362 0.012898318 0.029930294
-0.028531577 0.013076973 0.02180621
-0.027127028 0.012973796 0.031618774
-0.025573647 0.012786823 0.033765465
-0.024111534 0.012629851 0.038493425
-0.023364427 0.012850435 0.043417186
-0.021746598 0.012590135 0.032755554
-0.020865271 0.012750999 0.034220725
-0.01983247 0.012832775 0.035101414
-0.018421238 0.0126646 0.036566675
-0.017487198 0.012823945 0.029358536
-0.016305806 0.012811705 0.033942014
-0.015086151 0.012765205 0.028291464
-0.014082489 0.012908948 0.030316383
-0.012972206 0.012972206 0.026077867
-0.011569452 0.012726396 0.02951622
-0.010515133 0.012851829 0.026324868
-0.009401395 0.012926918 0.030128896
-0.0081237946 0.012765963 0.026741892
-0.0070885955 0.012995759 0.023159385
-0.005906757 0.012994865 0.023842752
-0.0047306577 0.013009309 0.024550468
-0.0035714761 0.013095412 0.024526596
-0.0023654175 0.013009796 0.024600178
-0.0011678475 0.012846323 0.027452946
0 0.012988503 0.030208111
0.0011677867 0.012845652 0.021991611
0.0023871164 0.01312914 0.021625727
0.0035562993 0.013039763 0.026842773
0.0047143237 0.012964389 0.023697168
0.0059631332 0.013118894 0.024306029
0.0071390592 0.013088275 0.026060343
0.0082487892 0.012962382 0.022524625
0.0096090799 0.013212484 0.023376703
0.010696116 0.013073031 0.019865513
0.011864369 0.013050807 0.022521049
0.013246998 0.013246998 0.021008521
0.014327408 0.013133457 0.022883505
0.015543115 0.013151866 0.019348323
0.016798733 0.013199004 0.019809633
0.017643433 0.012938517 0.025777012
0.019040994 0.013090684 0.02360636
0.02016479 0.013047804 0.027793676
0.021235732 0.012977391 0.025549859
0.02255057 0.013055593 0.025668681
0.023796652 0.013088158 0.022061676
0.024923218 0.013055019 0.018358022
0.028001778 0.013392154 0.015115649
0.028626492 0.013120476 0.027793169
0.029673282 0.013056244 0.020878196
0.030947043 0.01309298 0.021629125
0.032022007 0.013046002 0.022209376
0.033229567 0.013054472 0.028140038
0.034239233 0.012987295 0.025849223
0.035174534 0.012897329 0.028737724
0.036686774 0.013017886 0.028975368
0.037382577 0.01285026 0.026831001
0.039112322 0.01303744 0.030105919
0.040501863 0.013103544 0.027986109
0.040593937 0.012758095 0.025624126
0.042933472 0.01311856 0.028386801
0.043626539 0.012970052 0.031342208
0.044064291 0.012755453 0.032524228
0.045705222 0.012891216 0.039480865
0.047103442 0.012953446 0.031101495
0.047580313 0.012765449 0.028207481
0.049619421 0.012995562 0.0298976
0.051230516 0.01310548 0.024605066
0.052077282 0.013019321 0.028742671
0.053287126 0.013025741 0.027426481
0.053500589 0.012793618 0.033449888
0.055478785 0.012984396 0.033222377
0.056543846 0.012957965 0.029751003
0.057310328 0.012865584 0.025870055
0.059466131 0.013082549 0.02927345
0.060192585 0.012982714 0.032867908
0.059709571 0.012630871 0.033655435
0.062138442 0.012896658 0.034442186
0.06279102 0.012790763 0.038635045
0.063693322 0.012738665 0.032124758
0.065657534 0.012897016 0.03836754
0.066817194 0.012894546 0.036109567
0.067388222 0.012780524 0.031994909
0.068148457 0.012705644 0.045370162
0.070927545 0.013003383 0.028017551
0.071039163 0.01281034 0.02993539
0.072893672 0.012932748 0.033658653
0.074583597 0.013022533 0.027624756
0.076165728 0.013090984 0.02323243
0.076922655 0.01301768 0.026568413
0.078174204 0.013029033 0.019124538
0.079926737 0.013122299 0.021593571
-0.052133687 0.014548936 0.01519829
-0.049692273 0.014197792 0.01500833
-0.049289688 0.01442625 0.015642762
-0.047696851 0.014309055 0.017878443
-0.045444552 0.014350911 0.017644346
-0.044297088 0.014366623 0.018935114
-0.042593874 0.014197959 0.017725259
-0.03866053 0.014058375 0.025463074
-0.038178951 0.014317106 0.021993041
-0.035544485 0.013759154 0.02880314
-0.035139203 0.01405568 0.032017678
-0.03395649 0.014050961 0.030126929
-0.03266881 0.014000918 0.030132264
-0.031781644 0.014125175 0.0283131
-0.030513128 0.014082982 0.027685255
-0.029271206 0.014050178 0.029782176
-0.028176185 0.014088092 0.030760109
-0.026759814 0.013961642 0.031129718
-0.024989419 0.013630592 0.043475747
-0.024426788 0.013958164 0.039294094
-0.022730902 0.013638541 0.039079934
-0.021836421 0.013791422 0.038305432
-0.020999676 0.013999783 0.034534872
-0.019667491 0.013882935 0.035074532
-0.018630384 0.013972788 0.032958835
-0.017342512 0.013874009 0.032547861
-0.016111914 0.013810212 0.030090034
-0.015089029 0.013928335 0.034454107
-0.014043463 0.014043463 0.028096676
-0.012657631 0.013808325 0.037042528
-0.011675856 0.014011027 0.028344244
-0.010558797 0.014078396 0.031368226
-0.0093695214 0.014054282 0.030004889
-0.0083326586 0.014284557 0.027788132
-0.0069897273 0.013979455 0.027691782
-0.0058009 0.01392216 0.031812459
-0.0047376314 0.014212894 0.034958124
-0.0035282522 0.014113009 0.026011944
-0.0023442819 0.014065691 0.027645767
-0.0011811113 0.014173335 0.026622087
0 0.013854498 0.029011339
0.0011781248 0.014137497 0.024013489
0.0023667105 0.014200263 0.02703625
0.0034880277 0.013952111 0.027060211
0.0047295871 0.014188761 0.0258407
0.0058810408 0.014114498 0.025571853
0.0070317769 0.014063554 0.026984841
0.0083283931 0.014277245 0.027471215
0.0094270455 0.014140568 0.022083193
0.010632282 0.014176377 0.026786029
0.011953693 0.014344431 0.023201823
0.013019526 0.01420312 0.024833113
0.014225494 0.014225494 0.022881895
0.01549607 0.014304064 0.021150053
0.016680701 0.014297743 0.023901463
0.0176915 0.0141532 0.022681147
0.018961677 0.014221258 0.032398552
0.019812418 0.013985235 0.027280182
0.021242978 0.014161985 0.029128134
0.02249806 0.0142093 0.027054906
0.023629375 0.014177625 0.019746959
0.025024964 0.014299979 0.025465667
0.026705811 0.014566806 0.016333848
0.02733501 0.014261744 0.016574919
0.028690152 0.014345076 0.021098942
0.029579917 0.014198359 0.023528874
0.030734511 0.014185159 0.021287024
0.032321818 0.014365252 0.028264463
0.033019502 0.014151216 0.029889017
0.033972356 0.014057525 0.02993238
0.035299655 0.014119863 0.025405049
0.036414776 0.014096041 0.028414249
0.038215887 0.014330957 0.026586086
0.039191719 0.014251534 0.025001407
0.039931156 0.014093348 0.027279645
0.041081935 0.014085235 0.029629588
0.042368788 0.014122929 0.031128526
0.042956524 0.013931844 0.028523982
0.044598375 0.014083697 0.028323203
0.045761112 0.014080342 0.034479618
0.046779882 0.014033966 0.032021105
0.048126306 0.014085747 0.047316283
0.049015079 0.014004307 0.033168703
0.05089334 0.014202792 0.027536362
0.05260139 0.014345833 0.023918152
0.053261545 0.014203077 0.031373382
0.053569216 0.013974577 0.032793581
0.054740842 0.013976385 0.040193349
0.055601627 0.013900407 0.031951636
0.058029566 0.014211323 0.036297798
0.058482185 0.014035724 0.034520864
0.059944741 0.014104645 0.026964754
0.062150519 0.014342427 0.032129884
0.062182087 0.014078963 0.036759913
0.062316917 0.013848203 0.036433727
0.064037539 0.013971826 0.040358394
0.065754317 0.01409021 0.036602378
0.066255316 0.013948488 0.036106944
0.06881085 0.014236728 0.032065004
0.068353556 0.013902418 0.040012717
0.070253514 0.014050703 0.030764073
0.072066955 0.014177105 0.033018202
0.07295204 0.014119748 0.024380952
0.074244581 0.014141825 0.027767301
0.076842159 0.014407904 0.021040112
0.076436296 0.014111317 0.023269802
0.081105769 0.014746504 0.015779614
-0.051155183 0.01546552 0.015730381
-0.050693966 0.015690988 0.016292125
-0.044078108 0.015486902 0.017768472
-0.043082234 0.015557474 0.020151854
-0.041151002 0.015284658 0.022511929
-0.039921865 0.015264243 0.024508506
-0.039160617 0.01542691 0.030441523
-0.037165113 0.015098328 0.025490493
-0.036988337 0.015511237 0.021485239
-0.035730835 0.015483362 0.025159985
-0.033930939 0.015210421 0.023997575
-0.033088434 0.015362486 0.028476268
-0.031674106 0.015250495 0.032275409
-0.030325757 0.015162879 0.026807368
-0.029308466 0.015240402 0.032991439
-0.02786739 0.015094836 0.031779766
-0.026221767 0.014820999 0.039134264
-0.025496194 0.015065934 0.042742133
-0.023756465 0.014706383 0.042699158
-0.023050511 0.014982833 0.041219443
-0.022032501 0.01507487 0.038667738
-0.020718593 0.014963428 0.034191281
-0.019685626 0.015053714 0.037215054
-0.018615292 0.015124924 0.035197169
-0.017224232 0.014927668 0.03359282
-0.016205307 0.015047785 0.038906842
-0.015132987 0.015132987 0.031722605
-0.013840615 0.014994 0.034673452
-0.012787988 0.015113078 0.033043265
-0.011710281 0.015223366 0.028853834
-0.010413757 0.015042094 0.032925487
-0.0093994997 0.015274187 0.036120057
-0.0081050899 0.015052309 0.034220606
-0.0069540828 0.01506718 0.029493302
-0.005869613 0.015260994 0.02971366
-0.0046821716 0.015217057 0.029373288
-0.0035007361 0.015169856 0.029739559
-0.0023656725 0.015376871 0.028033614
-0.0011586528 0.015062487 0.02978906
0 0.01525743 0.028935969
0.001172487 0.015242331 0.026961297
0.0023245972 0.015109882 0.031470805
0.0035451627 0.015362372 0.033981085
0.004765538 0.015487998 0.026472509
0.0058945981 0.015325955 0.026813
0.0071050837 0.015394349 0.027007103
0.0083055627 0.015424617 0.026786655
0.009499914 0.01543736 0.023032039
0.010751542 0.015530005 0.02712512
0.011706017 0.015217822 0.029170603
0.013015832 0.015382347 0.024977386
0.014320877 0.015514283 0.023879111
0.01531036 0.01531036 0.02619186
0.016492663 0.015314614 0.02489844
0.017674593 0.01531798 0.030304193
0.018603601 0.015115425 0.025356591
0.020086212 0.015360044 0.030225068
0.021184338 0.015299801 0.029442459
0.022149323 0.015154799 0.026200533
0.023851529 0.015503493 0.024760902
0.024982119 0.015465121 0.023930043
0.026122721 0.015436154 0.020859897
0.027793283 0.015709246 0.018958658
0.0286412 0.015513984 0.022459984
0.029597385 0.015390639 0.023867667
0.030958235 0.015479118 0.032353699
0.031623211 0.01522599 0.032567263
0.032839905 0.015247098 0.029692203
0.03409135 0.015282328 0.031583428
0.035203934 0.015255038 0.030556589
0.036342259 0.015240301 0.028703719
0.038420927 0.015608502 0.024834424
0.038859967 0.015308472 0.025874078
0.040427703 0.015457651 0.029317915
0.041718353 0.015495389 0.028704494
0.041996218 0.015165302 0.034306675
0.043256316 0.015198165 0.031677395
0.044979937 0.015387873 0.034412354
0.044685964 0.014895321 0.034234285
0.046286289 0.015043044 0.034153163
0.04755586 0.015078686 0.037782162
0.049352411 0.015275747 0.033117652
0.051134337 0.015459218 0.035363048
0.052210841 0.01542593 0.029223025
0.052769613 0.015244554 0.031831264
0.05428642 0.015341814 0.034001976
0.054876022 0.015178474 0.032951176
0.055873275 0.015132345 0.038121134
0.057651632 0.015295331 0.035351306
0.058039263 0.015090208 0.039259255
0.059708901 0.015219916 0.033878744
0.062500872 0.015625218 0.028066248
0.061780263 0.01515365 0.032866299
0.063848257 0.015370876 0.037300646
0.064368017 0.015214258 0.037795335
0.065864198 0.015289903 0.035802841
0.066986211 0.015277557 0.039362222
0.067343354 0.015094199 0.039975703
0.069394149 0.015290236 0.031737626
0.0708846 0.01535833 0.030906409
0.071899749 0.015322898 0.032364994
0.073424429 0.015395444 0.025463164
0.076177016 0.015719067 0.021913528
0.076370284 0.015512713 0.019281298
0.078139193 0.015627839 0.017637491
-0.045292009 0.016686529 0.018151104
-0.042925686 0.016693324 0.016848445
-0.0414344 0.016573761 0.021271616
-0.040246777 0.016572202 0.028003871
-0.038608201 0.016379237 0.029418707
-0.037233923 0.016289841 0.034016907
-0.036683884 0.016566915 0.021483451
-0.035077017 0.016369274 0.029460251
-0.034157231 0.016489698 0.029684454
-0.032973316 0.016486658 0.027233779
-0.03130373 0.016231563 0.033294141
-0.030089214 0.016201885 0.036850929
-0.029243665 0.016376453 0.034837574
-0.027573073 0.016084293 0.037081361
-0.026800264 0.016313203 0.042610914
-0.025180815 0.016024156 0.037165016
-0.024010057 0.016006704 0.040504783
-0.023352886 0.016347021 0.033376902
-0.021910371 0.016144484 0.037909657
-0.020761775 0.016148048 0.036526054
-0.019618765 0.016156629 0.043714315
-0.018205522 0.015929831 0.039286017
-0.017350662 0.016193952 0.041019231
-0.016226962 0.016226962 0.038952291
-0.015024031 0.016179726 0.035008907
-0.01398929 0.01632084 0.037862211
-0.01287067 0.016380854 0.038620323
-0.011525319 0.016135447 0.028924495
-0.010500609 0.016334282 0.034896612
-0.0093114628 0.016295059 0.030658007
-0.0081807505 0.016361501 0.034193337
-0.0070423349 0.016432114 0.031586856
-0.0058453544 0.016366994 0.028589994
-0.0046769027 0.016369158 0.026177794
-0.0035245719 0.016448002 0.027762711
-0.0023369545 0.016358681 0.031858146
-0.001155813 0.016181381 0.031590313
0 0.01642287 0.034759223
0.0011603225 0.016244514 0.023522109
0.0023409761 0.016386833 0.034636915
0.003535175 0.016497483 0.030736387
0.0046922583 0.016422905 0.030735731
0.0059032412 0.016529076 0.030856758
0.0071165496 0.016605282 0.032586128
0.0082229748 0.01644595 0.027296185
0.0094576841 0.016550947 0.025223434
0.010614108 0.016510835 0.030948877
0.011658123 0.016321372 0.029192507
0.013078392 0.016645227 0.028508335
0.014214417 0.016583487 0.028360099
0.015194263 0.016363053 0.031403214
0.016442673 0.016442673 0.030791581
0.017685892 0.016506832 0.030667037
0.019036543 0.016656976 0.02606082
0.020059681 0.016519736 0.029297113
0.020909706 0.016263105 0.029147774
0.022113919 0.016294466 0.031043559
0.023739969 0.01661798 0.026609033
0.0245928 0.0163952 0.02353856
0.026547547 0.016893893 0.019908965
0.027942069 0.017008215 0.017618656
0.028543904 0.016650612 0.019708604
0.029888354 0.016737478 0.023452103
0.030712154 0.016537314 0.023107857
0.031889781 0.01653544 0.028819263
0.032837149 0.016418574 0.03251034
0.033871692 0.016351851 0.030948669
0.034973104 0.016320782 0.033908427
0.036591597 0.016525237 0.031982154
0.037560485 0.016432712 0.030809581
0.038956925 0.01652718 0.031677902
0.040434644 0.016649559 0.029946923
0.040918089 0.016367236 0.030159056
0.04202548 0.016343243 0.038746595
0.043416601 0.016427903 0.038106799
0.043786652 0.016131924 0.033972681
0.045940619 0.016491504 0.038355738
0.046209663 0.016173383 0.037109375
0.04803656 0.016402727 0.036930352
0.049297385 0.01643246 0.037526935
0.050590768 0.016471412 0.030319035
0.052081227 0.0165713 0.025440842
0.05364269 0.016688837 0.033596903
0.053864181 0.016393445 0.03460452
0.054410644 0.016207425 0.034667224
0.055859916 0.016292475 0.036423862
0.056182705 0.016052201 0.039171159
0.058487955 0.016376628 0.035095781
0.059398737 0.016305534 0.037551254
0.06102819 0.016430667 0.02900663
0.062902175 0.01661567 0.031921118
0.064260393 0.016660102 0.034012318
0.063489422 0.016160944 0.036126018
0.065997325 0.016499331 0.038455307
0.066997871 0.016455619 0.031660974
0.067785524 0.016362023 0.037873656
0.070163839 0.016649047 0.032651395
0.070679888 0.016491974 0.029650331
0.071875453 0.016496006 0.031326175
0.074325658 0.016783213 0.028231144
0.076333821 0.01696307 0.01683113
-0.045919534 0.018126132 0.017178923
-0.042996112 0.017915048 0.017987877
-0.042023428 0.018010041 0.022823632
-0.039910812 0.017607709 0.026374221
-0.038280081 0.017400037 0.030509114
-0.037454095 0.017556608 0.029810697
-0.035802979 0.017324021 0.031639069
-0.035108496 0.017554248 0.033856839
-0.033801671 0.017483622 0.033206642
-0.032015551 0.017151188 0.035546631
-0.031435508 0.01746417 0.038008809
-0.030209815 0.017428741 0.036774665
-0.028894387 0.017336633 0.034469545
-0.027973481 0.017483426 0.044328183
-0.026418677 0.017229572 0.039054424
-0.025106261 0.017117906 0.040130705
-0.024603359 0.017573828 0.034830064
-0.023068402 0.017301301 0.035783857
-0.021882949 0.017276013 0.034181356
-0.020979038 0.017482532 0.035110563
-0.019466927 0.017176701 0.041080415
-0.018425982 0.017274357 0.042570233
-0.017322607 0.017322607 0.039042711
-0.016121486 0.01727302 0.034539938
-0.015156471 0.017488236 0.040462404
-0.01396683 0.017458538 0.034350634
-0.012761635 0.01740223 0.035473883
-0.011596764 0.017395146 0.033502579
-0.010467311 0.01744552 0.036063105
-0.0092423884 0.017329479 0.036162466
-0.0081603937 0.017486557 0.034409612
-0.0069609103 0.017402276 0.032290757
-0.0058116196 0.01743486 0.032364964
-0.0046884217 0.01758158 0.028758854
-0.0034887912 0.017443957 0.032780915
-0.002347467 0.017606003 0.02871117
-0.0011727086 0.017590629 0.031587452
0 0.017379552 0.031685024
0.0011638125 0.017457187 0.025396675
0.0023428362 0.017571272 0.034195065
0.0034818449 0.017409224 0.028881311
0.0046967077 0.017612655 0.030806094
0.0058850381 0.017655114 0.028173089
0.0070336559 0.017584139 0.028391451
0.0082793776 0.017741524 0.029974312
0.0094236871 0.017669413 0.027852893
0.010505141 0.01750857 0.029776424
0.011796561 0.017694842 0.03437975
0.012819925 0.017481716 0.032111645
0.01402676 0.017533451 0.037371576
0.015298188 0.017651755 0.032399178
0.016359344 0.017527869 0.039143652
0.017424904 0.017424904 0.03387922
0.018956892 0.017772086 0.026521146
0.019643899 0.017332852 0.032070488
0.021092989 0.017577492 0.034891397
0.022274977 0.017585507 0.033110142
0.023358081 0.017518561 0.028554022
0.024993097 0.017852211 0.029134542
0.026254697 0.017900929 0.024506718
0.027539393 0.017960474 0.021875322
0.028736938 0.017960586 0.025205284
0.029456919 0.017674152 0.024641961
0.030717291 0.017721513 0.029599696
0.032116711 0.017842617 0.024561048
0.032975454 0.017665422 0.029079169
0.033884507 0.017526468 0.036075175
0.035378281 0.017689141 0.033467919
0.036064755 0.017450687 0.036717802
0.037465759 0.017562073 0.033066332
0.038811136 0.017641427 0.033375442
0.03940919 0.017386409 0.033878475
0.041224599 0.017667685 0.030811936
0.042085066 0.017535444 0.037408024
0.042748198 0.01733035 0.037763566
0.044278316 0.017478283 0.04505828
0.045217488 0.017391343 0.041651428
0.046498973 0.017437115 0.041665465
0.048081961 0.01759096 0.039788067
0.048552319 0.017340114 0.039777964
0.050109506 0.01748006 0.032957822
0.053246502 0.018152216 0.028079301
0.05296487 0.017654955 0.028216928
0.053761903 0.017531056 0.032422215
0.055574793 0.017736636 0.037036419
0.055303179 0.017282244 0.043196529
0.056675576 0.017349668 0.041514397
0.058794126 0.017638238 0.038986444
0.059011199 0.017356236 0.035396069
0.061572634 0.017761337 0.037753522
0.062505998 0.017690377 0.036847413
0.063273169 0.017575881 0.031110734
0.065060839 0.017743865 0.035325944
0.06514325 0.017449085 0.035989791
0.066857822 0.017594164 0.035301745
0.068972185 0.017837634 0.031791717
0.069250688 0.017606108 0.032672584
0.071299128 0.017824782 0.028225571
0.07318823 0.017997107 0.028938025
0.074759625 0.018087005 0.022038609
-0.043579634 0.019368727 0.018641531
-0.041135665 0.018804876 0.023476958
-0.040109262 0.018874947 0.030524105
-0.038233712 0.019116856 0.015693456
-0.03700095 0.019097263 0.022791564
-0.035624586 0.018999778 0.029114544
-0.033833664 0.018666849 0.032206863
-0.032727223 0.01870127 0.03289327
-0.031434119 0.018627627 0.032047838
-0.029841747 0.018364152 0.038813919
-0.028966097 0.018538302 0.040157884
-0.027541654 0.018361103 0.035420239
-0.026186693 0.01821683 0.042992234
-0.025502678 0.018547403 0.040418804
-0.024210006 0.018445719 0.037576765
-0.02306496 0.018451968 0.038433522
-0.022072786 0.01858761 0.034664959
-0.020532208 0.018250853 0.044894308
-0.019307755 0.018172003 0.043146104
-0.01851966 0.01851966 0.042541713
-0.017130977 0.018273041 0.041133314
-0.016224781 0.018542606 0.038604081
-0.015005388 0.018468169 0.040555954
-0.013838322 0.018451096 0.032154918
-0.012718866 0.018500168 0.041828811
-0.011638278 0.018621245 0.038445085
-0.010253049 0.018227644 0.036108345
-0.0092137177 0.018427435 0.038327545
-0.0080470284 0.018393207 0.038426816
-0.0069854576 0.018627888 0.034943759
-0.0058463928 0.018708456 0.035481036
-0.0046185148 0.018474059 0.034750968
-0.0034802288 0.01856122 0.031583577
-0.0023523578 0.018818863 0.031462222
-0.0011546828 0.018474925 0.036556035
0 0.018680671 0.035093904
0.001162847 0.018605553 0.029756606
0.0023011798 0.018409438 0.033655614
0.0035056344 0.018696718 0.036213934
0.0047215978 0.018886391 0.034263611
0.0058278115 0.018648997 0.034506291
0.0070304163 0.018747777 0.031459093
0.0082367864 0.018826941 0.0328224
0.0094086453 0.018817291 0.02921471
0.010651593 0.018936167 0.030626297
0.011643151 0.018629042 0.035838217
0.012815338 0.018640492 0.037200093
0.014093369 0.01879116 0.033031911
0.015169255 0.018669853 0.033029348
0.016362026 0.018699458 0.032636851
0.017656101 0.018833175 0.034241229
0.018643364 0.018643364 0.032192469
0.020044548 0.018865459 0.032383949
0.021174217 0.018821526 0.031309158
0.022209231 0.018702511 0.032863528
0.023604099 0.01888328 0.029792666
0.024783697 0.018882817 0.029788882
0.025810502 0.018771276 0.028860182
0.027679438 0.01925526 0.023357421
0.028432027 0.018954685 0.027465284
0.02951185 0.018887583 0.023934215
0.030954607 0.019048989 0.03266114
0.031591684 0.018720997 0.031148165
0.032859962 0.018777123 0.032431364
0.03404161 0.018781578 0.032911807
0.034837183 0.018579831 0.038519621
0.035886157 0.018521886 0.032413542
0.037483536 0.018741768 0.037776023
0.03845875 0.018646667 0.033639401
0.040094811 0.018868146 0.033850938
0.041239757 0.018852461 0.035106212
0.041694365 0.018530831 0.033278018
0.042804707 0.018510142 0.03851223
0.044004407 0.018528171 0.044811368
0.044489477 0.018252093 0.045964956
0.046889797 0.018755918 0.040497541
0.047311977 0.018463209 0.04436639
0.048384797 0.018432304 0.040937513
0.050203696 0.018680446 0.035886645
0.052122228 0.018953538 0.030087292
0.053510167 0.019025836 0.029909521
0.05463383 0.019003071 0.032080173
