ply
format ascii 1.0
comment PCL generated
element vertex 1259
property float x
property float y
property float z
element camera 0
property float view_px
property float view_py
property float view_pz
property float x_axisx
property float x_axisy
property float x_axisz
property float y_axisx
property float y_axisy
property float y_axisz
property float z_axisx
property float z_axisy
property float z_axisz
property float focal
property float scalex
property float scaley
property float centerx
property float centery
property int viewportx
property int viewporty
property float k1
property float k2
end_header
-0.047858205 -0.019371178 0.023362815
-0.046797786 -0.019403959 0.026471704
-0.044882171 -0.019074922 0.02533868
-0.04450386 -0.019399118 0.024932563
-0.042799208 -0.019147014 0.021784782
-0.042221256 -0.019398956 0.020067036
-0.041764375 -0.019722067 0.01752317
-0.040443253 -0.019643866 0.017332822
-0.039242461 -0.019621231 0.02258119
-0.037897822 -0.019523121 0.025354475
-0.036508068 -0.019394912 0.022736162
-0.03584671 -0.019657873 0.019290626
-0.031294689 -0.019704062 0.01765126
0.033969406 -0.019913098 0.01504454
0.034696925 -0.019661592 0.0197317
0.035534151 -0.019486468 0.018318802
0.037407801 -0.019872895 0.017124981
0.037400931 -0.019267147 0.020278692
0.039230078 -0.019615039 0.018744826
0.040572822 -0.019706801 0.017308533
0.042605069 -0.0195753 0.016233206
0.043688793 -0.019544985 0.018994987
0.043974165 -0.019168226 0.020397156
0.045975734 -0.019539688 0.021798551
0.046263564 -0.019182453 0.025477797
0.047486678 -0.019220797 0.025374323
0.048685312 -0.019247683 0.026845634
0.049316566 -0.01905413 0.027371317
0.050162047 -0.018950107 0.025813997
0.052264638 -0.019315192 0.030890673
0.053257573 -0.019263377 0.030784994
0.054241266 -0.019210448 0.024049789
0.056427386 -0.019576849 0.018914849
0.056418933 -0.019182438 0.024107873
0.058115058 -0.019371685 0.020546973
0.06031023 -0.019716807 0.023730308
0.059171233 -0.018979453 0.023867607
0.061157942 -0.019253425 0.022217602
0.062425718 -0.019295221 0.024986476
0.062805973 -0.019066099 0.02562958
0.064252637 -0.019163068 0.032230943
0.064835869 -0.019003615 0.028698593
0.065307871 -0.018817523 0.028953522
0.067113638 -0.019015532 0.029810607
0.068449497 -0.01907609 0.02748695
0.069261871 -0.018991159 0.026344836
0.071978703 -0.019422824 0.022868454
0.072758012 -0.019326348 0.017228931
-0.066903062 -0.018779807 0.015320927
-0.063816383 -0.018564766 0.016417861
-0.063149787 -0.018711047 0.020915657
-0.061286807 -0.018501678 0.022517025
-0.059552874 -0.018323962 0.020445883
-0.058111694 -0.01823112 0.026665449
-0.056989927 -0.018236775 0.027084798
-0.055384103 -0.018084606 0.026947886
-0.054461643 -0.018153882 0.032158405
-0.052790873 -0.017971361 0.02919063
-0.052169714 -0.018145988 0.030240089
-0.051325079 -0.018248916 0.028650165
-0.049604051 -0.018037837 0.025242329
-0.048700683 -0.018121185 0.02738145
-0.047669664 -0.018159872 0.029521555
-0.046062019 -0.017975422 0.028486639
-0.045463897 -0.01818556 0.032398015
-0.043770533 -0.017957142 0.028573453
-0.042987961 -0.018100195 0.030593991
-0.042387187 -0.018329594 0.023879051
-0.041065212 -0.018251207 0.018811435
-0.040067125 -0.018316399 0.021680385
-0.039147396 -0.018422304 0.019305259
-0.037861623 -0.01835715 0.018896341
-0.036630355 -0.018315177 0.020114839
-0.035984077 -0.018572427 0.016352534
-0.034047954 -0.018158909 0.020025343
-0.033555228 -0.018513229 0.026446074
-0.032495778 -0.018569017 0.022099018
-0.03113048 -0.018447692 0.015002698
-0.027960567 -0.018640378 0.015472025
-0.02667075 -0.018553566 0.016544819
-0.024345445 -0.01854891 0.017328143
0.025564244 -0.018592177 0.016133457
0.03301993 -0.018868532 0.015607893
0.034651265 -0.018480675 0.016987562
0.035761874 -0.018457741 0.018879533
0.036230002 -0.018115001 0.018657237
0.037713338 -0.018285256 0.025065601
0.039073091 -0.018387336 0.018771023
0.040188212 -0.018371755 0.019155443
0.041602612 -0.01849005 0.022112519
0.042957351 -0.018576151 0.021452308
0.04315852 -0.018172009 0.018220514
0.044673946 -0.018327773 0.022970319
0.044971623 -0.01798865 0.024928987
0.046004865 -0.017953118 0.022813529
0.047443163 -0.018073585 0.029715449
0.048252646 -0.017954472 0.0267272
0.048823286 -0.017753921 0.029578567
0.050466847 -0.017943766 0.026979119
0.051131163 -0.017784752 0.031039059
0.052409772 -0.017841624 0.02870658
0.054418087 -0.018139362 0.025237918
0.054815151 -0.017898826 0.030769944
0.057479631 -0.018393481 0.019660622
0.05792059 -0.018171165 0.022120446
0.058871102 -0.018114187 0.024167717
0.059993524 -0.018111253 0.024063289
0.061835792 -0.018321715 0.024755806
0.061598759 -0.017919639 0.023347199
0.063711129 -0.01820318 0.025318384
0.063963443 -0.017954651 0.031389743
0.064527653 -0.01780073 0.030293375
0.066338658 -0.017990146 0.029896766
0.06673719 -0.017796583 0.025619954
0.068320446 -0.017920118 0.029248476
0.069698133 -0.017986614 0.026371539
0.070746042 -0.017967248 0.02523002
0.073427595 -0.018356899 0.020262867
0.074502654 -0.018339116 0.016478151
-0.068482526 -0.017710997 0.015992373
-0.067115709 -0.01766203 0.01894179
-0.06483911 -0.017367618 0.016993165
-0.062656872 -0.017404687 0.015893519
-0.061478313 -0.017399523 0.018266648
-0.059985872 -0.017303618 0.0235416
-0.057583932 -0.016936449 0.02749002
-0.056638628 -0.016991587 0.023943305
-0.055999879 -0.017142821 0.029031008
-0.053859908 -0.016831221 0.025748521
-0.05327091 -0.017001355 0.02837041
-0.05247543 -0.017111553 0.028765887
-0.050752327 -0.016917441 0.026255071
-0.04967808 -0.01693571 0.033021629
-0.049176872 -0.017154723 0.028377652
-0.046897937 -0.016749263 0.029063821
-0.046548564 -0.017029962 0.032902151
-0.045121439 -0.01692054 0.027841657
-0.044363655 -0.017062945 0.026587039
-0.043727402 -0.017260816 0.024264038
-0.041794099 -0.016943553 0.027473241
-0.041233011 -0.017180422 0.023595423
-0.040075224 -0.017175095 0.02493602
-0.038556643 -0.017010283 0.02258566
-0.037636805 -0.017107639 0.020695686
-0.036952633 -0.017321547 0.022327662
-0.035286959 -0.017074335 0.020922601
-0.034875169 -0.017437585 0.019686997
-0.033480909 -0.01731771 0.01857239
-0.031548768 -0.017527092 0.016487509
-0.030266728 -0.017461574 0.015663266
-0.028979527 -0.017387716 0.015057623
-0.027961804 -0.017476127 0.022139788
-0.026208805 -0.017092699 0.016643763
-0.025299005 -0.017249323 0.018763334
-0.015312439 -0.017668199 0.01695472
0.025823697 -0.017607067 0.017181486
0.026518015 -0.017294358 0.015062094
0.033334628 -0.017242048 0.015874028
0.034876991 -0.017438496 0.022093177
0.035710696 -0.017279368 0.024762064
0.036694128 -0.017200373 0.023323774
0.037787102 -0.017175956 0.026816934
0.038426593 -0.016952908 0.023872793
0.040085845 -0.017179647 0.023187846
0.041501738 -0.017292392 0.020099819
0.041888386 -0.016981779 0.025822878
0.043374725 -0.017121602 0.026641905
0.044543412 -0.017132081 0.022705734
0.045616187 -0.017106071 0.021245033
0.046456613 -0.01699632 0.026937574
0.047424793 -0.016937425 0.029112279
0.048384916 -0.01687846 0.02648741
0.049406253 -0.016843041 0.034426808
0.050071124 -0.016690373 0.030178756
0.05160664 -0.016828252 0.028160602
0.052764624 -0.016839774 0.033913761
0.053116493 -0.016598905 0.029305875
0.055241205 -0.016910573 0.029611617
0.057457898 -0.017237369 0.022661507
0.057158526 -0.016811332 0.021639019
0.059074663 -0.017040769 0.022961527
0.060024839 -0.016988162 0.023147404
0.060837328 -0.016899258 0.019323468
0.063251376 -0.017250376 0.025812328
0.063869245 -0.017107833 0.023196638
0.064124234 -0.016874798 0.028569579
0.06553407 -0.016948465 0.027449936
0.066192009 -0.016828476 0.027584791
0.067799248 -0.016949812 0.028779984
0.069616646 -0.017118847 0.026432127
0.07030578 -0.017009461 0.023700535
0.071382202 -0.016995763 0.02243951
0.072957024 -0.017099302 0.020986766
0.073129646 -0.016876072 0.021844685
-0.067935929 -0.016398327 0.018936843
-0.065646425 -0.016123684 0.019981176
-0.066338666 -0.016584666 0.017887861
-0.063685328 -0.016210811 0.020019025
-0.062293939 -0.016150281 0.019542575
-0.061227646 -0.01617334 0.02836898
-0.05865255 -0.015791072 0.031665564
-0.058057666 -0.015937397 0.032328397
-0.057036716 -0.01597028 0.033426881
-0.055827044 -0.015950585 0.028307766
-0.055122241 -0.016077321 0.023935676
-0.053434961 -0.015916796 0.026169896
-0.051717076 -0.015739979 0.028695881
-0.051078416 -0.015891062 0.031755924
-0.049781136 -0.015839452 0.030432075
-0.047631085 -0.015507795 0.037371695
-0.047319587 -0.015773196 0.032969385
-0.046341475 -0.015823917 0.028879881
-0.04541897 -0.015896639 0.02842626
-0.04439602 -0.015937032 0.028069288
-0.042975191 -0.015832964 0.026838422
-0.042134624 -0.015942831 0.025000006
-0.041520756 -0.016146962 0.019640356
-0.039730366 -0.015892146 0.024768323
-0.039142288 -0.016117413 0.024166375
-0.037970874 -0.016108857 0.027402371
-0.036271729 -0.015868882 0.024710834
-0.035680007 -0.016113551 0.020778686
-0.034637667 -0.016164243 0.021414548
-0.033104964 -0.015981706 0.02030015
-0.032627787 -0.016313894 0.018917769
-0.026281133 -0.015997212 0.020636231
-0.025484683 -0.016217526 0.02575019
-0.024297595 -0.016198397 0.021493822
-0.012883402 -0.016397059 0.015472502
0.021953162 -0.016176015 0.016580909
0.02346609 -0.016426263 0.017796159
0.024301428 -0.016200952 0.02003333
0.025390979 -0.016157895 0.017499447
0.02674849 -0.016281689 0.018811107
0.028988222 -0.016233403 0.01566717
0.031720698 -0.016447768 0.01573506
0.032513745 -0.016256873 0.019793153
0.033679567 -0.016259102 0.019011676
0.034750693 -0.01621699 0.015483648
0.035489779 -0.016027642 0.016015381
0.03676546 -0.016084889 0.026363105
0.037415721 -0.015873337 0.023734152
0.038970936 -0.016046857 0.025502205
0.039921589 -0.015968636 0.029770553
0.040878382 -0.015897149 0.024447232
0.042078495 -0.015921591 0.023567945
0.043729022 -0.016110692 0.023659557
0.043906383 -0.015761266 0.024818391
0.046076264 -0.016126692 0.023599625
0.045956228 -0.01569237 0.030965209
0.047042135 -0.015680712 0.023321003
0.048394453 -0.015756333 0.031676263
0.048917603 -0.015564692 0.029390216
0.04965866 -0.015449361 0.034590036
0.051786698 -0.015761169 0.036614448
0.052396696 -0.015607527 0.034013629
0.053402938 -0.015575858 0.035310596
0.055474345 -0.015849814 0.034816116
0.055098709 -0.015427638 0.035216749
0.058587927 -0.016082961 0.021616727
0.059610978 -0.016049109 0.027507931
0.060356759 -0.015943294 0.018848211
0.061860211 -0.016037833 0.020315588
0.062413614 -0.015887102 0.022168249
0.064473107 -0.016118277 0.019843221
0.065041199 -0.015975032 0.024783373
0.065127127 -0.015720341 0.025184751
0.066589132 -0.015800811 0.023897707
0.068445265 -0.015970562 0.023551524
0.068560787 -0.015735261 0.021349996
0.070879504 -0.016005049 0.02033028
0.073140606 -0.016253468 0.017890602
0.072354987 -0.015827652 0.019183427
0.076017596 -0.01637302 0.017202973
-0.071271308 -0.015188967 0.01580897
-0.070627853 -0.015302701 0.015236229
-0.068849899 -0.015170316 0.017050505
-0.066552766 -0.014916997 0.017442644
-0.067020603 -0.0152854 0.015904218
-0.06420128 -0.014903869 0.020689845
-0.062946767 -0.014878326 0.023667365
-0.062351279 -0.015010492 0.024351716
-0.060233675 -0.014774298 0.025882185
-0.05940222 -0.014850555 0.025672972
-0.05851879 -0.014916554 0.028389484
-0.057210777 -0.014874801 0.023657143
-0.055641975 -0.014762158 0.02492258
-0.055757094 -0.015100881 0.022437006
-0.053447936 -0.014783472 0.027382612
-0.052464988 -0.014827061 0.027438939
-0.051368821 -0.014839881 0.0302082
-0.049020294 -0.014483269 0.033826977
-0.048877914 -0.014777043 0.032527208
-0.047639191 -0.014745464 0.032560021
-0.046221055 -0.014655455 0.02902779
-0.04590546 -0.014919274 0.024305016
-0.044302735 -0.014767579 0.023049325
-0.043386851 -0.01484287 0.025044829
-0.042454734 -0.014916528 0.026337117
-0.040809691 -0.014736833 0.028406799
-0.039793186 -0.014780326 0.027077407
-0.038699601 -0.014796906 0.026208729
-0.037725516 -0.014861567 0.022156954
-0.036692724 -0.014906419 0.023643762
-0.035560563 -0.014912494 0.022773385
-0.034173831 -0.01480866 0.019277185
-0.033342186 -0.014946497 0.023268133
-0.03243136 -0.015057418 0.022421151
-0.030836819 -0.014847356 0.018241584
-0.030134432 -0.015067216 0.018171579
-0.028891815 -0.015023744 0.023575693
-0.027387043 -0.014834649 0.024625659
-0.026427478 -0.01493727 0.022852689
-0.025405161 -0.01501214 0.019788921
-0.017638966 -0.015287104 0.015517473
-0.014999164 -0.014999164 0.015203476
-0.010576069 -0.015276545 0.015865684
-0.0092966482 -0.015107052 0.015184045
0.012891858 -0.015235833 0.015546888
0.015136946 -0.015136946 0.017055184
0.023241635 -0.015107064 0.016921133
0.023994183 -0.014853542 0.017624974
0.025612663 -0.015134756 0.022101283
0.026725547 -0.015105744 0.019153386
0.027784169 -0.015049757 0.021389276
0.033375677 -0.01496151 0.017530143
0.034452777 -0.014929538 0.018183261
0.036054067 -0.015119447 0.019808233
0.036197007 -0.014705034 0.021189451
0.03783375 -0.014904205 0.0256311
0.03851172 -0.014725069 0.025455803
0.038962346 -0.014471728 0.029797286
0.040999796 -0.014805483 0.027484208
0.042562507 -0.014954395 0.026531339
0.043149386 -0.014761631 0.024923474
0.044794779 -0.014931593 0.021132588
0.045316026 -0.014727709 0.025736183
0.045910344 -0.014556937 0.026554257
0.047733381 -0.014774618 0.029990107
0.048051946 -0.014527332 0.036793113
0.048737757 -0.014399792 0.035886645
0.049507454 -0.014302152 0.039970785
0.050935991 -0.014394954 0.03235513
0.052190538 -0.014435681 0.033459604
0.054307763 -0.014708353 0.034224361
0.054604542 -0.01448692 0.030124873
0.057014238 -0.014823701 0.024818242
0.057606168 -0.014683926 0.028582931
0.059380226 -0.014845056 0.01675269
0.060982957 -0.014958085 0.01640895
0.062018614 -0.014930407 0.020365566
0.063116118 -0.014918355 0.019827455
0.064907685 -0.015067855 0.022041798
0.06511879 -0.014851654 0.017472893
0.06623093 -0.014844864 0.019734561
0.06730251 -0.014829366 0.022766173
0.068110988 -0.01475738 0.021552473
0.069863737 -0.014888993 0.01901415
0.072588019 -0.015220068 0.022211015
-0.0675864 -0.013983392 0.016840756
-0.066898473 -0.014083889 0.020611852
-0.064280562 -0.013774406 0.022381544
-0.064173691 -0.014001532 0.018162489
-0.062714837 -0.01393663 0.016622275
-0.060994036 -0.013809971 0.025328308
-0.059787069 -0.013797016 0.024998009
-0.058547951 -0.013775988 0.025030106
-0.057354271 -0.013765024 0.022594601
-0.056470335 -0.01382947 0.022916019
-0.054799929 -0.013699982 0.018590063
-0.053964157 -0.013778082 0.026319355
-0.052346479 -0.013655603 0.036184341
-0.050195366 -0.01338543 0.032584727
-0.050039694 -0.013647189 0.037076861
-0.048853017 -0.0136334 0.031196564
-0.047276266 -0.013507504 0.025240213
-0.046786424 -0.013693587 0.030703455
-0.045147292 -0.013544188 0.030153185
-0.044275407 -0.013623202 0.028704703
-0.043115836 -0.013615526 0.029512465
-0.041813564 -0.013561155 0.031849772
-0.040742919 -0.013580972 0.025131047
-0.039862145 -0.013667021 0.02979961
-0.03875009 -0.013676502 0.026818097
-0.037600156 -0.013672784 0.026750773
-0.036518656 -0.013694496 0.027096391
-0.035341036 -0.013680401 0.020125747
-0.034594029 -0.01383761 0.020494223
-0.03337298 -0.013809508 0.024680227
-0.031781867 -0.013620799 0.023079515
-0.031318638 -0.013919394 0.02269426
-0.030114634 -0.013899062 0.024911851
-0.027993783 -0.013437016 0.02411285
-0.02757315 -0.013786575 0.026890785
-0.026233604 -0.013687097 0.023414224
-0.025230411 -0.013762042 0.020009547
-0.024472801 -0.013984458 0.018648863
-0.018721977 -0.014041483 0.015736431
-0.017736265 -0.014189012 0.015689224
-0.016169049 -0.013859184 0.017201245
-0.015257705 -0.014084036 0.020492166
-0.014014952 -0.014014952 0.023052454
-0.012702533 -0.01385731 0.020007819
0.0011825131 -0.014190157 0.019552112
0.003455848 -0.013823392 0.016991884
0.0046832687 -0.014049806 0.015285045
0.0082055405 -0.01406664 0.021036088
0.010444731 -0.013926309 0.016768694
0.011760548 -0.014112657 0.021568924
0.015155549 -0.013989737 0.01788497
0.017564513 -0.01405161 0.015421242
0.018866187 -0.01414964 0.017076224
0.021107079 -0.014071386 0.017559707
0.022216978 -0.014031775 0.019432783
0.022875777 -0.013725466 0.022693157
0.024452351 -0.013972771 0.02295807
0.025325468 -0.013813891 0.020350337
0.026296582 -0.013719955 0.020298809
0.027948406 -0.013974203 0.017545909
0.02895185 -0.013896887 0.016059011
0.03337298 -0.013809508 0.017847568
0.034672428 -0.013868972 0.02034837
0.035555784 -0.013763529 0.021025091
0.03660614 -0.013727303 0.026221544
0.037942924 -0.013797427 0.029472023
0.038180206 -0.013475366 0.032915294
0.039721888 -0.013618933 0.026350915
0.040747285 -0.013582429 0.031856954
0.041633919 -0.013502892 0.030296117
0.042984411 -0.013574025 0.030191988
0.044220995 -0.01360646 0.02647239
0.045351066 -0.01360532 0.024792075
0.046246994 -0.013535705 0.034244299
0.046815474 -0.013375849 0.03561753
0.047993116 -0.013393427 0.034008354
0.0496745 -0.01354759 0.02857095
0.05021717 -0.013391244 0.032342494
0.051095888 -0.013329362 0.031824768
0.052720886 -0.013460651 0.03694883
0.052969974 -0.013242493 0.033210307
0.055038568 -0.013478833 0.032087296
0.056955121 -0.013669228 0.026658654
0.057687677 -0.013573571 0.026626229
0.05996307 -0.013837632 0.021154046
0.061413538 -0.013904952 0.01735276
0.061654802 -0.013701066 0.017008871
0.06396959 -0.013707769 0.016369641
0.065801322 -0.013852911 0.020515293
0.067012653 -0.013864686 0.016502976
0.067553118 -0.013739618 0.017268866
-0.066194631 -0.012774402 0.015134126
-0.063168578 -0.012633716 0.023187786
-0.061753746 -0.012579466 0.022084057
-0.061494738 -0.012763059 0.01972267
-0.060306765 -0.0127572 0.020164222
-0.058798783 -0.01268209 0.024403036
-0.057905693 -0.012739251 0.022330046
-0.055721339 -0.012508872 0.028628916
-0.055251166 -0.012661725 0.028346986
-0.054013502 -0.012641457 0.028524756
-0.052004788 -0.012435927 0.024439514
-0.051398229 -0.01256401 0.035082579
-0.050040577 -0.012510144 0.032353699
-0.048483837 -0.012402842 0.028265536
-0.047317818 -0.012392761 0.036056489
-0.046710201 -0.012532004 0.031991094
-0.04522571 -0.01243707 0.029209167
-0.044789601 -0.012632964 0.031812787
-0.042630069 -0.012340283 0.037135899
-0.041634638 -0.012377864 0.031123698
-0.041095495 -0.012556957 0.030669361
-0.040081758 -0.012597124 0.026838571
-0.03884371 -0.012567082 0.023588955
-0.037779242 -0.012593081 0.026388198
-0.036266562 -0.012466631 0.026028991
-0.03596336 -0.012761191 0.023992181
-0.034572795 -0.012676691 0.029369831
-0.032902882 -0.012480402 0.02572763
-0.032269355 -0.012677246 0.027240127
-0.031164888 -0.012696805 0.023547322
-0.02934505 -0.012415214 0.027030319
-0.02873948 -0.012645371 0.028299958
-0.027404275 -0.012560293 0.021173447
-0.026442623 -0.012646471 0.02380535
-0.025414312 -0.012707156 0.023906052
-0.024148602 -0.012649267 0.020354539
-0.018682392 -0.012844144 0.017126203
-0.01643117 -0.012910205 0.016861379
-0.015163763 -0.012830877 0.018081188
-0.013807594 -0.012656962 0.017643958
-0.012805989 -0.012805989 0.018010765
-0.011637696 -0.012801466 0.016963929
-0.009421871 -0.012955072 0.016429543
-0.0058811586 -0.012938549 0.017089754
0.0023155592 -0.012735575 0.019065678
0.0034891923 -0.012793706 0.024794817
0.004712617 -0.012959695 0.026330203
0.0057659671 -0.012685128 0.021087945
0.0081933308 -0.012875235 0.020988852
0.0093550803 -0.012863235 0.019915342
0.010488259 -0.012818984 0.020474851
0.011595652 -0.012755218 0.016671419
0.012795266 -0.012795266 0.01706025
0.014075908 -0.012902915 0.017400235
0.015101991 -0.012778607 0.021395266
0.01625805 -0.012774182 0.02151528
0.017536536 -0.012860126 0.023145735
0.018272145 -0.012562099 0.018271178
0.019713417 -0.01275574 0.015809029
0.020998988 -0.012832715 0.017877579
0.021625135 -0.012519814 0.020651847
0.023052739 -0.012679007 0.019943178
0.024457937 -0.0128113 0.020890176
0.025038073 -0.012519036 0.021203846
0.026453821 -0.012651826 0.022612661
0.02749043 -0.01259978 0.020419002
0.029177485 -0.012838093 0.021462232
0.030262284 -0.012803273 0.016690165
0.032597937 -0.012806333 0.016733229
0.033659209 -0.012767285 0.017873168
0.034698613 -0.012722825 0.017845571
0.035430219 -0.012572013 0.024842978
0.037285361 -0.012816843 0.025299877
0.037069604 -0.012356535 0.027238667
0.038494736 -0.012454178 0.034350991
0.039584454 -0.012440829 0.030918986
0.040059585 -0.012240429 0.029260933
0.041690778 -0.012394554 0.037508667
0.042969026 -0.012438403 0.033495128
0.043594804 -0.01229597 0.02817291
0.045412511 -0.012488441 0.030325145
0.046178188 -0.012389269 0.033422112
0.046612568 -0.012208053 0.034771413
0.048215423 -0.012334177 0.034277469
0.049408771 -0.012352193 0.033371538
0.050436061 -0.012328815 0.029437393
0.051681675 -0.012358661 0.033692092
0.05245148 -0.012275878 0.032253772
0.054068875 -0.012390783 0.033430547
0.055555325 -0.012471603 0.033396363
0.05522633 -0.012149792 0.032974929
0.057882939 -0.012484555 0.02875641
0.059624709 -0.012612919 0.024661273
0.059864655 -0.01242474 0.015323788
0.062650755 -0.012762191 0.016188562
0.06486237 -0.012972474 0.015651733
0.064552143 -0.012679885 0.017022759
0.067071721 -0.012943665 0.016123772
0.067290261 -0.012761945 0.015273571
-0.063959815 -0.011629056 0.018527269
-0.0637215 -0.011800277 0.019886643
-0.061658833 -0.011633743 0.021005034
-0.060250927 -0.011586716 0.016877145
-0.058848832 -0.011538986 0.028830856
-0.056805559 -0.011361111 0.0301705
-0.055807952 -0.011389378 0.024637491
-0.055365127 -0.011534401 0.025371134
-0.053689774 -0.011423356 0.024579376
-0.052743565 -0.011465992 0.026185155
-0.051627804 -0.011472845 0.030989975
-0.049822539 -0.011323304 0.023242861
-0.049247965 -0.011453015 0.03107959
-0.047715545 -0.011360844 0.034482658
-0.046390027 -0.01131464 0.022242397
-0.045912828 -0.011478207 0.030739576
-0.044068485 -0.011299612 0.035843313
-0.042789642 -0.011260432 0.034346879
-0.042124685 -0.01138505 0.02913487
-0.041159369 -0.011433158 0.023386002
-0.039597657 -0.011313616 0.030580938
-0.038740922 -0.011394388 0.026748896
-0.037717551 -0.011429561 0.026803046
-0.036809471 -0.011502959 0.030186832
-0.035634119 -0.011494877 0.024455637
-0.033956856 -0.011318952 0.022442132
-0.033310544 -0.011486393 0.028915077
-0.032169301 -0.011489036 0.027509511
-0.03055935 -0.011318278 0.030019909
-0.029751841 -0.011443015 0.027591735
-0.02866379 -0.011465516 0.026135981
-0.027214764 -0.011339485 0.028865904
-0.026657104 -0.011590045 0.020155519
-0.025478909 -0.011581321 0.018478483
-0.024147624 -0.011498868 0.019674063
-0.021045303 -0.011691835 0.01556474
-0.018347405 -0.011467127 0.01751709
-0.017492913 -0.011661942 0.017811149
-0.016323078 -0.011659341 0.016886801
-0.015054666 -0.011580512 0.016425222
-0.013825315 -0.011521096 0.020496547
-0.012710311 -0.011554827 0.018621266
-0.011559241 -0.011559241 0.016770005
-0.0069837393 -0.011639565 0.01638329
-0.0058120592 -0.011624118 0.018358707
-0.0046812301 -0.011703075 0.017530203
-0.0035574469 -0.011858156 0.0216268
-0.0023116877 -0.011558438 0.015312105
-0.0011675584 -0.011675583 0.015044004
0.0011573787 -0.011573786 0.016799569
0.0023311938 -0.011655968 0.021285743
0.0034817411 -0.011605804 0.025284052
0.0045990646 -0.011497661 0.023186684
0.0058318689 -0.011663738 0.020211637
0.0069592376 -0.011598729 0.020284086
0.0080850776 -0.011550111 0.015383065
0.0093001127 -0.011625141 0.017747015
0.010430809 -0.011589788 0.027740389
0.011564725 -0.011564725 0.021864384
0.01291005 -0.011736409 0.019157529
0.013892581 -0.011577151 0.019911647
0.014931903 -0.01148608 0.020324409
0.01633843 -0.011670306 0.018202692
0.017379614 -0.011586408 0.01810357
0.018445831 -0.011528644 0.019417435
0.019679505 -0.011576178 0.020657867
0.020629875 -0.011461042 0.019462049
0.021943532 -0.011549227 0.017803639
0.023168705 -0.011584353 0.022842377
0.023737282 -0.011303467 0.02279079
0.025382498 -0.011537499 0.02884984
0.026570324 -0.011552314 0.022078604
0.027803278 -0.011584699 0.02317059
0.02903186 -0.011612743 0.023678124
0.02978031 -0.011453965 0.021070957
0.031295005 -0.011590743 0.017880589
0.032988265 -0.011781522 0.019069344
0.033738982 -0.011634131 0.018093228
0.034655288 -0.011551762 0.021420956
0.03594875 -0.01159637 0.026643485
0.036624752 -0.011445235 0.020513415
0.037470967 -0.011354838 0.02549082
0.038468331 -0.011314215 0.033988804
0.038911164 -0.011117475 0.034758806
0.040521171 -0.011255881 0.036596805
0.041480139 -0.011210848 0.037681103
0.042506009 -0.011185791 0.030074745
0.043980941 -0.011277164 0.037008137
0.045085505 -0.011271376 0.033796549
0.046467099 -0.011333438 0.031799078
0.047791932 -0.011379031 0.028565794
0.047739021 -0.011102097 0.037673652
0.048788123 -0.01108821 0.037372738
0.050850932 -0.011300206 0.032395333
0.052102868 -0.01132671 0.02889812
0.052341059 -0.011136395 0.031287253
0.053619172 -0.011170661 0.034594715
0.054533124 -0.011129209 0.031244546
0.056176502 -0.0112353 0.027968794
0.057578295 -0.011289861 0.033523113
0.057104476 -0.01098163 0.034286231
0.059977405 -0.011316491 0.029005796
0.06246886 -0.011568307 0.020780623
0.065560333 -0.011707203 0.015212774
-0.064717539 -0.010590142 0.0156295
-0.062632352 -0.010438724 0.019138664
-0.062415116 -0.010598793 0.018419743
-0.060707107 -0.010506999 0.020142555
-0.059706543 -0.010536448 0.017367214
-0.056382425 -0.010148835 0.030728757
-0.056380477 -0.010355598 0.02918911
-0.054177213 -0.010158227 0.029173642
-0.054304712 -0.010398773 0.026493996
-0.052872017 -0.010344525 0.032024771
-0.051156498 -0.010231298 0.029537946
-0.050516002 -0.010332818 0.029109776
-0.049368139 -0.010332867 0.03013587
-0.048079923 -0.01030284 0.032035321
-0.047449447 -0.010415731 0.030127257
-0.044845521 -0.010090242 0.036831409
-0.043645155 -0.010071958 0.041330218
-0.043290284 -0.010252961 0.035878181
-0.04218556 -0.010261352 0.031977385
-0.041041572 -0.010260393 0.036453217
-0.040010206 -0.010288339 0.031019986
-0.038493313 -0.010189406 0.033723533
-0.037473176 -0.010219957 0.030935854
-0.036434401 -0.010247175 0.03295958
-0.035140697 -0.010202137 0.028152376
-0.03450961 -0.010352883 0.028765619
-0.033324853 -0.010342195 0.025171489
-0.031527575 -0.010133862 0.031208456
-0.03092408 -0.010308026 0.031797677
-0.029597016 -0.010245121 0.030002266
-0.028295873 -0.010186513 0.02939862
-0.027745044 -0.010404391 0.02638489
-0.0265509 -0.010389482 0.027484238
-0.025191169 -0.010305478 0.024371654
-0.024393229 -0.01045424 0.023181677
-0.023263836 -0.010468726 0.02060318
-0.021057511 -0.010528755 0.017270803
-0.019666176 -0.010411505 0.022096455
-0.018663283 -0.010498096 0.026630491
-0.017225303 -0.010335182 0.026779264
-0.016046848 -0.01031583 0.023248166
-0.014996946 -0.0103825 0.020886123
-0.013817361 -0.01036302 0.021740824
-0.012573651 -0.010287533 0.020694256
-0.011675715 -0.010508143 0.017965436
-0.010560874 -0.010560874 0.015894413
-0.0093645379 -0.010535105 0.019869059
-0.0081725949 -0.010507622 0.018309653
-0.006927833 -0.010391749 0.020090222
-0.0057962509 -0.010433252 0.018554807
-0.0047036968 -0.010583317 0.017531246
-0.0034739012 -0.010421704 0.015337169
-0.0023203592 -0.010441616 0.019360691
-0.0011625679 -0.010463111 0.025213063
0 -0.010345734 0.027310163
0.0011645186 -0.010480667 0.016678661
0.002314507 -0.010415281 0.024822682
0.0034175755 -0.010252726 0.03486827
0.0046693166 -0.010505962 0.025772661
0.0057962509 -0.010433252 0.024772286
0.0068499343 -0.010274901 0.024308205
0.0081090229 -0.010425886 0.02759856
0.0092304526 -0.010384259 0.019088894
0.010335439 -0.010335439 0.019282937
0.011581865 -0.010423679 0.022450715
0.012734524 -0.010419156 0.020791769
0.013868544 -0.010401408 0.023154467
0.015133181 -0.010476817 0.023323238
0.016175639 -0.010398624 0.018544942
0.017317593 -0.010390555 0.023977101
0.018564848 -0.010442727 0.021855056
0.019336924 -0.010237195 0.023143977
0.020488597 -0.010244299 0.028841585
0.022127628 -0.010481508 0.024356663
0.022935063 -0.010320778 0.016292572
0.024174621 -0.010360552 0.024447948
0.025318384 -0.010357521 0.025150776
0.026171561 -0.010241045 0.023637921
0.027734822 -0.010400558 0.023804814
0.028677654 -0.010323954 0.023387462
0.029810535 -0.010319031 0.025038421
0.0312558 -0.010418599 0.022747368
0.032615613 -0.01048359 0.016759634
0.033749789 -0.010474071 0.016002744
0.03483605 -0.010450814 0.018236876
0.035402589 -0.010278171 0.028371185
0.036862195 -0.010367492 0.02362591
0.037978407 -0.010357747 0.026901811
0.038553204 -0.01020526 0.025487006
0.039727516 -0.010215648 0.035659641
0.040495139 -0.010123785 0.033757478
0.041451138 -0.010082708 0.028335303
0.042499285 -0.01006562 0.036655009
0.043278389 -0.0099873198 0.038709104
0.045015365 -0.010128457 0.034041137
0.046343021 -0.010172858 0.037913769
0.046844948 -0.010038203 0.034023911
0.047921654 -0.010030113 0.035784841
0.049788136 -0.010183937 0.031363904
0.050630376 -0.010126075 0.030894905
0.051403891 -0.010057283 0.028681785
0.053667303 -0.010276717 0.030635208
0.054252751 -0.01017239 0.027018875
0.055422816 -0.0101797 0.029479563
0.057425871 -0.010336656 0.027365535
0.057125222 -0.010080921 0.031783491
0.05837778 -0.010103847 0.034264058
0.060176276 -0.010218613 0.029660195
0.060919657 -0.010153276 0.0245516
0.063930325 -0.010461325 0.023770392
0.064685144 -0.010395826 0.018691093
0.066041052 -0.010427535 0.017284483
-0.063158281 -0.0095333261 0.015205562
-0.060565669 -0.0093177957 0.020699769
-0.059092827 -0.0092694629 0.023222029
-0.057961214 -0.0092737935 0.026157081
-0.056374528 -0.0092040049 0.02519688
-0.055205662 -0.0092009436 0.030652046
-0.054193728 -0.0092244642 0.025211811
-0.052222874 -0.0090822391 0.028101861
-0.052549526 -0.0093421377 0.024305254
-0.050561313 -0.0091929659 0.027511537
-0.049143977 -0.0091430657 0.029191852
-0.048041705 -0.0091508003 0.027477652
-0.046497133 -0.0090726111 0.033403695
-0.044595528 -0.0089191059 0.03955096
-0.044558495 -0.0091402046 0.031260192
-0.042402353 -0.0089268116 0.037021101
-0.041778997 -0.0090332963 0.031881928
-0.041391287 -0.009198064 0.028828949
-0.039846521 -0.009107776 0.02725628
-0.038741115 -0.0091155563 0.02728641
-0.037715748 -0.0091432119 0.031277776
-0.036111571 -0.0090278927 0.02800253
-0.036031906 -0.0092985556 0.023291349
-0.034702931 -0.0092541147 0.026627213
-0.03289989 -0.0090758316 0.02222988
-0.031988997 -0.0091397138 0.029458612
-0.030869877 -0.0091466298 0.031580359
-0.029506844 -0.0090790289 0.026718765
-0.028729366 -0.0091933971 0.026406616
-0.027547883 -0.0091826282 0.023002833
-0.026361926 -0.0091693653 0.026657969
-0.025418824 -0.0092432089 0.020063221
-0.024398355 -0.0092946114 0.016705394
-0.02341607 -0.0093664285 0.017389446
-0.020854728 -0.0092687691 0.017052501
-0.019622695 -0.0092342095 0.019856185
-0.018513205 -0.0092566023 0.020174921
-0.017168647 -0.0091566117 0.023588479
-0.016129583 -0.0092169046 0.021251023
-0.015015167 -0.009240103 0.021423429
-0.013782995 -0.0091886632 0.024228156
-0.012831729 -0.009332167 0.023206115
-0.011715948 -0.0093727587 0.016918153
-0.01043966 -0.0092796991 0.018552572
-0.0093660103 -0.0093660103 0.019650668
-0.008001077 -0.0091440883 0.017384112
-0.0069263722 -0.0092351632 0.019384205
-0.0057843667 -0.0092549874 0.01982376
-0.0045998255 -0.009199651 0.020482659
-0.0023535241 -0.0094140964 0.018971562
-0.0011487301 -0.0091898404 0.017923206
0.0011651901 -0.009321521 0.027750432
0.0022919518 -0.0091678072 0.032871068
0.0034669528 -0.0092452075 0.056279868
0.004612505 -0.0092250099 0.025140077
0.0056715934 -0.0090745501 0.023383737
0.0069936686 -0.0093248915 0.023017198
0.008114147 -0.0092733102 0.02674666
0.0092275292 -0.0092275292 0.020601541
0.010491222 -0.0093255313 0.02172187
0.011523364 -0.0092186918 0.019331545
0.012773409 -0.0092897527 0.018623412
0.014019182 -0.0093461219 0.019987017
0.014826646 -0.00912409 0.023641318
0.016124466 -0.0092139803 0.026856244
0.017433653 -0.0092979474 0.01968953
0.01814674 -0.0090733701 0.026924312
0.01957817 -0.0092132566 0.028821886
0.020829516 -0.0092575625 0.027746886
0.021742361 -0.0091546783 0.026257843
0.023060488 -0.009224195 0.023599982
0.024035269 -0.0091562932 0.027834147
0.024849674 -0.0090362458 0.028877437
0.02640672 -0.0091849463 0.025927603
0.027508453 -0.0091694845 0.026215881
0.028726323 -0.009192423 0.024849027
0.030062025 -0.0092498539 0.029006183
0.030679373 -0.0090901842 0.027395606
0.032164387 -0.0091898246 0.029434294
0.034024887 -0.0093861753 0.022351474
0.034604445 -0.0092278523 0.02329576
0.035570271 -0.0091794245 0.028299749
0.037078045 -0.0092695113 0.030676365
0.037547331 -0.0091023836 0.026878953
0.038854707 -0.0091422843 0.033943981
0.039895408 -0.0091189509 0.032139093
0.040184699 -0.0089299334 0.031257659
0.041406151 -0.008952681 0.045431137
0.042538423 -0.0089554572 0.04034692
0.042774264 -0.0087742079 0.040118843
0.044704717 -0.0089409435 0.040982574
0.045634326 -0.0089042587 0.040875286
0.046969641 -0.0089465985 0.035917342
0.04794763 -0.0089204898 0.040708601
0.049809411 -0.0090562571 0.027341843
0.05080751 -0.009032446 0.030242234
0.05232317 -0.0090996819 0.031541914
0.053328633 -0.0090772137 0.028941482
0.05483377 -0.0091389623 0.025398105
0.055843782 -0.0091173528 0.025027454
0.056430742 -0.0090289181 0.027318567
0.05809664 -0.0091131981 0.028616309
0.059267338 -0.0091180522 0.030493468
0.059429903 -0.0089705512 0.034061402
0.061356738 -0.0090898871 0.027621984
-0.06224186 -0.0082206232 0.017382026
-0.060609326 -0.0081589483 0.017363459
-0.059912898 -0.008223339 0.022134542
-0.058066729 -0.0081293415 0.023206085
-0.056721095 -0.008103014 0.023261577
-0.055827092 -0.0081414506 0.026319355
-0.053755127 -0.0080060828 0.022233933
-0.053063903 -0.008074942 0.025656283
-0.052102119 -0.0081047732 0.024306387
-0.050190352 -0.0079848291 0.026155323
-0.049190558 -0.0080077657 0.033824354
-0.047906417 -0.0079844026 0.033493727
-0.045877639 -0.0078327674 0.032022476
-0.045526966 -0.0079672197 0.034942389
-0.044136968 -0.0079220198 0.033009171
-0.042653408 -0.0078572063 0.035808891
-0.041976355 -0.0079414723 0.032174826
-0.040236842 -0.0078238305 0.038472742
-0.039163895 -0.0078327795 0.037169397
-0.038474414 -0.007921203 0.036788553
-0.037541058 -0.007963255 0.033272117
-0.036869749 -0.0080652582 0.029073387
-0.035568159 -0.0080315201 0.027571619
-0.03406072 -0.0079475017 0.024901897
-0.033118326 -0.0079940781 0.027241409
-0.03189002 -0.0079725049 0.032768458
-0.03041967 -0.0078865802 0.028516084
-0.029460765 -0.0079317447 0.033436537
-0.028540559 -0.0079913558 0.029864013
-0.027574001 -0.0080424165 0.021080822
-0.026564742 -0.0080849212 0.026050538
-0.025324926 -0.0080579305 0.021013796
-0.024380317 -0.008126772 0.02082181
-0.02360349 -0.0082612215 0.016342938
-0.022033798 -0.0081177149 0.015687227
-0.020866666 -0.0081148148 0.018953532
-0.0197137 -0.0081174057 0.020076394
-0.018107627 -0.0079220859 0.025804698
-0.01717585 -0.0080153961 0.027878582
-0.016065508 -0.0080327541 0.026443154
-0.014822588 -0.0079813935 0.023739904
-0.013727332 -0.0080076102 0.024863064
-0.012719037 -0.0080939326 0.025742412
-0.011455033 -0.0080185235 0.024159491
-0.010414367 -0.0081000626 0.026794016
-0.009260145 -0.0081026265 0.019797862
-0.0080628963 -0.0080628963 0.021968901
-0.0069998479 -0.0081664892 0.021847874
-0.0057666539 -0.008073316 0.02294594
-0.0046212561 -0.0080871982 0.019971579
-0.0034608971 -0.0080754273 0.024751604
-0.0023053498 -0.0080687245 0.021337926
-0.0011478085 -0.0080346595 0.023996234
0 -0.0080867494 0.022484362
0.0011478085 -0.0080346595 0.018875092
0.0023196158 -0.0081186555 0.02155742
0.003445534 -0.0080395797 0.028580189
0.0045578545 -0.0079762451 0.036870569
0.0057453173 -0.0080434447 0.026823044
0.0068857321 -0.0080333538 0.028163224
0.0079071522 -0.0079071522 0.028064549
0.0092679467 -0.0081094531 0.02703923
0.010309043 -0.0080181453 0.028013021
0.011557424 -0.008090198 0.022477329
0.012806186 -0.008149391 0.022987783
0.013871391 -0.0080916453 0.01638034
0.014847144 -0.0079946164 0.025811702
0.016151663 -0.0080758315 0.024737149
0.017116448 -0.0079876753 0.026708871
0.018401004 -0.0080504399 0.024098992
0.019337816 -0.0079626301 0.028384686
0.020427056 -0.0079438556 0.027139127
0.021677427 -0.0079864198 0.027744979
0.023213791 -0.0081248265 0.027010918
0.023560779 -0.0078535927 0.02861473
0.02515886 -0.0080050919 0.030753702
0.026021576 -0.0079196095 0.035326511
0.027271664 -0.0079542352 0.029673785
0.029059283 -0.0081365993 0.026237488
0.030941937 -0.0080219833 0.028710753
0.032514982 -0.0081287455 0.025591999
0.033550356 -0.0080983611 0.018655509
0.035009135 -0.0081687979 0.015174568
0.035777319 -0.0080787493 0.023511261
0.036356345 -0.0079529509 0.027930886
0.038118519 -0.0080857463 0.025349021
0.039034139 -0.0080364402 0.02940166
0.039270181 -0.0078540361 0.027403325
0.040612824 -0.0078969384 0.030311882
0.041738261 -0.0078964271 0.037517041
0.042189837 -0.0077718114 0.035226256
0.043855358 -0.0078714751 0.034222752
0.044815987 -0.0078427978 0.032806993
0.045638926 -0.0077920114 0.037262499
0.046847038 -0.0078078392 0.041885316
0.047775209 -0.0077773593 0.042310745
0.049819715 -0.0079258643 0.030009538
0.050599933 -0.0078711007 0.035817415
0.051977329 -0.0079095932 0.027909398
0.05298106 -0.0078907963 0.028409988
0.055141382 -0.0080414517 0.025931954
0.055962007 -0.0079945726 0.022462815
0.057785425 -0.0080899596 0.026545465
0.059530441 -0.008170845 0.021336198
0.059631605 -0.0080273319 0.021909863
0.059881087 -0.007908823 0.02734223
0.062175211 -0.0080597494 0.026004046
-0.062007651 -0.0071547288 0.018452436
-0.059980061 -0.0070564775 0.015579432
-0.057984356 -0.0069581224 0.019867569
-0.057105888 -0.0069925576 0.019728392
-0.055262718 -0.0069078398 0.019903749
-0.053982116 -0.0068913335 0.027757168
-0.053444955 -0.0069710813 0.028710008
-0.051542569 -0.0068723424 0.028475732
-0.050547015 -0.0068927747 0.030810714
-0.049002253 -0.0068375235 0.033704489
-0.047590006 -0.0067985719 0.032476366
-0.046361905 -0.0067846687 0.036948591
-0.045519095 -0.0068278643 0.030551493
-0.044155307 -0.0067931246 0.032889128
-0.043390878 -0.0068511907 0.030906171
-0.041935366 -0.0068003293 0.034507364
-0.040249392 -0.0067082322 0.035292417
-0.039758574 -0.0068157553 0.03435269
-0.038682517 -0.0068263263 0.030204773
-0.037342057 -0.006789465 0.033297777
-0.036752604 -0.0068911128 0.027470142
-0.035158802 -0.0068049291 0.030757964
-0.034457892 -0.006891578 0.029718071
-0.032968003 -0.0068209656 0.034466624
-0.031296976 -0.0067064944 0.031237125
-0.030775661 -0.0068390355 0.035695255
-0.029805219 -0.0068781273 0.029495418
-0.028441312 -0.0068259141 0.02558136
-0.02793443 -0.0069836075 0.030186206
-0.026347423 -0.0068732407 0.023081213
-0.025470594 -0.0069465255 0.018725693
-0.024776388 -0.0070789675 0.0177297
-0.023309724 -0.0069929175 0.015223205
-0.022268428 -0.0070321346 0.016150683
-0.020930002 -0.0069766678 0.023120344
-0.019506358 -0.0068845963 0.02638787
-0.018417347 -0.0069065052 0.027438402
-0.01725788 -0.0069031524 0.026904911
-0.01584949 -0.006792638 0.027833462
-0.014882603 -0.0068688937 0.030785143
-0.013741053 -0.0068705264 0.028934926
-0.012489606 -0.0068125119 0.028668851
-0.011532294 -0.0069193761 0.024843127
-0.010379132 -0.0069194213 0.025575995
-0.0091361701 -0.0068521276 0.029673636
-0.0081076026 -0.0069493735 0.026505142
-0.0068688202 -0.0068688202 0.028188795
-0.0056952555 -0.0068343068 0.024361253
-0.0046441229 -0.0069661844 0.023337692
-0.0034689023 -0.0069378046 0.018095016
-0.0022873969 -0.0068621906 0.025996774
-0.0011526106 -0.0069156634 0.021265835
0 -0.0068374015 0.024485052
0.0011501109 -0.0069006654 0.023363143
0.0023126376 -0.0069379127 0.027142972
0.0034197019 -0.0068394039 0.024874568
0.0046253456 -0.0069380184 0.023654699
0.005750733 -0.0069008796 0.029457778
0.0067817667 -0.0067817667 0.031553864
0.0080896802 -0.0069340118 0.025310308
0.0091893235 -0.0068919929 0.022115082
0.010293005 -0.0068620034 0.024478823
0.011590196 -0.0069541177 0.026720345
0.012620334 -0.0068838182 0.026157916
0.013943621 -0.0069718105 0.028934956
0.014978456 -0.0069131339 0.035172582
0.015995359 -0.0068551535 0.029539555
0.017182028 -0.0068728114 0.023639292
0.018296482 -0.0068611805 0.029363483
0.019127352 -0.00675083 0.027971596
0.020453099 -0.0068176999 0.032451332
0.021627393 -0.0068297028 0.032715529
0.022692272 -0.0068076821 0.022871315
0.023950422 -0.0068429774 0.027982712
0.025268361 -0.0068913712 0.029975712
0.025829434 -0.0067381132 0.029606313
0.027366247 -0.0068415618 0.029115111
0.028138582 -0.0067532593 0.029354066
0.030028259 -0.0069295983 0.026940107
0.031112358 -0.0069138566 0.024794459
0.032095663 -0.0068776417 0.027028382
0.033264264 -0.0068822615 0.025564164
0.035130925 -0.0070261848 0.021571159
0.03555264 -0.0068811555 0.028715551
0.037001535 -0.0069377879 0.029925466
0.038003758 -0.0069097746 0.027124345
0.038651533 -0.0068208589 0.028309345
0.039996661 -0.00685657 0.03138876
0.040948924 -0.0068248208 0.030726016
0.041115481 -0.0066673751 0.037834257
0.042615917 -0.0067288284 0.035106301
0.043828722 -0.0067428802 0.039054364
0.044621233 -0.0066931848 0.034531236
0.046215191 -0.0067631984 0.03723973
0.047075573 -0.0067250817 0.035605162
0.048420973 -0.0067564147 0.03195864
0.050341692 -0.0068647759 0.031659156
0.051501676 -0.0068668895 0.024476975
0.052684322 -0.0068718679 0.025100052
0.053532451 -0.00683393 0.028168917
0.054443326 -0.0068054157 0.02741003
0.057580333 -0.0070506535 0.018445462
0.059003748 -0.0070804497 0.016358674
0.058786381 -0.0069160447 0.017587334
0.06108648 -0.0070484402 0.015816391
0.061225686 -0.0069312095 0.021952033
0.062301677 -0.006922408 0.016289443
-0.058663916 -0.0058663911 0.017714411
-0.0570159 -0.0058179488 0.01922068
-0.056482106 -0.0058835526 0.017967254
-0.055068288 -0.0058583282 0.023809969
-0.052936874 -0.005754008 0.026893824
-0.051953293 -0.0057725878 0.028719038
-0.0505674 -0.0057462952 0.028654188
-0.049162928 -0.0057166191 0.028031439
-0.047871768 -0.0056990199 0.03242898
-0.046960305 -0.005726866 0.030083954
-0.045348343 -0.0056685428 0.037347406
-0.044121314 -0.0056565786 0.035608858
-0.043217059 -0.0056864549 0.031878352
-0.041700933 -0.0056352606 0.037835538
-0.040685799 -0.0056508058 0.039252937
-0.039978892 -0.00571127 0.026555002
-0.037853483 -0.0055666883 0.041141093
-0.03751177 -0.0056836014 0.036993414
-0.036462128 -0.0056972075 0.027349502
-0.035146806 -0.0056688394 0.031950504
-0.034273025 -0.0057121706 0.032515883
-0.032792777 -0.0056539266 0.030697525
-0.031831093 -0.0056841234 0.03440094
-0.03069623 -0.0056844871 0.028810263
-0.029402852 -0.0056543946 0.026892364
-0.028734375 -0.005746875 0.028430134
-0.027318984 -0.0056914547 0.032548666
-0.026412727 -0.005741897 0.021328986
-0.025740672 -0.005850153 0.021721601
-0.024462694 -0.0058244509 0.016049773
-0.023362892 -0.0058407229 0.02085039
-0.022047019 -0.0058018467 0.022022247
-0.020630317 -0.0057306434 0.025338203
-0.019394148 -0.0057041612 0.030531049
-0.01829906 -0.0057184561 0.026391476
-0.017014455 -0.0056714853 0.030561477
-0.016128134 -0.0057600476 0.026493937
-0.01489975 -0.0057306732 0.03059122
-0.013571857 -0.0056549408 0.029179692
-0.012575178 -0.00571599 0.030815214
-0.011568652 -0.0057843258 0.029378772
-0.010233013 -0.0056850072 0.025674433
-0.0092783952 -0.0057989969 0.033746719
-0.0079854093 -0.0057038637 0.024555296
-0.006844915 -0.0057040956 0.028799385
-0.0057475772 -0.0057475772 0.027507901
-0.0045920946 -0.0057401177 0.023899406
-0.0034529257 -0.005754876 0.031240553
-0.0022961334 -0.0057403329 0.022778422
-0.0011564913 -0.0057824566 0.020778805
0 -0.0057696705 0.025924802
0.0011485042 -0.0057425206 0.025607675
0.0022779643 -0.0056949104 0.024534374
0.0034249406 -0.0057082344 0.030313849
0.0045489296 -0.0056861616 0.030557066
0.0056488123 -0.0056488123 0.026532441
0.0068719829 -0.0057266522 0.027116776
0.0080400305 -0.0057428791 0.034382284
0.0091311187 -0.0057069492 0.037794352
0.010405822 -0.0057810121 0.024479687
0.011472958 -0.0057364791 0.023381114
0.012660992 -0.0057549966 0.027134001
0.014047948 -0.0058533116 0.023865432
0.014788049 -0.0056877113 0.030956805
0.016020646 -0.0057216589 0.028370649
0.017160684 -0.0057202275 0.035874397
0.018073892 -0.005648091 0.034018934
0.019117652 -0.0056228386 0.039302915
0.020521775 -0.0057004932 0.030649513
0.021417534 -0.0056361929 0.033861607
0.022836762 -0.0057091904 0.034685671
0.024130251 -0.0057452978 0.029420584
0.024904927 -0.0056602107 0.024254113
0.026087923 -0.0056712874 0.033064753
0.027048757 -0.0056351577 0.040631056
0.028469669 -0.0056939335 0.032300293
0.030105218 -0.0057894648 0.025991887
0.030704444 -0.0056860079 0.027350247
0.031958815 -0.0057069315 0.029778481
0.033753898 -0.0058196369 0.022183985
0.034721728 -0.0057869544 0.022009611
0.035996694 -0.005805918 0.020473599
0.037133105 -0.0058020474 0.030048013
0.037517786 -0.0056845131 0.023066163
0.039474946 -0.005805139 0.029087991
0.040074557 -0.0057249363 0.033236265
0.040182997 -0.0055809715 0.033836246
0.042078316 -0.0056862584 0.033949971
0.043516908 -0.0057259086 0.034937531
0.043380555 -0.0055616098 0.036846787
0.0453896 -0.0056737 0.036328167
0.046351045 -0.005652566 0.038090169
0.047334399 -0.0056350473 0.036212772
0.049178567 -0.005718438 0.030141085
0.050252736 -0.005710538 0.028969347
0.050516434 -0.0056129363 0.035868496
0.052605301 -0.0057179672 0.029122859
0.053750567 -0.0057181451 0.024294376
0.0560259 -0.0058360314 0.022156417
0.057125617 -0.0058291447 0.02093941
0.057898585 -0.0057898583 0.020642668
0.059874132 -0.005870013 0.019281447
-0.056730669 -0.0047275559 0.019009024
-0.054315589 -0.0046226033 0.019910842
-0.053406455 -0.0046440396 0.022630215
-0.052401897 -0.0046579461 0.025811523
-0.050160799 -0.0045600729 0.023709476
-0.05015488 -0.0046655699 0.022988379
-0.048713561 -0.0046393867 0.028621703
-0.046327468 -0.0045197527 0.032098532
-0.046084929 -0.0046084928 0.030432045
-0.044470448 -0.0045610717 0.029298633
-0.042913798 -0.0045172418 0.036492437
-0.042214271 -0.0045637046 0.037763715
-0.04047269 -0.0044969656 0.037699431
-0.039973628 -0.0045684148 0.033115745
-0.039277747 -0.0046209116 0.028772861
-0.037741419 -0.0045747175 0.028754562
-0.036939651 -0.0046174563 0.030267656
-0.035338126 -0.0045597581 0.035939246
-0.033741359 -0.0044988478 0.031835824
-0.032955941 -0.0045456472 0.032936305
-0.031906918 -0.0045581311 0.032187939
-0.030539408 -0.0045243567 0.031560779
-0.029777018 -0.0045810798 0.028353393
-0.02873366 -0.0045973854 0.032155156
-0.027744815 -0.0046241358 0.024393916
-0.026721481 -0.004647214 0.022425234
-0.025458787 -0.0046288706 0.025862098
-0.024375154 -0.0046428866 0.020117611
-0.023211306 -0.0046422617 0.025211185
-0.02192845 -0.0046165157 0.0193187
-0.020401748 -0.0045337221 0.026995718
-0.019396763 -0.0045639444 0.034162581
-0.017978871 -0.0044947178 0.031802237
-0.017162079 -0.0045765545 0.03999427
-0.016024509 -0.0045784311 0.035244972
-0.014650616 -0.0045078821 0.025960624
-0.013800418 -0.0046001393 0.027474076
-0.012716996 -0.0046243621 0.02708599
-0.011337353 -0.0045349416 0.027282804
-0.01036442 -0.004606409 0.028332859
-0.0091147944 -0.0045573972 0.028090537
-0.0079796594 -0.0045598056 0.029554963
-0.0069014393 -0.0046009598 0.029385448
-0.005677321 -0.0045418572 0.030044943
-0.0045724697 -0.0045724697 0.025290132
-0.003452291 -0.0046030548 0.031656057
-0.0022736383 -0.0045472765 0.035656333
-0.0011505486 -0.0046021943 0.022072017
0 -0.0046165981 0.024291486
0.0011371346 -0.0045485385 0.028900892
0.0022870521 -0.0045741042 0.02936399
0.0034243055 -0.0045657405 0.029461116
0.0045293034 -0.0045293034 0.03416729
0.0057276194 -0.0045820959 0.030337572
0.0068772966 -0.0045848647 0.03282395
0.0079762451 -0.0045578545 0.027335912
0.0091567347 -0.0045783673 0.029919326
0.010330405 -0.0045912913 0.036744952
0.011532404 -0.0046129618 0.029208928
0.012764596 -0.0046416717 0.025306255
0.013767507 -0.0045891693 0.024158657
0.014779749 -0.0045476151 0.030982077
0.016062045 -0.0045891558 0.029907018
0.016941817 -0.0045178183 0.033267647
0.018128986 -0.0045322464 0.035238385
0.019244531 -0.0045281248 0.032237589
0.020122167 -0.0044715931 0.032843173
0.021647256 -0.0045573171 0.035153717
0.022919005 -0.0045838011 0.037804544
0.023656543 -0.0045060082 0.036460191
0.025138678 -0.004570669 0.033557385
0.026189458 -0.0045546885 0.032140434
0.027106483 -0.0045177471 0.036396176
