ply
format ascii 1.0
comment PCL generated
element vertex 1293
property float x
property float y
property float z
element camera 0
property float view_px
property float view_py
property float view_pz
property float x_axisx
property float x_axisy
property float x_axisz
property float y_axisx
property float y_axisy
property float y_axisz
property float z_axisx
property float z_axisy
property float z_axisz
property float focal
property float scalex
property float scaley
property float centerx
property float centery
property int viewportx
property int viewporty
property float k1
property float k2
end_header
0.0034677316 0.0034677316 0.028559357
0.0046701226 0.003502592 0.029144078
0.0058216373 0.0034929824 0.028777421
0.0069879196 0.0034939598 0.026532859
0.0081420001 0.0034894284 0.032798916
0.0092949532 0.0034856074 0.027896076
0.010493574 0.0034978578 0.029186904
0.011558258 0.0034674774 0.031501502
0.012678387 0.0034577418 0.028500646
0.013884825 0.0034712062 0.028084129
0.015192832 0.0035060381 0.029349506
0.016336245 0.0035006239 0.024472147
0.017100304 0.0034200607 0.039288342
0.018487135 0.0034663377 0.036482006
0.01963331 0.0034647016 0.029460371
0.021130215 0.0035217027 0.021392405
0.022449668 0.0035446845 0.028162539
0.023132646 0.003469897 0.027014285
0.024462635 0.003494662 0.025305927
0.025352191 0.0034571171 0.040766537
0.026090622 0.0034031244 0.04149127
0.027649011 0.0034561264 0.037808985
0.028865125 0.0034638147 0.031279534
0.029984904 0.0034597968 0.030666113
0.031367924 0.0034853248 0.031585783
0.032674007 0.0035007864 0.026276439
0.033709724 0.0034872128 0.026320428
0.035101041 0.003510104 0.027847826
0.035860915 0.0034704108 0.025216371
0.037311941 0.0034979943 0.026451349
0.038678724 0.003516248 0.024234086
0.039373625 0.0034741431 0.025298327
0.041807082 0.0035834641 0.02220723
0.04270789 0.003558991 0.018922985
-0.069999598 0.0047457358 0.016020983
-0.069219276 0.004773743 0.016243935
-0.066374183 0.0046578376 0.02040261
-0.066202782 0.0047287703 0.024660707
-0.064697213 0.0047052521 0.020972341
-0.062991396 0.0047540679 0.019898266
-0.06147382 0.0047287554 0.016857326
-0.060390927 0.0047365432 0.01998356
-0.059733398 0.0047786715 0.02129665
-0.057637259 0.0047050826 0.023651332
-0.053705197 0.0047737951 0.015729249
-0.043163873 0.0047959862 0.015934795
-0.040258918 0.0047363429 0.015844494
-0.03947198 0.0047844825 0.015215844
-0.032443091 0.004806384 0.01525718
-0.024932649 0.004749076 0.018437117
-0.022842618 0.0048089721 0.01931873
-0.014147074 0.0047156913 0.0173572
-0.013313021 0.0048410986 0.015846908
-0.0070975046 0.00473167 0.021898866
-0.0046866043 0.0046866043 0.021217406
-0.0035196031 0.0046928041 0.021217853
-0.0023889968 0.0047779935 0.021388948
-0.0011741448 0.0046965792 0.022754878
0 0.0047426899 0.021120906
0.0011772545 0.0047090179 0.020754993
0.0023111969 0.0046223938 0.026510566
0.0034939952 0.0046586604 0.031241477
0.004683922 0.004683922 0.029436082
0.0057800519 0.0046240417 0.030142486
0.0070155668 0.0046770447 0.031287611
0.0081477957 0.0046558832 0.029286742
0.0091884341 0.0045942171 0.028968364
0.010501024 0.0046671224 0.028527945
0.01166955 0.0046678204 0.02847746
0.012657326 0.0046026637 0.038837016
0.013780671 0.0045935572 0.037615329
0.01485501 0.0045707724 0.034687251
0.01629238 0.0046549658 0.027859598
0.017437177 0.0046499139 0.028247029
0.018061725 0.0045154314 0.038040847
0.019413333 0.0045678429 0.040278703
0.021062875 0.0046806391 0.026752084
0.021934235 0.0046177339 0.028088868
0.023314832 0.0046629664 0.030740559
0.024717834 0.0047081588 0.027375579
0.025441376 0.0046257051 0.024157375
0.026545072 0.0046165343 0.032676131
0.027550541 0.004591757 0.028678715
0.028888835 0.0046222135 0.034516335
0.030156687 0.00463949 0.03351298
0.031332746 0.0046418882 0.027083367
0.032422945 0.0046318495 0.02756533
0.034569614 0.0047682226 0.022135943
0.035705864 0.0047607818 0.016246259
0.036410406 0.0046981168 0.017094254
0.037204161 0.0046505202 0.027836502
0.038012132 0.0046075312 0.025837749
0.040310558 0.0047424184 0.024228483
0.041712627 0.0047671576 0.018951029
0.042339683 0.0047044093 0.018485337
-0.071440369 0.0059533641 0.016593575
-0.070972778 0.0060146418 0.015851647
-0.067911983 0.0058544809 0.018512279
-0.066792101 0.0058589564 0.033753961
-0.065886497 0.0058827228 0.021447718
-0.064369857 0.0058518047 0.02326709
-0.064006977 0.0059265713 0.024338305
-0.061945327 0.0058438987 0.02780363
-0.061252039 0.0058896188 0.020073444
-0.060447861 0.0059262607 0.01862824
-0.058760714 0.0058760713 0.017472446
-0.055577733 0.0059125246 0.017706066
-0.054767471 0.005952986 0.01642707
-0.053660076 0.0059622303 0.017158747
-0.051553298 0.005994569 0.015979886
-0.044360589 0.0059946738 0.016100734
-0.042994339 0.0059714359 0.018169045
-0.040518057 0.0059585376 0.017982513
-0.039470877 0.0059804362 0.015579998
-0.032307502 0.0059828702 0.015719116
-0.025038075 0.0059614461 0.015026927
-0.02390242 0.005975605 0.019876063
-0.02241152 0.0058977678 0.018587351
-0.015398046 0.005922325 0.017062813
-0.014310491 0.0059627048 0.017795503
-0.011638137 0.0058190683 0.019090116
-0.010736078 0.0059644878 0.019505709
-0.009441277 0.0059007979 0.017141551
-0.0083033228 0.0059309448 0.015386701
-0.0071269344 0.0059391116 0.018581808
-0.0058804834 0.0058804834 0.023679197
-0.0046911063 0.0058638826 0.019777954
-0.003529381 0.0058823014 0.023412108
-0.0023491774 0.0058729434 0.02446118
-0.0011676489 0.0058382447 0.023510277
0 0.0059336824 0.02621749
0.0011547231 0.0057736156 0.020973921
0.0023469825 0.0058674561 0.029460728
0.0034823737 0.0058039562 0.030289471
0.0045886803 0.00573585 0.030264437
0.005830186 0.005830186 0.033409417
0.0069850101 0.0058208415 0.031530559
0.008066915 0.0057620821 0.028286099
0.0092969267 0.0058105793 0.033234656
0.01046123 0.0058117947 0.028429627
0.011553414 0.0057767071 0.029110581
0.012894302 0.0058610458 0.028426051
0.014012844 0.0058386852 0.026132524
0.014779335 0.0056843595 0.040170789
0.016114485 0.005755173 0.038680583
0.01747233 0.00582411 0.027929366
0.018525204 0.0057891258 0.033555895
0.019473888 0.0057276138 0.037840962
0.020500945 0.0056947069 0.037471354
0.022089833 0.0058131134 0.033130795
0.023669802 0.0059174504 0.022263139
0.024128972 0.0057449928 0.030151248
0.025780851 0.0058592847 0.027054548
0.026905535 0.0058490289 0.026101202
0.027929544 0.0058186548 0.033765912
0.029146649 0.0058293296 0.02816239
0.030253917 0.0058180606 0.029447764
0.031545393 0.005841739 0.029978216
0.033746984 0.0060262471 0.019195408
0.039316475 0.0059570419 0.016892523
0.040712219 0.005987091 0.017666608
0.041520137 0.0059314482 0.016083658
-0.071825057 0.0071825054 0.01719597
-0.069247998 0.0070421691 0.018553287
-0.068088174 0.0070436033 0.026983082
-0.067250878 0.0070790397 0.026727021
-0.064900316 0.0069536055 0.02666387
-0.063842811 0.00696467 0.030852616
-0.062422395 0.0069358214 0.029944509
-0.061972067 0.0070157056 0.020356417
-0.061023604 0.0070411852 0.02585271
-0.060214475 0.0070840558 0.018893749
-0.058341295 0.0070009553 0.020956546
-0.058069613 0.007110565 0.019534737
-0.056427889 0.0070534861 0.017821372
-0.05623896 0.0071794414 0.018020362
-0.054506499 0.0071095428 0.019600362
-0.053017553 0.0070690066 0.017788231
-0.052400265 0.0071454905 0.015538663
-0.044215318 0.0071700509 0.015444517
-0.041729175 0.007153573 0.019387186
-0.040326647 0.0071164672 0.023084909
-0.039118625 0.0071124779 0.018034279
-0.038487356 0.0072163786 0.016676575
-0.035979059 0.0071958113 0.016780257
-0.034833748 0.0072069825 0.016759008
-0.032986309 0.0070684948 0.015350938
-0.032209493 0.0071576652 0.015280604
-0.031271596 0.007216522 0.015210092
-0.029793702 0.0071504884 0.017646521
-0.024997583 0.0071421661 0.022722214
-0.023539899 0.00706197 0.019266456
-0.022519518 0.0071114264 0.017807215
-0.021479262 0.0071597546 0.017346352
-0.015386427 0.0071014278 0.017184079
-0.014271974 0.0071359868 0.021500111
-0.012769163 0.0069649979 0.019088209
-0.011804739 0.0070828437 0.020698518
-0.010675914 0.0071172761 0.019480675
-0.0094112055 0.0070584044 0.021749288
-0.0083871018 0.0071889441 0.024920195
-0.0070506083 0.0070506083 0.019142032
-0.0058854632 0.0070625562 0.024922103
-0.0047282558 0.0070923837 0.026264042
-0.0034981666 0.0069963331 0.021192133
-0.0023400732 0.0070202197 0.029557258
-0.0011783394 0.0070700361 0.02589944
0 0.0069006872 0.025265425
0.0011666943 0.007000166 0.023314357
0.0023664115 0.007099234 0.022533774
0.0034421987 0.0068843975 0.037848353
0.0046548531 0.0069822795 0.030482829
0.0057644499 0.0069173397 0.035115242
0.0068611391 0.0068611391 0.030407786
0.0081780106 0.0070097232 0.033917844
0.0092478422 0.0069358819 0.028869033
0.010395589 0.0069303932 0.03174448
0.011668822 0.0070012929 0.02835381
0.012802683 0.0069832816 0.026109159
0.013997006 0.0069985031 0.033590883
0.015307209 0.0070648659 0.028859556
0.016076397 0.0068898848 0.033634156
0.017155526 0.0068622106 0.034337848
0.018911531 0.007091824 0.025781363
0.019490825 0.0068791145 0.032162458
0.020754591 0.006918197 0.038736939
0.021956008 0.0069334763 0.036028534
0.022954112 0.0068862336 0.034099936
0.024835201 0.0070957718 0.019799769
0.026110774 0.0071211201 0.022232175
0.027554197 0.007188051 0.015825748
0.028604856 0.0071512139 0.020619124
0.02950923 0.0070822146 0.024972856
0.030835003 0.0071157701 0.02090475
0.033349041 0.007146223 0.023306191
0.034183029 0.0070723509 0.027704656
0.035813078 0.0071626157 0.024829894
0.040002901 0.0072732549 0.015482277
0.041863099 0.0071765315 0.018439651
-0.071275957 0.0083155278 0.015700012
-0.070430234 0.0083561288 0.017659903
-0.06773901 0.0081753982 0.028671414
-0.066281468 0.0081398292 0.024915278
-0.065283187 0.0081603983 0.03125146
-0.06344495 0.0080748117 0.028411329
-0.062534094 0.0081062717 0.028396636
-0.062248271 0.0082214698 0.024900526
-0.060351536 0.0081242453 0.020990908
-0.059456419 0.0081606852 0.027456492
-0.058868293 0.0082415612 0.023206145
-0.0578449 0.0082635572 0.018541515
-0.057032891 0.0083172964 0.019588172
-0.055658996 0.008289638 0.019327492
-0.053771574 0.0081826299 0.02122274
-0.053467989 0.0083172424 0.016503155
-0.052718133 0.0083869761 0.017040938
-0.044862878 0.0082642147 0.019931614
-0.043991163 0.0083226524 0.015371054
-0.043290615 0.0084176203 0.016176045
-0.041270465 0.0082540931 0.017880142
-0.039924331 0.0082197152 0.020824164
-0.039227329 0.008320949 0.018227965
-0.037867386 0.0082834903 0.017964274
-0.03691167 0.0083348928 0.015925407
-0.033899508 0.0081826393 0.018290669
-0.033609942 0.0084024854 0.018853426
-0.032314945 0.0083779478 0.017834753
-0.026469972 0.0084222639 0.015681207
-0.024669265 0.0082230885 0.018922269
-0.023809299 0.0083332546 0.021165431
-0.022531332 0.0083010169 0.020485938
-0.021241594 0.0082606208 0.02112177
-0.017753402 0.0082849208 0.015767008
-0.015419864 0.0083030043 0.018231481
-0.013967919 0.0081479531 0.025984347
-0.012967076 0.008251776 0.025815547
-0.011884711 0.0083192978 0.025524676
-0.010495553 0.0081632081 0.024380326
-0.0094976211 0.0083104186 0.026429683
-0.0070214276 0.0081916656 0.023603469
-0.0059388699 0.0083144186 0.023482352
-0.00472148 0.0082625896 0.021020114
-0.0035210692 0.0082158279 0.028360724
-0.0023432705 0.0082014464 0.034043133
-0.0011595748 0.0081170239 0.026605606
0 0.0081631402 0.03058067
0.0011654276 0.0081579937 0.026459277
0.002294376 0.0080303168 0.032628715
0.0035057061 0.0081799813 0.034383982
0.0046858774 0.008200285 0.032700688
0.0056837462 0.0079572443 0.032675356
0.0069098719 0.008061517 0.036965817
0.0080919126 0.0080919126 0.038988054
0.0092079677 0.0080569722 0.034426868
0.010497199 0.0081644887 0.030256003
0.011680538 0.008176377 0.027913809
0.012703618 0.0080841212 0.034469485
0.014164629 0.0082627004 0.030030638
0.015187766 0.0081780283 0.027639717
0.016242081 0.0081210406 0.028953463
0.017446348 0.0081416294 0.035944849
0.018247981 0.0079834918 0.032651812
0.020025382 0.0082457457 0.031016082
0.020924769 0.0081374105 0.034691274
0.021774618 0.0080222273 0.034736007
0.023409858 0.008193451 0.038360804
0.024829082 0.008276361 0.023890257
0.025884725 0.0082360497 0.019771963
0.027460687 0.0083576003 0.019525737
0.03112955 0.0083810333 0.020563215
0.03195034 0.0082834214 0.022481978
0.035393968 0.0082585933 0.019478887
0.036696859 0.0082863877 0.027134031
0.038660828 0.0084570562 0.017405123
0.041765753 0.0083531504 0.017758697
0.042505857 0.0082650287 0.019722164
-0.07066185 0.0095812678 0.018985957
-0.067914374 0.0093674995 0.020199418
-0.066746287 0.0093679 0.027690411
-0.065750144 0.009392878 0.024318993
-0.064073168 0.0093197329 0.029352188
-0.064149387 0.0095036123 0.021193802
-0.061729707 0.0093176924 0.027582735
-0.061118957 0.0094029158 0.021425217
-0.059728168 0.0093691247 0.027866453
-0.058644779 0.0093831643 0.019551277
-0.057791825 0.0094354004 0.022219718
-0.056789111 0.0094648516 0.020362049
-0.055050284 0.0093702609 0.022378206
-0.054309562 0.0094451411 0.018072426
-0.054283369 0.0096503766 0.015605778
-0.052161098 0.0094838366 0.015101045
-0.051943269 0.009663864 0.016026437
-0.046188917 0.00947465 0.017159134
-0.045153689 0.0095060393 0.021265864
-0.044584326 0.0096398545 0.018842638
-0.042656895 0.0094793104 0.017219633
-0.041134633 0.0094022024 0.021207452
-0.040442929 0.0095159831 0.021940917
-0.039305698 0.0095286546 0.020098448
-0.037960906 0.0094902264 0.015629858
-0.037254762 0.0096141314 0.01692149
-0.035051275 0.0093470067 0.02293101
-0.034139499 0.0094177928 0.024175614
-0.033351246 0.0095289275 0.015082031
-0.031878237 0.0094454028 0.019026071
-0.030911405 0.0095112016 0.016620129
-0.028849186 0.0096163955 0.015554279
-0.026156707 0.0095115304 0.018748403
-0.024806188 0.0094499765 0.023718715
-0.023865419 0.0095461681 0.021456718
-0.022342844 0.0094075138 0.021410614
-0.02143902 0.0095284544 0.022216976
-0.020185975 0.0094992826 0.021951407
-0.019209092 0.0096045462 0.017933309
-0.015285276 0.0094063235 0.020692229
-0.01414203 0.0094280196 0.022668213
-0.013000655 0.0094550224 0.028227568
-0.011603811 0.009283049 0.027888149
-0.01048464 0.0093196807 0.023915976
-0.0093635721 0.0093635721 0.028768957
-0.0082639111 0.0094444705 0.023113787
-0.0070379227 0.0093838973 0.025650531
-0.0057861954 0.0092579126 0.027845919
-0.0046207961 0.0092415921 0.02987057
-0.0034879849 0.0093012936 0.032943696
-0.0023196288 0.0092785154 0.028774351
-0.0011584231 0.0092673851 0.030652314
0 0.009323501 0.03140834
0.0011559846 0.0092478767 0.023629338
0.0023068269 0.0092273075 0.034992546
0.0034662213 0.0092432573 0.036113769
0.0045793424 0.0091586849 0.030724049
0.0058566029 0.0093705645 0.029820979
0.006844447 0.0091259293 0.042181939
0.0079677962 0.009106053 0.038937479
0.009282629 0.009282629 0.037229002
0.010367255 0.0092153372 0.03415525
0.011588574 0.0092708599 0.029813975
0.012916863 0.0093940822 0.031250209
0.014034539 0.009356359 0.025666267
0.015192599 0.0093492921 0.028686464
0.016544124 0.0094537856 0.021494716
0.017541481 0.0093554566 0.030655265
0.018613592 0.0093067959 0.034843206
0.01995093 0.0093886731 0.030015677
0.020801013 0.0092448946 0.027454555
0.022258384 0.0093719512 0.032444745
0.023385627 0.0093542514 0.030857712
0.024204029 0.0092205815 0.037794024
0.026025468 0.0094638066 0.0270513
0.027267627 0.0094843917 0.022543639
0.028437326 0.0094791092 0.022296906
0.032132789 0.0095208259 0.019342363
0.0336271 0.0096077435 0.023863643
0.034374021 0.009482488 0.019165397
0.035994168 0.0095984451 0.01673016
0.038147587 0.0095368968 0.016091734
0.04009366 0.0097196754 0.016550183
0.04131449 0.0097210566 0.015356213
-0.072665215 0.010899782 0.016204894
-0.0696868 0.010630189 0.018767864
-0.069348983 0.010761048 0.021959931
-0.067234732 0.01061601 0.018708766
-0.0659969 0.010606644 0.020309061
-0.065255634 0.010678194 0.023118138
-0.06339246 0.010565409 0.020757675
-0.06125886 0.010402448 0.031207234
-0.060983736 0.010554877 0.027058184
-0.059317958 0.010467874 0.025010765
-0.058284827 0.010491268 0.026784807
-0.057133563 0.010493919 0.029842615
-0.055339314 0.010376122 0.025687307
-0.055898227 0.010703915 0.022328585
-0.055036601 0.01076803 0.016254634
-0.052587621 0.010756559 0.015900075
-0.051812831 0.010844545 0.015928596
-0.04976305 0.01066351 0.015132517
-0.045885976 0.010589072 0.022958487
-0.045340415 0.010738518 0.024226308
-0.043899216 0.010678187 0.017069161
-0.042387985 0.010596996 0.019185901
-0.041396026 0.010644692 0.024315596
-0.040162001 0.010631117 0.021915436
-0.039157275 0.010679256 0.019319773
-0.038075574 0.010708754 0.026907235
-0.036365375 0.010557689 0.02304703
-0.035284676 0.010585402 0.022467822
-0.034455072 0.010692953 0.024806648
-0.032792699 0.01054051 0.023765087
-0.032116309 0.010705436 0.020436138
-0.031121705 0.010772898 0.021023512
-0.029724127 0.010700685 0.018203795
-0.028983479 0.010868805 0.015504777
-0.027592331 0.010796999 0.016992033
-0.026111132 0.010681827 0.023836017
-0.024919931 0.01067997 0.025446326
-0.023786223 0.0107038 0.025279105
-0.022412235 0.010616321 0.018949449
-0.021418152 0.010709076 0.018927306
-0.020013032 0.010595134 0.024264634
-0.018029412 0.010817647 0.01693505
-0.015406443 0.010665999 0.021032363
-0.014039644 0.010529732 0.030539483
-0.012900092 0.01055462 0.022034883
-0.0116489 0.01048401 0.029495537
-0.01056581 0.01056581 0.032081336
-0.0094435271 0.010623967 0.025037408
-0.0083240578 0.010702359 0.025306791
-0.0070009767 0.010501465 0.026112407
-0.005827643 0.010489757 0.026869178
-0.0047224713 0.01062556 0.024309695
-0.0034824961 0.010447488 0.035282761
-0.0023059729 0.010376877 0.030796707
-0.0011635433 0.01047189 0.031138331
0 0.010390174 0.030797064
0.0011603124 0.010442811 0.028699994
0.0023385251 0.010523362 0.033649594
0.0034380576 0.010314172 0.028943062
0.0046754126 0.010519677 0.039548963
0.0057913745 0.010424473 0.033842474
0.0068912609 0.010336891 0.031768888
0.0080185719 0.010309593 0.041958511
0.0092002228 0.01035025 0.039421171
0.010372737 0.010372737 0.033275872
0.011729343 0.010556408 0.034907103
0.012810269 0.010481129 0.031541079
0.014030869 0.010523152 0.026444823
0.015286049 0.010582649 0.027076423
0.016615745 0.01068155 0.028097659
0.017633755 0.010580252 0.023903966
0.01892837 0.010647207 0.028092355
0.019741761 0.01045152 0.029307604
0.021194533 0.010597266 0.028281301
0.022224812 0.010527542 0.033709556
0.022885138 0.010298312 0.033461899
0.024705159 0.010587925 0.031436533
0.025813853 0.010560213 0.038030475
0.026622288 0.010417417 0.02529332
0.028933825 0.010850185 0.021881908
0.030045066 0.010816223 0.018349797
0.03424878 0.01062893 0.018921167
0.03588102 0.010764306 0.021130443
0.03658393 0.010621141 0.026572138
0.038205855 0.010745397 0.021900117
0.039554242 0.01078752 0.019100994
0.040938515 0.010836665 0.015452594
0.042762715 0.010996127 0.015740752
-0.070789278 0.011998182 0.017391831
-0.069876783 0.01204772 0.015564114
-0.067296177 0.011806347 0.017283469
-0.066993721 0.011963164 0.017627507
-0.064404882 0.011709978 0.021812409
-0.063457273 0.011751345 0.024646848
-0.062734954 0.011836783 0.024195701
-0.061297651 0.01178801 0.021882236
-0.059530359 0.011672619 0.028322935
-0.058874186 0.011774836 0.024363816
-0.056958266 0.011624136 0.02834034
-0.057270862 0.01193143 0.025516361
-0.056555089 0.012032997 0.015377253
-0.052760489 0.01199102 0.018007725
-0.050905462 0.01183848 0.015054941
-0.050065674 0.011920398 0.019569248
-0.047067687 0.011766922 0.018487394
-0.046200339 0.01184624 0.017594039
-0.045194775 0.011893361 0.016481638
-0.043869682 0.01185667 0.018767715
-0.042444505 0.011790141 0.023313165
-0.041170426 0.011762979 0.023949832
-0.040471461 0.01190337 0.024902463
-0.039365463 0.011928928 0.022744954
-0.03776028 0.011800088 0.017645448
-0.036888868 0.011899634 0.022535175
-0.03568561 0.011895202 0.023268878
-0.0337619 0.011642034 0.023491979
-0.033119366 0.011828344 0.02259621
-0.032339379 0.011977547 0.024862528
-0.030639084 0.011784263 0.020243615
-0.029757353 0.01190294 0.021560937
-0.028450206 0.011854253 0.019909203
-0.027382145 0.011905279 0.018086433
-0.026019873 0.011827215 0.026975214
-0.024706254 0.011764882 0.023789078
-0.023479195 0.011739598 0.023816496
-0.022636497 0.011913946 0.027813613
-0.021256851 0.011809361 0.024284899
-0.020148508 0.011852063 0.023727268
-0.019290745 0.012056715 0.018077493
-0.015462556 0.011894274 0.023005038
-0.013928408 0.011607006 0.027442485
-0.012856428 0.011687662 0.03083238
-0.011626881 0.011626881 0.032565057
-0.010454393 0.011615992 0.029763669
-0.0093722716 0.011715339 0.025937915
-0.008240371 0.011771959 0.024549544
-0.0069950758 0.01165846 0.024453014
-0.0058858106 0.011771621 0.030500293
-0.0046449015 0.011612253 0.029696524
-0.0034894214 0.011631404 0.036889851
-0.0023313155 0.011656578 0.031453192
-0.0011572567 0.011572566 0.032038659
0 0.01156285 0.036769003
0.0011544527 0.011544527 0.034257501
0.0022894999 0.011447499 0.035330027
0.0035075247 0.011691749 0.033964068
0.0046702581 0.011675646 0.03230536
0.0057099648 0.01141993 0.039155424
0.0069943443 0.011657241 0.031425685
0.0082267197 0.011752455 0.027572513
0.009283049 0.011603811 0.038687468
0.010497722 0.011664135 0.032688856
0.011541569 0.011541569 0.034173757
0.012881229 0.011710208 0.03010115
0.014133129 0.011777608 0.030952036
0.015278808 0.011752929 0.02653867
0.016555911 0.011825651 0.022369564
0.017819107 0.011879404 0.02789852
0.018775221 0.011734513 0.021805048
0.020063613 0.011802125 0.028648138
0.021465112 0.011925062 0.027427107
0.022117063 0.011640559 0.027277768
0.023647226 0.011823613 0.029052228
0.024965754 0.011888454 0.029851973
0.025338311 0.011517414 0.027340382
0.027135799 0.011798173 0.036245912
0.028098267 0.01170761 0.024825662
0.029658489 0.011863396 0.022777736
0.031083494 0.01195519 0.022165805
0.032194875 0.011924027 0.019048303
0.034035373 0.012155491 0.015299261
0.035882555 0.011960851 0.018916607
0.036736265 0.011850407 0.01971522
0.038895812 0.012154941 0.017718375
0.039371479 0.011930751 0.015260488
-0.068237737 0.013168686 0.016944438
-0.066215299 0.013006576 0.017602235
-0.065011829 0.013002365 0.016883612
-0.063857652 0.013008039 0.019474566
-0.062250532 0.012919921 0.021390408
-0.060608502 0.012821029 0.022606164
-0.06069522 0.013091125 0.019493431
-0.058528658 0.012876304 0.025088042
-0.057677928 0.012948107 0.026934862
-0.057490841 0.013174985 0.020019621
-0.056016531 0.013110251 0.015642613
-0.053693254 0.013125016 0.015166938
-0.052218575 0.013054644 0.015873909
-0.051329546 0.013130813 0.018181086
-0.048997357 0.013145631 0.016419977
-0.047506157 0.013064194 0.019214004
-0.046131089 0.013011333 0.018223822
-0.045309436 0.013115888 0.023276716
-0.044167746 0.013130951 0.01599887
-0.042022131 0.012840097 0.028216779
-0.041152872 0.01293376 0.023365349
-0.040373836 0.013062123 0.021208227
-0.03878757 0.01292919 0.024079859
-0.037804484 0.012995291 0.023671538
-0.036541715 0.012966414 0.028075963
-0.035048716 0.012851195 0.023656338
-0.034300938 0.0130107 0.023514777
-0.03321765 0.013049792 0.024005383
-0.031885721 0.012990478 0.023547292
-0.030864807 0.013058187 0.025740862
-0.029720429 0.013076988 0.023433208
-0.028706806 0.013157286 0.018885761
-0.027686866 0.013241544 0.021882445
-0.026063696 0.013031848 0.024855494
-0.024791559 0.012986054 0.02554056
-0.023964671 0.01318057 0.031412303
-0.022262529 0.012888832 0.021893859
-0.02124998 0.012986099 0.025671631
-0.020172035 0.013052493 0.02711165
-0.018829538 0.012945306 0.0263592
-0.015313445 0.01295753 0.021297783
-0.014083219 0.012909617 0.030292004
-0.012982259 0.012982259 0.025712281
-0.011518876 0.012670764 0.031539202
-0.010506906 0.012841774 0.026690513
-0.0094335722 0.012971161 0.028520048
-0.0080964919 0.012723058 0.028302044
-0.0070483717 0.012922015 0.025840998
-0.0058473325 0.012864132 0.028596699
-0.0046426468 0.012767279 0.03335157
-0.0035189975 0.012902991 0.031523734
-0.0022984925 0.012641708 0.037985176
-0.0011554132 0.012709545 0.032426685
0 0.012832282 0.03588888
0.0011417599 0.012559359 0.032402277
0.0023183629 0.012750995 0.03537643
0.003488461 0.012791024 0.035887867
0.004628994 0.012729733 0.032230109
0.0058656172 0.012904357 0.032107323
0.0070556849 0.012935422 0.031618625
0.0081523769 0.012810878 0.028033882
0.0094194328 0.012951721 0.032859057
0.010436706 0.012755974 0.031394839
0.011591387 0.012750526 0.033440322
0.012960811 0.012960811 0.031415284
0.013987445 0.012821825 0.034215569
0.0151503 0.012819485 0.031434923
0.016559945 0.013011385 0.02663219
0.017536536 0.012860126 0.028627604
0.019079 0.013116812 0.022656262
0.02040704 0.013204555 0.022093654
0.021174354 0.012939883 0.026913792
0.022456869 0.013001345 0.027641326
0.023645679 0.013005123 0.025081128
0.024498841 0.012832725 0.026441425
0.025880262 0.012940131 0.027168185
0.027272586 0.013043409 0.027797252
0.028337367 0.01298796 0.032611936
0.029773658 0.013100409 0.019272178
0.031095697 0.013155871 0.019342154
0.032409515 0.013203876 0.016468495
0.033672221 0.013228373 0.021816403
0.034912702 0.013242748 0.016560048
0.03602609 0.013209566 0.017383635
0.037169047 0.013189016 0.022752464
-0.06464573 0.014365718 0.015752494
-0.062697656 0.014195696 0.019141257
-0.0615188 0.014196645 0.023716688
-0.059904657 0.014095213 0.024328798
-0.058285635 0.013988552 0.026053905
-0.057934709 0.014188092 0.022262663
-0.057065591 0.014266398 0.01742816
-0.056851842 0.014515364 0.015810966
-0.055945054 0.014594361 0.015403807
-0.05352864 0.014274303 0.019042104
-0.052977245 0.01444834 0.019338101
-0.05160993 0.01440277 0.020070463
-0.049197711 0.014399329 0.01654011
-0.04733783 0.014201349 0.021468669
-0.046099417 0.014184436 0.017834306
-0.045193236 0.014271548 0.020289779
-0.043883916 0.014232621 0.023401827
-0.041844312 0.013948104 0.026053756
-0.041392196 0.01419161 0.024650842
-0.039689571 0.014008084 0.024874777
-0.038670551 0.014062019 0.02534157
-0.037924267 0.014221599 0.025176555
-0.035966441 0.013922493 0.023358494
-0.035219427 0.014087771 0.030947983
-0.034164511 0.014137037 0.027257711
-0.032847561 0.014077526 0.027578682
-0.031912997 0.014183553 0.026367188
-0.030764557 0.014199027 0.023817092
-0.029625537 0.014220257 0.02411288
-0.028852228 0.014426114 0.019492745
-0.027336409 0.014262474 0.021101981
-0.025986854 0.014174648 0.025340557
-0.02490993 0.014234245 0.030091405
-0.023475977 0.014085586 0.024178445
-0.022314142 0.014093142 0.028248131
-0.021211194 0.014140797 0.029834449
-0.020230632 0.014280446 0.021824181
-0.019120503 0.014340377 0.020705849
-0.017895229 0.014316183 0.017808735
-0.015538041 0.014342807 0.020638347
-0.014015683 0.014015683 0.029022694
-0.012760169 0.013920184 0.0333139
-0.011591164 0.013909398 0.031731933
-0.010539603 0.014052805 0.032221287
-0.0093622096 0.014043313 0.030370504
-0.0082627004 0.014164629 0.031785697
-0.0069805863 0.013961173 0.028301179
-0.0057704286 0.013849028 0.0342502
-0.0046930197 0.014079059 0.039419293
-0.003501192 0.014004768 0.029619992
-0.0023114921 0.013868953 0.034203708
-0.0011514905 0.013817886 0.038470387
0 0.013648249 0.035886288
0.001156854 0.013882248 0.032521814
0.0023051535 0.013830922 0.039347649
0.0034125149 0.01365006 0.037128568
0.0046564527 0.013969358 0.03315413
0.0058100414 0.0139441 0.031251818
0.0069399993 0.013879999 0.033103347
0.0082319872 0.014111978 0.032980114
0.0093305223 0.013995783 0.026909351
0.010533023 0.014044031 0.031197578
0.011810509 0.014172612 0.028929174
0.012790326 0.013953083 0.03316766
0.01403469 0.01403469 0.029242009
0.015293341 0.01411693 0.027387857
0.016427433 0.014080657 0.031137675
0.017621154 0.014096923 0.024557054
0.018935369 0.014201527 0.033056259
0.019956309 0.014086806 0.023894519
0.021480801 0.014320534 0.023843199
0.022672724 0.014319615 0.023377776
0.023631809 0.014179086 0.019698262
0.025092706 0.014338688 0.024175346
0.026298804 0.014344802 0.023733974
0.026985135 0.014079201 0.022659689
0.028466752 0.014233376 0.024822265
0.029430883 0.014126823 0.025913417
0.030729769 0.01418297 0.02135998
0.032842293 0.014596574 0.020553768
0.033914957 0.014534982 0.017096817
-0.063647054 0.015611542 0.016263992
-0.061652351 0.015413088 0.016873598
-0.060374867 0.015389672 0.021739483
-0.059517834 0.015474636 0.023584604
-0.058517147 0.015524958 0.02100271
-0.057961591 0.01569793 0.015054822
-0.054102276 0.015629545 0.019403994
-0.052655969 0.015557446 0.018464327
-0.048706722 0.015443594 0.019715637
-0.047339018 0.015385182 0.026269823
-0.046185747 0.015395248 0.025281459
-0.045088295 0.015424943 0.016453862
-0.043105878 0.015145308 0.028279036
-0.042120773 0.015210279 0.030834764
-0.040621899 0.015088134 0.02855882
-0.039622497 0.015149777 0.028030515
-0.039264843 0.015467968 0.029178202
-0.037141785 0.015088851 0.025782108
-0.036596544 0.015346938 0.026540607
-0.035324264 0.015307181 0.030580938
-0.033916838 0.0152041 0.024192065
-0.033127584 0.015380664 0.027916968
-0.031884249 0.015351675 0.029162169
-0.030452253 0.015226127 0.024861246
-0.029843723 0.015518736 0.024427325
-0.028521478 0.015449134 0.020878315
-0.027257316 0.015406309 0.021124691
-0.026033027 0.015383152 0.032981545
-0.024619151 0.015240426 0.026267052
-0.023572756 0.015322291 0.030774564
-0.022297369 0.015256095 0.033091575
-0.02099037 0.015159712 0.02815178
-0.020155564 0.015413078 0.026157707
-0.019228136 0.015622861 0.019876033
-0.017828975 0.015451779 0.017466336
-0.016803039 0.015602823 0.021828771
-0.01561047 0.01561047 0.017030805
-0.013766785 0.014914017 0.037134439
-0.012808762 0.015137629 0.032287836
-0.011638391 0.015129908 0.03172946
-0.010364405 0.014970807 0.035118908
-0.0093834139 0.015248047 0.036924362
-0.0080974121 0.015038051 0.034659326
-0.0069997855 0.015166203 0.026446462
-0.0058650426 0.015249111 0.030079305
-0.0046139183 0.014995235 0.036198586
-0.0034709356 0.015040721 0.033712983
-0.0023540934 0.015301608 0.030349433
-0.0011458548 0.014896112 0.034908295
0 0.015118785 0.033201993
0.0011707806 0.015220148 0.027643859
0.0022960759 0.014924494 0.037175059
0.0035073177 0.015198377 0.039027065
0.0046738838 0.015190122 0.035637915
0.0058117211 0.015110476 0.033443123
0.0070100226 0.015188383 0.033344507
0.0081648054 0.01516321 0.034829944
0.0093868254 0.015253591 0.028686464
0.010617743 0.015336741 0.033071697
0.01164753 0.015141789 0.031510085
0.012934076 0.015285727 0.027950317
0.014115469 0.015291758 0.030726045
0.015213755 0.015213755 0.029164344
0.016384371 0.015214059 0.027992487
0.01776229 0.015393985 0.027965605
0.018681545 0.015178756 0.023407936
0.020226985 0.015467694 0.026912749
0.021498853 0.01552695 0.022453219
0.022314718 0.015267964 0.022718519
0.023863701 0.015511407 0.024517417
0.025048578 0.015506262 0.022664189
0.026228482 0.015498648 0.018936992
0.027721914 0.015668908 0.020199865
0.028471839 0.015422245 0.025282651
0.029595861 0.015389848 0.023892045
0.031391483 0.015695741 0.02568835
0.032270059 0.015537435 0.022984356
0.033810187 0.015697587 0.015830964
0.035249468 0.015801486 0.015609354
0.03916353 0.015910184 0.015551895
0.039487325 0.015555613 0.018269777
0.041519895 0.015875254 0.016468555
-0.065727897 0.017040566 0.015315175
-0.063644983 0.016811883 0.017301738
-0.062288284 0.016769923 0.018757641
-0.061038852 0.016755763 0.022777379
-0.059001938 0.016520543 0.022977948
-0.058613058 0.016746588 0.018025041
-0.055245455 0.016813835 0.01789555
-0.054416604 0.01692961 0.015405655
-0.052763529 0.016788395 0.015434086
-0.051742338 0.016846342 0.015171647
-0.05053192 0.016843973 0.015442282
-0.048140951 0.016438372 0.025363833
-0.047429666 0.016600383 0.025006384
-0.045995023 0.016511034 0.025279373
-0.044282291 0.016314529 0.028779685
-0.043650094 0.016516251 0.026553363
-0.041776396 0.016246377 0.029618323
-0.040913839 0.016365536 0.027220875
-0.040114652 0.016517797 0.029558271
-0.038698386 0.016417498 0.028325528
-0.037463292 0.016390191 0.031149745
-0.036000196 0.016258152 0.030305237
-0.034628551 0.016159991 0.035439789
-0.034210108 0.016515225 0.028955102
-0.033232037 0.016616018 0.023537755
-0.031827401 0.016503096 0.02553606
-0.030555628 0.01645303 0.029675335
-0.029745428 0.016657438 0.026809365
-0.028686972 0.016734067 0.018516362
-0.027582457 0.016789321 0.029007554
-0.02593312 0.016502896 0.023486704
-0.024665644 0.016443763 0.028017431
-0.023609726 0.016526809 0.028240114
-0.022044528 0.016243337 0.03508532
-0.020916281 0.016268218 0.033092618
-0.020358803 0.016766071 0.026301652
-0.018832928 0.016478812 0.023600847
-0.017961748 0.016764298 0.024723619
-0.01686557 0.01686557 0.020706356
-0.015656663 0.016861023 0.015543282
-0.014131822 0.016487125 0.033111155
-0.012802994 0.01629472 0.04108128
-0.011483894 0.016077451 0.030581504
-0.010427685 0.016220843 0.038137704
-0.009330471 0.016328324 0.029707581
-0.0081901336 0.016380267 0.033657163
-0.007070485 0.016497798 0.029710174
-0.005823114 0.016304718 0.030369252
-0.0046391226 0.016236929 0.029955775
-0.0035317016 0.016481275 0.026812106
-0.0023537732 0.016476411 0.028494418
-0.0011581896 0.016214654 0.030639678
0 0.016309403 0.03800115
0.001153802 0.016153229 0.026130289
0.0023406106 0.016384276 0.03471002
0.0035093988 0.016377194 0.03417322
0.0046249856 0.01618745 0.037463009
0.0058590644 0.016405381 0.034390897
0.007029905 0.016403113 0.038362443
0.0081180548 0.01623611 0.033291578
0.0093226731 0.016314678 0.031974018
0.010549408 0.016410191 0.033824414
0.011609997 0.016253995 0.031117588
0.013092464 0.016663136 0.027996659
0.01418591 0.01655023 0.029310316
0.015351828 0.016532738 0.026555091
0.016614903 0.016614903 0.02587077
0.017674018 0.016495749 0.030983686
0.019101817 0.01671409 0.024428964
0.020245984 0.016673164 0.02491349
0.021260357 0.016535833 0.02135554
0.022468973 0.016556086 0.023568749
0.023937164 0.016756015 0.022665143
0.024601746 0.016401164 0.02336815
0.02635077 0.016768672 0.023486733
0.027648222 0.016829353 0.022729039
0.028338058 0.016530534 0.023139358
0.029841218 0.016711082 0.024206281
0.030791206 0.016579881 0.021891654
0.032091696 0.01664014 0.025827914
0.033865225 0.016932612 0.017823577
0.034897517 0.016847078 0.016799301
0.036028638 0.016813366 0.019834608
0.037885524 0.01710959 0.015286356
0.038287476 0.01675077 0.021722227
0.039790656 0.016880885 0.021572053
0.040810376 0.016804272 0.025526524
-0.063908249 0.018087242 0.016551107
-0.062930018 0.018152891 0.01742661
-0.060604934 0.017824979 0.019511342
-0.060094077 0.018028224 0.016978025
-0.057068054 0.018213209 0.015298694
-0.055452146 0.01808222 0.019661576
-0.053496208 0.017832069 0.017923176
-0.05294802 0.018050462 0.019842058
-0.052250914 0.018227063 0.016721219
-0.049870737 0.017810976 0.017234683
-0.049083512 0.017957382 0.023106694
-0.047534544 0.017825454 0.021536052
-0.046452109 0.017866196 0.020182878
-0.045041297 0.01777946 0.026423544
-0.043087184 0.017467778 0.028079987
-0.042213969 0.017589154 0.026678383
-0.041381814 0.017735064 0.030156344
-0.040164717 0.017719727 0.023387074
-0.038282085 0.017400948 0.030484825
-0.037504632 0.017580297 0.029179007
-0.035759661 0.017303063 0.032197982
-0.035285313 0.017642656 0.031499267
-0.034381513 0.017783539 0.025208861
-0.032670803 0.017502217 0.02618584
-0.032106865 0.017837146 0.02806282
-0.030492799 0.017592 0.032421052
-0.029532937 0.017719762 0.024252743
-0.029136913 0.018210571 0.02493766
-0.027469436 0.017914848 0.020780355
-0.025800943 0.017591553 0.027500123
-0.024734976 0.017667839 0.032323062
-0.023308178 0.017481135 0.030988306
-0.022010157 0.01737644 0.03150332
-0.02104697 0.017539142 0.033600926
-0.020040276 0.017682595 0.027589858
-0.019220885 0.018019579 0.022697657
-0.017736357 0.017736357 0.028009415
-0.016592938 0.017778149 0.021069854
-0.015847633 0.018285731 0.019195855
-0.014208014 0.017760018 0.026311129
-0.012548572 0.017111691 0.043221623
-0.01164245 0.017463675 0.03167516
-0.010457443 0.017429072 0.036501706
-0.0093471715 0.017525947 0.030923307
-0.0082273483 0.017630033 0.03058359
-0.0070029492 0.017507372 0.029488146
-0.0058085728 0.01742572 0.032608688
-0.0047108438 0.017665664 0.026516616
-0.0034962858 0.017481428 0.031781644
-0.0023446642 0.017584981 0.029271752
-0.0011728305 0.017592456 0.031538725
0 0.01740423 0.031026959
0.0011671637 0.017507456 0.024056166
0.0023462484 0.017596863 0.033512622
0.0034816621 0.017408311 0.02890569
0.0046759918 0.017534969 0.032877684
0.0058387322 0.017516198 0.031877518
0.0069832089 0.017458024 0.031754583
0.0082222307 0.017619066 0.033239841
0.0093481457 0.017527774 0.03162998
0.010528168 0.017546946 0.028753012
0.011926307 0.017889462 0.029189885
0.012803846 0.017459789 0.032696366
0.014190474 0.017738093 0.031914443
0.01548899 0.017871911 0.026528358
0.016773676 0.017971797 0.027305543
0.017684296 0.017684296 0.026962101
0.018870192 0.017690806 0.028688639
0.019841569 0.017507266 0.027419448
0.021455659 0.017879717 0.026832044
0.022738701 0.017951606 0.023347527
0.0237999 0.017849926 0.019717634
0.025488896 0.018206354 0.019690722
0.02649161 0.018062463 0.02019918
0.027525401 0.017951349 0.022118658
0.028634755 0.017896721 0.026908338
0.029557263 0.017734358 0.02303645
0.030869059 0.017809073 0.027264804
0.031913172 0.017729539 0.027576447
0.033278402 0.017827716 0.024751335
0.034786873 0.017993208 0.023628742
0.035828531 0.017914265 0.027464569
0.03657889 0.017699461 0.030083805
0.03823933 0.017924687 0.023396671
0.039544597 0.017974818 0.024485022
0.040936757 0.018060334 0.015907109
-0.065265886 0.01970291 0.015462399
-0.061933823 0.019430218 0.019436985
-0.054011486 0.019204084 0.033469528
-0.053379979 0.019410903 0.015382826
-0.05023244 0.019136168 0.023462087
-0.049270157 0.019227378 0.022571146
-0.047350548 0.01894022 0.021388501
-0.046400357 0.019036045 0.023406982
-0.044596754 0.018777581 0.02906552
-0.042876538 0.018541206 0.029411972
-0.042830333 0.019035704 0.026967108
-0.041356597 0.018905872 0.020952046
-0.040082429 0.018862318 0.030839801
-0.038434703 0.018635008 0.033736557
-0.036745019 0.01837251 0.034302086
-0.036313619 0.018742513 0.031660348
-0.035424087 0.018892847 0.031787843
-0.034113862 0.018821441 0.028342038
-0.033099916 0.018914239 0.027569056
-0.031796847 0.018842576 0.026674092
-0.030287523 0.018638477 0.031955838
-0.029498169 0.018878827 0.031644732
-0.028547335 0.019031558 0.018658876
-0.027380049 0.01904699 0.022238195
-0.02601929 0.018923121 0.031025857
-0.024634205 0.018768918 0.029496789
-0.023498219 0.018798575 0.029768348
-0.022121351 0.018628506 0.03364253
-0.02110629 0.018761147 0.032136917
-0.020070419 0.018889805 0.025201052
-0.019146949 0.019146949 0.026859462
-0.017652448 0.018829279 0.027227372
-0.016883729 0.019295691 0.01977697
-0.014143063 0.018857418 0.021996886
-0.012702787 0.018476782 0.042413473
-0.011742431 0.018787891 0.034278959
-0.010247019 0.018216923 0.036376357
-0.0093360348 0.01867207 0.032211721
-0.008160457 0.018652473 0.031945169
-0.0070377267 0.018767271 0.031459123
-0.0058808136 0.018818604 0.032727361
-0.0046499516 0.018599806 0.03160727
-0.0035127627 0.018734735 0.02724573
-0.0023543073 0.018834459 0.031072319
-0.0011574245 0.018518792 0.03545934
0 0.018757682 0.033168644
0.0011731436 0.018770298 0.025637984
0.0023126339 0.018501071 0.031364799
0.0035166009 0.018755205 0.034751743
0.0047315895 0.018926358 0.033264458
0.0058305529 0.01865777 0.034286946
0.0069916714 0.018644458 0.03404209
0.0081894537 0.018718751 0.03552714
0.0093857413 0.018771483 0.030359894
0.010725601 0.019067734 0.027337074
0.011741822 0.018786915 0.031891376
0.013033739 0.018958166 0.029258221
0.014200064 0.018933419 0.029475391
0.015337873 0.018877383 0.027841091
0.016583664 0.018952759 0.026304334
0.017955652 0.019152695 0.026253223
0.018881032 0.018881032 0.02625072
0.02034051 0.019144008 0.025420159
0.021657364 0.019250993 0.020572513
0.022600062 0.019031633 0.024635494
0.023876714 0.01910137 0.024340391
0.025251338 0.019239115 0.020881444
0.026181232 0.019040897 0.022119671
0.027668245 0.019247474 0.02355206
0.028877212 0.019251475 0.020045519
0.029476887 0.018865207 0.024493635
0.031122169 0.019152105 0.030083239
0.031752534 0.018816315 0.028765231
0.032876983 0.018786848 0.032188237
0.034265418 0.018905057 0.029824793
0.035300147 0.018826744 0.032346785
0.03640401 0.018789165 0.025731564
0.038750671 0.019375335 0.021936834
-0.062821336 0.020940447 0.018492252
-0.05391337 0.020367272 0.02453056
-0.052178089 0.020628547 0.01846242
-0.050369825 0.020387787 0.022296458
-0.048497353 0.020108659 0.020047724
-0.047731254 0.020285783 0.025969088
-0.045960519 0.020034073 0.025660187
-0.043976873 0.019673863 0.035054564
-0.043482665 0.019978521 0.032927394
-0.042570394 0.020102685 0.027692437
-0.041592397 0.020202022 0.029422134
-0.040282652 0.020141326 0.029428422
-0.038422763 0.019793544 0.038833171
-0.037526339 0.019935867 0.035440236
-0.036581043 0.020060573 0.029348969
-0.035152555 0.019919781 0.031857461
-0.034140326 0.020013293 0.032276481
-0.033280302 0.020205896 0.028684497
-0.031709891 0.019965487 0.034743279
-0.030518349 0.019954305 0.033362955
-0.02972923 0.020215876 0.028431088
-0.02870349 0.02033164 0.021551579
-0.027673801 0.020454548 0.028707206
-0.025947031 0.020049978 0.027810961
-0.02455119 0.019874772 0.033849716
-0.023627229 0.020083144 0.035362959
-0.022190763 0.019854894 0.028965622
-0.020983621 0.019817866 0.036977977
-0.020084912 0.020084912 0.030505955
-0.018672615 0.019839654 0.028512478
-0.01781683 0.020192409 0.028636962
-0.016847899 0.020458164 0.027275771
-0.014338903 0.020313447 0.026354611
-0.012935266 0.019990865 0.034516752
-0.011512842 0.019571831 0.033276647
-0.010510172 0.019852547 0.034789056
-0.0092907315 0.019742806 0.035058916
-0.0081446934 0.019779971 0.036595494
-0.0070307897 0.019920571 0.033137053
-0.0058497502 0.019889152 0.03396669
-0.0046589756 0.019800648 0.030142039
-0.0035474903 0.020102445 0.030337572
-0.0023292096 0.019798283 0.032969803
-0.001161387 0.019743579 0.030776978
0 0.019966304 0.033579409
0.0011637629 0.019783968 0.024879903
0.0023651524 0.020103795 0.03165397
0.0035089287 0.019883931 0.031141728
0.004638995 0.019715728 0.032310665
0.0058802082 0.019992709 0.034210384
0.0070348098 0.019931961 0.036718845
0.0080892649 0.019645358 0.032599688
0.0094627375 0.020108318 0.030259311
0.010590201 0.020003714 0.031646341
0.011899567 0.020229265 0.025310725
0.013048475 0.020165825 0.030716777
0.014361556 0.020345537 0.031420916
0.015452655 0.020207318 0.027010202
0.016753286 0.020343278 0.026058078
0.017676203 0.02003303 0.027346373
0.01893753 0.020121126 0.029705524
0.020428438 0.020428438 0.026001871
0.021283777 0.020101348 0.021130294
0.022654396 0.020269722 0.03234902
0.023920501 0.020332426 0.02175805
0.024722386 0.02001336 0.021487623
0.026495706 0.020473955 0.02362588
0.0289516 0.020507384 0.018292099
0.030095564 0.020464983 0.020575434
0.031087367 0.020326355 0.023757726
0.031924881 0.020100851 0.023826748
0.033528738 0.020356733 0.025524318
0.034327105 0.020122785 0.028485
0.035163488 0.019925976 0.029378861
0.037968744 0.020821568 0.024465621
-0.055891775 0.021870693 0.017815888
-0.053962037 0.021584813 0.018789411
-0.053664517 0.021953667 0.019206315
-0.052091725 0.021805838 0.017418683
-0.049878404 0.021376457 0.022390962
-0.049401432 0.021688432 0.024626672
-0.047978241 0.021590209 0.020147502
-0.046298396 0.021368489 0.025875658
-0.045370866 0.021491462 0.027822286
-0.043437563 0.021131786 0.030667454
-0.04276672 0.02138336 0.026136339
-0.041785412 0.021489641 0.024782777
-0.039743803 0.021040836 0.031998664
-0.038618933 0.021064872 0.032369554
-0.037800126 0.021262569 0.028441429
-0.036328558 0.021094 0.030098885
-0.035744634 0.021446779 0.029764444
-0.034339234 0.021314006 0.027922958
-0.032711808 0.021029018 0.038136482
-0.031758957 0.021172637 0.034472108
-0.030701524 0.021254901 0.033018917
-0.02916212 0.020996725 0.028963
-0.02882003 0.021615023 0.023057222
-0.027322508 0.021382831 0.024666041
-0.025799692 0.021108838 0.030654401
-0.024717139 0.021186117 0.035038292
-0.023408072 0.021067265 0.032730907
-0.022279674 0.021107059 0.03190738
-0.021186164 0.021186164 0.032105744
-0.019863388 0.021031821 0.033910722
-0.018855611 0.021212561 0.034498483
-0.017782018 0.021338422 0.035767943
-0.016577594 0.021314049 0.020259768
-0.015904479 0.022021586 0.016340673
-0.014400905 0.021601357 0.024500787
-0.012802574 0.020949665 0.032540113
-0.01176978 0.021185603 0.037048519
-0.010530399 0.021060798 0.03510198
-0.0093457485 0.021027934 0.034957618
-0.0082239555 0.021147314 0.031061351
-0.0070504867 0.021151461 0.028285265
-0.0058113481 0.020920852 0.030868798
-0.0047011049 0.021154972 0.030236185
-0.0035096423 0.021057853 0.031918019
-0.0023511278 0.02116015 0.028190613
-0.0011749658 0.021149384 0.031504631
0 0.021052962 0.030237675
0.0011789252 0.021220652 0.02534014
0.0023680618 0.021312555 0.034915447
0.0035224338 0.021134602 0.031723112
0.0047235205 0.021255841 0.032965034
0.0058628162 0.021106139 0.035205513
0.0069806874 0.020942062 0.035691559
0.008276822 0.021283254 0.033107758
0.009336492 0.021007106 0.032813877
0.010559997 0.021119993 0.033421189
0.011913492 0.021444285 0.031446159
0.01305174 0.021357391 0.02881366
0.014199249 0.021298872 0.027934819
0.015421686 0.021353103 0.028760582
0.016622765 0.021372125 0.025738686
0.017799366 0.021359239 0.027611196
0.019075701 0.021460162 0.028509349
0.02018515 0.021372512 0.024538368
0.021842275 0.021842275 0.022271991
0.022820713 0.021619622 0.023315996
0.023847323 0.021462591 0.027085155
0.025336698 0.021717168 0.021971911
0.026559727 0.021730686 0.02233392
0.027207814 0.02129307 0.024982274
0.028938236 0.021703677 0.022424847
0.029981339 0.021586563 0.019381642
0.030971779 0.021442 0.020861745
0.032658201 0.021772131 0.021320164
0.033475753 0.021520127 0.022118688
0.034980565 0.021712072 0.01688984
0.0363952 0.021837119 0.021406084
-0.057609953 0.023289131 0.017397404
-0.055127066 0.023275873 0.016027272
-0.054113921 0.023367375 0.015644222
-0.051169161 0.022609631 0.022140294
-0.050541818 0.022864155 0.023478746
-0.049726192 0.023043845 0.01793468
-0.047230955 0.022434704 0.027126938
-0.046855785 0.022827176 0.026284873
-0.044782739 0.02239137 0.030147523
-0.043827534 0.02250603 0.029766351
-0.043187674 0.022793496 0.027928919
-0.041672323 0.022622118 0.024852753
-0.040504776 0.022635022 0.025052249
-0.039089255 0.022505935 0.03256008
-0.037556823 0.022299364 0.029021025
-0.037090562 0.022732925 0.028565139
-0.035800662 0.022673754 0.025387943
-0.033901919 0.022211602 0.036959022
-0.032975148 0.022375993 0.032177716
-0.032049008 0.022553004 0.033325702
-0.030479921 0.022273788 0.026353747
-0.029500702 0.022420533 0.029397398
-0.028298719 0.022403155 0.029158652
-0.027627051 0.022822347 0.020674318
-0.026120506 0.02255862 0.028218269
-0.024605725 0.022262324 0.032820284
-0.023500275 0.022325262 0.034260094
-0.022466684 0.022466684 0.033777535
-0.021012871 0.022180254 0.032467127
-0.020044204 0.022402346 0.02933076
-0.018868044 0.022405803 0.031183869
-0.01766311 0.022373272 0.026999384
-0.016739303 0.022717625 0.026563525
-0.015682645 0.022920789 0.019431233
-0.014258247 0.022575559 0.022014081
-0.012953795 0.022374738 0.029151261
-0.011753201 0.022331083 0.032051414
-0.010520965 0.022210928 0.030153513
-0.0094679212 0.022486312 0.034174144
-0.0082178917 0.022305707 0.029109061
-0.007051866 0.02233091 0.034030974
-0.0058855875 0.022365233 0.031498611
-0.0046579302 0.02212517 0.03296119
-0.0035123436 0.022244845 0.032084882
-0.0023915421 0.02271965 0.031208307
-0.0011700186 0.022230353 0.030623913
0 0.022547504 0.028090268
0.0011779973 0.02238195 0.023266375
0.0023233271 0.022071607 0.033157319
0.0035591188 0.022541087 0.03135398
0.0047346693 0.022489678 0.033935666
0.0058158543 0.022100247 0.031985849
0.0070993681 0.022481333 0.034566849
0.0083091166 0.022553317 0.034370601
0.0092774415 0.022033924 0.033102423
0.010628378 0.022437688 0.035073549
0.011694141 0.022218868 0.031588703
0.013091088 0.022611881 0.026204467
0.014481797 0.022929512 0.026470482
0.015508543 0.022666331 0.025494426
0.016701806 0.022666737 0.026417494
0.017961649 0.022751423 0.027340174
0.018913811 0.02246015 0.023759097
0.020400068 0.022800077 0.025898665
0.021752143 0.022960598 0.027453452
0.022650477 0.022650477 0.023556679
0.024027072 0.02282572 0.026571035
