ply
format ascii 1.0
comment PCL generated
element vertex 1284
property float x
property float y
property float z
element camera 0
property float view_px
property float view_py
property float view_pz
property float x_axisx
property float x_axisy
property float x_axisz
property float y_axisx
property float y_axisy
property float y_axisz
property float z_axisx
property float z_axisy
property float z_axisz
property float focal
property float scalex
property float scaley
property float centerx
property float centery
property int viewportx
property int viewporty
property float k1
property float k2
end_header
-0.001101739 -0.031950433 0.031162024
0 -0.031678926 0.038800597
0.0010880554 -0.031553607 0.038703203
0.0021808341 -0.031622097 0.030529231
0.0032514965 -0.031431135 0.044053882
0.0043821819 -0.031770822 0.035101235
0.0054371343 -0.03153538 0.033105642
0.0066297818 -0.032043945 0.028215438
0.0077765719 -0.032217227 0.031011432
0.0087664612 -0.031778425 0.033709675
0.0098891081 -0.031864904 0.036577702
0.010988466 -0.03186655 0.031881988
0.011961471 -0.031534791 0.040780038
0.013437481 -0.032473914 0.02708748
0.014417067 -0.032161154 0.029759884
0.015548595 -0.032207806 0.029149592
0.016623981 -0.0321397 0.031820983
0.017401909 -0.03154096 0.02851215
0.018757233 -0.031997636 0.02668643
0.020038884 -0.032284871 0.028020144
0.020955821 -0.031985201 0.026291698
0.022246815 -0.032257885 0.03027305
0.022983776 -0.031739503 0.034399062
0.02396014 -0.031583823 0.03424871
0.025318058 -0.031922769 0.035336822
0.026400426 -0.031900518 0.035453081
0.02727017 -0.031633399 0.02932936
0.029181743 -0.032548867 0.030829787
0.030151699 -0.032385159 0.028543204
0.031050766 -0.032159723 0.028028756
0.032097764 -0.032097764 0.032124281
0.03321854 -0.032111257 0.025204718
0.034888897 -0.032638002 0.019670039
0.036162533 -0.032772299 0.021969914
-0.040963374 -0.031860404 0.019968212
-0.039658196 -0.031726558 0.020166427
-0.038397308 -0.031621311 0.021989048
-0.036763553 -0.031193318 0.029292464
-0.036093228 -0.031581577 0.022968143
-0.035359412 -0.031937532 0.017344683
-0.033646569 -0.031403463 0.019822776
-0.033171371 -0.032027528 0.016817242
-0.032233659 -0.032233659 0.017985225
-0.030325796 -0.031448975 0.024348557
-0.029452028 -0.031717569 0.017966986
-0.028146157 -0.031523693 0.023506463
-0.026591616 -0.031023551 0.027177393
-0.026316995 -0.032038078 0.021861702
-0.024735348 -0.031481352 0.020577163
-0.023700908 -0.031601209 0.020385534
-0.02253142 -0.031543989 0.027629673
-0.02107266 -0.031054446 0.027341366
-0.020285249 -0.031554833 0.022458971
-0.019328773 -0.031835627 0.01961723
-0.017963178 -0.03143556 0.018914253
-0.017054541 -0.031835143 0.021712154
-0.015992194 -0.031984389 0.020157874
-0.012660525 -0.03222679 0.016003609
-0.011217225 -0.031408232 0.017269433
-0.0100452 -0.031251732 0.027170539
-0.0089879204 -0.031457722 0.023498803
-0.0078213736 -0.031285495 0.024229705
-0.0067681656 -0.031584773 0.024619937
-0.0055861995 -0.031282719 0.025253326
-0.0044518113 -0.031162677 0.025181025
-0.0032962319 -0.030764831 0.034110695
-0.0022235557 -0.031129777 0.02498734
-0.0011029075 -0.030881409 0.028515488
0 -0.030685645 0.039561749
0.0010670807 -0.029878257 0.039877892
0.0022026314 -0.030836839 0.035108805
0.0032790792 -0.030604741 0.043185771
0.0043508438 -0.030455906 0.031555325
0.0054140734 -0.030318812 0.043889165
0.0066966414 -0.031250995 0.027709574
0.0076515102 -0.030606041 0.029654622
0.0087480675 -0.030618235 0.042959481
0.009784136 -0.030439535 0.035392284
0.01077272 -0.030163618 0.039354861
0.011936167 -0.030382972 0.043608546
0.013180855 -0.030755328 0.029548556
0.014101116 -0.030371634 0.040246159
0.015604113 -0.031208226 0.028133482
0.016698953 -0.031171378 0.024727076
0.017978737 -0.031462789 0.028590143
0.018622113 -0.030671718 0.032841265
0.019523976 -0.030370632 0.031889766
0.021189256 -0.031226272 0.028726697
0.022688158 -0.031763423 0.025126725
0.022995492 -0.030660655 0.032461315
0.024294408 -0.030920157 0.032869995
0.025184255 -0.030659091 0.034978718
0.02625208 -0.030627426 0.028561771
0.027569422 -0.030877752 0.033608437
0.028471977 -0.030662129 0.033287495
0.029699847 -0.03079984 0.030733079
0.031339977 -0.031339977 0.031407475
0.031876463 -0.030777274 0.030989349
0.033097014 -0.030890545 0.028047919
0.03542709 -0.03199866 0.020425498
0.035586815 -0.031138463 0.017850667
-0.039650079 -0.030587206 0.021575958
-0.038067874 -0.030230371 0.024854034
-0.036761794 -0.030077834 0.024931937
-0.036295369 -0.030624218 0.02209878
-0.035057049 -0.03053356 0.016571254
-0.034569588 -0.03111263 0.018612832
-0.033404011 -0.031100288 0.015800714
-0.031089766 -0.031089766 0.015369177
-0.027276792 -0.030686393 0.02550599
-0.025934525 -0.030444875 0.022278458
-0.025100399 -0.030805036 0.017300397
-0.02398053 -0.030832112 0.017934561
-0.022660434 -0.030591588 0.016721576
-0.021595832 -0.030688815 0.018255025
-0.020499848 -0.030749774 0.021514714
-0.019164678 -0.030438017 0.018502206
-0.018188974 -0.030693896 0.022029847
-0.017000003 -0.030600008 0.020086527
-0.015765104 -0.030404132 0.02055043
-0.014880556 -0.03090577 0.019846827
-0.011399774 -0.030779392 0.019924015
-0.010138333 -0.030415 0.026493996
-0.0080164485 -0.030920587 0.01525563
-0.0068087419 -0.030639341 0.019173712
-0.0055968883 -0.030223198 0.02311635
-0.0044608461 -0.030110711 0.032680124
-0.0033093884 -0.029784497 0.033678532
-0.0022556926 -0.030451851 0.021803766
-0.0011172104 -0.03016468 0.029226094
0 -0.029704845 0.033533424
0.0010955523 -0.029579915 0.037378252
0.0021953429 -0.02963713 0.037377894
0.0032947881 -0.029653095 0.032632142
0.0044153421 -0.029803559 0.037157506
0.0054782652 -0.029582635 0.03946808
0.006565664 -0.02954549 0.033991992
0.007786944 -0.030035358 0.033041745
0.0087373992 -0.029488724 0.035448819
0.0097682923 -0.029304879 0.036079526
0.011001415 -0.02970382 0.030287504
0.011962291 -0.029361987 0.035904765
0.013450185 -0.030262917 0.029675245
0.014510618 -0.030137436 0.032105148
0.015575286 -0.030038053 0.029329956
0.016568664 -0.029823598 0.028743714
0.017997369 -0.03037056 0.020011693
0.018775122 -0.029819313 0.031193584
0.019978026 -0.029967042 0.03384003
0.020885747 -0.029679745 0.042392433
0.021883901 -0.029543268 0.033273041
0.023405131 -0.03009231 0.02733925
0.024505697 -0.030075174 0.028331846
0.024953859 -0.029293662 0.029153913
0.026881816 -0.030242043 0.040129364
0.027622696 -0.029832512 0.027809441
0.028539965 -0.029637657 0.032491803
0.030104792 -0.030104792 0.032243699
0.030816833 -0.029716233 0.029640675
0.031815022 -0.029620882 0.032645106
0.033894356 -0.030504923 0.023296356
0.035190552 -0.030649835 0.019458473
0.03661751 -0.030896027 0.015549213
0.037616163 -0.030776862 0.017219543
0.038488332 -0.030564265 0.01685223
0.039862204 -0.030750845 0.016145587
0.041535299 -0.031151477 0.015439212
-0.039480481 -0.029328357 0.019906461
-0.037849415 -0.028943669 0.028350353
-0.037698369 -0.029701747 0.023577631
-0.035497222 -0.029771864 0.019461662
-0.034511544 -0.029910006 0.019683778
-0.032851581 -0.02945314 0.021022528
-0.031288292 -0.030129464 0.017460108
-0.025849367 -0.029221023 0.025562465
-0.025124574 -0.029692678 0.023646176
-0.023997234 -0.029710859 0.021194458
-0.022925479 -0.029803123 0.018328726
-0.021675602 -0.029661348 0.01662913
-0.020439761 -0.029524101 0.021469593
-0.019236043 -0.029419828 0.021471947
-0.01821629 -0.02960147 0.018969208
-0.016868729 -0.029239129 0.0203574
-0.015920943 -0.029567463 0.020724088
-0.0099845165 -0.028844161 0.022751123
-0.0090211146 -0.029318621 0.032583296
-0.0079223756 -0.029425967 0.020976931
-0.0067689796 -0.029332245 0.024895877
-0.0056349249 -0.02930161 0.028863668
-0.0044260486 -0.028769316 0.033269614
-0.003347354 -0.029010402 0.027185798
-0.0022418266 -0.029143745 0.028987229
-0.001108024 -0.028808625 0.029011875
0 -0.028781824 0.03519401
0.001100479 -0.028612455 0.0341717
0.002181832 -0.028363816 0.032175601
0.0032914979 -0.028526315 0.038697749
0.0044146101 -0.028694965 0.037650347
0.0054429672 -0.028303429 0.035726666
0.006658372 -0.028852945 0.034581661
0.0077013518 -0.02860502 0.035018325
0.0088707292 -0.028829871 0.033240288
0.010028863 -0.028972272 0.033165514
0.011067705 -0.028776035 0.027080715
0.01208871 -0.028573312 0.039292514
0.013437074 -0.02911366 0.028050184
0.014249737 -0.028499475 0.031964511
0.015569338 -0.028914483 0.029115885
0.017052054 -0.029556895 0.018606216
0.017764919 -0.028867994 0.020817518
0.019414833 -0.029693274 0.016827375
0.020685945 -0.029879699 0.023414731
0.020740213 -0.028381344 0.028128505
0.022490356 -0.029237462 0.030215651
0.023512337 -0.029110514 0.030357629
0.024207648 -0.028609039 0.029405773
0.026010042 -0.029402656 0.030519456
0.026689438 -0.028913558 0.026579142
0.027513366 -0.028613901 0.03408125
0.028977217 -0.028977217 0.028611094
0.029890088 -0.028783046 0.032127529
0.031010542 -0.028795503 0.031369388
0.032925501 -0.029519415 0.023814201
0.03387443 -0.029357839 0.019975036
0.034870967 -0.029246617 0.018830746
0.036398366 -0.029573672 0.020792276
0.036573704 -0.028815646 0.024475098
0.0390306 -0.029846929 0.019595474
-0.039745577 -0.028389698 0.018672854
-0.038671825 -0.028435165 0.029519111
-0.035910994 -0.028960478 0.015193164
-0.034023605 -0.028353006 0.020852089
-0.033724573 -0.029072907 0.020734489
-0.032547005 -0.029059825 0.015614331
-0.030862069 -0.028575988 0.015131235
-0.030028649 -0.028873703 0.017951548
-0.026661159 -0.028979521 0.017327875
-0.024957435 -0.028360724 0.02029562
-0.023740679 -0.028262714 0.024455249
-0.023068909 -0.028836137 0.025941432
-0.021660555 -0.028500732 0.024412662
-0.020441903 -0.028391534 0.022640288
-0.019495431 -0.028669752 0.024612725
-0.018122857 -0.028316965 0.019628972
-0.017266391 -0.02877732 0.019776791
-0.01608099 -0.028716054 0.02423057
-0.011345056 -0.028362641 0.01978451
-0.010146541 -0.028184837 0.022170663
-0.0089928526 -0.028102664 0.025603473
-0.0078375945 -0.027991408 0.023560226
-0.0067930552 -0.028304398 0.023828864
-0.005588355 -0.027941776 0.02967149
-0.0044615595 -0.027884748 0.02541256
-0.0033840337 -0.028200282 0.029672951
-0.0022247774 -0.027809719 0.028991878
-0.0011110604 -0.02777651 0.029965818
0 -0.027948514 0.032789707
0.0010935945 -0.027339863 0.034688294
0.0022173531 -0.027716914 0.03578338
0.00331831 -0.027652586 0.038144022
0.0043897522 -0.027435951 0.036147177
0.0055980915 -0.027990459 0.030474752
0.0066338717 -0.027641134 0.034173369
0.0077375006 -0.027633931 0.032078832
0.0089397961 -0.027936865 0.031906962
0.0098705627 -0.027418233 0.033827871
0.011109614 -0.027774036 0.02856949
0.012288702 -0.027928868 0.028372943
0.013265476 -0.027636409 0.030244499
0.014434654 -0.02775895 0.029658228
0.015867269 -0.028334409 0.035324126
0.016771972 -0.027953288 0.032353193
0.017982755 -0.028098054 0.025904417
0.019342454 -0.028444786 0.021426678
0.020175984 -0.028022202 0.025971889
0.021473447 -0.028254537 0.023245543
0.022847664 -0.028559582 0.027278602
0.023494365 -0.027969481 0.023604423
0.024526974 -0.027871562 0.038330823
0.025790572 -0.028033232 0.02653861
0.026926933 -0.02804889 0.025659978
0.02795352 -0.02795352 0.029154599
0.028906008 -0.02779424 0.029198587
0.029771855 -0.027566532 0.029339552
0.031420004 -0.028053574 0.030160189
0.032406148 -0.027936332 0.021535724
0.03353386 -0.027944885 0.026313931
0.034929138 -0.02816866 0.028687447
0.035249066 -0.027538333 0.027322978
0.037360054 -0.028303072 0.022441089
0.038768727 -0.028506417 0.022096872
0.041577008 -0.028872922 0.016268492
-0.037632793 -0.028224593 0.016114771
-0.035156421 -0.027217872 0.016287833
-0.034425721 -0.027540578 0.020466775
-0.033676874 -0.027870515 0.016536713
-0.031747796 -0.027212396 0.021348506
-0.031314384 -0.027835008 0.01642099
-0.030192709 -0.027870193 0.017128259
-0.02841034 -0.027273925 0.020022541
-0.027969247 -0.027969247 0.016453058
-0.026697358 -0.027858112 0.016333967
-0.024973266 -0.027243562 0.027372897
-0.02415658 -0.027607519 0.023510784
-0.022865729 -0.027438875 0.025215894
-0.021476716 -0.027128482 0.024221867
-0.020590583 -0.027454112 0.024054378
-0.019279238 -0.027217746 0.018583983
-0.018417543 -0.027626313 0.02075097
-0.017299131 -0.027678607 0.015230238
-0.016004242 -0.027435841 0.015596598
-0.010295955 -0.027455881 0.025557339
-0.009021 -0.027063001 0.025290936
-0.0079861851 -0.027381206 0.028602719
-0.006669573 -0.026678292 0.027581453
-0.005608683 -0.02692168 0.033595502
-0.0045245639 -0.027147384 0.028800398
-0.0033500397 -0.026800318 0.035374433
-0.0022533585 -0.027040301 0.03503415
-0.0011162817 -0.02679076 0.036276102
0 -0.026576107 0.033038139
0.0011083691 -0.026600858 0.035764873
0.0022243864 -0.026692638 0.034449846
0.0032837584 -0.026270067 0.032696396
0.0044770907 -0.026862545 0.033182561
0.0055782525 -0.026775612 0.034569293
0.006687101 -0.026748404 0.028311759
0.0078532742 -0.02692551 0.031353414
0.0088788448 -0.026636533 0.038751841
0.010062105 -0.026832283 0.031837136
0.011245172 -0.026988413 0.034780234
0.012277858 -0.026788054 0.031589806
0.013358026 -0.026716052 0.029494673
0.01450724 -0.026782596 0.039152831
0.01568489 -0.026888382 0.026570141
0.016844779 -0.026951645 0.02581352
0.01839808 -0.02759712 0.020969957
0.019111762 -0.026981311 0.024057001
0.020429693 -0.027239591 0.025246173
0.021773594 -0.027503485 0.01952827
0.022448706 -0.026938448 0.022638351
0.023653664 -0.027032757 0.030634463
0.024806136 -0.027061239 0.023872256
0.025445089 -0.026551396 0.028730243
0.026575232 -0.026575232 0.036235631
0.028102044 -0.026977962 0.025975883
0.029120434 -0.0268804 0.028328389
0.030502751 -0.027113555 0.029343963
0.030897742 -0.026483778 0.029800475
0.032423388 -0.026833149 0.027706832
0.033466112 -0.02677289 0.031926274
0.034227096 -0.026498394 0.030803591
0.035900943 -0.026925705 0.025943786
0.037067447 -0.026958145 0.025914282
0.037529126 -0.026491147 0.028043747
0.040316109 -0.027645331 0.017317444
0.041685868 -0.02779058 0.015397996
0.041315973 -0.02679955 0.017843097
0.044053033 -0.027822968 0.015754491
-0.033153545 -0.026294192 0.019939184
-0.032407057 -0.026620083 0.018339515
-0.031061482 -0.026459781 0.017686725
-0.029113185 -0.026784131 0.015699595
-0.027662689 -0.026510078 0.019177765
-0.026414702 -0.026414702 0.018110961
-0.025249707 -0.026397422 0.017384082
-0.023849888 -0.026121305 0.020207107
-0.022625871 -0.026019752 0.0216932
-0.021766378 -0.026348772 0.023130864
-0.020581549 -0.026298648 0.020384759
-0.019526064 -0.026417617 0.018562376
-0.018639209 -0.026793864 0.016642153
-0.016230585 -0.026664535 0.02202335
-0.010203798 -0.026076376 0.022031248
-0.0091016851 -0.026167346 0.029798508
-0.0078868028 -0.025913782 0.025977522
-0.0066928272 -0.02565584 0.048037201
-0.0056505916 -0.025992721 0.032748252
-0.0044614323 -0.025653236 0.032822192
-0.0033644089 -0.025793804 0.034332573
-0.0022366436 -0.025721401 0.031605929
-0.0011201585 -0.025763644 0.032653302
0 -0.025735723 0.034065694
0.0011205846 -0.025773447 0.035331756
0.002205841 -0.025367172 0.036719382
0.003357104 -0.0257378 0.039567679
0.0044524232 -0.025601435 0.035476208
0.0055805906 -0.025670718 0.032869965
0.0067797471 -0.025989031 0.031359345
0.0078863772 -0.025912384 0.031163275
0.0090598119 -0.026046958 0.031380922
0.010196131 -0.02605678 0.032401681
0.011166487 -0.025682921 0.030939251
0.01244499 -0.026021345 0.026361167
0.013777639 -0.026407141 0.037628233
0.014666761 -0.025948886 0.029253334
0.015653111 -0.025715828 0.028131485
0.017069886 -0.026173826 0.030099899
0.01778277 -0.025562733 0.026788026
0.019287223 -0.026094479 0.03221041
0.020478653 -0.026167169 0.026806682
0.021605786 -0.026154373 0.03086549
0.022813132 -0.026235104 0.030642897
0.023724778 -0.025984282 0.026456505
0.02472551 -0.025849398 0.028738409
0.026140727 -0.026140727 0.028710127
0.026917454 -0.025795894 0.032278955
0.028128924 -0.02587861 0.032517105
0.028931987 -0.025593681 0.037225932
0.029905347 -0.025474925 0.033599883
0.031352837 -0.025754116 0.041172892
0.032560166 -0.02582358 0.032301039
0.033206917 -0.025458638 0.031712323
0.034448445 -0.025558524 0.032798856
0.035995487 -0.025871756 0.037695527
0.036618359 -0.025521887 0.034703016
0.038046043 -0.02573703 0.030255735
0.039708551 -0.026094191 0.02695024
0.040353917 -0.025781672 0.023937047
0.042275175 -0.026279164 0.020173371
0.043469876 -0.026310714 0.020895928
0.044336203 -0.026146993 0.018152356
0.046683118 -0.026842793 0.018705249
0.04699406 -0.026362522 0.017683178
0.048173714 -0.026380844 0.016298234
-0.030926406 -0.025199292 0.019219965
-0.028707087 -0.025262235 0.016212225
-0.026435168 -0.025285812 0.016484499
-0.024171146 -0.025322152 0.017826557
-0.022969561 -0.025266517 0.020334125
-0.02159494 -0.025004666 0.017977029
-0.020434441 -0.024975428 0.018416971
-0.01954741 -0.025296647 0.016496778
-0.0091331527 -0.02511617 0.019405842
-0.0079092151 -0.024857532 0.023278356
-0.0068679941 -0.025182646 0.019675374
-0.0055606738 -0.024466965 0.02510643
-0.0045195292 -0.024857409 0.026543915
-0.0033897208 -0.024857953 0.02449888
-0.0022423146 -0.024665462 0.02350077
-0.001119037 -0.024618814 0.024767339
0 -0.024817126 0.026399136
0.0011076519 -0.024368338 0.031513244
0.0022486467 -0.024735112 0.026009113
0.0033583057 -0.024627576 0.030562729
0.0044223638 -0.024323 0.022550166
0.0056020715 -0.024649115 0.028028637
0.0067839846 -0.024874609 0.025616944
0.0078060939 -0.024533438 0.025713325
0.0091014998 -0.025029125 0.019941449
0.010137299 -0.024780065 0.026368111
0.011368295 -0.025010251 0.020718306
0.012629498 -0.025258996 0.029626966
0.013545151 -0.024832776 0.022881955
0.014550155 -0.024623338 0.025192589
0.015917674 -0.025013488 0.024192542
0.01691987 -0.024815807 0.025553197
0.018076297 -0.024854906 0.026402414
0.019373683 -0.025071826 0.017786324
0.020155268 -0.024634216 0.028270155
0.021616897 -0.02503009 0.022525966
0.023094825 -0.025404308 0.018655837
0.023351438 -0.024463411 0.023857951
0.025132867 -0.025132867 0.0206936
0.026370859 -0.025224298 0.020325989
0.02705832 -0.024803462 0.021684408
0.028157162 -0.024778301 0.02505964
0.029251955 -0.024751656 0.025566012
0.029942323 -0.024397448 0.027554274
0.032093566 -0.025216373 0.020334214
0.032323446 -0.024521235 0.024872839
0.033528473 -0.024587546 0.030696779
0.034961324 -0.02481126 0.032730579
0.035246972 -0.024232291 0.026897937
0.036485299 -0.024323532 0.027596384
0.038519554 -0.024924416 0.027372271
0.038922254 -0.024465417 0.027511984
0.040638957 -0.024834918 0.026002139
0.041897476 -0.024912011 0.0208067
0.042480916 -0.024594214 0.024899215
0.045353845 -0.025584221 0.021015048
0.045693625 -0.025131494 0.016551107
0.047283676 -0.025371725 0.015892833
0.048503384 -0.025406532 0.015501231
0.048838273 -0.024987023 0.01857242
-0.028764095 -0.02416184 0.019398898
-0.025175015 -0.024030697 0.016221493
-0.021927185 -0.02423531 0.017200828
-0.020819312 -0.024289198 0.016667515
-0.019632764 -0.024252238 0.015720278
-0.0080210799 -0.024063241 0.020407826
-0.006817406 -0.023860922 0.02121228
-0.0056901947 -0.023898819 0.032197058
-0.004575178 -0.024019687 0.015343934
-0.003410086 -0.023870602 0.021749914
-0.0022629527 -0.023761004 0.020897776
-0.0011382459 -0.023903165 0.029666394
0 -0.023410929 0.025477111
0.0011246062 -0.023616731 0.023772031
0.0022797587 -0.023937466 0.020337611
0.0033655143 -0.023558602 0.025452048
0.0045617823 -0.023949357 0.021262348
0.0056624911 -0.023782464 0.023843348
0.0066661676 -0.023331588 0.021991611
0.0079724956 -0.023917489 0.032389492
0.0089780372 -0.023567349 0.022695929
0.010230702 -0.02387164 0.024447948
0.01142095 -0.023983998 0.016776562
0.012257577 -0.02340083 0.028340489
0.013511176 -0.023644559 0.022057295
0.014741194 -0.0238127 0.026072294
0.015713628 -0.023570444 0.02487734
0.016762406 -0.023467368 0.026116461
0.018201372 -0.023889301 0.023753196
0.018862262 -0.023300443 0.032827675
0.020473307 -0.023885528 0.024964809
0.021553913 -0.023822745 0.023575157
0.022385148 -0.023504406 0.023815542
0.024114357 -0.024114357 0.023423374
0.025356928 -0.024204342 0.019456029
0.025854249 -0.023606053 0.023003548
0.027632318 -0.02417828 0.025236994
0.028075835 -0.023583701 0.022753626
0.029246381 -0.023622079 0.022020787
0.030830471 -0.023979254 0.022114396
0.031354591 -0.023515943 0.032266945
0.032537349 -0.023561528 0.028520137
0.03347829 -0.023434803 0.027373344
0.034849297 -0.023607589 0.029966563
0.03615097 -0.023724075 0.027508467
0.037147019 -0.023639014 0.02543962
0.037352949 -0.023070941 0.02778849
0.038921062 -0.023352638 0.027564168
0.040347435 -0.023536004 0.029231995
0.040599603 -0.023043018 0.027673155
0.043062445 -0.023797667 0.025120735
0.043993708 -0.02368892 0.023466319
0.045837834 -0.024064865 0.01599586
0.047645018 -0.023822509 0.01896733
0.049607534 -0.024226936 0.016637474
-0.02757456 -0.022978799 0.016024351
-0.026660213 -0.023182793 0.020623147
-0.0080276458 -0.022936132 0.017512023
-0.0068504289 -0.022834763 0.020338148
-0.0045526219 -0.022763109 0.026477784
-0.0023016082 -0.02301608 0.017758101
-0.0011402183 -0.022804366 0.022021204
0 -0.022588853 0.019536555
0.0011377824 -0.022755647 0.021436572
0.0022521585 -0.022521583 0.019560695
0.0034191082 -0.022794055 0.029377133
0.0045355707 -0.022677854 0.020583034
0.0055861827 -0.022344731 0.026598841
0.0068328916 -0.022776304 0.021312445
0.0079944003 -0.022841142 0.021141112
0.0090897558 -0.022724388 0.021188825
0.010251187 -0.022780417 0.018898427
0.011423019 -0.022846038 0.026933521
0.012483471 -0.022697221 0.020965874
0.013654611 -0.022757685 0.023837566
0.014595107 -0.02245401 0.025856495
0.015657693 -0.022368133 0.024296254
0.017054832 -0.022739774 0.026606619
0.017710073 -0.022137592 0.032908231
0.019224627 -0.022617206 0.023120999
0.020469349 -0.022743721 0.025381684
0.021191431 -0.022306768 0.024381101
0.022939064 -0.022939064 0.01873371
0.024094442 -0.022947086 0.022501916
0.024929399 -0.022663089 0.021550268
0.026054714 -0.022656271 0.023274004
0.027290061 -0.022741716 0.022638351
0.028121958 -0.022497565 0.024920315
0.029814186 -0.022933988 0.022169471
0.030540731 -0.022622762 0.021072149
0.031450432 -0.022464594 0.023935974
0.032712348 -0.022560237 0.027163148
0.033398736 -0.022265824 0.030437589
0.034898899 -0.022515416 0.026424468
0.035889424 -0.022430889 0.026273608
0.036821257 -0.022315914 0.028040558
0.038001392 -0.022353761 0.031262994
0.039042782 -0.022310162 0.029290676
0.039797917 -0.022109954 0.025499344
0.041686222 -0.022533091 0.029301852
0.042821385 -0.02253757 0.029246598
0.043424848 -0.022269152 0.025408894
0.045923624 -0.022961812 0.0227606
0.046910919 -0.022883374 0.018586814
0.047808755 -0.022766074 0.021465063
0.050410543 -0.023446763 0.017487258
0.050540924 -0.022973146 0.016053975
-0.02456102 -0.022221874 0.015595108
-0.0079953717 -0.021701723 0.016491085
-0.0069331108 -0.021954851 0.015371203
0 -0.021744387 0.018320829
0.0011338399 -0.021542959 0.019806892
0.003465934 -0.021950915 0.024508268
0.0044852067 -0.021304732 0.020414978
0.0056526368 -0.02148002 0.026821285
0.0068761087 -0.021774344 0.020535529
0.0079084095 -0.021465683 0.017319292
0.0090942709 -0.021598894 0.020119607
0.010209139 -0.021552628 0.023845136
0.011353168 -0.02157102 0.01889962
0.012611566 -0.021783615 0.021820813
0.013620473 -0.02156575 0.02795592
0.014660981 -0.021427589 0.023887306
0.015871787 -0.021540282 0.025151402
0.016857876 -0.021353308 0.026269019
0.01799071 -0.02136397 0.023004442
0.01931903 -0.021591855 0.027310461
0.020047981 -0.021161759 0.027502149
0.021736136 -0.021736136 0.021196127
0.02290413 -0.021758925 0.018346637
0.023740999 -0.021479951 0.020071715
0.024953825 -0.021551032 0.022744894
0.026119409 -0.021576904 0.021574199
0.027321091 -0.021629198 0.034095436
0.028491611 -0.021653624 0.026649743
0.029588656 -0.021622481 0.022050619
0.030473875 -0.021444578 0.02664113
0.031724732 -0.021527499 0.032639533
0.032316402 -0.021172814 0.032196373
0.033699781 -0.021343194 0.031874627
0.03540574 -0.021700291 0.024751574
0.035256512 -0.020933555 0.029142439
0.037142202 -0.021384904 0.029015183
0.037958525 -0.021212118 0.033742845
0.038495347 -0.020897474 0.032400787
0.040272243 -0.021254797 0.029045105
0.041682269 -0.021404408 0.026879489
0.042296603 -0.021148302 0.026412427
0.044226807 -0.021546394 0.025993913
0.045206733 -0.021473199 0.025260329
0.046660691 -0.021623246 0.023339331
0.048183404 -0.021797253 0.022243053
0.049138021 -0.021712149 0.021413594
0.049875699 -0.021537233 0.018477589
-0.0069108875 -0.020732662 0.01525116
-0.0034952061 -0.020971237 0.016348839
0 -0.020528857 0.016300559
0.0034199185 -0.02051951 0.020466536
0.0046121753 -0.020754788 0.016299784
0.0057486114 -0.020695001 0.018321484
0.0068677654 -0.020603295 0.02531299
0.0080397809 -0.02067372 0.018612444
0.0091011664 -0.020477625 0.019025743
0.010382964 -0.020765929 0.017538816
0.011445818 -0.020602474 0.017878741
0.012422796 -0.020328213 0.021409273
0.013714103 -0.020571154 0.021480799
0.014733903 -0.020400789 0.024571955
0.015818218 -0.020337708 0.030754924
0.016996779 -0.020396134 0.023082376
0.018204108 -0.02047962 0.024613976
0.019215725 -0.02034606 0.023369938
0.020731596 -0.020731596 0.019472808
0.021666961 -0.020526594 0.020760477
0.022707218 -0.020436496 0.019468188
0.02398389 -0.020557618 0.022288233
0.025212271 -0.020628221 0.022528529
0.025967153 -0.020322118 0.018390059
0.027534375 -0.02065078 0.021354645
0.028525285 -0.020538205 0.021254152
0.029539905 -0.020450702 0.024314374
0.030764543 -0.020509694 0.02508831
0.031864494 -0.020484315 0.024233311
0.032612585 -0.020242292 0.028749198
0.034223001 -0.0205338 0.026216984
0.034837458 -0.020228202 0.026114851
0.03595617 -0.020225344 0.030068725
0.037086356 -0.020228921 0.031349659
0.0378762 -0.020052105 0.031294644
0.039107185 -0.020112267 0.031991839
0.040281221 -0.020140611 0.031232536
0.040688351 -0.019794332 0.03052187
0.042838357 -0.020291852 0.029156417
0.043659661 -0.020150613 0.026578903
0.045204625 -0.020342082 0.026911825
0.046439927 -0.02038826 0.02188769
0.047097344 -0.020184575 0.022996783
0.049297281 -0.020636071 0.020156294
0.050973698 -0.020852877 0.022040039
0.051344294 -0.020537715 0.017191291
0.0034997908 -0.019832149 0.019786447
0.0046684789 -0.019841036 0.015424311
0.0069967993 -0.019824266 0.020345241
0.0081012035 -0.019674351 0.016299874
0.009365771 -0.019902265 0.017468572
0.011448896 -0.019463122 0.020365477
0.012492479 -0.019306559 0.01904875
0.013710486 -0.019423189 0.027572453
0.014741843 -0.019277794 0.027448565
0.015732151 -0.019103326 0.026740015
0.017152958 -0.019440018 0.027151555
0.017881766 -0.018999375 0.023180068
0.019405102 -0.019405102 0.022788137
0.020698801 -0.019548869 0.01837945
0.021361776 -0.019113166 0.022150159
0.022853283 -0.019425292 0.028402358
0.024206245 -0.019595532 0.024164438
0.024715854 -0.019098615 0.023723245
0.02627773 -0.019422671 0.020922184
0.027153529 -0.01923375 0.024665147
0.028238058 -0.019201878 0.026947498
0.029598437 -0.019352825 0.023222744
0.030590644 -0.019260775 0.022392303
0.032060239 -0.019465145 0.024381787
0.03298616 -0.019336715 0.028606504
0.033714596 -0.019104937 0.032829434
0.034378048 -0.018852476 0.033236265
0.036222409 -0.019243155 0.031942368
0.036351055 -0.0187263 0.033004493
0.038094949 -0.019047474 0.032099277
0.039109305 -0.018995948 0.034034461
0.039737318 -0.018764844 0.02861473
0.041170832 -0.018916328 0.03173843
0.042421252 -0.018977927 0.032337517
0.042995173 -0.018741487 0.030438095
0.045258004 -0.019234654 0.028975815
0.046266049 -0.019183483 0.025453538
0.047652088 -0.019287748 0.023799002
0.049302604 -0.019491728 0.021103382
0.050512914 -0.019516354 0.016495436
0.0510883 -0.019300025 0.017580628
0.0058573587 -0.018743549 0.01518181
0.011558489 -0.018493583 0.018223643
0.012634453 -0.018377386 0.025774509
0.0136527 -0.018203601 0.02284953
0.014654695 -0.018036548 0.021678537
0.015987799 -0.01827177 0.025817215
0.016897179 -0.018023659 0.025376529
0.018189456 -0.018189456 0.022671074
0.019434001 -0.018290825 0.023399204
0.020508105 -0.018229427 0.021741122
0.021829961 -0.018383125 0.022590667
0.022931088 -0.018344872 0.020981431
0.023569874 -0.017957998 0.025967896
0.025117228 -0.018267075 0.024260998
0.026046792 -0.018119507 0.027079999
0.027102308 -0.018068206 0.024837941
0.028549558 -0.018271716 0.026098996
0.029201536 -0.017970176 0.025900304
0.030907264 -0.018315416 0.022637725
0.032368142 -0.018496083 0.024919152
0.032744586 -0.018065978 0.028730929
0.033451933 -0.017841032 0.032978654
0.034788311 -0.017955257 0.031441629
0.035522584 -0.017761292 0.027500004
0.037150275 -0.018012255 0.031890631
0.038315572 -0.018030858 0.02768299
0.038941227 -0.017801704 0.033406705
0.040398926 -0.017955078 0.035486817
0.041832741 -0.018089833 0.033610255
0.042061407 -0.017710065 0.029769063
0.044089798 -0.018088123 0.028961539
0.045383871 -0.01815355 0.020806491
0.045679327 -0.017826078 0.025989503
0.047715474 -0.018177323 0.027121991
0.048856977 -0.01817934 0.021105528
0.049652018 -0.018055279 0.022044659
0.051741935 -0.018397132 0.015644997
0.052957673 -0.018420061 0.015156358
0.056705736 -0.018516161 0.015336603
0.010441544 -0.017402574 0.019932151
0.011610165 -0.017415248 0.027581722
0.012558623 -0.017125396 0.02292642
0.013843313 -0.017304141 0.021292537
0.014907875 -0.017201394 0.023678213
0.016103582 -0.017253838 0.020436585
0.017128065 -0.017128065 0.021457642
0.018542878 -0.017383948 0.028542519
0.019410007 -0.017126476 0.019724429
0.020798249 -0.017331876 0.020793617
0.021761525 -0.017180152 0.023444891
0.022419667 -0.016814752 0.02509737
0.023837939 -0.017027099 0.025556624
0.025112953 -0.017122468 0.030104131
0.025769474 -0.016806178 0.028080225
0.027643574 -0.017277233 0.024888963
0.028623765 -0.017174259 0.025590628
0.029141111 -0.016812179 0.027653962
0.0310432 -0.017246222 0.022007674
0.032034274 -0.017161218 0.021712124
0.032682527 -0.016904755 0.024868488
0.034229871 -0.017114935 0.030721426
0.035077918 -0.016973184 0.032926947
0.035800051 -0.016781274 0.034499764
0.03701156 -0.016823437 0.036217451
0.037446059 -0.01652032 0.035408497
0.039051194 -0.016736226 0.035012424
0.040278271 -0.016782613 0.03369391
0.04137205 -0.016772451 0.031404912
0.04323642 -0.017067008 0.028097749
0.044015978 -0.016929222 0.028115302
0.045228153 -0.016960558 0.025125414
0.046523713 -0.01702087 0.026282936
0.048096728 -0.017177403 0.022712916
0.049088296 -0.017123824 0.01994434
0.050581511 -0.017243696 0.023742646
0.051509824 -0.017169939 0.017390311
0.010523638 -0.016370105 0.020591974
0.011541158 -0.016157622 0.019567281
0.012537647 -0.015957005 0.024853438
0.014006102 -0.016340451 0.019369692
0.014899722 -0.016045855 0.017882049
0.016113564 -0.016113564 0.020925581
0.017450226 -0.016286878 0.017586619
0.018262027 -0.015979273 0.018291265
0.019679829 -0.016206918 0.018484175
0.020976549 -0.016315093 0.018603951
0.021746144 -0.016023474 0.020939201
0.023124043 -0.01618683 0.024637103
0.023932103 -0.015954735 0.027068108
0.024895689 -0.015842712 0.026504725
0.026320314 -0.01602106 0.026257664
0.027084006 -0.015799005 0.024818242
0.028220372 -0.015803408 0.02795276
0.029845731 -0.016070778 0.028142899
0.03079319 -0.01596684 0.029475898
0.031866945 -0.015933473 0.029033184
0.033212483 -0.016033612 0.025454223
0.033868343 -0.015805228 0.027248293
0.034649763 -0.015648279 0.026854306
0.036287282 -0.015875686 0.032340348
0.036690217 -0.015565546 0.032528162
0.038273148 -0.015759531 0.033711493
0.039420154 -0.015768062 0.035501242
0.040867455 -0.015892901 0.024568617
0.041786626 -0.015811155 0.026723266
0.043152697 -0.015898362 0.029726118
0.043447498 -0.015596538 0.029524922
0.04575368 -0.016013788 0.026825488
0.04615755 -0.015761115 0.029001087
0.046769772 -0.015589924 0.025914907
0.049061425 -0.015973488 0.025471866
0.049471971 -0.015741082 0.024350494
0.050626054 -0.015750328 0.025990963
0.054198358 -0.016495151 0.015643477
0.055549167 -0.016201841 0.017425388
0.057700191 -0.016485769 0.016645938
0.011610365 -0.015093476 0.016108423
0.012716956 -0.01502913 0.021906972
0.013918832 -0.015078735 0.020979494
0.015054594 -0.015054594 0.019589096
0.016374992 -0.01520535 0.016737014
0.018559756 -0.015079801 0.01914531
0.019677345 -0.015047382 0.017755091
0.020560786 -0.014849457 0.017120004
0.02191337 -0.014993358 0.01529178
0.023197811 -0.015078577 0.017797619
0.025687633 -0.015179056 0.020738214
0.026689164 -0.015085179 0.019786119
0.027537424 -0.014916105 0.025501668
0.028732151 -0.014940717 0.020656109
0.029843492 -0.014921746 0.023231417
0.031194717 -0.015019679 0.019433349
0.032518178 -0.015097724 0.01814118
0.033324558 -0.014938595 0.018235236
0.036101159 -0.015139194 0.019200623
0.036127023 -0.014676603 0.022064239
0.037899893 -0.014930261 0.024829388
0.038519975 -0.014728226 0.025358647
0.039208833 -0.014563281 0.026980281
0.040717911 -0.014703691 0.030616254
0.042299803 -0.014862092 0.029371381
0.042455435 -0.014524227 0.032228202
0.043997578 -0.014665859 0.029309034
0.0450298 -0.014634685 0.028598458
0.045810919 -0.014525413 0.027524263
0.047741018 -0.014776981 0.029917359
0.048758056 -0.014740808 0.030224621
0.049766622 -0.014703775 0.026533335
0.050755631 -0.014662737 0.028875887
0.052066725 -0.014714509 0.022522658
0.053590175 -0.014822815 0.021547794
0.056368176 -0.014954823 0.015727878
0.01172399 -0.014068788 0.023031205
0.015229196 -0.01405772 0.015618891
0.016255176 -0.013933009 0.016226679
0.0175234 -0.01401872 0.01651755
0.022369664 -0.014128208 0.016218334
0.023008479 -0.013805088 0.020039111
0.024637682 -0.014078676 0.019427925
0.025429897 -0.013870853 0.018451631
0.02630358 -0.013723606 0.020177126
0.027964465 -0.013982233 0.017278254
0.028693324 -0.013772795 0.020195425
0.029811021 -0.013758933 0.017613471
0.031193858 -0.013863936 0.023521274
0.031870391 -0.013658739 0.026338369
0.032891713 -0.013610364 0.024485707
0.034329645 -0.013731858 0.024918854
0.035126291 -0.013597273 0.026566952
0.036312576 -0.013617217 0.029891104
0.037740469 -0.013723807 0.031926006
0.038233891 -0.013494314 0.032283723
0.039594382 -0.013575217 0.0278081
0.040939592 -0.013646531 0.029720217
0.041638412 -0.013504349 0.030247569
0.042848378 -0.013531066 0.03162393
0.043721817 -0.013452867 0.03159216
0.044897433 -0.01346923 0.029328376
0.046639759 -0.01365066 0.030412436
0.047485027 -0.01356715 0.029240817
0.048605472 -0.013564318 0.028311998
0.049567871 -0.01351851 0.029540271
0.050489716 -0.013463924 0.029919863
0.052301913 -0.013643977 0.021337599
0.05481445 -0.013703613 0.01783967
0.056995019 -0.013957964 0.016116232
0.015227121 -0.012884487 0.017545074
0.016281929 -0.012792943 0.020833045
0.017728401 -0.013000827 0.018029302
0.021781301 -0.012610226 0.017364144
0.026800919 -0.012817831 0.016576141
0.027658356 -0.012676747 0.017620206
0.029171402 -0.012835416 0.021559566
0.030013997 -0.012698229 0.020509958
0.030938296 -0.01260449 0.022939146
0.032092292 -0.012607686 0.023956716
0.033350684 -0.012650258 0.022128671
0.034240924 -0.012555005 0.023948073
0.035449062 -0.012578699 0.02459988
0.037094824 -0.012751345 0.027681619
0.037059579 -0.012353193 0.027360141
0.038761113 -0.012540359 0.031217158
0.03980973 -0.012511629 0.028344423
0.039921902 -0.012198359 0.030790776
0.041865937 -0.01244663 0.035615027
0.042687714 -0.01235697 0.036456287
0.043109786 -0.01215917 0.033147424
0.045184467 -0.012425728 0.032605588
0.046352211 -0.012435959 0.031724304
0.047208335 -0.012364088 0.029097438
0.048950303 -0.01252217 0.027441353
0.049614042 -0.012403511 0.031505466
0.050583251 -0.012364794 0.028129041
0.053233184 -0.012729674 0.020200729
0.054124463 -0.012667428 0.018015623
0.056044202 -0.012843463 0.016969442
0.057375543 -0.012880225 0.018537432
0.026030583 -0.011832084 0.017066449
0.02819757 -0.011748987 0.016599089
0.029269127 -0.01170765 0.019881845
0.029930554 -0.011511751 0.018759489
0.030966591 -0.011469107 0.022745997
0.032298703 -0.011535251 0.028920233
0.033220626 -0.011455388 0.025242954
0.03420851 -0.011402836 0.027377993
0.036112659 -0.011649244 0.024528533
0.036640305 -0.011450095 0.020319015
0.03743488 -0.011343903 0.025928229
0.03878016 -0.011405928 0.030320257
0.039102446 -0.011172128 0.032572716
0.040741917 -0.011317199 0.034144074
0.04197422 -0.011344383 0.032339662
0.042688183 -0.011233732 0.028157145
0.044920281 -0.01151802 0.02737388
0.045876436 -0.011469109 0.025887221
0.046750527 -0.011402566 0.029033959
0.047590781 -0.011331138 0.030481488
0.04851304 -0.011282101 0.0304735
0.049395975 -0.011226358 0.031846792
0.051246181 -0.011388039 0.028881997
0.052573644 -0.011429052 0.024804443
0.053601567 -0.011404589 0.02055952
0.055495854 -0.011561637 0.018955678
0.017634667 -0.0105808 0.015521765
0.021042164 -0.010521082 0.016540051
0.022563795 -0.010688112 0.01517418
0.02462462 -0.010553407 0.015876561
0.025708063 -0.010516934 0.018065721
0.026566297 -0.010395506 0.016772956
0.027949503 -0.010481063 0.020226806
0.028946877 -0.010420875 0.019079894
0.030024055 -0.010392942 0.02175349
0.031181904 -0.010393967 0.023842156
0.032232501 -0.010360446 0.022232682
0.033122081 -0.010279266 0.024660736
0.034502316 -0.010350694 0.02268666
0.035298966 -0.010248085 0.029708296
0.036846641 -0.010363117 0.023820311
0.03784408 -0.010321112 0.028530002
0.038613096 -0.010221113 0.024782419
0.040188752 -0.01033425 0.030388415
0.041015342 -0.010253835 0.027977437
0.041480333 -0.01008981 0.028019637
0.043135773 -0.010216366 0.029955149
0.044312432 -0.010225946 0.02810353
0.045486066 -0.010234365 0.029334128
0.047163516 -0.010352966 0.029908925
0.047191251 -0.01011241 0.030725807
0.048072819 -0.010061753 0.034378648
0.0498068 -0.010187754 0.03119421
0.050474994 -0.010094997 0.032276094
0.052167207 -0.010206627 0.022044241
0.054796994 -0.010493041 0.021020859
0.055475865 -0.010401725 0.016826242
0.056997176 -0.010468869 0.01662761
0.058266681 -0.010488002 0.020639062
0.059037309 -0.010418348 0.016786724
0.022080205 -0.0092969285 0.01914534
0.023361271 -0.0093445089 0.017584294
0.024625923 -0.0093813036 0.016583622
0.025339812 -0.0092144776 0.019965857
0.026900865 -0.0093568228 0.017333776
0.029211562 -0.0093476996 0.017085195
0.03044638 -0.009368117 0.023093015
0.031019324 -0.0091909105 0.022359312
0.0321729 -0.0091922572 0.02931267
0.03361756 -0.0092738094 0.027969778
0.034369178 -0.0091651147 0.026432663
0.035408229 -0.0091376072 0.03039062
0.037046935 -0.0092617339 0.031065255
0.037527282 -0.0090975231 0.027121961
0.039247114 -0.0092346147 0.029327422
0.040005941 -0.0091442149 0.030875891
0.040591262 -0.009020281 0.026740253
0.04229784 -0.0091454778 0.035791278
0.04354855 -0.0091681154 0.029713988
0.043749202 -0.0089741955 0.030119479
0.045325886 -0.0090651773 0.034770876
0.04648719 -0.0090706702 0.032554686
0.047731038 -0.0090916259 0.02866596
0.048583597 -0.0090388088 0.034792632
0.049844075 -0.0090625593 0.027026713
0.051014699 -0.0090692798 0.02840054
0.053161744 -0.0092455205 0.024249971
0.053872164 -0.0091697304 0.024315685
0.055246338 -0.0092077227 0.02196005
0.056238133 -0.009181736 0.021808267
0.05709314 -0.0091349026 0.022019386
0.059805274 -0.0093812197 0.015215248
0.061213262 -0.0094174249 0.015524834
0.023799555 -0.0083298441 0.015295625
0.024191095 -0.0080636982 0.016608715
0.025981151 -0.0082667302 0.015802979
0.027112108 -0.0082515106 0.01636073
0.028007789 -0.0081689386 0.017405063
0.029278336 -0.0081979334 0.022732645
0.029925812 -0.0080569489 0.019492477
0.031074967 -0.008056473 0.026739955
0.032872587 -0.0082181469 0.020483345
0.033481583 -0.0080817612 0.019604087
0.034538575 -0.0080590006 0.021448672
0.035683103 -0.0080574742 0.024726927
0.03637385 -0.0079567796 0.027712107
0.038122531 -0.0080865975 0.025300413
0.039265465 -0.0080840662 0.026680201
0.039722957 -0.0079445913 0.022228748
0.040787701 -0.0079309419 0.028368801
0.042378418 -0.0080175381 0.030596405
0.042563461 -0.0078406371 0.031293362
0.044257656 -0.0079436824 0.03009662
0.044985849 -0.0078725237 0.031108379
0.046392363 -0.007920647 0.029911906
0.048285861 -0.0080476431 0.028182238
0.049096722 -0.0079924902 0.030017555
0.05021435 -0.0079886466 0.026421934
0.05110975 -0.0079504047 0.031285703
0.052236434 -0.0079490226 0.025656253
0.053311177 -0.0079399627 0.025600493
0.055420313 -0.0080821291 0.023607522
0.055804849 -0.0079721222 0.023745716
0.058608163 -0.0082051428 0.019963562
0.059743259 -0.008200055 0.019667059
0.060518157 -0.0081466753 0.015090227
0.025988899 -0.0070878812 0.016875029
0.026582619 -0.0069345958 0.016507477
0.027741628 -0.0069354069 0.022858769
0.028450439 -0.0068281046 0.024364352
0.030001368 -0.0069233924 0.027353823
0.031247035 -0.0069437851 0.022799224
0.032598037 -0.0069852932 0.019851625
0.033558764 -0.0069431919 0.021502137
0.034877401 -0.0069754799 0.024951488
0.035818335 -0.0069325804 0.025287211
0.0371085 -0.0069578439 0.028588384
0.037967667 -0.0069032121 0.027561814
0.038562719 -0.0068051852 0.029354274
0.040153965 -0.0068835374 0.029590964
0.041386131 -0.0068976888 0.025868148
0.041755669 -0.0067711887 0.030913323
0.04285809 -0.0067670667 0.03255707
0.044384863 -0.0068284408 0.033350319
0.044594541 -0.0066891811 0.034798145
0.046695121 -0.0068334318 0.032557487
0.047966916 -0.0068524163 0.027116179
0.048285425 -0.0067375009 0.033219546
0.050835002 -0.0069320458 0.027174503
0.050991841 -0.0067989114 0.029008865
0.051959909 -0.0067773792 0.03139928
0.053432845 -0.0068212138 0.029016644
0.05416438 -0.0067705475 0.029734552
0.05682715 -0.0069584264 0.02459389
0.057881508 -0.0069457805 0.025336593
0.058419332 -0.0068728626 0.020466149
0.025333514 -0.0057576168 0.016461641
0.026820133 -0.005830463 0.020330667
0.028085837 -0.0058512157 0.023346424
0.028971698 -0.0057943393 0.024267823
0.030304538 -0.0058277952 0.022925466
0.031139702 -0.0057666111 0.020902008
0.03265024 -0.0058304002 0.019900978
0.033857945 -0.0058375765 0.020748824
0.034698017 -0.0057830024 0.022325784
0.035551965 -0.0057341871 0.026212037
0.037319809 -0.0058312202 0.027714193
0.037389454 -0.0056650685 0.024621725
0.03936547 -0.0057890397 0.030375928
0.040061802 -0.0057231141 0.033382028
0.040279184 -0.0055943313 0.032767445
0.042006433 -0.0056765447 0.034727097
0.043881334 -0.0057738596 0.031101465
0.044092916 -0.0056529376 0.029540539
0.046481628 -0.0058102035 0.025407851
0.046776284 -0.0057044243 0.033941478
0.04750758 -0.005655664 0.034563422
0.048904859 -0.0056866114 0.032687187
0.049858075 -0.0056656902 0.032557189
0.050309218 -0.0055899126 0.037710398
0.051777773 -0.0056280186 0.036318779
0.052649144 -0.0056009726 0.03366819
0.055508677 -0.0057821539 0.026466608
0.056342751 -0.0057492601 0.02733016
0.05698806 -0.0056988057 0.027926862
0.059325084 -0.0058161844 0.023587734
0.024634721 -0.0046923277 0.017828226
0.025953015 -0.0047187302 0.018751234
0.02810269 -0.0046837819 0.019792706
0.029555185 -0.0047288295 0.018499583
0.030376576 -0.0046733194 0.01701206
0.031835359 -0.0047163493 0.018688232
0.033099063 -0.0047284374 0.017298281
0.03385184 -0.0046692193 0.021089911
0.03481755 -0.0046423399 0.024174809
0.036150344 -0.0046645603 0.025240153
0.036527332 -0.0045659165 0.024262726
0.038184587 -0.0046284348 0.02960524
0.039197188 -0.0046114339 0.03103289
0.039641984 -0.0045305127 0.025899738
0.041913379 -0.0046570422 0.022153288
0.042832028 -0.0046304893 0.023508221
0.043174442 -0.0045446777 0.027970225
0.044981658 -0.0046135033 0.026167303
0.045157891 -0.004515789 0.033392787
0.046121057 -0.0044996152 0.034815848
0.047789056 -0.0045513385 0.034127772
0.04867943 -0.004528319 0.031499892
0.049422119 -0.0044929199 0.035152107
0.051068604 -0.0045394311 0.037420601
0.0519659 -0.0045187739 0.04116568
0.053177133 -0.0045257136 0.031707138
0.05643427 -0.0047028558 0.025522947
0.056018107 -0.004572907 0.02754876
0.057661213 -0.0046128971 0.025241345
0.060150322 -0.0047176722 0.018338472
0.061908595 -0.0046723471 0.015231967
0.026729062 -0.0034863993 0.018700272
0.0287212 -0.00359015 0.020231307
0.029120717 -0.0034944857 0.0225164
0.033098079 -0.0035462228 0.017882556
0.03579602 -0.0035796021 0.015249401
0.036013562 -0.0034851832 0.023125142
0.037541445 -0.0035195104 0.019862801
0.038624581 -0.0035113257 0.020126194
0.039090626 -0.0034491729 0.022916734
0.04070583 -0.003489071 0.022231519
0.041643199 -0.0034702667 0.027473569
0.042262364 -0.0034266778 0.028973073
0.044351753 -0.0035014541 0.029063463
0.044966064 -0.0034589281 0.027260214
0.046027679 -0.0034520761 0.030990928
0.047323231 -0.0034626753 0.031589717
0.047861401 -0.0034186714 0.026924402
0.048737835 -0.0034003139 0.031597555
0.050289888 -0.0034288559 0.036389232
0.050807953 -0.0033871967 0.027363211
0.052471366 -0.0034220454 0.028736621
0.05376745 -0.0034319647 0.032386035
0.054244444 -0.0033902777 0.026758462
0.056229863 -0.0034426448 0.027089447
0.057989173 -0.0034793501 0.023886591
0.058057103 -0.0034151238 0.018072695
0.061604053 -0.0035540799 0.016398162
0.062778108 -0.003553478 0.015449911
0.031341154 -0.0024108579 0.015430629
0.031818479 -0.0023569243 0.01674217
0.035555791 -0.0023703862 0.015395582
0.036453225 -0.0023518209 0.020912647
0.037551753 -0.0023469846 0.017407566
0.038091756 -0.0023085915 0.022581547
0.039440334 -0.0023200195 0.026708245
0.040844649 -0.0023339798 0.025536269
0.04115412 -0.0022863401 0.02975741
0.042161927 -0.0022790229 0.032227844
0.043997213 -0.0023156428 0.030156523
0.044640142 -0.0022892382 0.025658518
0.046394851 -0.0023197425 0.026161879
0.046826575 -0.0022842232 0.033409894
0.048030239 -0.0022871543 0.033498347
0.049210433 -0.0022888575 0.034120053
0.050477341 -0.0022944247 0.029892504
0.051498584 -0.0022888258 0.031944424
0.052628215 -0.0022881832 0.032953113
0.05312787 -0.0022607604 0.033597738
0.055079285 -0.0022949702 0.034217507
0.056598462 -0.0023101415 0.025298417
0.058471069 -0.0023388427 0.018562645
0.061255991 -0.0023559998 0.015358359
0.060991429 -0.0023015633 0.018907696
0.033862237 -0.0011676634 0.018439323
0.035366416 -0.0011788805 0.01651454
0.03674379 -0.0011852835 0.018092036
0.037153378 -0.0011610431 0.022464722
0.03872982 -0.0011736309 0.024502069
0.039928213 -0.0011743591 0.022455543
0.040694084 -0.0011626881 0.02694574
0.041421231 -0.0011505898 0.025093615
0.042548716 -0.0011499652 0.027637988
0.042998832 -0.0011315482 0.032803386
0.044500913 -0.0011410491 0.034591973
0.045914754 -0.0011478689 0.030724734
0.046871774 -0.0011432139 0.036151916
0.048468765 -0.0011540181 0.033183336
0.048613902 -0.0011305559 0.030822337
0.05079516 -0.0011544354 0.033020228
0.052074391 -0.0011572086 0.031750858
0.052196797 -0.0011347129 0.036394179
0.053430069 -0.0011368099 0.038248926
0.054678768 -0.001139141 0.033321828
0.054858167 -0.0011195545 0.032900304
0.058952622 -0.0011790524 0.021999449
0.05985079 -0.0011735449 0.020976454
0.060165495 -0.0011570287 0.020365179
0.036048755 0 0.016222715
0.036453679 0 0.015368551
0.039070856 0 0.015872896
0.039686646 0 0.022236884
0.041081145 0 0.030080169
0.041974489 0 0.029587746
0.042301729 0 0.0273467
0.043610234 0 0.030229747
0.04494128 0 0.033645332
0.045609105 0 0.029681236
0.047279783 0 0.032536864
0.047849998 0 0.032868087
0.049411777 0 0.034629732
0.050283283 0 0.032486975
0.051654637 0 0.035653144
0.052052058 0 0.039544284
0.053973872 0 0.034954637
0.054664407 0 0.033176631
0.056355979 0 0.028905869
0.059306752 0 0.023016036
0.058916282 0 0.018049002
0.033284545 0.0011887337 0.01635015
0.034571227 0.0011921113 0.01508233
0.035999391 0.0011999797 0.015249819
0.03836685 0.0011626319 0.020272523
0.039969526 0.0011755743 0.023038805
0.040896054 0.0011684587 0.021964788
0.041196045 0.0011443346 0.023077399
0.04303845 0.0011632013 0.030285269
0.043695446 0.0011498802 0.033774674
0.044380207 0.0011379541 0.037407845
0.04646324 0.001161581 0.034632027
0.046896644 0.0011438206 0.031954408
0.048308305 0.0011501977 0.029520601
0.049831335 0.0011588683 0.028130531
0.0509285 0.001157466 0.028535098
0.0510437 0.0011343044 0.033108115
0.053392205 0.0011607001 0.031475365
0.053825695 0.0011452276 0.030739665
0.055629022 0.0011589379 0.032643765
0.057132799 0.0011659756 0.029244691
0.058320347 0.0011664069 0.021128178
0.060338184 0.0011831017 0.016476303
0.036937557 0.0023830682 0.015903354
0.037349474 0.0023343421 0.01733467
0.038741492 0.0023479695 0.023383677
0.040179852 0.0023635209 0.023427397
