ply
format ascii 1.0
comment PCL generated
element vertex 1277
property float x
property float y
property float z
element camera 0
property float view_px
property float view_py
property float view_pz
property float x_axisx
property float x_axisy
property float x_axisz
property float y_axisx
property float y_axisy
property float y_axisz
property float z_axisx
property float z_axisy
property float z_axisz
property float focal
property float scalex
property float scaley
property float centerx
property float centery
property int viewportx
property int viewporty
property float k1
property float k2
end_header
0.008944911 -0.041370213 0.024694532
0.0098303128 -0.040413514 0.026441425
0.011036646 -0.040835589 0.024181962
0.012230317 -0.041138344 0.026219666
0.013226877 -0.040782873 0.028718174
0.014212039 -0.040449653 0.02699253
0.01553931 -0.041068178 0.024757266
0.016286451 -0.040173251 0.030434132
0.017613223 -0.040730577 0.023563564
0.018672952 -0.040641133 0.029239118
0.019091211 -0.03924305 0.035083175
0.020615067 -0.040145133 0.038742334
0.021695029 -0.040135808 0.03233391
0.022672486 -0.039946761 0.025660127
0.02408508 -0.040506728 0.033513784
0.025053667 -0.040303726 0.025895625
0.026027158 -0.040125202 0.033649743
0.027251447 -0.040332142 0.031147957
0.028231498 -0.040175594 0.030973405
0.02900503 -0.039747633 0.034070015
0.030923856 -0.04086367 0.034548819
0.031451885 -0.040128265 0.031829715
0.032472387 -0.040049281 0.030177027
0.033985753 -0.040563639 0.030316651
0.034744073 -0.040172834 0.028785527
0.035764743 -0.040099863 0.030014277
0.037065137 -0.040335592 0.029330432
0.037611581 -0.039760817 0.025235295
0.04011026 -0.041224439 0.028664708
0.041380733 -0.041380733 0.025465935
0.041547582 -0.040454224 0.021930009
0.043644305 -0.04140614 0.018854886
0.04351519 -0.040251553 0.028758794
0.04500309 -0.040612545 0.025707364
0.046768717 -0.041201014 0.022971302
0.047088396 -0.040517926 0.023110211
0.04925945 -0.041422721 0.020834655
0.050780699 -0.041753016 0.019573957
0.051364712 -0.041315097 0.020195872
0.052857559 -0.041611269 0.01635474
0.053989667 -0.04161704 0.018399775
0.05399067 -0.040768467 0.019093454
0.05839242 -0.041548457 0.015535176
-0.033706065 -0.040447276 0.021099627
-0.032491844 -0.040334702 0.025488883
-0.030681456 -0.039447587 0.01970163
-0.030379275 -0.040505696 0.021280408
-0.029274657 -0.040534139 0.01869005
-0.027725823 -0.039925184 0.020147741
-0.027067481 -0.04060122 0.020441741
-0.025629669 -0.040116001 0.018140763
-0.024351988 -0.039848708 0.020350516
-0.023482513 -0.040255733 0.025714457
-0.022097822 -0.039776079 0.022175431
-0.020894038 -0.039588701 0.02584216
-0.020010658 -0.040021315 0.022690326
-0.018645193 -0.039483935 0.028541893
-0.017777402 -0.03999915 0.022913545
-0.016605102 -0.039852239 0.023571163
-0.015248822 -0.039211255 0.0268507
-0.014346238 -0.039728045 0.024619281
-0.013245163 -0.039735489 0.027413517
-0.011843099 -0.038759232 0.036303014
-0.010900719 -0.039242588 0.032759815
-0.0098609496 -0.039443798 0.03727895
-0.0087351492 -0.039308168 0.029751897
-0.0077532725 -0.039873973 0.028976023
-0.0065548448 -0.039329067 0.026378244
-0.0055035464 -0.039625537 0.024120152
-0.0044734036 -0.040260632 0.02535966
-0.0033267047 -0.039920453 0.023271173
-0.0022126148 -0.039827064 0.024947643
-0.0011313992 -0.040730368 0.018680513
0 -0.040166434 0.015838414
0.0011309134 -0.040712878 0.017976046
0.0022768665 -0.040983595 0.016105443
0.0033321702 -0.039986044 0.017489791
0.0044753468 -0.040278118 0.022687674
0.0055815787 -0.040187366 0.024557382
0.0066798138 -0.040078882 0.019528627
0.007871435 -0.040481668 0.019479275
0.0088672722 -0.039902721 0.020304143
0.0098915501 -0.0395662 0.026155978
0.011139316 -0.040101536 0.023701698
0.012112215 -0.039639976 0.028775305
0.013171591 -0.039514773 0.029453099
0.014244447 -0.03944616 0.028989524
0.014848611 -0.038182143 0.040130407
0.016399371 -0.039358485 0.03393662
0.017573509 -0.039540395 0.029151648
0.018146984 -0.038428903 0.034633756
0.019637179 -0.039274357 0.032567263
0.020914784 -0.03962801 0.030355424
0.021806678 -0.03925202 0.028629154
0.022748923 -0.038998149 0.044709146
0.023877062 -0.039071556 0.034515828
0.02441366 -0.038212683 0.043120623
0.026699383 -0.040049072 0.032808632
0.027266683 -0.03926402 0.030451894
0.02809762 -0.038904395 0.03338033
0.029412385 -0.039216511 0.032793134
0.030364243 -0.039039738 0.031745553
0.031179665 -0.038705789 0.036706895
0.032734055 -0.039280862 0.035174102
0.033569183 -0.038983565 0.036015153
0.03457753 -0.03889972 0.03402251
0.035650942 -0.038891934 0.030287325
0.036546756 -0.038696561 0.027933151
0.038251046 -0.039343931 0.036348909
0.039969012 -0.039969012 0.025138646
0.040168319 -0.039082687 0.025544226
0.042632122 -0.040388323 0.022031665
0.043750744 -0.040385302 0.021591246
0.044392727 -0.039953452 0.028499335
0.04564482 -0.040078372 0.025882274
0.04624645 -0.039639812 0.027301133
0.046852257 -0.039225142 0.028091103
0.048497502 -0.039679773 0.025330812
0.049651381 -0.039721102 0.024382412
0.050984848 -0.039901182 0.021841526
0.052900542 -0.040519562 0.020725459
0.053153634 -0.039865226 0.02252847
0.055526905 -0.040795278 0.019917578
0.056745436 -0.040856712 0.015331388
0.055975955 -0.039512437 0.021592319
0.058067173 -0.040200349 0.02107957
0.060045641 -0.040785719 0.018206954
0.060804375 -0.040536247 0.015745312
-0.034422167 -0.040159196 0.015313268
-0.031711832 -0.038272899 0.019023895
-0.031293903 -0.039117377 0.023778021
-0.030073384 -0.038984012 0.021624446
-0.028724737 -0.038667917 0.020779341
-0.028010784 -0.039215095 0.019885391
-0.026695054 -0.038930289 0.019233525
-0.025751067 -0.039186403 0.017708063
-0.024493437 -0.038966835 0.025813729
-0.023276206 -0.038793676 0.020940036
-0.022145145 -0.038754001 0.02717942
-0.021132654 -0.038928572 0.023250908
-0.019823903 -0.03854648 0.025802195
-0.018770002 -0.03864412 0.026557565
-0.017701678 -0.038722418 0.026608855
-0.01628552 -0.037999544 0.027436942
-0.015383909 -0.038459774 0.032830149
-0.014323349 -0.038562864 0.026810288
-0.013196346 -0.038489345 0.020449281
-0.011896468 -0.037852395 0.037185371
-0.010871541 -0.038050391 0.033690065
-0.009704072 -0.037738059 0.03199169
-0.0088356994 -0.038656183 0.028470904
-0.0076452922 -0.038226463 0.0279378
-0.0066277143 -0.038661666 0.023978889
-0.0055272314 -0.038690623 0.028814495
-0.0044121901 -0.038606662 0.025656819
-0.0033301706 -0.038851991 0.026118994
-0.0022370345 -0.039148103 0.022814959
-0.0011276392 -0.039467372 0.017081022
0 -0.039254889 0.021235913
0.0011282467 -0.039488632 0.020069629
0.0022225778 -0.038895108 0.024491459
0.0033728112 -0.039349467 0.017955273
0.0045088893 -0.03945278 0.0195584
0.0055463645 -0.038824551 0.021841675
0.0068011787 -0.039673541 0.020188898
0.0078884726 -0.039442364 0.020576805
0.0089382138 -0.039104685 0.027887881
0.010002491 -0.038898576 0.024364173
0.011084077 -0.038794272 0.024484187
0.012065453 -0.038390078 0.027008563
0.013426583 -0.039160866 0.029653877
0.014360444 -0.038662732 0.023653299
0.015591284 -0.038978208 0.021223038
0.016656101 -0.038864233 0.025834411
0.017497741 -0.038276307 0.027749926
0.018531676 -0.038153447 0.035830855
0.019987745 -0.038865063 0.026336223
0.020619642 -0.037983548 0.028954417
0.021618543 -0.03783245 0.034847856
0.022594683 -0.037657801 0.037197083
0.02330853 -0.037081752 0.038380951
0.025465129 -0.038751282 0.02910918
0.026142059 -0.038123839 0.033688992
0.026817964 -0.037545148 0.032204628
0.028426867 -0.038266934 0.033193648
0.02919301 -0.037842792 0.031685174
0.030543961 -0.038179949 0.034346014
0.031443011 -0.037948459 0.030995667
0.032555863 -0.037981838 0.034091413
0.033345602 -0.037648257 0.032897979
0.034749798 -0.038007591 0.034126848
0.035115335 -0.037243538 0.034798056
0.036939576 -0.038026031 0.036776155
0.038322948 -0.038322948 0.030014962
0.039054256 -0.037969414 0.027636766
0.040416557 -0.038231876 0.028138667
0.042053141 -0.038733155 0.023149163
0.042395059 -0.038046848 0.02897194
0.044279099 -0.038744215 0.028360516
0.044839635 -0.038277734 0.027894139
0.04642145 -0.038684539 0.029288679
0.047368895 -0.038556077 0.027203321
0.048946425 -0.038934659 0.028476179
0.049648598 -0.038615573 0.023083806
0.051512275 -0.039194118 0.024598181
0.052194625 -0.038868338 0.021791756
0.053648654 -0.039118811 0.024318635
0.054782599 -0.039130427 0.022502542
0.056040436 -0.039228301 0.019698828
0.057921141 -0.039749801 0.016438752
0.058869138 -0.039623458 0.017975777
0.058280841 -0.038487349 0.019222587
0.078533918 -0.039836045 0.015469372
-0.03238814 -0.037972301 0.020021796
-0.031358268 -0.038077895 0.02341944
-0.029598597 -0.037272304 0.026842356
-0.029102884 -0.038057618 0.021656841
-0.028279021 -0.038459469 0.020859838
-0.026744414 -0.03788792 0.021057069
-0.026060695 -0.038524505 0.022006422
-0.024406575 -0.037719253 0.021960914
-0.023378009 -0.037850108 0.022424906
-0.022604981 -0.03842847 0.02186951
-0.02113832 -0.037826467 0.019396067
-0.019809566 -0.037418071 0.026900262
-0.018807033 -0.037614066 0.030253917
-0.017556848 -0.037308302 0.026735932
-0.016571319 -0.037561659 0.033392787
-0.015422902 -0.037455618 0.028246731
-0.01411011 -0.036903366 0.037940741
-0.013193339 -0.037381127 0.028761446
-0.012056677 -0.037266094 0.032043099
-0.010814952 -0.036770836 0.032020897
-0.0099576171 -0.037617669 0.031026661
-0.0086879153 -0.036923639 0.031319827
-0.0077102883 -0.037449971 0.028745621
-0.0066819848 -0.037864581 0.027288795
-0.0054503484 -0.037062373 0.030934811
-0.0044162935 -0.037538495 0.030595481
-0.0033323413 -0.037766535 0.025784373
-0.0022049481 -0.037484121 0.026076406
-0.0011196177 -0.038067002 0.024715662
0 -0.038436882 0.020462811
0.0011062513 -0.037612546 0.021580666
0.0022451684 -0.038167864 0.02396208
0.0033717107 -0.03821272 0.023305535
0.0044420529 -0.037757453 0.01980564
0.0056228833 -0.038235608 0.021967858
0.0067814928 -0.038428463 0.022453099
0.0077753486 -0.03776598 0.022597969
0.0090246825 -0.0383549 0.021892279
0.0099488711 -0.037584625 0.022474259
0.01114172 -0.037881851 0.022813082
0.012287828 -0.03798056 0.023783326
0.013392288 -0.037944816 0.022445589
0.014412458 -0.037694123 0.020864993
0.015663473 -0.038039863 0.026595175
0.016633248 -0.037702028 0.026082814
0.017523821 -0.037238121 0.027075917
0.018857598 -0.037715197 0.026976019
0.019586692 -0.036997087 0.035494745
0.020700149 -0.037042372 0.030611306
0.021790639 -0.037044086 0.035437882
0.022240197 -0.036007937 0.03647694
0.024130305 -0.03729229 0.034846276
0.025381276 -0.037520148 0.027708143
0.026111247 -0.036990933 0.032871336
0.027628668 -0.037574988 0.030998677
0.028242188 -0.036932092 0.033055186
0.029115761 -0.036664292 0.038723767
0.030679442 -0.037253611 0.032753259
0.031762518 -0.037238814 0.030735642
0.032617323 -0.036966298 0.029954493
0.033932958 -0.037216794 0.032856494
0.034317248 -0.036462076 0.035345405
0.035860147 -0.036946818 0.032577157
0.036976244 -0.036976244 0.034919351
0.037379906 -0.03631191 0.034088761
0.03955489 -0.037357397 0.028635055
0.040434089 -0.037155647 0.031193852
0.041250702 -0.036908522 0.029517204
0.042418201 -0.03697997 0.030961573
0.04388947 -0.037306052 0.031461924
0.044655841 -0.037031673 0.03188923
0.046022676 -0.037256449 0.030841798
0.046371024 -0.036665462 0.032501072
0.048058584 -0.037136178 0.032154202
0.050346505 -0.03803958 0.024392843
0.050679065 -0.037458438 0.02581057
0.051564671 -0.037302103 0.025006682
0.053659976 -0.038009152 0.02512005
0.053833734 -0.037354019 0.026728928
0.056603905 -0.038490653 0.01936534
0.057164874 -0.038109917 0.021167547
0.057731662 -0.037747625 0.020293236
0.060447969 -0.038777944 0.015492171
0.061613943 -0.038793962 0.015559345
0.061919678 -0.038277619 0.017046988
-0.032902822 -0.037441138 0.015492201
-0.030953983 -0.036481477 0.019253492
-0.030326668 -0.037065923 0.0245924
-0.028949663 -0.036743805 0.030345291
-0.027390266 -0.036155149 0.025400907
-0.027041128 -0.037181549 0.02081883
-0.025593054 -0.036720466 0.022714704
-0.02469464 -0.037041958 0.023470253
-0.023544706 -0.036998823 0.021312982
-0.022281924 -0.036765173 0.021315694
-0.021376831 -0.03712818 0.019618601
-0.019820234 -0.036337096 0.029091299
-0.018749008 -0.036395133 0.027345926
-0.017504143 -0.036102291 0.029170334
-0.016456345 -0.036203958 0.02735135
-0.015290065 -0.036040865 0.030123204
-0.014335703 -0.036390629 0.030368656
-0.013147973 -0.036156926 0.027309597
-0.012010402 -0.036031205 0.030154467
-0.010950848 -0.036137801 0.035210878
-0.009865093 -0.03617201 0.030474156
-0.0088535221 -0.036520775 0.028628767
-0.0077493195 -0.036532506 0.028970331
-0.0066392608 -0.036515933 0.025350034
-0.0055660224 -0.036735747 0.024232864
-0.0044993674 -0.03711978 0.024136305
-0.0033432429 -0.036775671 0.023480535
-0.0022133065 -0.036519557 0.026786655
-0.0011284188 -0.037237823 0.022606075
0 -0.036614265 0.020855963
0.0011226458 -0.037047312 0.024599254
0.0022670259 -0.037405927 0.021998137
0.0033180851 -0.036498934 0.024015307
0.0044612065 -0.036804952 0.023917526
0.0056480546 -0.037277162 0.02092728
0.0066757179 -0.036716446 0.021947384
0.0078888237 -0.037190169 0.024522692
0.0089196255 -0.036793455 0.022650242
0.010012179 -0.03671132 0.024228662
0.011311705 -0.037328627 0.020800889
0.012258976 -0.036776926 0.02738446
0.013403819 -0.0368605 0.023081958
0.014604162 -0.037072103 0.023347437
0.015642069 -0.036870588 0.020648956
0.016720505 -0.036785111 0.023076177
0.018004483 -0.037134245 0.023899764
0.018636504 -0.036176741 0.024625897
0.019939343 -0.036555462 0.02768293
0.02096279 -0.036409054 0.034988135
0.021955391 -0.036226396 0.0190579
0.023563823 -0.037028864 0.022114038
0.024186036 -0.036279052 0.028907061
0.025047451 -0.035937645 0.031305522
0.02668881 -0.036697112 0.030621558
0.027085492 -0.035752848 0.033431172
0.027858594 -0.035358984 0.038568348
0.029396815 -0.035929438 0.042830497
0.030656938 -0.036131389 0.029680431
0.031697024 -0.036069024 0.03253606
0.033024024 -0.036326427 0.030494004
0.033814128 -0.035995685 0.038195103
0.035004739 -0.036098637 0.031451553
0.035557766 -0.035557766 0.040021211
0.036893293 -0.035808194 0.030833215
0.03865895 -0.036449868 0.028671473
0.040031523 -0.036695562 0.030069411
0.039849102 -0.035541087 0.031708568
0.041459214 -0.036004052 0.033008009
0.043103941 -0.036472563 0.029637307
0.043467961 -0.035861067 0.03098461
0.045026913 -0.03624117 0.031992525
0.045983907 -0.036130212 0.032371223
0.04707168 -0.036124777 0.029921651
0.048817992 -0.036613494 0.025878459
0.049644835 -0.036406208 0.026741028
0.049867414 -0.035774447 0.028206676
0.05229295 -0.036716323 0.023756385
0.052049059 -0.03578373 0.026090652
0.05544382 -0.037339717 0.022849649
0.056850675 -0.037521444 0.021588475
0.056294188 -0.03642565 0.021871179
0.058881041 -0.037366811 0.018851042
0.059850454 -0.037265379 0.016362846
-0.041229475 -0.036648426 0.016635925
-0.031656276 -0.036178604 0.017705113
-0.030231243 -0.035829622 0.022826493
-0.028709468 -0.035334729 0.026881963
-0.027409423 -0.035084061 0.028657556
-0.02667379 -0.035565056 0.023929417
-0.025887109 -0.036016848 0.020995885
-0.024656881 -0.035864554 0.024130434
-0.023104588 -0.035206988 0.026537329
-0.022344688 -0.035751503 0.022024155
-0.02142843 -0.03608999 0.017971128
-0.019831877 -0.035256673 0.029315799
-0.018707361 -0.035213858 0.030290604
-0.017690355 -0.03538071 0.02992931
-0.016465127 -0.035125606 0.030733943
-0.015414756 -0.035233729 0.029327422
-0.01428884 -0.03517253 0.0280177
-0.013033975 -0.034757268 0.038858414
-0.012225358 -0.035564676 0.02906695
-0.011049063 -0.035357002 0.028412551
-0.0098134875 -0.034892399 0.030893505
-0.0089437878 -0.035775151 0.026325285
-0.0078414939 -0.035846833 0.021634907
-0.0066446112 -0.035437927 0.025962919
-0.0056178942 -0.035954524 0.025210202
-0.0044570016 -0.035656013 0.022804052
-0.0033630633 -0.035872675 0.021856368
-0.0022297995 -0.035676792 0.02735129
-0.0011108986 -0.035548754 0.023340017
0 -0.035764758 0.022805184
0.0011184354 -0.035789933 0.02134639
0.002206095 -0.03529752 0.024944395
0.0033512111 -0.035746254 0.025746286
0.004483501 -0.035868008 0.025964558
0.0055595483 -0.035581112 0.02156359
0.0067901057 -0.036213897 0.020079941
0.0078393677 -0.035837106 0.020905644
0.0089423303 -0.035769321 0.020345539
0.010072169 -0.035812158 0.023796022
0.011200361 -0.035841156 0.023308516
0.012223353 -0.035558846 0.026101857
0.013413811 -0.035770163 0.026561767
0.014393087 -0.035429135 0.024737209
0.015671583 -0.035820764 0.024127692
0.016762141 -0.035759237 0.02553466
0.0176476 -0.0352952 0.02524069
0.019203926 -0.036148563 0.021375924
0.020417707 -0.036298148 0.015010059
0.021067368 -0.035481881 0.018724024
0.022358043 -0.035772868 0.022849768
0.02337609 -0.035620712 0.032048702
0.02397727 -0.03487603 0.030539334
0.025360936 -0.03528478 0.027840853
0.026321402 -0.035095204 0.030530632
0.027165251 -0.034771521 0.037538767
0.028679505 -0.035297852 0.039619356
0.029704001 -0.035204742 0.034906864
0.03080231 -0.035202637 0.032718092
0.031678773 -0.034955885 0.024904072
0.032626975 -0.034802109 0.034767151
0.033939265 -0.035034079 0.030615538
0.034717053 -0.034717053 0.032669604
0.03565285 -0.034572463 0.032299608
0.037835553 -0.035609934 0.031251252
0.038395423 -0.035104387 0.030857056
0.039174322 -0.034821622 0.028792024
0.040430367 -0.0349668 0.032852799
0.041145585 -0.034648914 0.039743423
0.042145219 -0.034580693 0.032643825
0.044587091 -0.035669673 0.03350687
0.044956572 -0.035088055 0.028806299
0.045843292 -0.034928221 0.028291136
0.047642395 -0.035454806 0.029903471
0.048016898 -0.034921382 0.030185461
0.049260598 -0.035029758 0.033149064
0.051352333 -0.035723362 0.026593983
0.051872086 -0.035317164 0.027383268
0.053029861 -0.03535324 0.025951028
0.055132601 -0.036004964 0.024326354
0.05624073 -0.035994064 0.023884714
0.057938259 -0.036353417 0.019584268
-0.04764501 -0.035166554 0.017485887
-0.040771004 -0.035108365 0.02087763
-0.039295275 -0.034804389 0.01589182
-0.038815033 -0.03539018 0.018536329
-0.037117362 -0.034867827 0.01931569
-0.030206015 -0.034680981 0.020137817
-0.029191412 -0.034805149 0.025164247
-0.027810676 -0.03448524 0.027910769
-0.0266921 -0.034477297 0.022307754
-0.025968935 -0.035001609 0.025564164
-0.024164904 -0.03405055 0.030545294
-0.023133321 -0.034149189 0.026906759
-0.022238543 -0.034469746 0.028124511
-0.021216858 -0.034616981 0.01829043
-0.019997541 -0.034440212 0.023831308
-0.018838022 -0.034351688 0.030515164
-0.017532472 -0.033969164 0.028209984
-0.016634194 -0.034377337 0.028674424
-0.015520691 -0.034367245 0.029406101
-0.014166039 -0.033780556 0.031012625
-0.013204237 -0.034110948 0.035876304
-0.01212213 -0.034162369 0.032986224
-0.010920558 -0.033853732 0.025257856
-0.0099849775 -0.034392703 0.028881729
-0.0088628763 -0.034343645 0.030949771
-0.0078298375 -0.034674998 0.024459511
-0.006785599 -0.035058931 0.020278394
-0.0055898144 -0.034656852 0.0234887
-0.0044432837 -0.034435451 0.027525842
-0.0033608035 -0.034728304 0.029860854
-0.0022246428 -0.034481965 0.027599871
-0.0011048542 -0.034250479 0.026359886
0 -0.034925275 0.026846319
0.0010998084 -0.034094058 0.026797622
0.0022410569 -0.034736384 0.025946259
0.0033752113 -0.034877185 0.020887971
0.0044576302 -0.034546636 0.023367792
0.0056113945 -0.03479065 0.020789653
0.006740374 -0.034825265 0.023658097
0.0077451658 -0.034300022 0.021541834
0.0089523457 -0.034690339 0.024458379
0.010094925 -0.034771409 0.026061594
0.011118683 -0.034467921 0.0281021
0.012234434 -0.034478862 0.028003007
0.013311429 -0.03438786 0.025400251
0.014410908 -0.034364477 0.026394755
0.015728235 -0.034826808 0.021993786
0.016626904 -0.034362271 0.023571342
0.017988302 -0.034852337 0.021090657
0.020369221 -0.035080329 0.027402401
0.021216858 -0.034616981 0.021326691
0.022510558 -0.034891371 0.023752868
0.023157543 -0.034184944 0.028533787
0.024546843 -0.034588736 0.029306978
0.025619946 -0.034531232 0.029084414
0.026472177 -0.034193233 0.032065839
0.02771966 -0.034372378 0.029391289
0.028546289 -0.034035962 0.025406957
0.029298721 -0.033639271 0.031638235
0.030777743 -0.034075357 0.02682969
0.031674389 -0.033858832 0.035871744
0.032558758 -0.03364405 0.029172301
0.033821855 -0.033821855 0.032342911
0.034423225 -0.033347499 0.035027295
0.03649354 -0.034281813 0.029712707
0.037204433 -0.033921689 0.029779255
0.037622821 -0.033323072 0.035926133
0.039443504 -0.033965241 0.031171173
0.040265743 -0.033736162 0.037290454
0.040870681 -0.033341873 0.03437677
0.04215575 -0.03350842 0.035796583
0.04429568 -0.034329154 0.030319273
0.045094214 -0.034095626 0.028642535
0.046537813 -0.034349341 0.030715168
0.047227938 -0.034048051 0.028361797
0.048116587 -0.033900324 0.030940652
0.049909003 -0.034381758 0.031125546
0.049998112 -0.033694379 0.032276511
0.052035347 -0.034321185 0.029682994
0.053048782 -0.034260675 0.030543596
0.053939775 -0.034125164 0.024355233
0.057011683 -0.035347242 0.017398179
0.05817087 -0.035358764 0.018092394
0.064272068 -0.035579186 0.015485913
0.065121926 -0.034806546 0.019590646
-0.040508322 -0.033756938 0.018241078
-0.039879341 -0.034182291 0.020401567
-0.038154908 -0.033666093 0.01873368
-0.034931403 -0.033804581 0.018696457
-0.030794853 -0.034216505 0.018370122
-0.029304199 -0.033812538 0.023057461
-0.027436631 -0.032923955 0.02704215
-0.027023444 -0.033779308 0.021146595
-0.025547994 -0.033323471 0.023043662
-0.024093337 -0.03285455 0.036938131
-0.023402926 -0.033432748 0.027033299
-0.022216026 -0.03332404 0.029903144
-0.02141705 -0.033816393 0.023079932
-0.020411342 -0.034018904 0.019316494
-0.018864306 -0.03328995 0.023595423
-0.017629111 -0.033054586 0.033124477
-0.016728487 -0.033456974 0.031474918
-0.015225867 -0.03262686 0.032109708
-0.014366234 -0.033152848 0.027979851
-0.013242476 -0.033106189 0.031069517
-0.012059571 -0.032889739 0.024823368
-0.011025355 -0.033076067 0.029177219
-0.010142794 -0.033809315 0.024072647
-0.0088543417 -0.033203781 0.025897741
-0.0078840926 -0.033788968 0.027820051
-0.0067270589 -0.033635296 0.021109104
-0.0056516742 -0.033910047 0.021571904
-0.0045309514 -0.033982135 0.022983074
-0.0033561506 -0.033561505 0.025196791
-0.0022157007 -0.033235509 0.024297297
-0.0011185623 -0.033556867 0.026535153
0 -0.033460293 0.02512455
0.0011214809 -0.033644427 0.026291937
0.0022531559 -0.033797339 0.022084057
0.0033470299 -0.033470299 0.019773185
0.0045197634 -0.033898227 0.018897206
0.005695146 -0.034170877 0.022909492
0.006705536 -0.03352768 0.022397995
0.0078943055 -0.03383274 0.020840704
0.0089579327 -0.033592246 0.025994986
0.0099835861 -0.033278622 0.028400868
0.011197987 -0.033593964 0.026186585
0.012116402 -0.033044733 0.027230352
0.01336865 -0.033421628 0.028662711
0.014607199 -0.033708919 0.026788682
0.015664004 -0.033565722 0.025157869
0.016926268 -0.033852536 0.021145284
0.018107388 -0.03395135 0.025857955
0.01886637 -0.033293594 0.030472338
0.020046152 -0.033410255 0.021770537
0.021200098 -0.033473838 0.026262552
0.02242372 -0.033635583 0.020818025
0.023661781 -0.033802543 0.020693958
0.024781222 -0.033792578 0.020472616
0.025383241 -0.033108573 0.026685953
0.026794743 -0.033493429 0.025346786
0.02760959 -0.033131506 0.027503341
0.028965013 -0.03342117 0.027450532
0.030070847 -0.03341205 0.024072886
0.030679945 -0.032871369 0.028436124
0.031870309 -0.032969285 0.029328674
0.03288687 -0.03288687 0.033300996
0.033459876 -0.032380521 0.037853688
0.035283126 -0.033077929 0.031639636
0.03611245 -0.032829501 0.035487413
0.036647003 -0.032335591 0.031093568
0.038140848 -0.032692153 0.040803105
0.03927432 -0.032728601 0.03844443
0.039399605 -0.031945623 0.043642849
0.041294713 -0.032601088 0.039758593
0.042904787 -0.03300368 0.031494319
0.043848999 -0.032886751 0.03240636
0.044849709 -0.032816857 0.035011411
0.046122372 -0.032944553 0.030793518
0.046789635 -0.032643933 0.03030178
0.049322359 -0.033628881 0.028117746
0.049358197 -0.032905463 0.026804864
0.050696611 -0.033063006 0.033611506
0.052431099 -0.033466659 0.033239573
0.052983351 -0.033114593 0.028303415
0.055472933 -0.033963021 0.020545244
0.057076626 -0.034245975 0.016846329
0.062842704 -0.034277838 0.016048282
0.066836812 -0.033984818 0.017565995
-0.048244335 -0.033311564 0.017903626
-0.041121904 -0.033125982 0.016499907
-0.039468862 -0.03270277 0.019484341
-0.038087677 -0.032486551 0.023706198
-0.037623156 -0.033062775 0.020025909
-0.035601888 -0.032264214 0.019957185
-0.034348387 -0.033203442 0.018824697
-0.02931902 -0.032701984 0.016992778
-0.028270174 -0.032793403 0.021535695
-0.026767584 -0.032344166 0.021951795
-0.025841733 -0.032583058 0.023873627
-0.024935378 -0.032869361 0.018727481
-0.023473525 -0.032415822 0.024778962
-0.022086462 -0.032025371 0.030661821
-0.021214366 -0.032379821 0.030203819
-0.020083722 -0.032357108 0.021021187
-0.01905782 -0.0325104 0.022919208
-0.017817074 -0.032293446 0.026397467
-0.016673207 -0.03223487 0.028004438
-0.015480524 -0.0320668 0.02900371
-0.014497667 -0.032340951 0.02715832
-0.013173413 -0.031835753 0.027427882
-0.012312552 -0.032460365 0.027770281
-0.011139243 -0.032303806 0.032173812
-0.0098748803 -0.03181906 0.029087037
-0.0089629795 -0.032490801 0.022156954
-0.0077821054 -0.032240152 0.025319964
-0.0067064012 -0.032414272 0.027728975
-0.0056481496 -0.032759268 0.020505548
-0.0044848341 -0.032515049 0.018633097
-0.0033569485 -0.032450505 0.025542021
-0.0022490688 -0.0326115 0.023790926
-0.0011204095 -0.032491874 0.02369386
0 -0.032481395 0.027732074
0.0011237543 -0.032588877 0.024423659
0.0022218237 -0.032216445 0.022331357
0.0033779293 -0.032653317 0.027196169
0.0045188894 -0.03276195 0.021430492
0.0055991961 -0.032475341 0.020140678
0.0067472649 -0.03261178 0.020383239
0.0078719174 -0.032612231 0.025563151
0.0089396313 -0.032406162 0.025051206
0.01017858 -0.03279765 0.023712277
0.011161737 -0.03236904 0.02495113
0.012254373 -0.032306988 0.030129075
0.013514804 -0.032660779 0.024510026
0.014578267 -0.032520752 0.024799883
0.015746005 -0.032616727 0.023509294
0.017018706 -0.032902829 0.021295011
0.017647896 -0.031986814 0.022362471
0.01910327 -0.032587934 0.018544376
0.020374617 -0.032825775 0.02055943
0.021073552 -0.032164894 0.023813158
0.022606401 -0.03277928 0.023081362
0.023584485 -0.032569051 0.022956997
0.024572 -0.032390367 0.02312395
0.025707673 -0.032414023 0.028560907
0.02696719 -0.032585356 0.026007026
0.027579732 -0.031992488 0.024376363
0.029271683 -0.032649186 0.029446095
0.029946906 -0.032165196 0.03157717
0.030891089 -0.031994343 0.030309856
0.031978149 -0.031978149 0.033774137
0.032303382 -0.031226605 0.037406832
0.033949055 -0.031758793 0.031797051
0.035599951 -0.032262456 0.029002219
0.035568982 -0.031257592 0.038645655
0.036818501 -0.031404018 0.038516462
0.038181718 -0.031636283 0.037272304
0.038869336 -0.031311411 0.033726722
0.040312 -0.031595893 0.035172552
0.041785367 -0.031888835 0.032234073
0.042473491 -0.031582855 0.032880187
0.043818232 -0.031768221 0.034687579
0.044418793 -0.031418171 0.040220857
0.045406733 -0.031352267 0.040307313
0.047422163 -0.031982392 0.031081289
0.048482776 -0.03195456 0.033080012
0.049070694 -0.031623334 0.030290872
0.051086552 -0.03220674 0.027164787
0.051614456 -0.031847216 0.028606683
0.054190002 -0.032739796 0.02391246
0.055491835 -0.032842107 0.019776285
0.055246294 -0.03204285 0.0227153
0.058815714 -0.032182187 0.018111646
0.061292369 -0.032916274 0.017864674
0.062171362 -0.032781262 0.018798649
0.067036949 -0.032950368 0.015066177
-0.056039974 -0.032022841 0.015287608
-0.04225089 -0.031973645 0.015118122
-0.040915392 -0.031823084 0.020501345
-0.039291289 -0.031433031 0.024359703
-0.038553923 -0.031750288 0.020146519
-0.037227672 -0.031587116 0.023666739
-0.036564719 -0.03199413 0.017074496
-0.033688422 -0.031442527 0.019264728
-0.028225077 -0.031612087 0.022243738
-0.027191995 -0.031723995 0.017171085
-0.026589355 -0.032369647 0.01712501
-0.02489569 -0.031685423 0.017661899
-0.023623094 -0.031497456 0.021867692
-0.022392908 -0.031350072 0.030399919
-0.021069197 -0.031049341 0.027414292
-0.020233842 -0.031474866 0.023601353
-0.019196533 -0.031617817 0.022728771
-0.017669497 -0.030921619 0.026256263
-0.016822953 -0.031402845 0.027887821
-0.015796451 -0.031592902 0.025750548
-0.014317667 -0.030838052 0.026871294
-0.013444238 -0.031369887 0.027748913
-0.012269252 -0.031230824 0.030231714
-0.011009263 -0.030825935 0.025587946
-0.010016193 -0.031161489 0.028459758
-0.0089961914 -0.031486668 0.023085237
-0.00781882 -0.03127528 0.024375647
-0.0068090372 -0.031775508 0.02189517
-0.0056175231 -0.031458132 0.022747427
-0.0044559469 -0.031191628 0.024767458
-0.0033892943 -0.031633411 0.021702379
-0.0022403437 -0.03136481 0.021629721
-0.0011165326 -0.031262912 0.023065418
0 -0.031533811 0.027445048
0.0011067395 -0.030988706 0.024014324
0.0022644307 -0.03170203 0.022748917
0.0034058995 -0.031788394 0.02627641
0.0044508381 -0.031155866 0.02155593
0.0056689177 -0.03174594 0.023501635
0.0068229036 -0.03184022 0.019292086
0.00779285 -0.0311714 0.021578074
0.0091071166 -0.03187491 0.02500701
0.010078038 -0.031353898 0.022329956
0.011254319 -0.031512093 0.020090908
0.012632433 -0.032155287 0.018289804
0.013540545 -0.031594604 0.017558903
0.014773688 -0.031820253 0.019551635
0.016043259 -0.032086518 0.015586495
0.016869452 -0.031489644 0.020180404
0.018179063 -0.031813361 0.023581982
0.019176904 -0.031585488 0.019787401
0.019972427 -0.031068221 0.021924198
0.021517109 -0.031709421 0.021824539
0.022813307 -0.031938631 0.022623748
0.023382004 -0.031176005 0.025099188
0.024712633 -0.031452443 0.025265932
0.025596287 -0.031160697 0.027812928
0.026664477 -0.031108556 0.021688491
0.027932158 -0.031284016 0.027804673
0.028836537 -0.031054731 0.027678877
0.029984966 -0.031095518 0.026509106
0.031333182 -0.031333182 0.031504542
0.032045364 -0.03094035 0.028659701
0.033229854 -0.031014532 0.026276678
0.034789767 -0.031423014 0.028649062
0.034903836 -0.030540854 0.02638793
0.036451474 -0.030928522 0.031377852
0.037733756 -0.031074857 0.028874278
0.037420675 -0.029936541 0.036600202
0.039362527 -0.0306153 0.034677774
0.040251859 -0.030460862 0.039418578
0.040941298 -0.03016727 0.034879923
0.043194003 -0.03101108 0.030730635
0.043254554 -0.030278187 0.036703199
0.044161119 -0.030158812 0.04197064
0.046042275 -0.03069485 0.040653169
0.04688954 -0.030532723 0.042650521
0.048712078 -0.030998597 0.030207723
0.050287019 -0.0312897 0.027733237
0.051287293 -0.031218352 0.025936753
0.052123223 -0.031052131 0.025156051
0.054448783 -0.031761792 0.020945191
0.054803319 -0.031316184 0.017195582
0.057434913 -0.032163549 0.018590659
0.058008492 -0.031847801 0.015929937
0.060312111 -0.031863004 0.015799224
0.061680652 -0.03198256 0.017964214
0.062162291 -0.031646255 0.015186161
0.063959286 -0.031979643 0.018554568
0.06496571 -0.031912982 0.016187519
-0.057076335 -0.030821219 0.015889227
-0.05663234 -0.031205576 0.01541096
-0.040852532 -0.030639403 0.017232776
-0.039853718 -0.030744299 0.019248664
-0.038006045 -0.030181272 0.025581449
-0.037145961 -0.030392151 0.020275384
-0.036371052 -0.030688077 0.021152765
-0.035130382 -0.03059743 0.01562506
-0.034644209 -0.031179788 0.017617881
-0.03308199 -0.030800475 0.020242393
-0.028401421 -0.030673536 0.01568985
-0.026325673 -0.030904051 0.015475869
-0.024958739 -0.030631183 0.019876003
-0.023627125 -0.030377733 0.024666071
-0.022331107 -0.030146996 0.023308128
-0.021241365 -0.0301851 0.025717467
-0.020400297 -0.030600447 0.02372694
-0.019146077 -0.030408477 0.018939823
-0.017959436 -0.03030655 0.027768314
-0.016719133 -0.030094439 0.027576417
-0.015537833 -0.029965822 0.027043879
-0.014485323 -0.030084902 0.032007843
-0.013520238 -0.030420536 0.027948231
-0.012076683 -0.029642768 0.027609676
-0.011252593 -0.030382004 0.025811255
-0.010050748 -0.030152248 0.030386627
-0.0089695072 -0.030272087 0.021045476
-0.0079193665 -0.030546131 0.020803124
-0.0067459652 -0.030356843 0.023358852
-0.0055965842 -0.030221555 0.023140669
-0.0045260601 -0.030550906 0.02615869
-0.0033973565 -0.03057621 0.02194944
-0.0022449852 -0.030307302 0.023945212
-0.0011297427 -0.030503055 0.024213135
0 -0.030317536 0.024456531
0.0011320546 -0.030565474 0.022777349
0.0022547191 -0.03043871 0.025502622
0.003375456 -0.030379103 0.021876425
0.0045370101 -0.03062482 0.024990648
0.0056784037 -0.030663382 0.023456991
0.0067872079 -0.030542437 0.019222379
0.0080428468 -0.031022411 0.018418729
0.0090639079 -0.030590691 0.019123375
0.010158586 -0.030475762 0.018733144
0.011338347 -0.030613538 0.016810179
0.012323529 -0.030248661 0.022768855
0.013616561 -0.030637262 0.024129391
0.014877394 -0.030899202 0.020819724
0.015930237 -0.030722601 0.019188493
0.016879629 -0.030383335 0.020451307
0.018005149 -0.030383691 0.019817144
0.019141944 -0.030401912 0.022562504
0.020511882 -0.030767825 0.02197656
0.021802507 -0.030982511 0.02309224
0.022239964 -0.030023953 0.026151776
0.023513576 -0.030231742 0.025273621
0.024779661 -0.030411402 0.023350686
0.025279351 -0.029675759 0.023493201
0.027166022 -0.030561777 0.035392553
0.027830662 -0.030057115 0.024481982
0.028888803 -0.029999912 0.027125061
0.030158876 -0.030158876 0.031442463
0.030884806 -0.029781777 0.028669626
0.032089531 -0.029876459 0.028858751
0.033770595 -0.030393537 0.024946511
0.034534317 -0.030078275 0.027926058
0.035585102 -0.030024931 0.028454334
0.036491677 -0.029856829 0.030849665
0.037383605 -0.02968698 0.029849052
0.038835529 -0.029958837 0.02787903
0.04023521 -0.030176409 0.029884666
0.040229544 -0.029356694 0.031089485
0.042069066 -0.029891178 0.031470001
0.042176433 -0.029199069 0.042119533
0.043499183 -0.02936195 0.047000647
0.044930384 -0.029588301 0.041396707
0.04634231 -0.029791486 0.031463116
0.04704313 -0.029538712 0.029567629
0.048565987 -0.029801857 0.032559216
0.048989635 -0.029393779 0.03463006
0.051190306 -0.030046485 0.026666373
0.053532086 -0.030752476 0.023033381
0.056170791 -0.030332226 0.026176214
0.057294954 -0.030332625 0.01786387
0.059767812 -0.031033289 0.020971358
0.060104888 -0.030619472 0.015512377
0.060642648 -0.030321324 0.017267823
0.063037947 -0.030945901 0.0167799
0.06321422 -0.030478284 0.016533196
0.064046212 -0.03033768 0.016912967
0.067175962 -0.031271569 0.016064107
0.066694051 -0.030521005 0.016130626
-0.056389991 -0.029921221 0.016573071
-0.042522777 -0.029880868 0.017134756
-0.041406829 -0.029904932 0.021308124
-0.039525036 -0.029361455 0.019397289
-0.038208101 -0.029217958 0.024130523
-0.037650343 -0.029663907 0.024159789
-0.036052875 -0.029292962 0.020865053
-0.034953717 -0.029316019 0.026474655
-0.03421665 -0.02965443 0.023615688
-0.032793503 -0.02940107 0.021823615
-0.031972505 -0.029688753 0.021851778
-0.031303044 -0.030143671 0.017241567
-0.02741101 -0.029695261 0.02091831
-0.026212635 -0.029631674 0.01924476
-0.025104525 -0.029668985 0.024010688
-0.023488093 -0.029080495 0.030892372
-0.022603391 -0.029384408 0.024770528
-0.021471202 -0.029381644 0.020932287
-0.020111516 -0.02904997 0.02876392
-0.019118227 -0.02923964 0.02424407
-0.018050916 -0.029332738 0.023103565
-0.016790291 -0.029103171 0.022449106
-0.015748121 -0.029246509 0.025661856
-0.014675871 -0.029351741 0.024739623
-0.013304973 -0.028827442 0.026931077
-0.012446661 -0.029419379 0.024062097
-0.011302503 -0.029386507 0.025693893
-0.0099363383 -0.028704977 0.02489239
-0.0089583322 -0.02911458 0.035722375
-0.0078721242 -0.029239317 0.023848474
-0.0068299416 -0.029596414 0.020831734
-0.0057261889 -0.029776182 0.021562546
-0.0045231562 -0.029400514 0.023558855
-0.0033853217 -0.029339455 0.022123426
-0.0022673821 -0.029475966 0.023876131
-0.0011252437 -0.029256338 0.022123992
0 -0.029541196 0.02351135
0.0011356487 -0.029526865 0.020103842
0.0022336731 -0.029037749 0.021807373
0.003415623 -0.029602066 0.022147745
0.0045715878 -0.02971532 0.021952569
0.0056270151 -0.029260481 0.021002829
0.0068547647 -0.02970398 0.021488816
0.0079645365 -0.029582564 0.019979209
0.010313009 -0.029793138 0.02053681
0.01136698 -0.029554149 0.015109718
0.012574453 -0.029721433 0.021629125
0.013799074 -0.029897993 0.015983492
0.014784182 -0.029568365 0.015520036
0.01598905 -0.02969395 0.017124116
0.017125022 -0.029683368 0.016660452
0.0177406 -0.028828474 0.021425515
0.019232942 -0.029415086 0.021107197
0.020773476 -0.030006133 0.021469563
0.02119405 -0.029002383 0.018574029
0.022991113 -0.029888447 0.020200491
0.023879837 -0.029565513 0.02335763
0.024671458 -0.029157178 0.020972878
0.026057549 -0.029456358 0.029693276
0.026829379 -0.02906516 0.024246782
0.027854968 -0.028969165 0.028615624
0.02931664 -0.02931664 0.02338922
0.030042529 -0.028929841 0.029869139
0.031100621 -0.028879147 0.030082554
0.033008218 -0.029593576 0.022673249
0.03359228 -0.029113309 0.023737043
0.034415852 -0.028864907 0.024703234
0.036012117 -0.029259846 0.025620371
0.036299542 -0.028599638 0.027798295
0.038008142 -0.02906505 0.031624377
0.038691252 -0.028742073 0.02989611
0.039078936 -0.028223677 0.028289616
0.040877283 -0.028724577 0.03046447
0.041875679 -0.02865178 0.040270686
0.042343929 -0.028229287 0.037329972
0.043794487 -0.028466417 0.03247714
0.044979908 -0.028523842 0.034042865
0.046258368 -0.028636131 0.030088514
0.04765695 -0.02881583 0.029838681
0.048052289 -0.028394533 0.029516101
0.049922761 -0.028844262 0.027307063
0.052021734 -0.029403588 0.019997001
0.055152927 -0.029264819 0.017539442
0.055005535 -0.028602876 0.026035517
0.057676736 -0.029403826 0.020474315
0.059313118 -0.029656559 0.019454122
0.058970075 -0.028928718 0.018410325
0.061570756 -0.029645178 0.018549025
0.062799484 -0.029687028 0.02015841
0.063295305 -0.029387107 0.020802468
0.066104054 -0.02963285 0.016379893
-0.049254201 -0.028636163 0.01648283
-0.044535678 -0.028548513 0.016984046
-0.043033388 -0.028311439 0.021762192
-0.042724535 -0.028867928 0.01643452
-0.041075129 -0.028524399 0.017529219
-0.039669186 -0.028335134 0.019545883
-0.038552247 -0.028347241 0.0309259
-0.037131883 -0.028130215 0.02426067
-0.036233276 -0.028307246 0.021183819
-0.035760514 -0.028839126 0.017134786
-0.034047276 -0.028372729 0.020536512
-0.033404209 -0.028796731 0.025153309
-0.031955458 -0.028531659 0.024064988
-0.030571891 -0.028307306 0.019430161
-0.026532598 -0.02883978 0.019563735
-0.024768941 -0.028146526 0.023722798
-0.023517337 -0.027996831 0.028709382
-0.022620343 -0.02827543 0.034912735
-0.021273635 -0.027991626 0.032558352
-0.020170514 -0.028014602 0.028671205
-0.019377597 -0.028496467 0.027385294
-0.017798871 -0.027810736 0.027728647
-0.017034689 -0.028391149 0.025955528
-0.015922615 -0.028433241 0.028755575
-0.014598334 -0.028073721 0.024816543
-0.01353118 -0.028189959 0.025962085
-0.012513543 -0.028439874 0.024941921
-0.011157676 -0.027894191 0.027279705
-0.010146541 -0.028184837 0.022170663
-0.0090332534 -0.028228918 0.023583412
-0.0079036141 -0.028227193 0.019787669
-0.0068934578 -0.028722743 0.017135352
-0.0057213171 -0.028606586 0.019034535
-0.0045535704 -0.028459815 0.01621148
-0.0034541388 -0.028784491 0.020325601
-0.0022589786 -0.028237233 0.022151649
-0.0011321777 -0.028304441 0.021518916
0 -0.028642284 0.021689385
0.0011336381 -0.028340954 0.018670827
0.0022931797 -0.028664747 0.020618051
0.0034448279 -0.028706901 0.021274984
0.0045051309 -0.028157068 0.024609298
0.0057544815 -0.028772408 0.017963558
0.0068255495 -0.02843979 0.021394879
0.0079589859 -0.028424948 0.019422561
0.0092133544 -0.028791731 0.018229097
0.011416845 -0.028542114 0.016280234
0.012601875 -0.028640626 0.01698482
0.013653083 -0.028443923 0.017324269
0.014774666 -0.028412819 0.019196332
0.016124414 -0.028793599 0.027977079
0.017124087 -0.028540146 0.022963464
0.01810048 -0.028282002 0.022961259
0.019422043 -0.028561829 0.019553989
0.020573223 -0.028573923 0.017144352
0.021653624 -0.028491611 0.019452363
0.0232707 -0.029088378 0.018817872
0.023879789 -0.028428322 0.016262978
0.02501091 -0.02842149 0.029531986
0.026124554 -0.028396254 0.020730257
0.027027531 -0.028153678 0.023983359
0.028194956 -0.028194956 0.025291622
0.029147588 -0.028026529 0.025481969
0.030232532 -0.027993085 0.022514701
0.031938456 -0.028516481 0.022753686
0.032106906 -0.027678367 0.025663167
0.033277154 -0.027730962 0.029736698
0.034754213 -0.02802759 0.030944556
0.035344187 -0.027612647 0.026133955
0.036825653 -0.027898224 0.028918654
0.038088355 -0.028006144 0.03010124
0.038188089 -0.027277209 0.030216038
0.040134661 -0.027871294 0.032294542
0.041354571 -0.027942277 0.03010565
0.04179018 -0.02749354 0.028111488
0.043023832 -0.027579382 0.030600339
0.044341527 -0.027713455 0.034686506
0.045252565 -0.027593028 0.030318886
0.046499502 -0.027678275 0.030069053
0.047716472 -0.027742136 0.028003842
0.049228314 -0.027970634 0.031166196
0.05043406 -0.028018922 0.025255144
0.051876921 -0.028193979 0.020145208
0.055081632 -0.028102875 0.016527355
0.057317961 -0.028658981 0.020846158
0.058591168 -0.028168831 0.020543486
0.060542889 -0.028557967 0.016772211
0.061976939 -0.028171336 0.018135756
0.063889071 -0.028521907 0.019913644
0.064578235 -0.02832379 0.018605351
0.065915212 -0.028411731 0.018502474
0.068015307 -0.028820045 0.017219454
0.068969697 -0.028737376 0.016755819
-0.053014051 -0.027659504 0.015963823
-0.051519517 -0.027477074 0.01560539
-0.050643992 -0.027623996 0.016287267
-0.047876008 -0.028024979 0.015307069
-0.045426287 -0.027255774 0.020810187
-0.044582576 -0.027435429 0.016695827
-0.043449756 -0.027441951 0.023486376
-0.041907996 -0.027183564 0.019661367
-0.041024603 -0.027349737 0.020490259
-0.040209994 -0.027572569 0.022289544
-0.038459107 -0.027147604 0.020523369
-0.037171543 -0.027033849 0.026545137
-0.036951311 -0.027713483 0.024633259
-0.034840375 -0.026973192 0.020365864
-0.034391128 -0.027512901 0.020928055
-0.033109989 -0.027401367 0.024355829
-0.031385671 -0.026902005 0.026521683
-0.031309467 -0.027830636 0.016493827
-0.024961231 -0.027230434 0.027591676
-0.023888528 -0.027301174 0.028616518
-0.022693085 -0.027231701 0.028668791
-0.0211371 -0.026699495 0.031371683
-0.020239253 -0.026985671 0.031861722
-0.019090053 -0.026950663 0.023035377
-0.018319262 -0.02747889 0.023207992
-0.01701265 -0.027220242 0.022869676
-0.015790489 -0.027069408 0.021703809
-0.014934295 -0.027571006 0.024479687
-0.013713568 -0.027427137 0.023654163
-0.012533521 -0.027345866 0.017790556
-0.011514725 -0.02763534 0.018594921
-0.010374817 -0.027666181 0.022052348
-0.0091393003 -0.0274179 0.01937592
-0.0081105763 -0.02780769 0.021494657
-0.0068503255 -0.027401302 0.015531301
-0.0057596196 -0.027646175 0.021520585
-0.0046557849 -0.027934708 0.015678316
-0.0034241728 -0.027393382 0.025490016
-0.0022822085 -0.027386501 0.029264092
-0.0011454364 -0.027490474 0.024614185
0 -0.027195482 0.022715241
0.0011475059 -0.02754014 0.02011013
0.0023142239 -0.027770685 0.016482383
0.0033863757 -0.027091006 0.01901409
0.004615128 -0.027690768 0.019378811
0.005761445 -0.027654938 0.019913852
0.006797743 -0.027190972 0.020935625
0.0080424165 -0.027574001 0.020545274
0.0092001539 -0.027600462 0.022686392
0.010276239 -0.027403306 0.022320062
0.011635203 -0.027924487 0.019178987
0.012619858 -0.027534235 0.019153476
0.01362231 -0.02724462 0.020685196
0.014868654 -0.027449824 0.028032362
0.015984654 -0.027402265 0.018005401
0.017106624 -0.027370598 0.018830985
0.018541124 -0.027811686 0.017393857
0.019274069 -0.027210448 0.020238042
0.020634362 -0.027512483 0.020697981
0.021707749 -0.027420312 0.020914465
0.022814665 -0.027377598 0.015319198
0.023962561 -0.027385784 0.02475071
0.024983961 -0.027255232 0.020639032
0.025791701 -0.026913077 0.022702247
0.027302861 -0.027302861 0.024108499
0.028095968 -0.026972128 0.026073098
0.029399952 -0.027138418 0.024028122
0.031097949 -0.027642621 0.02052623
0.031472381 -0.026976325 0.021591365
0.032712113 -0.027072093 0.023724437
0.033744711 -0.026995767 0.028211653
0.034292936 -0.026549367 0.029954046
0.035699021 -0.026774265 0.028467774
0.036933325 -0.026860602 0.027539998
0.037269309 -0.026307747 0.031100422
0.038947266 -0.026706696 0.032961369
0.040527016 -0.027018012 0.028274119
0.040452611 -0.026239529 0.027176768
0.042627733 -0.026922779 0.030757636
0.043514673 -0.02677826 0.03155002
0.044166531 -0.02649992 0.028247595
0.046180423 -0.027032442 0.030565649
0.046188712 -0.02639355 0.029613495
0.04793185 -0.02675266 0.0281533
0.049254369 -0.026866019 0.026693732
0.050795503 -0.027090933 0.01962164
0.051653858 -0.026949838 0.021865606
0.054512549 -0.027256275 0.017501742
0.055184644 -0.027029214 0.020541489
0.057701036 -0.027696496 0.01662147
0.057703644 -0.027154654 0.018717557
0.058750618 -0.027115669 0.021898627
0.059566971 -0.026973723 0.020733029
0.059866451 -0.02660731 0.021908581
0.061535172 -0.02685171 0.029378563
0.061859712 -0.026511304 0.027319044
0.064041764 -0.026964953 0.021813959
0.066973209 -0.027713053 0.018963069
0.067247398 -0.027354874 0.019124895
0.068980001 -0.027591998 0.015602589
0.070301555 -0.027213503 0.016505271
-0.055457521 -0.026573397 0.018640578
-0.052879829 -0.026439914 0.015143663
-0.051897191 -0.026525231 0.023012191
-0.050824374 -0.026567288 0.018008173
-0.049505599 -0.02647974 0.016366631
-0.047324289 -0.026547771 0.016423553
-0.045507982 -0.026167093 0.020280182
-0.044707187 -0.026365777 0.01900062
-0.042744454 -0.025871644 0.025816917
-0.04199931 -0.026107678 0.022331327
-0.041395072 -0.026446853 0.020274967
-0.040217958 -0.026428945 0.019624442
-0.038967907 -0.026360644 0.019895524
-0.038063873 -0.026529366 0.023758203
-0.035875093 -0.025785223 0.024078548
-0.035387315 -0.026255105 0.021364152
-0.03436153 -0.026343839 0.021368206
-0.032951057 -0.026133597 0.022732139
-0.031902049 -0.026205257 0.025553912
-0.030751539 -0.026195755 0.022278458
-0.02401202 -0.026298879 0.017118901
-0.022415504 -0.025777832 0.025900543
-0.021701677 -0.026270453 0.024492949
-0.020419542 -0.026091639 0.023984939
-0.019388549 -0.026231566 0.021798015
-0.018451376 -0.026523855 0.021337956
-0.016165854 -0.026558189 0.023872823
-0.014878739 -0.026323922 0.016232938
-0.013637446 -0.026138438 0.018132627
-0.012705376 -0.026565788 0.022004128
-0.011524321 -0.026505938 0.019011438
-0.010231186 -0.026146365 0.020814031
-0.0093446504 -0.02686587 0.017650247
-0.006964908 -0.026698817 0.029898465
-0.0034584582 -0.026514847 0.02179268
-0.0022942305 -0.026383651 0.020088524
-0.0011475522 -0.0263937 0.021695793
0 -0.026528195 0.02028358
0.0011647189 -0.026788535 0.017678052
0.0023054315 -0.026512463 0.016801298
0.0034926082 -0.026776664 0.021500468
0.0045968117 -0.026431669 0.02103737
0.0056892443 -0.026170524 0.0241777
0.0069364221 -0.026589619 0.020914346
0.0080670267 -0.026505945 0.020840436
0.0092268195 -0.026527107 0.023030519
0.01041906 -0.026626488 0.02249372
0.011395305 -0.026209204 0.021786511
0.012540041 -0.026220087 0.022904754
0.013906879 -0.026654854 0.033320218
0.014837609 -0.026251156 0.023996472
0.015901817 -0.026124414 0.021025598
0.017223183 -0.026408883 0.026011974
0.017945299 -0.025796369 0.022724807
0.019552946 -0.026453987 0.025958091
0.020511491 -0.026209131 0.026076943
0.021627737 -0.026180945 0.030403376
0.022985803 -0.026433675 0.027189493
0.024079679 -0.026372982 0.019696474
0.024951503 -0.026085662 0.024629444
0.026390938 -0.026390938 0.02435863
0.027356427 -0.026216578 0.024962723
0.028684849 -0.026390061 0.023622304
0.029879645 -0.026431995 0.022646576
0.030689223 -0.026142672 0.021986932
0.032072086 -0.026344927 0.030897915
0.032871824 -0.026070757 0.028002322
0.033529259 -0.025705766 0.027414441
0.034787118 -0.025809797 0.028428912
0.03598772 -0.025866173 0.037792623
0.036560301 -0.025481422 0.035406768
0.038074918 -0.025756562 0.029916048
0.038957167 -0.025600426 0.035537481
0.039568145 -0.025279649 0.032667875
0.041342158 -0.025699178 0.030260086
0.042603977 -0.025786618 0.030010641
0.043038938 -0.025381938 0.031457663
0.045098506 -0.025931641 0.034551382
0.045720328 -0.025647987 0.030109853
0.046859078 -0.025660923 0.028818607
0.048443709 -0.02591175 0.02542153
0.050443638 -0.026368266 0.022849053
0.051385406 -0.026263652 0.023447722
0.052498698 -0.026249349 0.020441502
0.053559285 -0.026209863 0.019371569
0.055588078 -0.026635956 0.015981108
0.055349529 -0.025980392 0.025354266
0.056718685 -0.026090596 0.019620031
0.060149726 -0.026604688 0.015140474
0.058756717 -0.025498198 0.02652961
0.060207359 -0.025643874 0.029995888
