ply
format ascii 1.0
comment PCL generated
element vertex 1282
property float x
property float y
property float z
element camera 0
property float view_px
property float view_py
property float view_pz
property float x_axisx
property float x_axisy
property float x_axisz
property float y_axisx
property float y_axisy
property float y_axisz
property float z_axisx
property float z_axisy
property float z_axisz
property float focal
property float scalex
property float scaley
property float centerx
property float centery
property int viewportx
property int viewporty
property float k1
property float k2
end_header
-0.021886306 -0.061281655 0.015295297
-0.020966385 -0.061795659 0.016479403
-0.018605573 -0.061288949 0.016579598
-0.017598821 -0.061595872 0.015422761
-0.015408556 -0.061634224 0.015208334
-0.014287157 -0.061544675 0.017889351
-0.012159967 -0.061905291 0.016974419
-0.0087794689 -0.061456282 0.016494423
-0.007670132 -0.061361056 0.018596292
-0.004444967 -0.062229536 0.01504761
-0.02088408 -0.060453914 0.01783663
-0.016123954 -0.059121165 0.02854085
-0.015051206 -0.059129737 0.029195398
-0.012015315 -0.060076576 0.016062349
-0.010714771 -0.058931246 0.019638419
-0.0098965969 -0.060479209 0.017827779
-0.0076647089 -0.060222711 0.018457651
-0.0066323457 -0.060796503 0.017854452
-0.0054594898 -0.060054392 0.017806709
-0.0043928409 -0.060401563 0.01742059
-0.01731506 -0.058438327 0.023862183
-0.016271548 -0.058577575 0.026424795
-0.011883116 -0.058335304 0.019788712
-0.011040937 -0.059621062 0.01925838
-0.0098074749 -0.058844857 0.017592072
-0.0086539276 -0.058414016 0.019429654
-0.0077082962 -0.059464 0.019213021
-0.0065591582 -0.059032429 0.017594516
-0.0054498357 -0.058858227 0.016290009
-0.0043996274 -0.059394974 0.017668098
-0.0032755001 -0.058959004 0.01730597
-0.018659124 -0.058172561 0.015654087
-0.017733391 -0.058741856 0.015679836
-0.015410471 -0.058339637 0.015006065
-0.01303417 -0.057567585 0.018367857
-0.012205398 -0.058807824 0.016000479
-0.01100468 -0.058324803 0.02059412
-0.0097873081 -0.057636369 0.01721108
-0.0087462151 -0.057943672 0.019750297
-0.0065718293 -0.058051161 0.015545338
-0.0055483342 -0.058812343 0.017552525
-0.0043759281 -0.057981044 0.01897949
-0.0032932595 -0.058180917 0.017142355
-0.019735951 -0.057014972 0.016768903
-0.01391562 -0.055662479 0.021660089
-0.012081009 -0.057110228 0.018737733
-0.010805121 -0.056186631 0.028144687
-0.0097920969 -0.056576561 0.018957675
-0.0087238867 -0.056705263 0.023456454
-0.0076456019 -0.056795899 0.02386868
-0.006550007 -0.05676673 0.019734174
-0.0054739416 -0.056928992 0.020532936
-0.0043916092 -0.057090916 0.018743783
-0.017883962 -0.05700513 0.015931517
-0.015265441 -0.055609822 0.015015662
-0.011977751 -0.055533208 0.019590169
-0.010818215 -0.055172902 0.023751587
-0.0098327482 -0.05571891 0.021213174
-0.0086782686 -0.055323966 0.023778349
-0.0077250702 -0.056282654 0.023755282
-0.0065694982 -0.055840738 0.019256592
-0.0054926095 -0.056024618 0.019837886
-0.0043900963 -0.055973731 0.020370662
-0.013150327 -0.054793034 0.018482029
-0.01208193 -0.054917868 0.021894574
-0.010846374 -0.054231875 0.022815347
-0.0097388979 -0.054104991 0.019937396
-0.0087888837 -0.054930523 0.021051496
-0.0075868773 -0.054191984 0.023738474
-0.0065265293 -0.054387748 0.024828404
-0.0055185156 -0.055185162 0.020763606
-0.0044127572 -0.055159468 0.01669845
-0.0033012894 -0.055021495 0.016263217
-0.0022225541 -0.055563852 0.015464813
0.006720365 -0.056003045 0.015172929
-0.014342223 -0.054059148 0.017107069
-0.013188451 -0.053852838 0.017059982
-0.01209892 -0.053895187 0.021320403
-0.010848467 -0.05315749 0.019143641
-0.0098692942 -0.053732824 0.02737388
-0.0086908694 -0.053231575 0.020210743
-0.0075951195 -0.053165834 0.022850096
-0.0066102147 -0.053983416 0.020987153
-0.0054309326 -0.053223141 0.02432844
-0.0044162804 -0.054099433 0.021230459
-0.0022014431 -0.053935356 0.017866224
0.0076929708 -0.053850792 0.017258584
-0.013286063 -0.053144254 0.020284444
-0.011870201 -0.051797241 0.022222489
-0.010952174 -0.052570436 0.020868212
-0.0098008802 -0.052271366 0.033144146
-0.0087598059 -0.052558836 0.019393593
-0.007708828 -0.052860532 0.019394457
-0.006545722 -0.052365776 0.02302736
-0.0054897619 -0.052701715 0.024481028
-0.004405492 -0.052865904 0.017967731
-0.0033032822 -0.052852515 0.017217487
-0.0022240167 -0.053376399 0.016854495
0 -0.052705776 0.016176641
0.0044633667 -0.053560399 0.015909433
0.0065471753 -0.052377403 0.017651886
0.0077673015 -0.053261496 0.019321829
-0.014421517 -0.052139331 0.017601401
-0.013008113 -0.050948445 0.020363003
-0.012119391 -0.051782854 0.019977033
-0.011103703 -0.052187406 0.019106507
-0.0097857667 -0.05110345 0.022352815
-0.008903807 -0.052309867 0.023661792
-0.0076644602 -0.051461376 0.017777473
-0.006563988 -0.051417906 0.021508187
-0.0055534369 -0.05220231 0.019934505
-0.004429793 -0.052050065 0.017633915
-0.0033200548 -0.052014194 0.017125607
0.0033315001 -0.0521935 0.016108245
0.0044055702 -0.051765453 0.025191307
0.0055040857 -0.051738407 0.016979426
0.0066766152 -0.052300155 0.016663998
0.0088665104 -0.052090745 0.015500039
0.010018982 -0.052321352 0.017121792
-0.013335175 -0.051118173 0.021797806
-0.012219448 -0.051099509 0.020079643
-0.010914312 -0.050205838 0.019959807
-0.0099101188 -0.050651722 0.020009428
-0.0087871691 -0.050526224 0.017297179
-0.0077251662 -0.05076538 0.025510907
-0.006688342 -0.051277291 0.020787507
-0.005461446 -0.050245307 0.019213378
-0.0043777591 -0.050344229 0.022097141
-0.0033295478 -0.05105307 0.021031499
0 -0.051316421 0.016573697
0.0033359083 -0.051150594 0.020062298
0.0043171854 -0.049647633 0.021854877
0.0056228698 -0.051730406 0.015893996
0.0067003346 -0.051369235 0.019842625
0.0077531477 -0.050949261 0.016159356
-0.013306209 -0.049898285 0.018557578
-0.012054974 -0.049315806 0.018849611
-0.01112878 -0.050079513 0.018802345
-0.0088662105 -0.049872436 0.019192219
-0.0077396324 -0.049754784 0.021931499
-0.0065742559 -0.049306925 0.022295862
-0.0054811565 -0.04933041 0.023653805
-0.0044424869 -0.049977977 0.020915806
-0.002230051 -0.050176147 0.018177807
-0.0011305476 -0.050874647 0.015148282
0 -0.049827747 0.015293777
0.0011092795 -0.049917579 0.018638432
0.0022096918 -0.049718071 0.020189434
0.0032255985 -0.048383981 0.022346258
0.0043811691 -0.049288154 0.030149758
0.0055614361 -0.05005293 0.021836162
0.0065091862 -0.048818897 0.021302253
0.0079631275 -0.051191539 0.015727639
-0.01338038 -0.049061395 0.01575163
-0.012340196 -0.049360786 0.017279536
-0.011171825 -0.049156033 0.022540003
-0.0098801749 -0.048303079 0.019366086
-0.008988387 -0.049436126 0.025887489
-0.0076683708 -0.048201188 0.01944077
-0.0065891524 -0.04832045 0.021962643
-0.0055796304 -0.049100749 0.01733312
-0.0044090399 -0.048499439 0.019491255
0 -0.049509898 0.016025305
0.0011089175 -0.048792366 0.021431625
0.0021723576 -0.047791865 0.027128726
0.0032837593 -0.048161805 0.024631232
0.0044114641 -0.048526105 0.029212594
0.005507207 -0.048463423 0.022545218
0.0066498765 -0.048765764 0.019271851
-0.010136486 -0.04842988 0.015928596
-0.0067160418 -0.048131634 0.017191738
-0.0044604209 -0.047949526 0.015471071
0 -0.047560856 0.023935258
0.0010808425 -0.046476226 0.027694017
0.0021813076 -0.046898115 0.029051781
0.0032851878 -0.047087692 0.027402341
0.0043503288 -0.046766035 0.025486052
0.0055071716 -0.047361676 0.021848023
0.0066305683 -0.047519073 0.021168321
0.0078138513 -0.047999371 0.015711993
0.008984983 -0.048294283 0.015396059
0.038867317 -0.049155727 0.015368521
-0.002213778 -0.046489339 0.02010873
-0.0011031395 -0.04633186 0.021588594
0 -0.045567911 0.026173174
0.0010947103 -0.045977831 0.027749807
0.002167084 -0.045508765 0.02932623
0.0032582164 -0.045615032 0.024692863
0.0043883398 -0.046077572 0.027651519
0.0054837563 -0.046063557 0.02474013
0.0066082976 -0.046258084 0.020494819
0.0078125084 -0.046875052 0.018699229
0.0088796625 -0.046618231 0.018358856
-0.0044459966 -0.045571469 0.018924266
-0.0033236514 -0.045423239 0.023219168
-0.0022217464 -0.045545802 0.022515893
-0.001096629 -0.044961788 0.024093211
0 -0.045016639 0.025937289
0.0010928075 -0.04480511 0.029334009
0.0021699453 -0.044483878 0.026689112
0.0032978118 -0.045070097 0.02838707
0.0044433279 -0.04554411 0.028046787
0.0055345958 -0.045383688 0.019603074
0.006689325 -0.045710389 0.018632025
0.007811965 -0.045755796 0.019334793
0.0088174138 -0.045189247 0.020304233
0.010074072 -0.045892995 0.016834378
0.011224894 -0.046022065 0.01833725
0.012149154 -0.045283213 0.016517043
-0.0055760238 -0.044608191 0.015967906
-0.0044585168 -0.044585165 0.019972563
-0.0033492381 -0.044656508 0.02572462
-0.002176556 -0.04353112 0.024438769
-0.0010826456 -0.043305825 0.028637558
0 -0.04394424 0.027399957
0.0010837984 -0.043351933 0.030870318
0.0021896614 -0.043793224 0.024050474
0.0033230283 -0.044307042 0.024511188
0.0043425155 -0.043425154 0.027714044
0.0055657104 -0.044525683 0.023879051
0.0066589694 -0.04439313 0.022907585
0.0076886513 -0.04393515 0.021984547
0.0088987239 -0.044493619 0.020163715
0.010060216 -0.044712074 0.018197358
0.011076676 -0.044306703 0.019870341
0.012447745 -0.045264527 0.017758369
-0.0055992329 -0.043674018 0.015826166
-0.0044605779 -0.04349063 0.021118343
-0.0032810569 -0.042653739 0.027867079
-0.0021592465 -0.042105306 0.029712409
-0.0010999636 -0.04289858 0.032358617
0 -0.042335406 0.026217163
0.0010994175 -0.042877279 0.028596014
0.0022238174 -0.043364439 0.023886442
0.003280693 -0.042649008 0.026313514
0.0044659181 -0.043542698 0.023060232
0.0055230758 -0.043079991 0.024248987
0.0065419045 -0.042522378 0.024369538
0.0077457484 -0.043154884 0.023640394
0.0088441074 -0.04311502 0.023396581
0.010066498 -0.043621492 0.01640588
0.011235302 -0.04381768 0.016550511
-0.0066752951 -0.04227687 0.020976365
-0.0055438159 -0.042133003 0.027799487
-0.0043698638 -0.041513707 0.029087126
-0.0032758301 -0.041493848 0.032317013
-0.0021914472 -0.041637499 0.027971268
-0.0010945805 -0.041594062 0.029428363
0 -0.04189406 0.031370938
0.0011059926 -0.042027719 0.027048826
0.0021794285 -0.041409142 0.024402022
0.0045174845 -0.042916104 0.016680181
0.0054479134 -0.041404143 0.024764627
0.0066301376 -0.041990872 0.023719847
0.0077603403 -0.042127565 0.028550029
0.0088258227 -0.041922659 0.024664551
0.010162294 -0.042907465 0.020803511
0.011141492 -0.042337671 0.017088473
0.012210793 -0.04218274 0.016990274
-0.0068418547 -0.042191438 0.015128851
-0.0055672633 -0.041197754 0.020423412
-0.0044070641 -0.040765345 0.026932478
-0.0033017269 -0.040721301 0.028390199
-0.0022048284 -0.040789329 0.028512031
-0.0010919812 -0.040403306 0.031742454
0 -0.040798817 0.027395219
0.0010827524 -0.040061839 0.031548142
0.0022262002 -0.041184705 0.019283324
0.0033895203 -0.041804086 0.019404411
0.0044192066 -0.040877663 0.021419704
0.0055205156 -0.040851817 0.027198851
0.0066844951 -0.041221056 0.021685481
0.0078271599 -0.041372135 0.015759617
0.0089390837 -0.041343264 0.02498588
0.009936844 -0.04085147 0.02170673
0.011231485 -0.041556496 0.016388357
0.022522176 -0.041666027 0.015790999
-0.0079453932 -0.04086202 0.017997682
-0.0067195264 -0.040317155 0.015399456
-0.005615585 -0.040432211 0.015157074
-0.0044816625 -0.040334959 0.024533778
-0.0033609557 -0.040331468 0.018704355
0 -0.040063679 0.016980112
0.0011370471 -0.040933691 0.015522569
0.0022299832 -0.040139697 0.025482059
0.0032804296 -0.039365157 0.024388522
0.0044262791 -0.039836511 0.027594417
0.0055457507 -0.039929405 0.02742362
0.0066557671 -0.039934602 0.021131754
0.0078688851 -0.040468551 0.019624978
0.0089090457 -0.040090706 0.018215448
0.0099811656 -0.039924663 0.022173077
0.011176956 -0.040237039 0.022196084
0.012404704 -0.040597212 0.018139362
0.013524154 -0.040572461 0.017701
0.021538332 -0.040809467 0.017228097
-0.0091000022 -0.039812509 0.015255749
-0.0078017442 -0.039008718 0.018997699
-0.006651402 -0.038799845 0.022399694
-0.0056149992 -0.039304994 0.021793067
-0.0045081601 -0.039446399 0.016059786
-0.0011268496 -0.039439734 0.017396867
0 -0.039110322 0.022888154
0.0011140327 -0.038991142 0.025755197
0.0021892907 -0.038312588 0.031148851
0.0033022901 -0.038526718 0.027358115
0.0044014999 -0.038513124 0.030297339
0.0054473598 -0.03813152 0.02976203
0.0066769109 -0.038948648 0.028473377
0.0077116145 -0.038558073 0.030682981
0.0088094631 -0.038541399 0.034325421
0.0099915601 -0.038856067 0.024850011
0.011126584 -0.038943045 0.022783905
0.012301232 -0.039140284 0.018434793
0.013849898 -0.040395536 0.015543371
-0.0089357523 -0.037976947 0.018927962
-0.0078667728 -0.038210042 0.019803613
-0.0034052471 -0.0385928 0.016063571
-0.0022259697 -0.037841484 0.021872103
-0.0011119625 -0.037806723 0.027777761
0 -0.037697356 0.029163122
0.0010920344 -0.037129167 0.027267456
0.0022222027 -0.037777446 0.028555214
0.0033420015 -0.037876017 0.027266771
0.0043652607 -0.037104715 0.027484864
0.0055268956 -0.037582893 0.029646873
0.0066313199 -0.03757748 0.032464653
0.0076592606 -0.037202124 0.029231578
0.0089921234 -0.038216524 0.023520231
0.009868511 -0.03728104 0.026045829
0.011095559 -0.037724901 0.024659514
0.012184277 -0.037660494 0.02754882
0.013398848 -0.037963402 0.022226989
0.014568763 -0.038102921 0.016055614
0.016037505 -0.038948227 0.015908539
0.020473817 -0.038672771 0.015780836
-0.0033603793 -0.036964171 0.02119571
-0.0022182895 -0.036601778 0.025790066
-0.0011142597 -0.036770571 0.028269738
0 -0.03635557 0.023991644
0.0011119505 -0.036694366 0.028877378
0.0022321448 -0.036830388 0.028974324
0.0033111577 -0.036422733 0.024938971
0.0044313096 -0.036558304 0.026907235
0.0056298254 -0.037156846 0.022385627
0.006570356 -0.036136959 0.028971523
0.0077437903 -0.03650644 0.03281033
0.0087927654 -0.036270157 0.028993279
0.0098875118 -0.036254209 0.029769421
0.011168336 -0.036855508 0.02653569
0.012254966 -0.036764901 0.027530253
0.013510968 -0.037155159 0.019510329
0.014708388 -0.037336674 0.020140499
0.016859874 -0.037091721 0.019359678
0.018335776 -0.037817538 0.01561743
0.019028721 -0.036938105 0.015397251
0.021870453 -0.037985522 0.015879393
-0.0045272615 -0.036218092 0.015778065
-0.0033643397 -0.035886291 0.021686226
-0.0022369714 -0.035791542 0.025916874
-0.0011040303 -0.035328969 0.026087314
0 -0.035513852 0.025941491
0.0011155787 -0.035698518 0.022489071
0.0021989229 -0.035182767 0.02637881
0.0033404531 -0.0356315 0.027180701
0.004483744 -0.035869952 0.025940239
0.0055875056 -0.035760038 0.019327015
0.0066748769 -0.035599343 0.027761877
0.0077483305 -0.035420939 0.026107758
0.0088076647 -0.035230659 0.027078807
0.0099387262 -0.035337694 0.029726803
0.011112255 -0.035559218 0.026832759
0.012216669 -0.035539404 0.026344925
0.013497652 -0.03599374 0.023767084
0.014397824 -0.035440799 0.024591416
0.015739618 -0.035976268 0.022183865
0.016927047 -0.036111034 0.021137178
0.017910939 -0.035821877 0.018657237
0.019398009 -0.036513899 0.016809225
0.020274527 -0.036043607 0.018191814
0.024198249 -0.036873523 0.016388535
0.024817104 -0.036097605 0.015269667
-0.0045551378 -0.035302319 0.016340435
-0.0033863359 -0.03499214 0.026456535
-0.0022264668 -0.034510236 0.027235091
-0.0011057662 -0.03427875 0.025995106
0 -0.034870621 0.027551502
0.0011032127 -0.034199595 0.025435865
0.0022742497 -0.035250869 0.019307703
0.0055968054 -0.034700193 0.021956831
0.0067724688 -0.034991093 0.021518439
0.0076643229 -0.033942003 0.026161432
0.0088210581 -0.034181602 0.031022757
0.0099373879 -0.034228783 0.033063233
0.011079787 -0.034347344 0.02965793
0.012225075 -0.034452483 0.02834335
0.013237052 -0.034195717 0.027879506
0.014506485 -0.03459239 0.023453921
0.015713774 -0.034794789 0.022406965
0.016693426 -0.03449975 0.021797419
0.018086467 -0.035042528 0.018636554
0.019379083 -0.035338327 0.01562202
0.02042716 -0.03518011 0.026114881
0.021363387 -0.034856051 0.018241882
0.022624709 -0.035068303 0.021469861
0.02371468 -0.035007387 0.017921627
0.024938129 -0.035140093 0.022192717
-0.0022295639 -0.033443458 0.021524638
-0.0011230618 -0.033691853 0.024735361
0 -0.033323482 0.02694872
0.0011382629 -0.034147888 0.019579113
0.0022876926 -0.034315389 0.015176713
0.0033709258 -0.033709258 0.016587079
0.0045117377 -0.033838034 0.019699782
0.0056878501 -0.034127101 0.023493141
0.0066402392 -0.033201195 0.026751131
0.0077968505 -0.033415075 0.026409566
0.0088864407 -0.033324152 0.029569596
0.0098659582 -0.032886527 0.033628792
0.011067905 -0.033203717 0.031389862
0.01212242 -0.033061147 0.027011514
0.013374484 -0.033436213 0.028468251
0.01464907 -0.033805545 0.025500327
0.015719302 -0.033684216 0.023577929
0.017015589 -0.034031179 0.018763423
0.018477758 -0.034645796 0.016598672
0.019194787 -0.033873152 0.022744894
0.020227654 -0.033712756 0.01773718
0.021327037 -0.03367427 0.023590147
0.022483235 -0.033724852 0.01962775
0.023601849 -0.033716928 0.021835506
0.024896091 -0.033949215 0.018384099
0.025554975 -0.033332575 0.023699254
0.027202621 -0.034003276 0.018548787
-0.0011230854 -0.032569475 0.022623479
0 -0.032516666 0.027245581
0.001138046 -0.033003338 0.018706948
0.0022265671 -0.032285225 0.02138266
0.0033987279 -0.032854371 0.024423063
0.0044962666 -0.032597937 0.023692757
0.0055408175 -0.032136742 0.02481097
0.0066885231 -0.032327864 0.024299324
0.0078136036 -0.032370646 0.028895348
0.0088399127 -0.032044683 0.030037135
0.01006695 -0.03243795 0.028673619
0.0110292 -0.031984679 0.030252635
0.012281122 -0.032377504 0.029156387
0.013429456 -0.03245452 0.027354956
0.014546659 -0.03245024 0.025772452
0.015841307 -0.032814138 0.020786405
0.017067021 -0.032996241 0.020006597
0.017753875 -0.032178901 0.019713014
0.020485068 -0.033003725 0.018104941
0.021120874 -0.032237124 0.022816896
0.022438757 -0.032536197 0.026434243
0.023275841 -0.032142829 0.028835922
0.024442414 -0.032219548 0.025480062
0.026003726 -0.032787308 0.023412168
0.027464019 -0.033185691 0.017726541
-0.0022368156 -0.03131542 0.022335321
-0.0011187224 -0.031324226 0.022189528
0 -0.031910207 0.022067964
0.0011081994 -0.03102958 0.023430407
0.0022516572 -0.031523202 0.025303632
0.0034073594 -0.031802021 0.026081771
0.0044126404 -0.030888483 0.025375664
0.0056856438 -0.031839605 0.02216354
0.0068239989 -0.031845327 0.0192191
0.0077438923 -0.030975569 0.024375677
0.0089742979 -0.031410042 0.03164795
0.0099291708 -0.030890757 0.028946251
0.011100475 -0.031081328 0.0262447
0.012416397 -0.031605374 0.026145667
0.013396814 -0.031259235 0.022349894
0.014622735 -0.03149512 0.024196357
0.01590794 -0.031815879 0.019452721
0.016912306 -0.031569637 0.019037634
0.018303538 -0.03203119 0.020470142
0.020233842 -0.031474866 0.01611501
0.021377426 -0.031503573 0.024765223
0.022547215 -0.031566102 0.027945578
0.023364145 -0.031152193 0.025439352
0.024552291 -0.031248372 0.028181225
0.025990162 -0.031640198 0.020962924
-0.0056951325 -0.030753719 0.015256792
-0.0045907875 -0.030987816 0.019685954
-0.0022779587 -0.030752443 0.017350554
-0.0011299861 -0.030509625 0.024115801
0 -0.030299466 0.024724215
0.0011215298 -0.030281305 0.026987284
0.0022463237 -0.030325372 0.027181715
0.0033548325 -0.030193495 0.024626195
0.0045185168 -0.030499987 0.026840031
0.0056069256 -0.030277399 0.029175252
0.0066788085 -0.03005464 0.026449025
0.007915535 -0.030531349 0.025693715
0.0088040633 -0.029713714 0.032115608
0.0099385325 -0.029815599 0.028513312
0.011141296 -0.030081501 0.024692237
0.012243253 -0.030051624 0.025687933
0.013604886 -0.030610994 0.024518549
0.014666339 -0.030460861 0.027313709
0.015874909 -0.030615898 0.020769298
0.01669451 -0.030050121 0.025387824
0.018034328 -0.030432928 0.019087702
0.019185344 -0.030470841 0.021541327
0.020486722 -0.030730084 0.022535712
0.021521937 -0.030583806 0.028998971
0.022006638 -0.029708965 0.030818284
0.023310719 -0.029970925 0.029137552
0.024642011 -0.030242469 0.025853395
0.025561538 -0.030007022 0.018585593
0.028329095 -0.031870235 0.016008019
-0.0045754821 -0.029740633 0.018326253
-0.0011314502 -0.029417705 0.019641429
0 -0.029352935 0.026407659
0.0011208019 -0.029140851 0.026042551
0.0022218688 -0.028884295 0.024168223
0.0033763773 -0.029261937 0.027380496
0.004549684 -0.029572947 0.024142951
0.0055987239 -0.029113363 0.023266166
0.0067397766 -0.029205699 0.029154718
0.0077988748 -0.028967248 0.029445559
0.0089855865 -0.029203156 0.027497441
0.010183254 -0.029418292 0.026303679
0.011247757 -0.02924417 0.019878656
0.012470746 -0.029476309 0.025400251
0.013685219 -0.029651308 0.019778669
0.014562024 -0.029124048 0.022355676
0.015840065 -0.029417261 0.021380842
0.017044758 -0.029544247 0.018800795
0.017797021 -0.028920159 0.020014971
0.019206071 -0.02937399 0.021739453
0.020467114 -0.029563611 0.028277606
0.020525422 -0.028087419 0.032650441
0.022688471 -0.029495014 0.026253343
0.023578692 -0.029192666 0.029093772
0.02478507 -0.029291447 0.018907189
0.026303453 -0.029734338 0.025416642
-0.0022794262 -0.028492829 0.018062115
-0.0011293173 -0.028232932 0.022663057
0 -0.028383641 0.025827676
0.0011135555 -0.027838888 0.026703894
0.0022572747 -0.028215934 0.02779907
0.0033982738 -0.028318949 0.027482212
0.0044656978 -0.027910611 0.028552622
0.0056446432 -0.028223217 0.026750624
0.006704336 -0.027934734 0.029475778
0.0078567611 -0.028059863 0.025263935
0.0090571046 -0.028303452 0.026041567
0.010065499 -0.027959721 0.025164068
0.011222772 -0.028056931 0.024043173
0.01250083 -0.028410979 0.020659178
0.013426065 -0.027970972 0.024891496
0.0146268 -0.028128464 0.023746014
0.01587408 -0.028346572 0.035129517
0.016887823 -0.028146373 0.029263824
0.017885461 -0.027946034 0.028336734
0.019032363 -0.027988769 0.028722942
0.019865198 -0.027590554 0.03287825
0.021004524 -0.027637532 0.033117622
0.022599677 -0.028249597 0.032238364
0.02370622 -0.028221691 0.019569069
0.025083099 -0.028503524 0.028219432
0.0264236 -0.028721305 0.015529454
0.027492618 -0.028638145 0.016231894
0.028817529 -0.028817529 0.015330464
-0.0035010444 -0.028008355 0.015240461
-0.0023048506 -0.027658205 0.024735719
-0.0011586444 -0.027807465 0.019331008
0 -0.027074235 0.024736017
0.0011286375 -0.027087297 0.027657509
0.0022498283 -0.026997939 0.029361486
0.0032938011 -0.026350409 0.031357378
0.0045233467 -0.027140081 0.028556943
0.0056403312 -0.02707359 0.029602975
0.0066878311 -0.026751325 0.028263092
0.0079235639 -0.027166503 0.027336866
0.0090351179 -0.027105354 0.030938178
0.010118514 -0.026982706 0.029330075
0.011506206 -0.027614895 0.024338841
0.012453208 -0.027170636 0.02521345
0.013565365 -0.02713073 0.022583365
0.014833067 -0.027384123 0.029127389
0.015959106 -0.027358469 0.018735349
0.016943313 -0.027109301 0.023185939
0.018157728 -0.027236592 0.026978761
0.018821266 -0.026571197 0.030892223
0.020005032 -0.026673377 0.034683079
0.021217961 -0.026801635 0.031225771
0.02217515 -0.026610181 0.028109491
0.023691956 -0.02707652 0.029905111
0.02517917 -0.027468186 0.017089814
0.026001344 -0.027131835 0.019056261
-0.0070934622 -0.027191605 0.021328211
-0.0046347957 -0.026650077 0.015485853
-0.0034779988 -0.026664658 0.019187272
-0.0011448737 -0.026332093 0.022767216
0 -0.026138959 0.027052879
0.0011360468 -0.026129078 0.02914685
0.0022439484 -0.025805408 0.029097915
0.0034138991 -0.026173228 0.031994998
0.0045016077 -0.025884245 0.030557752
0.0056152865 -0.025830321 0.030094296
0.0068272245 -0.026171029 0.028194159
0.0079583814 -0.026148967 0.027048737
0.0091557316 -0.02632273 0.026584893
0.010318823 -0.026370328 0.026948661
0.011308281 -0.026009047 0.025267452
0.012429594 -0.025989152 0.026921004
0.013829482 -0.026506508 0.035900146
0.014778286 -0.0261462 0.025821775
0.015588381 -0.025609484 0.029980928
0.01689925 -0.025912186 0.034650177
0.017467447 -0.025109453 0.034671158
0.018929478 -0.025610471 0.040627956
0.020042984 -0.02561048 0.036488235
0.021201421 -0.025664877 0.039378434
0.022538321 -0.02591907 0.036139131
0.02379244 -0.026058387 0.025167704
0.024856558 -0.025986403 0.026355714
0.02636438 -0.02636438 0.024820507
0.027534349 -0.026387086 0.021997362
0.029029645 -0.026707273 0.018105567
0.030160783 -0.026680695 0.018321365
-0.0022745826 -0.025020408 0.017047197
-0.0011312745 -0.024888039 0.019872338
0 -0.025131894 0.020676047
0.0011124007 -0.024472814 0.029613674
0.0022719039 -0.024990942 0.021357685
0.0033758397 -0.024756158 0.028224856
0.004431861 -0.024375236 0.021600425
0.0056489483 -0.024855373 0.024278492
0.0068990416 -0.025296485 0.017946482
0.0079539577 -0.024998151 0.017263979
0.010276444 -0.025120197 0.020183891
0.011345776 -0.024960706 0.021619111
0.012529078 -0.025058156 0.033278614
0.013586046 -0.024907751 0.021518767
0.014562021 -0.024643421 0.024827451
0.015784785 -0.024804663 0.027989358
0.016673462 -0.024454411 0.032124043
0.017748274 -0.024403876 0.034603
0.018970389 -0.024549913 0.027275652
0.0198115 -0.024214057 0.035909444
0.02127487 -0.02463406 0.029726505
0.022945238 -0.025239762 0.021647602
0.023405064 -0.024519591 0.022836506
0.025168978 -0.025168978 0.020037055
0.026642075 -0.025483722 0.015609205
0.028743546 -0.025294319 0.015677482
0.029689521 -0.025121901 0.018834263
-0.005864027 -0.024628915 0.01829046
-0.0034583108 -0.024208177 0.015319914
-0.0022837776 -0.023979664 0.016732812
-0.0011556001 -0.024267601 0.022724718
0 -0.023669232 0.020557046
0.0011350188 -0.023835393 0.019607037
0.0022785407 -0.023924679 0.020581186
0.0033881655 -0.023717159 0.02243188
0.0045956364 -0.024127092 0.017876923
0.0081012016 -0.024303606 0.025034845
0.0090993093 -0.023885688 0.016632318
0.01029097 -0.024012264 0.021769375
0.01243501 -0.023739565 0.021888405
0.013581292 -0.023767261 0.019720107
0.014719833 -0.023778193 0.026729584
0.01564547 -0.023468208 0.026824713
0.016625494 -0.023275692 0.029767394
0.017964814 -0.023578819 0.029667139
0.018470289 -0.022816241 0.04205054
0.020340821 -0.023730958 0.027908981
0.021390967 -0.023642648 0.027005583
0.022462992 -0.023586143 0.022258639
0.024408061 -0.024408061 0.017829001
0.025269985 -0.02412135 0.021036834
0.028499732 -0.023939773 0.015971273
0.029522857 -0.023845384 0.01776734
0.031209392 -0.024273971 0.016500741
-0.0046176594 -0.023088295 0.019974053
-0.0011509976 -0.023019951 0.017709523
0.0011474045 -0.02294809 0.017587721
0.0034636855 -0.023091236 0.023433506
0.0080881706 -0.02310906 0.015782773
0.0092056859 -0.023014214 0.015392333
0.011517992 -0.023035984 0.023134589
0.012485481 -0.022700874 0.020892829
0.013623201 -0.022705335 0.024884552
0.014396497 -0.022148456 0.03196761
0.015505171 -0.022150245 0.028654039
0.016911514 -0.022548685 0.03042841
0.017189188 -0.021486485 0.045930356
0.018909145 -0.022246053 0.030544043
0.020330273 -0.022589192 0.028472245
0.021035399 -0.022142524 0.027666003
0.022819851 -0.022819851 0.021117985
0.024128925 -0.022979928 0.021845102
0.024913345 -0.022648495 0.021842182
0.027484104 -0.022903418 0.019404322
0.028644675 -0.02291574 0.016556829
0.029972192 -0.023055531 0.019738615
0.0035238548 -0.022317749 0.016785473
0.011308719 -0.021486569 0.020677567
0.012461548 -0.021524493 0.027276039
0.013421762 -0.021251123 0.034579635
0.014432275 -0.021093324 0.030924469
0.015713282 -0.021325169 0.029680073
0.016422393 -0.020801697 0.037881911
0.017685931 -0.021002045 0.030623943
0.019192822 -0.021450803 0.030280024
0.019980079 -0.021090085 0.029011101
0.021500325 -0.021500325 0.026160568
0.02272407 -0.021587867 0.021947861
0.02362732 -0.0213771 0.022237003
0.025072902 -0.021653872 0.020579845
0.025957176 -0.021442885 0.024395645
0.027624594 -0.021869471 0.029037058
0.02883203 -0.021912342 0.021203041
0.029964756 -0.021897323 0.016264468
0.030798744 -0.021673189 0.021828234
0.0057662749 -0.02075859 0.016908407
0.0068224506 -0.02046735 0.028333992
0.010379128 -0.020758256 0.017709315
0.01133499 -0.020402981 0.022311896
0.01227678 -0.020089276 0.026718974
0.013457649 -0.020186473 0.030029297
0.01442919 -0.019978877 0.033947736
0.015299182 -0.019670377 0.0455845
0.016680857 -0.020017028 0.031506956
0.018344341 -0.020637384 0.021108121
0.018996388 -0.020113822 0.028530806
0.020385467 -0.020385467 0.027164578
0.021538638 -0.020405024 0.023461998
0.022477249 -0.020229524 0.024067551
0.023925127 -0.020507252 0.023407519
0.025007542 -0.020460717 0.026250869
0.025666429 -0.020086769 0.023620039
0.027645281 -0.02073396 0.019506216
0.028738072 -0.02069141 0.017849565
0.029704271 -0.020564495 0.021785676
0.03122565 -0.020817099 0.018257082
0.032400444 -0.020828856 0.016576856
0 -0.019861704 0.0159612
0.0022663404 -0.019263893 0.015351802
0.0034848049 -0.019747227 0.021784574
0.0069788913 -0.019773526 0.021539122
0.0081118625 -0.019700238 0.015690774
0.0091976644 -0.019545037 0.025873929
0.010325446 -0.019503621 0.0194166
0.011263754 -0.019148383 0.027771115
0.012283478 -0.018983558 0.02664879
0.01344158 -0.01904224 0.036535949
0.014322321 -0.018729189 0.040356904
0.015549744 -0.018881831 0.031951636
0.017494483 -0.019827081 0.018044233
0.019327497 -0.019327497 0.024614125
0.020386593 -0.019254005 0.025317401
0.021192972 -0.018962132 0.025703907
0.022738896 -0.019328061 0.030690074
0.024078486 -0.019492108 0.026597917
0.024652958 -0.019050013 0.024866819
0.025937805 -0.01917142 0.026833922
0.027227961 -0.019286472 0.023424596
0.028596791 -0.019445818 0.02120778
0.029759659 -0.019458238 0.020742416
0.03060049 -0.019266974 0.02224642
0.032337606 -0.019633546 0.020419419
0.0011360393 -0.018176628 0.021104991
0.003517515 -0.018760081 0.016303539
0.0046146158 -0.018458463 0.017326713
0.0057690213 -0.01846087 0.022248775
0.0068856701 -0.018361788 0.018349081
0.0079694195 -0.018215815 0.021954685
0.009216642 -0.018433284 0.023756742
0.010080913 -0.017921625 0.024291486
0.011300849 -0.018081358 0.028529257
0.012231148 -0.017790761 0.040440172
0.013244186 -0.017658915 0.036466658
0.014498743 -0.017844606 0.026477069
0.016201764 -0.018516302 0.019703895
0.017194904 -0.01834123 0.01743722
0.020317474 -0.018059978 0.025977343
0.021680798 -0.018257514 0.025730938
0.022927437 -0.018341949 0.021054447
0.023587761 -0.017971627 0.025627166
0.024921825 -0.018124964 0.027813792
0.026056584 -0.018126318 0.026909709
0.027157772 -0.018105183 0.023913532
0.028940253 -0.018521762 0.01984787
0.029326415 -0.018047025 0.023979068
0.030592134 -0.018128671 0.027306348
0.032495778 -0.018569017 0.023095787
0.033726167 -0.01860754 0.015191883
0.034638509 -0.018473871 0.017157644
0.0023435673 -0.017576756 0.018109024
0.0034037924 -0.017018963 0.028101385
0.0046087252 -0.017282721 0.02278769
0.0057226648 -0.017167995 0.029562265
0.0068135913 -0.017033977 0.019788772
0.0080162492 -0.017177677 0.032508761
0.0091619734 -0.017178699 0.019080311
0.010192087 -0.016986812 0.031019121
0.011371383 -0.017057076 0.037133008
0.0123067 -0.016781865 0.032087266
0.013732953 -0.017166192 0.024971217
0.01494271 -0.01724159 0.022606343
0.016083974 -0.01723283 0.020996809
0.017117105 -0.017117105 0.021749943
0.018664647 -0.017498108 0.025498271
0.01948452 -0.017192224 0.017971158
0.020972464 -0.017477054 0.016922206
0.021531397 -0.016998472 0.028289706
0.022388022 -0.016791018 0.025730282
0.023923554 -0.017088253 0.023925841
0.025173185 -0.017163536 0.029008985
0.025731696 -0.016781541 0.028737217
0.027758894 -0.01734931 0.022966951
0.028603999 -0.017162399 0.025906891
0.029283395 -0.016894266 0.025465012
0.030887263 -0.01715959 0.024317861
0.031988319 -0.0171366 0.02236861
0.033281755 -0.017214699 0.016603321
0.035212398 -0.017606199 0.01762107
0.035951756 -0.01739601 0.021651626
0.0011680616 -0.016352862 0.015161395
0.0022902763 -0.016031934 0.018305629
0.0034636962 -0.016163917 0.026348978
0.0046215733 -0.016175507 0.021522343
0.0056735217 -0.015885862 0.024080962
0.0068317559 -0.015940765 0.029832035
0.0079709115 -0.015941823 0.030391395
0.0089717386 -0.015700541 0.030682385
0.010220425 -0.01589844 0.034068108
0.011308447 -0.015831824 0.028875738
0.012503474 -0.015913513 0.026096106
0.013808019 -0.016109357 0.025972426
0.014765911 -0.01590175 0.0219993
0.015972031 -0.015972031 0.024969429
0.017229175 -0.016080564 0.023481309
0.017999958 -0.015749963 0.024842978
0.019402444 -0.015978483 0.025010884
0.020530565 -0.015968218 0.028514683
0.021424629 -0.01578657 0.027707934
0.022963366 -0.016074358 0.027850628
0.023879707 -0.015919805 0.028066128
0.024847498 -0.015812045 0.027380913
0.026164996 -0.015926518 0.028958857
0.027275253 -0.015910564 0.021630794
0.028234057 -0.015811071 0.027733803
0.029749285 -0.016018845 0.029626697
0.030479645 -0.015804259 0.034121037
0.03175801 -0.015879005 0.030589372
0.033386979 -0.016117852 0.023047388
0.035373006 -0.015974905 0.017522097
0.04170648 -0.016219188 0.015246153
0.0023244752 -0.015109089 0.015650064
0.0034601488 -0.014993979 0.021402746
0.0046107494 -0.014984936 0.022499204
0.0057066018 -0.014837165 0.027519912
0.0068443972 -0.014829527 0.026227087
0.0078879818 -0.014649108 0.024909884
0.0091075171 -0.014799714 0.029003292
0.010375371 -0.014986648 0.022933304
0.011452571 -0.014888342 0.022420198
0.012584941 -0.014873112 0.0267075
0.013775557 -0.01492352 0.025755286
0.014726769 -0.014726769 0.02967602
0.015930742 -0.014792832 0.029429883
0.017007731 -0.014740033 0.024676949
0.018100852 -0.014706942 0.030617893
0.019242601 -0.01471493 0.027984351
0.020301064 -0.01466188 0.022891611
0.021654287 -0.01481609 0.020746142
0.022788782 -0.014812708 0.025978237
0.023516191 -0.014557642 0.026729584
0.025067799 -0.01481279 0.032007933
0.026037049 -0.014716592 0.031127304
0.027054159 -0.014654336 0.033556104
0.028376324 -0.014755688 0.026349336
0.02949563 -0.014747815 0.028583169
0.030813834 -0.01483629 0.025076061
0.032116447 -0.014911207 0.023880184
0.033084828 -0.014831129 0.021541893
0.034598634 -0.014992742 0.016238511
0.035803545 -0.01501439 0.023040771
0.039967429 -0.014845045 0.018310636
0.042109847 -0.015206334 0.015150309
0.0011645943 -0.013975131 0.0267196
0.0034514598 -0.013805839 0.017576963
0.0046508457 -0.013952537 0.018527329
0.0057673813 -0.013841716 0.022280902
0.0067992252 -0.01359845 0.025644094
0.0080135828 -0.01373757 0.032005072
0.0091755018 -0.013763252 0.021498203
0.010269245 -0.013692327 0.024568111
0.011614317 -0.013937181 0.027418137
0.01257989 -0.013723517 0.02354154
0.013685979 -0.013685979 0.027974844
0.014743757 -0.013609622 0.030555487
0.015678717 -0.013438899 0.032696992
0.016914956 -0.013531964 0.032742739
0.018040877 -0.013530658 0.037708968
0.019255487 -0.013592108 0.02652511
0.020702671 -0.013801781 0.026546568
0.021645563 -0.013670881 0.03146258
0.022324273 -0.013394564 0.033723205
0.023935977 -0.013677701 0.03279376
0.024827421 -0.013542229 0.029405743
0.025750777 -0.013435188 0.029791087
0.027316168 -0.013658084 0.028083205
0.028272079 -0.013570597 0.026935339
0.029289186 -0.013518086 0.02564168
0.030755479 -0.013669101 0.030015796
0.031941891 -0.013689382 0.025316924
0.033122651 -0.013705923 0.021300405
0.034395285 -0.013758114 0.024043649
0.035342921 -0.01368113 0.023771733
0.040442288 -0.013865927 0.018117756
0.042167738 -0.014055913 0.016074151
0.0023232389 -0.012777814 0.017529726
0.0035146088 -0.012886899 0.021405965
0.0047011585 -0.012928185 0.027476043
0.0057336651 -0.012614063 0.023672104
0.008216368 -0.012911434 0.019672483
0.0092843892 -0.012766035 0.023449868
0.010449869 -0.012772062 0.022181094
0.011440882 -0.012584969 0.022862256
0.012592187 -0.012592187 0.024444938
0.013819291 -0.012667684 0.025954127
0.014745606 -0.012477051 0.032360941
0.01577621 -0.012395593 0.035282135
0.016945407 -0.012426631 0.038909197
0.017766399 -0.012214399 0.030914813
0.019191645 -0.012418123 0.028085977
0.020398358 -0.012465664 0.031224906
0.02108838 -0.012209062 0.031951934
0.022508504 -0.012379677 0.03082791
0.023937693 -0.012538791 0.030799598
0.024517225 -0.012258613 0.030673772
0.025983555 -0.012426917 0.030791193
0.026884429 -0.01232203 0.030519009
0.028473333 -0.012528266 0.032728672
0.029308679 -0.012399825 0.031361014
0.030486749 -0.012420527 0.029628724
0.032107614 -0.012613706 0.023737818
0.033050973 -0.012536574 0.026262641
0.034064051 -0.012490151 0.026306421
0.03591061 -0.012742475 0.018644392
0.039308324 -0.012717399 0.02477935
0.040317658 -0.012671263 0.022539556
0.040638734 -0.012417391 0.022825956
0.0093049882 -0.011631235 0.017503232
0.010489495 -0.011654994 0.02513212
0.011476974 -0.011476974 0.025374413
0.012743153 -0.011584684 0.025226504
0.013691515 -0.011409596 0.026613832
0.014657074 -0.011274672 0.028780729
0.016007517 -0.011433939 0.02765736
0.016936466 -0.011290977 0.029920816
0.018033607 -0.011271004 0.029723048
0.019393755 -0.011408091 0.02738139
0.020122377 -0.011179099 0.030739784
0.021431038 -0.011279493 0.028593004
0.022787591 -0.011393796 0.030464649
0.023306483 -0.011098325 0.030996442
0.024970079 -0.011350036 0.036348373
0.026072035 -0.011335666 0.030744493
0.027347654 -0.011394856 0.030764312
0.028498007 -0.011399202 0.032219768
0.029184071 -0.011224642 0.030243844
0.030871348 -0.011433832 0.024157017
0.032298703 -0.011535251 0.028920233
0.032961447 -0.011366016 0.028817832
0.03451487 -0.011504957 0.023293167
0.038050342 -0.011530406 0.018468112
0.039507065 -0.011619725 0.021768391
0.040177882 -0.011479395 0.02028203
0.042210646 -0.011725179 0.017824888
0.0081964871 -0.010538341 0.022600591
0.009267509 -0.010425947 0.017236084
0.01035738 -0.01035738 0.018307805
0.011564191 -0.010407773 0.023157656
0.012632638 -0.010335795 0.024496734
0.013696714 -0.010272535 0.028882146
0.014905858 -0.01031944 0.030317783
0.015965819 -0.010263741 0.024539739
0.01698133 -0.010188797 0.032944143
0.018233491 -0.010256338 0.030138999
0.019104995 -0.010114409 0.02860111
0.020282516 -0.010141258 0.033421159
0.021833766 -0.010342309 0.030543208
0.022463819 -0.010108719 0.025717437
0.023909993 -0.010247139 0.029488474
0.025061276 -0.010252341 0.029825449
0.025677441 -0.010047694 0.032231301
0.027233897 -0.010212711 0.032153577
0.028370401 -0.010213344 0.028303504
0.029834261 -0.010327244 0.024673402
0.030863319 -0.010287772 0.02856192
0.032057121 -0.010304075 0.024738103
0.032848783 -0.010194449 0.028430402
0.034261588 -0.010278476 0.025896341
0.038443539 -0.010484601 0.021263868
0.040798765 -0.010491111 0.023416787
0.0036661148 -0.0097763063 0.029724926
0.011457544 -0.0091660349 0.021964341
0.012652746 -0.0092019979 0.023011118
0.013813707 -0.0092091383 0.026836216
0.014689612 -0.0090397615 0.02785778
0.015959842 -0.0091199102 0.031559736
0.017170476 -0.0091575868 0.02670756
0.017980078 -0.0089900391 0.031090856
0.019454952 -0.0091552716 0.031721145
0.020787859 -0.0092390487 0.028672576
0.021466995 -0.0090387342 0.03205502
0.022636712 -0.009054685 0.032075495
0.02379236 -0.0090637561 0.032461017
0.02455104 -0.0089276507 0.034307182
0.026235938 -0.0091255438 0.028897732
0.027742131 -0.0092473775 0.022321224
0.028581819 -0.0091461819 0.027161092
0.029883292 -0.0091948593 0.031755924
0.03052007 -0.0090429839 0.029755622
0.031961754 -0.0091319289 0.032329082
0.033305451 -0.0091877105 0.032274693
0.03461539 -0.0092307702 0.023149878
0.037430022 -0.0093575055 0.026276648
0.037735797 -0.0091480725 0.024594486
0.039625067 -0.0093235457 0.024880886
0.040815793 -0.0093293246 0.021620393
0.041539926 -0.0092310952 0.016199559
0.0047436706 -0.0083014229 0.01828897
0.0094395932 -0.0082596438 0.018456906
0.01044344 -0.0081226761 0.022039831
0.011617153 -0.008132007 0.020088226
0.012757248 -0.0081182485 0.024767339
0.013736839 -0.0080131562 0.02086544
0.014866157 -0.0080048535 0.025226712
0.01613972 -0.0080698598 0.025078356
0.017109137 -0.0079842638 0.026903778
0.018376639 -0.008039779 0.024708152
0.019543879 -0.0080474792 0.023536146
0.020523529 -0.007981373 0.024995297
0.021827843 -0.0080418363 0.024578303
0.023331918 -0.0081661716 0.024648339
0.023683518 -0.0078945057 0.026276857
0.025290104 -0.0080468515 0.02836746
0.026517145 -0.0080704354 0.026707888
0.027293572 -0.007960625 0.029308647
0.02884632 -0.0080769695 0.029644907
0.029506639 -0.0079440949 0.025941312
0.030782629 -0.007980681 0.031070918
0.032268062 -0.0080670156 0.029119402
0.033093639 -0.0079881195 0.024955064
0.034741025 -0.0081062391 0.018749356
0.036214381 -0.0079218959 0.029705435
0.038357124 -0.00813636 0.022456855
0.039790079 -0.0081920754 0.020508289
0.040330905 -0.0080661811 0.015280753
0.0059071057 -0.0070885271 0.016947955
0.011701125 -0.0070206746 0.022283226
0.012667932 -0.0069097811 0.024427027
0.013896087 -0.0069480436 0.030519426
0.015306416 -0.0070644999 0.025081515
0.016269185 -0.006972508 0.021715939
0.018685395 -0.0070070233 0.019640625
0.019528104 -0.0068922718 0.018542141
0.021131726 -0.0070439088 0.017370731
0.022205943 -0.0070124031 0.020535499
0.022776304 -0.0068328916 0.021190673
0.024204861 -0.0069156741 0.023136258
0.02526702 -0.0068910057 0.030000091
0.025982032 -0.0067779212 0.026952446
0.027424673 -0.0068561682 0.02814135
0.028155316 -0.0067572757 0.029086322
0.029813128 -0.0068799527 0.030249834
0.030867638 -0.0068594748 0.028419942
0.03164608 -0.0067813029 0.033450961
0.033128478 -0.0068541677 0.027437091
0.035037905 -0.0070075807 0.022811413
0.036321465 -0.0070299609 0.018795222
0.036896519 -0.0069180974 0.031238168
0.038003758 -0.0069097746 0.027124345
0.03892418 -0.0068689729 0.025101751
0.0095129646 -0.0059456024 0.01870209
0.011594253 -0.0057971263 0.018529326
0.012829941 -0.0058317911 0.020990431
0.014031128 -0.005846303 0.024426132
0.014997191 -0.0057681501 0.024521679
0.016318368 -0.0058279885 0.019864321
0.017569205 -0.0058564018 0.024980485
0.018525204 -0.0057891258 0.022736132
0.019759705 -0.0058116778 0.02419576
0.020632507 -0.0057312525 0.028188795
0.021599205 -0.0056840009 0.030036956
0.02334097 -0.0058352426 0.024601489
0.024168609 -0.0057544303 0.028689951
0.024729475 -0.0056203352 0.027444184
0.026356729 -0.0057297233 0.028389901
0.027627185 -0.0057556634 0.03099063
0.028545734 -0.0057091466 0.031083256
0.030003974 -0.005769995 0.027549505
0.030646957 -0.0056753624 0.028201908
0.032078028 -0.0057282192 0.028075427
0.033469971 -0.0057706842 0.026100218
0.034957025 -0.0058261706 0.01887235
0.035740409 -0.0057645817 0.023780495
0.037292581 -0.0058269659 0.028054535
0.037772451 -0.0057230988 0.019979328
0.040191695 -0.0059105433 0.020655632
0.041647688 -0.00594967 0.015257597
0.041571178 -0.0057737748 0.018411994
0.010694685 -0.0047531938 0.020554721
0.011718312 -0.0046873251 0.021772593
0.012908071 -0.0046938444 0.020088971
0.013887447 -0.0046291491 0.020160675
0.01494691 -0.0045990492 0.025838703
0.016323945 -0.0046639843 0.022424161
0.017155681 -0.0045748483 0.027564645
0.018080248 -0.0045200619 0.036456823
0.019302525 -0.0045417701 0.03087303
0.020538798 -0.0045641772 0.023584723
0.02213327 -0.0046596359 0.024921864
0.023185732 -0.0046371464 0.032469988
0.02378569 -0.0045306073 0.034000278
0.025375746 -0.0046137725 0.029247046
0.026587075 -0.0046238392 0.025225341
0.027483348 -0.0045805578 0.030115068
0.029025758 -0.004644121 0.026970416
0.0297786 -0.0045813229 0.026211679
0.031294968 -0.0046362914 0.02669403
0.032244124 -0.0046063033 0.02951166
0.033308659 -0.0045942976 0.028582066
0.034843087 -0.0046457448 0.023834318
0.036127731 -0.0046616425 0.025531948
0.036906589 -0.0046133236 0.019522041
0.038521476 -0.00466927 0.025521755
0.040225867 -0.0047324551 0.018930793
0.042344056 -0.0047048954 0.017367959
0.0083101401 -0.0035614888 0.01560691
0.0093344562 -0.0035004208 0.018239766
0.010558859 -0.00351962 0.022164494
0.011615556 -0.0034846668 0.019066691
0.012710568 -0.0034665188 0.028232425
0.013876781 -0.0034691952 0.030717045
0.015108854 -0.0034866584 0.02437669
0.016302122 -0.0034933116 0.02269277
0.017504277 -0.0035008553 0.019497961
0.019490393 -0.0034394811 0.019835204
0.020933958 -0.003488993 0.024169981
0.022018034 -0.0034765315 0.029185802
0.022624759 -0.0033937139 0.024456561
0.024214569 -0.0034592242 0.029519498
0.025324063 -0.0034532815 0.030319214
0.026155027 -0.0034115249 0.028683513
0.028174881 -0.0035218601 0.029336631
0.028764712 -0.0034517653 0.028212488
0.029502399 -0.003404123 0.025433421
0.03094743 -0.0034386031 0.028738648
0.031841192 -0.0034115561 0.035838097
0.033133022 -0.0034275539 0.030431479
0.035662863 -0.0035662861 0.017024845
0.036126632 -0.0034961256 0.021666139
0.037891537 -0.0035523316 0.015486628
0.038684744 -0.0035167949 0.019396991
0.042635746 -0.0035529789 0.016445279
0.0082748486 -0.0023642424 0.020264953
0.0093897115 -0.0023474279 0.018508285
0.010674786 -0.0023721748 0.016946733
0.011664501 -0.0023329004 0.023821533
0.012852237 -0.0023367703 0.0171884
0.014122738 -0.0023537898 0.020405203
0.015100375 -0.0023231346 0.02579093
0.016496887 -0.0023566983 0.024375021
0.017712938 -0.0023617251 0.021496832
0.018227147 -0.0022783934 0.028318495
0.019787926 -0.0023279912 0.023904979
0.020900294 -0.0023222549 0.024828255
0.021871408 -0.0023022536 0.023680329
0.02355808 -0.0023558082 0.019779921
0.024544856 -0.0023376052 0.022213042
0.025383392 -0.0023075812 0.02048099
0.027166313 -0.0023622881 0.019090176
0.027614383 -0.0023011987 0.02390793
0.028707348 -0.0022965877 0.025997698
0.030054981 -0.0023119217 0.035217911
0.030389432 -0.0022510688 0.037913263
0.031390358 -0.0022421684 0.035692692
0.033255227 -0.002293464 0.031064421
0.035316832 -0.0023544554 0.018581718
0.036735911 -0.0023700586 0.017265081
0.037260003 -0.0023287502 0.021054417
0.038290285 -0.0023206235 0.020175129
0.0059083607 -0.0011816722 0.019022852
0.0071300291 -0.0011883382 0.019266039
0.0082386518 -0.0011769503 0.016192585
0.0095380619 -0.0011922577 0.020191044
0.0131239 -0.0011930818 0.023820162
0.013961236 -0.0011634363 0.021941274
0.015129037 -0.0011637722 0.023377806
0.016607096 -0.0011862211 0.01872021
0.017608909 -0.0011739272 0.02605477
0.019019853 -0.0011887408 0.018838525
0.020059451 -0.0011799678 0.018081188
0.021147192 -0.001174844 0.017055839
0.02232293 -0.001174891 0.020683944
0.02357048 -0.0011785241 0.019682646
0.024236912 -0.0011541387 0.023820758
0.025908688 -0.0011776676 0.019141734
0.026875343 -0.0011684932 0.024106443
0.027823534 -0.0011593139 0.02682972
0.029334439 -0.0011733775 0.02526769
0.03020397 -0.0011616912 0.023073196
0.031008976 -0.0011484806 0.028058022
0.032257549 -0.0011520553 0.025157869
0.033341959 -0.0011497227 0.025615603
0.036434717 -0.0011753134 0.022080064
0.036884967 -0.0011526552 0.025819838
0.038850147 -0.0011772772 0.023043603
0.002407287 0 0.016365618
0.0035367906 0 0.016170293
0.0047775661 0 0.021242827
0.0059175254 0 0.020364255
0.0070246975 0 0.017924815
0.0083142146 0 0.016704738
0.0095205354 0 0.017459899
0.010645293 0 0.01711762
0.011934076 0 0.016433895
0.019078402 0 0.017181396
0.019861704 0 0.022491872
0.021264575 0 0.026412308
0.022221165 0 0.022998452
0.023030983 0 0.021241724
0.024890417 0 0.01924178
0.026021281 0 0.021650225
0.026676606 0 0.021476746
0.028175669 0 0.025125533
0.028620983 0 0.026728332
0.029787993 0 0.028841585
0.030864524 0 0.036234587
0.032036241 0 0.029318511
0.033303261 0 0.02546972
0.036087062 0 0.015711963
0.035837416 0 0.023320347
0.037447188 0 0.021686822
0.038741976 0 0.019859344
0.040167958 0 0.016574383
0.010923419 0.0012137133 0.019165844
0.015538637 0.0011952798 0.020842582
0.016530314 0.0011807367 0.017330796
0.017766114 0.0011844076 0.020887673
0.018625049 0.0011640656 0.02229917
0.019777754 0.0011633973 0.021370918
0.021123068 0.0011735038 0.021514744
0.021873927 0.0011512593 0.029551953
0.023351243 0.0011675621 0.026211113
0.02439931 0.0011618719 0.024965554
0.025370236 0.0011531926 0.022746056
0.027160967 0.0011809116 0.022986382
0.027881965 0.0011617485 0.024029851
0.028843023 0.0011537209 0.024342656
0.030253014 0.0011635774 0.028306007
0.0316808 0.001173363 0.02414009
0.032570928 0.0011632474 0.02654469
0.034082696 0.0011752653 0.021820724
0.035990268 0.0011996756 0.015371412
0.036357451 0.0011728209 0.018432468
0.037952773 0.0011860242 0.018039852
0.038310699 0.0011609304 0.020953149
0.0059275115 0.0023710045 0.017778873
0.0071906862 0.0023968956 0.019802392
0.0081715733 0.0023347351 0.019411415
0.0094214128 0.0023553532 0.020532191
0.010515681 0.0023368183 0.022067338
0.011621223 0.0023242447 0.024016589
0.013010467 0.0023655395 0.025112152
0.013994017 0.002332336 0.024915308
0.015165339 0.0023331291 0.023743272
0.01648921 0.0023556014 0.033149987
0.017585896 0.0023447862 0.02754125
0.018330479 0.0022913099 0.030706733
0.019750644 0.0023236051 0.026634157
