ply
format ascii 1.0
comment PCL generated
element vertex 1267
property float x
property float y
property float z
element camera 0
property float view_px
property float view_py
property float view_pz
property float x_axisx
property float x_axisy
property float x_axisz
property float y_axisx
property float y_axisy
property float y_axisz
property float z_axisx
property float z_axisy
property float z_axisz
property float focal
property float scalex
property float scaley
property float centerx
property float centery
property int viewportx
property int viewporty
property float k1
property float k2
end_header
0.045353431 -0.043141067 0.024101496
0.04677736 -0.043436121 0.021270603
0.047722962 -0.043283615 0.019816786
0.048899435 -0.04334268 0.023503542
0.053000167 -0.043978862 0.017817885
0.05677877 -0.044287439 0.015007734
0.059450585 -0.042936534 0.016504437
-0.018261293 -0.043370571 0.015575975
-0.014597579 -0.042669848 0.016575187
-0.013352682 -0.042283494 0.015290171
-0.011218561 -0.042630531 0.018035144
-0.0098602548 -0.04163219 0.021895885
-0.0088714622 -0.042139445 0.020634711
-0.0077221035 -0.041919991 0.023111939
-0.0065627657 -0.041564185 0.028478324
-0.0055574728 -0.042236794 0.026706934
-0.0044055548 -0.041852772 0.025518
-0.0033140713 -0.04197824 0.027218163
-0.0021983674 -0.041768979 0.026587248
-0.0010875998 -0.041328795 0.032220662
0 -0.041771803 0.032657832
0.0011119414 -0.042253774 0.024669319
0.0021990957 -0.041782819 0.020468563
0.0033601429 -0.042561814 0.017603189
0.0044662543 -0.042429417 0.0218032
0.0054904018 -0.041727055 0.021365553
0.0067452164 -0.042719707 0.016047925
0.0079311309 -0.043054711 0.018790573
0.0088394172 -0.041987233 0.02398482
0.0099296207 -0.041925065 0.031144589
0.010977647 -0.041715059 0.023642302
0.011983184 -0.041396454 0.025266975
0.013146629 -0.041630991 0.03038615
0.014065195 -0.041113649 0.035455853
0.01521721 -0.041303858 0.0261347
0.016422797 -0.041604422 0.02960211
0.017149135 -0.040729199 0.030860871
0.018578924 -0.041529361 0.031900853
0.019706782 -0.041603211 0.034686953
0.020413291 -0.040826581 0.026727676
0.021731228 -0.041289333 0.032568961
0.022920562 -0.0414753 0.03166768
0.023796808 -0.041103579 0.025093198
0.025085501 -0.041445609 0.032046914
0.026205827 -0.041492559 0.03250277
0.027161837 -0.041285992 0.028814316
0.028700603 -0.041947037 0.026192904
0.029657336 -0.041739952 0.028175175
0.030677631 -0.04163393 0.029260367
0.031985402 -0.041911907 0.027269393
0.032611985 -0.041308515 0.024673581
0.034341887 -0.042096503 0.027428776
0.035475731 -0.04212743 0.026915163
0.03643728 -0.041958082 0.024707615
0.03733011 -0.041721888 0.025065452
0.038381804 -0.041671675 0.027745128
0.039700527 -0.041906115 0.019564867
0.041368961 -0.04248704 0.023429096
0.042981565 -0.041879475 0.017279655
0.044374991 -0.042156246 0.025224566
0.044839233 -0.041558314 0.023599923
0.046775714 -0.042320885 0.020695984
0.04801451 -0.042431429 0.023587763
0.048658729 -0.042023446 0.016654253
0.052757602 -0.042655081 0.015772164
0.054012019 -0.042759519 0.017865151
0.0558042 -0.042411193 0.017083436
0.059080839 -0.042359848 0.016441435
0.061014149 -0.042935882 0.016893327
0.062225983 -0.042992495 0.016166061
-0.016888946 -0.0416594 0.022692144
-0.015927538 -0.042094212 0.022038788
-0.014443187 -0.041107535 0.017088801
-0.013598296 -0.041928083 0.015876323
-0.012321115 -0.041443754 0.019203484
-0.01113012 -0.041181445 0.018816233
-0.010024799 -0.041213069 0.022095263
-0.0088613816 -0.040983889 0.026709944
-0.0076754531 -0.040570255 0.028580934
-0.0066571762 -0.041052587 0.027440757
-0.0054853028 -0.040591244 0.026980251
-0.0043742792 -0.040462084 0.030211002
-0.0033104699 -0.04082913 0.027224481
-0.0021909853 -0.04053323 0.031280667
-0.0010922241 -0.040412292 0.031645298
0 -0.040643808 0.029071003
0.001086031 -0.040183149 0.030236691
0.0022236502 -0.041137531 0.019793302
0.0033714881 -0.04158169 0.021808714
0.0043206085 -0.03996563 0.031279564
0.0055639241 -0.041173041 0.023726165
0.0067726453 -0.04176465 0.015808791
0.0078008138 -0.041232873 0.017265141
0.0088516688 -0.04093897 0.029356599
0.0098592676 -0.040532548 0.025154531
0.01105789 -0.040914193 0.023332179
0.012100129 -0.040700436 0.030953765
0.013136572 -0.040504433 0.031728357
0.01418916 -0.040384538 0.02769649
0.015315038 -0.040475458 0.031165034
0.016324677 -0.040267538 0.029414803
0.017323956 -0.040061653 0.030795217
0.018525481 -0.040320165 0.032709002
0.019518105 -0.040120553 0.025596648
0.020842075 -0.040587202 0.033963233
0.021859974 -0.040440954 0.029035062
0.022727236 -0.040043227 0.024617255
0.023957038 -0.040291384 0.035841793
0.025105253 -0.04038671 0.024998486
0.026262803 -0.040488489 0.029722333
0.027521113 -0.040731248 0.026833296
0.028541837 -0.040617231 0.026198924
0.029543158 -0.040485069 0.026097715
0.031086667 -0.041078813 0.032222956
0.031492274 -0.0401798 0.03127259
0.032941028 -0.040627271 0.023928493
0.034573138 -0.041264713 0.022737473
0.035146922 -0.040638629 0.023749888
0.036297917 -0.040697668 0.023551524
0.03764933 -0.040971328 0.0224576
0.03781905 -0.03998014 0.022864193
0.0404673 -0.041591395 0.024697602
0.041948937 -0.041948937 0.01932317
0.042032242 -0.040926132 0.016828328
0.043401551 -0.041175831 0.021344692
0.044039611 -0.040736645 0.023514539
0.045463718 -0.041028235 0.021213412
0.04721256 -0.041592021 0.01874423
0.04764653 -0.040998179 0.017918259
0.054489762 -0.041145332 0.015019208
0.056100156 -0.041514114 0.017448813
0.057850737 -0.041163027 0.019701988
0.061271783 -0.041982517 0.01819697
0.061472598 -0.041354295 0.015471935
0.064074457 -0.04233491 0.015081823
-0.018083239 -0.040687285 0.015267611
-0.015637988 -0.040211968 0.015731692
-0.014586908 -0.040394511 0.01721406
-0.012242432 -0.040066142 0.021781802
-0.011218847 -0.040387847 0.02003473
-0.010119413 -0.040477652 0.025791675
-0.00877498 -0.039487407 0.027760327
-0.0077485973 -0.039849926 0.029243171
-0.0066178758 -0.039707251 0.022176176
-0.0054868474 -0.039505299 0.025456101
-0.0044182632 -0.039764367 0.030873686
-0.0032884458 -0.039461348 0.028372347
-0.0021766629 -0.039179932 0.03213799
-0.0010978155 -0.039521355 0.032113999
0 -0.038933367 0.029539138
0.0011052852 -0.039790269 0.02822727
0.0022471088 -0.040447958 0.022056937
0.0033234253 -0.039881103 0.018655777
0.0045180987 -0.040662888 0.018412471
0.0056632543 -0.040775429 0.018023312
0.0066881934 -0.040129159 0.018969983
0.0078506079 -0.040374555 0.020669401
0.0087604085 -0.039421834 0.025647342
0.0098718787 -0.039487515 0.027030259
0.011066461 -0.03983926 0.026615858
0.012040094 -0.039403945 0.031397849
0.013089277 -0.039267831 0.032196909
0.014154493 -0.039197054 0.031757385
0.01525477 -0.039226551 0.028525859
0.016362958 -0.039271094 0.034907639
0.017368648 -0.039079458 0.034273207
0.018354313 -0.038867954 0.029755414
0.01984139 -0.039682779 0.028029203
0.021069231 -0.039920647 0.027103901
0.021663534 -0.038994357 0.031492054
0.023096614 -0.039594192 0.038086474
0.024313301 -0.0397854 0.026584208
0.025179245 -0.03941099 0.029806077
0.026846331 -0.040269494 0.030359507
0.027466705 -0.039552052 0.027251542
0.028712139 -0.039755266 0.023926198
0.030097879 -0.040130503 0.022637665
0.0307544 -0.039541371 0.026171893
0.031611789 -0.039242219 0.030746579
0.033504397 -0.040205274 0.02490288
0.0343857 -0.039931778 0.025479466
0.035373729 -0.039795443 0.024070024
0.036326051 -0.039628416 0.022104174
0.037122846 -0.039306544 0.021155596
0.038901128 -0.040012591 0.028919369
0.040452432 -0.040452432 0.019767344
0.040998448 -0.039890379 0.016569883
0.043041073 -0.04077575 0.017726898
0.043694168 -0.040333077 0.022171527
0.045436975 -0.040893279 0.01805684
0.046469681 -0.040802643 0.017834842
0.047078531 -0.040353023 0.019376546
0.050479718 -0.040383771 0.017019421
0.055432379 -0.040725831 0.020689189
0.056784041 -0.04008285 0.015254378
0.058286399 -0.040352121 0.019393235
0.060096696 -0.040820394 0.01782161
0.060414348 -0.040276229 0.018634379
0.061942928 -0.040544461 0.015788227
0.062748089 -0.040338058 0.020209819
0.063346274 -0.040008172 0.01738891
0.066425718 -0.041229751 0.017551124
0.066600472 -0.040637571 0.016271085
-0.01917237 -0.039472528 0.017090052
-0.018073618 -0.03953604 0.017310321
-0.016612396 -0.038762257 0.018720239
-0.015758712 -0.039396781 0.022121489
-0.014703769 -0.039587069 0.015105039
-0.013242248 -0.038623225 0.01891923
-0.012484244 -0.039722595 0.015811682
-0.011131442 -0.038960047 0.023293972
-0.0098254075 -0.038209919 0.02659902
-0.0088799121 -0.038849615 0.026260287
-0.0076554962 -0.038277481 0.027354717
-0.0066422909 -0.038746696 0.023007095
-0.0055080988 -0.038556691 0.030345112
-0.0043908097 -0.038419582 0.027794868
-0.0032933608 -0.038422544 0.031026959
-0.0022064201 -0.038612351 0.028937846
-0.0010969638 -0.038393732 0.029351175
0 -0.038196132 0.033336014
0.0011123926 -0.038933743 0.026411235
0.0022037474 -0.03856558 0.028257519
0.0033325395 -0.038879625 0.023324877
0.0056031551 -0.039222088 0.0172984
0.0067753042 -0.039522611 0.021913826
0.0077817626 -0.038908813 0.026674509
0.0089377277 -0.039102558 0.02791217
0.0099675115 -0.038762543 0.025918841
0.011009993 -0.038534977 0.027447551
0.012122227 -0.038570721 0.024944067
0.013209461 -0.038527597 0.036891282
0.014166288 -0.038140006 0.029627323
0.015382211 -0.038455524 0.027196556
0.016569601 -0.038662404 0.028141052
0.017392859 -0.038046878 0.030371964
0.018673021 -0.038444452 0.032505095
0.019995391 -0.038879927 0.02616635
0.020900935 -0.038501721 0.023032457
0.021949792 -0.038412139 0.028222889
0.023099136 -0.038498558 0.027588457
0.024137165 -0.038400035 0.023314834
0.025544634 -0.038872268 0.027726501
0.026441842 -0.03856102 0.028692603
0.027331771 -0.038264476 0.023983717
0.028913861 -0.038922504 0.025701433
0.029597197 -0.038366735 0.025697231
0.031030912 -0.038788639 0.027389556
0.032001734 -0.038622782 0.023289174
0.033248231 -0.0387896 0.024859846
0.034408245 -0.038848016 0.019186437
0.035615928 -0.038954921 0.023300231
0.036284052 -0.038483083 0.02063182
0.038203135 -0.039326757 0.021910757
0.039417949 -0.039417949 0.017500669
0.039792605 -0.038687255 0.019432873
0.042806879 -0.039427388 0.015215069
0.043187317 -0.038757846 0.020846248
0.058740452 -0.038790863 0.015753835
0.060931299 -0.039492507 0.017362148
0.062802069 -0.039251294 0.018746257
0.064244375 -0.039448302 0.020303458
0.065045267 -0.039251454 0.016713202
-0.019320937 -0.038641874 0.018162042
-0.017616099 -0.037434209 0.025254667
-0.017033963 -0.038610313 0.021055639
-0.015722977 -0.038184375 0.019673139
-0.01460034 -0.038185507 0.022856742
-0.013430913 -0.038054254 0.020842314
-0.012403404 -0.038337797 0.01943478
-0.011015385 -0.03745231 0.024003536
-0.0099958852 -0.037762232 0.029325873
-0.0087423418 -0.037154954 0.028598458
-0.0076988069 -0.037394207 0.02940169
-0.0067096869 -0.038021561 0.025442004
-0.0055600055 -0.037808038 0.022162259
-0.0044580922 -0.037893783 0.026415646
-0.0033277848 -0.037714895 0.026391894
-0.0021869645 -0.037178397 0.029673129
-0.0010978669 -0.037327476 0.033415973
0 -0.037488718 0.031617671
0.0011004187 -0.037414238 0.023913711
0.0022203801 -0.037746463 0.028919756
0.0033560358 -0.038035072 0.025395513
0.0056608533 -0.038493805 0.018930256
0.0067876894 -0.038463574 0.022040009
0.0076792464 -0.037299197 0.028089553
0.00900573 -0.038274352 0.022839904
0.0099647241 -0.037644517 0.021769673
0.011124713 -0.037824027 0.02349332
0.012323236 -0.038090006 0.022495776
0.013146698 -0.03724898 0.03063193
0.014154317 -0.037018985 0.028807789
0.01552661 -0.037707482 0.030505538
0.016391909 -0.037154995 0.032518506
0.017440286 -0.037060607 0.029164284
0.018895779 -0.037791558 0.026077628
0.019756032 -0.037316952 0.031731635
0.021025319 -0.037624255 0.023765624
0.022142589 -0.037642404 0.028398842
0.022937154 -0.037136346 0.023201555
0.024467969 -0.037814133 0.028706938
0.025504045 -0.037701633 0.025573015
0.026633792 -0.037731208 0.024162233
0.028013725 -0.038098663 0.024837762
0.02891372 -0.037810247 0.022723943
0.030009415 -0.037789632 0.025484443
0.03139051 -0.038117051 0.022595167
0.03225458 -0.037815712 0.02394858
0.033575211 -0.038051907 0.017182618
0.035209905 -0.038617313 0.016379774
0.035639007 -0.037866443 0.018823415
0.037097048 -0.038221203 0.017584413
0.038219489 -0.038219489 0.020292938
0.038716644 -0.037610456 0.018811733
0.040709492 -0.038447853 0.015806168
0.041466039 -0.038103923 0.020037651
0.042395342 -0.037932672 0.017468393
0.045408152 -0.038596932 0.016275078
0.049525455 -0.038269669 0.018819034
0.061217248 -0.038544193 0.018497795
0.061724346 -0.038156867 0.018467575
-0.020402668 -0.037404891 0.016148329
-0.018996723 -0.036875993 0.021517307
-0.017739253 -0.036587209 0.023292542
-0.016727792 -0.036801144 0.020112723
-0.015560444 -0.036678191 0.022398055
-0.014606532 -0.037078116 0.02203548
-0.013365915 -0.036756266 0.020044863
-0.012273008 -0.036819026 0.020605147
-0.011142212 -0.036769301 0.02755633
-0.0099071963 -0.036326386 0.028602958
-0.0088992119 -0.036709245 0.02634427
-0.0078258766 -0.036893416 0.024595618
-0.0066170213 -0.036393616 0.02683267
-0.0055541736 -0.036657546 0.025180757
-0.0044490532 -0.036704689 0.029167742
-0.0033217312 -0.036539044 0.02634877
-0.00218353 -0.036028244 0.032741964
-0.0011077574 -0.036555994 0.030870646
0 -0.035880294 0.029752582
0.0011025921 -0.03638554 0.032620758
0.0022620428 -0.037323706 0.022994727
0.003296756 -0.036264315 0.026859194
0.0044774921 -0.036939308 0.022289008
0.0056632459 -0.037377421 0.019712001
0.0066932174 -0.036812697 0.020780742
0.0078913756 -0.037202202 0.024376869
0.0089449007 -0.036897715 0.021386474
0.010043345 -0.036825601 0.02284345
0.011223617 -0.037037935 0.024324417
0.012128007 -0.03638402 0.03214699
0.01332947 -0.036656041 0.02556026
0.014500726 -0.036809538 0.026530087
0.015392095 -0.036281366 0.027791053
0.016462721 -0.036217984 0.02995044
0.017701365 -0.036509063 0.03147772
0.018520903 -0.035952341 0.027345926
0.01996229 -0.036597535 0.027172953
0.021238431 -0.036887802 0.029185116
0.021871634 -0.036088195 0.020733029
0.023484809 -0.0369047 0.023619056
0.024416976 -0.036625464 0.024708122
0.02537816 -0.036412142 0.025554061
0.027001819 -0.037127502 0.025404751
0.027447887 -0.036231209 0.027632862
0.028935473 -0.036725793 0.022000968
0.030657357 -0.037470099 0.024155825
0.03107959 -0.036629517 0.02364251
0.032456357 -0.036933094 0.022062451
0.034007568 -0.037408322 0.017380118
0.035258502 -0.037533242 0.019558012
0.037314568 -0.037314568 0.018726617
0.038219146 -0.037095051 0.015234977
0.039834928 -0.037558649 0.015231729
0.041027296 -0.037608355 0.019005239
0.040957391 -0.036529563 0.019727081
0.042962722 -0.037309732 0.017181605
0.048511088 -0.037229437 0.016531825
0.059789784 -0.037227601 0.016820759
-0.025157575 -0.036592837 0.015026897
-0.023567291 -0.035912063 0.017723918
-0.022637291 -0.036219668 0.016172081
-0.021121584 -0.035573196 0.02443105
-0.019936802 -0.035443205 0.026984155
-0.018961322 -0.035691898 0.024315059
-0.017905109 -0.035810217 0.024560481
-0.0166601 -0.035541546 0.025534689
-0.015677538 -0.035834372 0.021819383
-0.014543927 -0.035800438 0.020168841
-0.013335803 -0.035562139 0.028797507
-0.012359695 -0.035955478 0.024181962
-0.011151752 -0.035685606 0.024305016
-0.0099523989 -0.035386309 0.024719656
-0.0088985758 -0.035594303 0.028585881
-0.0077946996 -0.035632912 0.02430886
-0.0065902784 -0.035148151 0.029585093
-0.0055625872 -0.035600558 0.029634744
-0.0043587838 -0.034870271 0.032625824
-0.0033025269 -0.035226952 0.029927939
-0.0021873745 -0.034997992 0.035836279
-0.0010894429 -0.034862172 0.031922311
0 -0.035105404 0.031047136
0.001099958 -0.035198655 0.028737366
0.0022015972 -0.035225555 0.025843948
0.0033386298 -0.03561205 0.027423799
0.004421507 -0.035372056 0.032163948
0.0055844667 -0.035740588 0.019570112
0.0068426146 -0.036493946 0.01657933
0.0090079606 -0.036031842 0.017064035
0.010179907 -0.036195226 0.019007653
0.011177272 -0.035767268 0.02423209
0.012318258 -0.035834935 0.022650778
0.013442974 -0.035847928 0.025589705
0.014426256 -0.035510782 0.023716629
0.015619708 -0.035702191 0.025609851
0.016759409 -0.035753403 0.025607556
0.017523218 -0.035046436 0.028350264
0.019045975 -0.035851248 0.025092393
0.0200614 -0.035664711 0.022927999
0.020867802 -0.035145774 0.022925377
0.022382326 -0.035811722 0.02236411
0.023629749 -0.036007237 0.02721715
0.02433243 -0.035392627 0.024081886
0.025815928 -0.035917815 0.019927949
0.026570404 -0.035427205 0.026380628
0.027826488 -0.035617903 0.026958972
0.02958471 -0.036411949 0.025693148
0.030452291 -0.036091603 0.023821086
0.031481408 -0.035978753 0.023016661
0.033998024 -0.036264561 0.016486526
0.03707017 -0.035946831 0.01512
0.039662767 -0.036263101 0.016373128
0.040342469 -0.035859972 0.015812635
0.041872546 -0.036214095 0.017261654
0.065758415 -0.036280502 0.015640646
-0.026334673 -0.035494562 0.019203484
-0.024951482 -0.03515891 0.016243875
-0.020759961 -0.033871517 0.027909309
-0.01986745 -0.034216169 0.026722193
-0.018928885 -0.034517381 0.028377175
-0.017519837 -0.033944685 0.028525859
-0.016704362 -0.034522351 0.026803285
-0.01566189 -0.034679897 0.02537185
-0.014406959 -0.034355056 0.023599714
-0.013538208 -0.034973707 0.024743974
-0.012054613 -0.033972092 0.035441369
-0.010932714 -0.033891413 0.024771661
-0.010051711 -0.034622565 0.025915742
-0.0088983718 -0.034481194 0.029174984
-0.0076004998 -0.033659358 0.037564546
-0.0066353348 -0.034282565 0.030295998
-0.0054892092 -0.034033101 0.031537116
-0.0043516117 -0.033724993 0.036693037
-0.00331138 -0.034217596 0.036450654
-0.0021879242 -0.033912826 0.034943581
-0.0010902638 -0.033798181 0.032196015
0 -0.034342933 0.034360379
0.0010818744 -0.033538107 0.03397122
0.0022154024 -0.034338739 0.031077147
0.0033704694 -0.034828186 0.021520197
0.0043970831 -0.034077395 0.029422522
0.0055314577 -0.034295037 0.027184635
0.0067465743 -0.034857303 0.023244739
0.0077949478 -0.034520485 0.018697172
0.0090797432 -0.035184007 0.01808849
0.010274341 -0.035389401 0.018087536
0.011195866 -0.034707189 0.025014758
0.012416258 -0.034991276 0.021391213
0.013481331 -0.034826774 0.019736856
0.014603643 -0.034824073 0.02046445
0.015759706 -0.034896493 0.02109462
0.016699806 -0.034512933 0.021627307
0.017839598 -0.034564223 0.024808258
0.019196318 -0.035005052 0.019922346
0.020168075 -0.03473391 0.031872272
0.02117186 -0.034543563 0.022274017
0.022549419 -0.034951601 0.022975653
0.023496673 -0.034685563 0.022074193
0.024962166 -0.035173964 0.021755636
0.025999645 -0.035043001 0.022480965
0.027233895 -0.035177115 0.019370586
0.028415915 -0.035235733 0.01825121
0.032951001 -0.035223484 0.01826331
-0.028129982 -0.033755977 0.015948534
-0.025976634 -0.033882566 0.015589088
-0.024941506 -0.034011144 0.021516889
-0.023970367 -0.034243383 0.016224861
-0.022083635 -0.033125453 0.032550931
-0.021166632 -0.033420999 0.028351903
-0.020004602 -0.033341005 0.028355181
-0.018759996 -0.033105876 0.026049763
-0.017646611 -0.033087395 0.032687008
-0.016696587 -0.033393174 0.032325596
-0.015340718 -0.032872967 0.028828263
-0.014540833 -0.033555772 0.022607535
-0.013266544 -0.03316636 0.030267239
-0.011980007 -0.032672748 0.027716577
-0.011040552 -0.033121657 0.0285694
-0.010028996 -0.033429988 0.02913034
-0.0088903317 -0.033338744 0.024098247
-0.0076734354 -0.032886151 0.039857566
-0.0065501365 -0.032750685 0.03290391
-0.0054872097 -0.032923259 0.034729034
-0.004412266 -0.033091992 0.034851611
-0.0032685939 -0.032685939 0.036871016
-0.0021797046 -0.032695569 0.031496525
-0.0010978887 -0.032936662 0.034804583
0 -0.032540925 0.037382811
0.0011085903 -0.033257708 0.031448185
0.0022164301 -0.033246454 0.029429168
0.0033452059 -0.03345206 0.020016372
0.0045017661 -0.033763245 0.020696938
0.0056389063 -0.03383344 0.027408659
0.0066219997 -0.03311 0.027967095
0.0078360029 -0.03358287 0.024172306
0.0090989722 -0.034121145 0.018943012
0.011326853 -0.03398056 0.021031946
0.0123805 -0.033765003 0.017626762
0.01363121 -0.034078024 0.019910723
0.014852903 -0.03427593 0.019228548
0.015782258 -0.03381912 0.021779209
0.016860645 -0.033721291 0.022895247
0.018114192 -0.033964109 0.025687844
0.018952088 -0.033444863 0.028455436
0.020222187 -0.033703644 0.017858654
0.021300497 -0.03363236 0.024148941
0.02242372 -0.033635583 0.020818025
0.023809699 -0.034013856 0.017876446
0.024925476 -0.033989288 0.017849803
0.025962671 -0.033864353 0.016608894
0.027314788 -0.034143485 0.016679347
0.028377282 -0.034052737 0.015220284
-0.030866008 -0.033152379 0.01567933
-0.02942316 -0.032818142 0.015390635
-0.028434057 -0.032983508 0.018913567
-0.026868114 -0.03246564 0.020276278
-0.026164319 -0.032989796 0.018263429
-0.025042253 -0.033010244 0.016784281
-0.023584485 -0.032569051 0.022665471
-0.022088891 -0.032028891 0.030613244
-0.021227062 -0.0323992 0.029936552
-0.019770958 -0.03185321 0.027971506
-0.018734509 -0.031958867 0.030526549
-0.017694566 -0.0320714 0.029460162
-0.01644166 -0.031787213 0.034179032
-0.015433724 -0.031969856 0.030340821
-0.014724452 -0.032846857 0.020180315
-0.013218641 -0.03194505 0.025920331
-0.012289147 -0.03239866 0.028621405
-0.011183624 -0.032432511 0.030398518
-0.0098234434 -0.031653319 0.031373143
-0.008904608 -0.032279205 0.025075555
-0.0076561142 -0.031718187 0.03251946
-0.0066009578 -0.03190463 0.034758538
-0.0055304798 -0.032076783 0.029919147
-0.0043525053 -0.031555664 0.031865984
-0.0032737546 -0.031646296 0.036634564
-0.0022049169 -0.031971294 0.032621324
-0.0010991239 -0.031874593 0.032208055
0 -0.032082804 0.033229858
0.0011019214 -0.031955723 0.033156812
0.0021892267 -0.031743787 0.028850734
0.0033491035 -0.032374669 0.031039625
0.0045142677 -0.032728441 0.021892667
0.0055842977 -0.032388929 0.021332562
0.0067136982 -0.032449543 0.022621006
0.0077838083 -0.032247208 0.030597955
0.0089216335 -0.032340921 0.025951087
0.011399454 -0.03305842 0.015442461
0.012427572 -0.0327636 0.02383092
0.015962135 -0.033064425 0.017334163
0.017170943 -0.033197157 0.017235339
0.01772568 -0.032127794 0.020417899
0.019177642 -0.032714799 0.016794473
0.020419454 -0.032898013 0.019563049
0.021209748 -0.032372776 0.020945877
0.022906458 -0.033214364 0.017080218
0.023726054 -0.03276455 0.020260453
0.024911331 -0.032837663 0.016954303
-0.033972297 -0.031707477 0.015479743
-0.03231521 -0.03231521 0.016820222
-0.030489657 -0.031618901 0.021921039
-0.029289475 -0.03154251 0.020467788
-0.028287305 -0.03168178 0.021248102
-0.026874317 -0.031353369 0.022465706
-0.026247159 -0.031953063 0.023076266
-0.02475539 -0.031506862 0.02021277
-0.023265922 -0.03102123 0.028670937
-0.022357671 -0.031300742 0.031104654
-0.020987235 -0.030928556 0.029139817
-0.019812735 -0.030819811 0.032959253
-0.018915521 -0.031154977 0.029340804
-0.017468197 -0.030569347 0.031288743
-0.016597748 -0.030982461 0.033893317
-0.015628794 -0.031257588 0.030540764
-0.014398281 -0.031011682 0.024390876
-0.01325965 -0.030939184 0.03390184
-0.012349512 -0.031435125 0.027313113
-0.011037234 -0.030904256 0.024469078
-0.009995942 -0.031098489 0.029359758
-0.0088385595 -0.030934958 0.030966818
-0.0076434216 -0.030573687 0.034398407
-0.0065313331 -0.030479556 0.04040876
-0.0054952712 -0.030773519 0.032527596
-0.0043883109 -0.030718178 0.031531036
-0.0033338217 -0.03111567 0.029098719
-0.0021927778 -0.030698888 0.03114292
-0.0010918978 -0.030573139 0.032919317
0 -0.031089291 0.033795357
0.0010939052 -0.030629344 0.029148072
0.0022443582 -0.031421013 0.026763439
0.0033818127 -0.031563584 0.029487997
0.0044133705 -0.030893594 0.025302678
0.0056190435 -0.031466644 0.02749157
0.0068375007 -0.031908337 0.018318951
0.0077519808 -0.031007923 0.023913443
0.0089971637 -0.031490073 0.030504644
0.010032065 -0.03121087 0.024373233
0.011321208 -0.031699382 0.017415375
0.015927514 -0.031855028 0.01889345
0.0170126 -0.031756852 0.016363144
0.018246163 -0.031930782 0.021904498
0.020281967 -0.031549726 0.015045553
-0.031435378 -0.030312687 0.019396305
-0.030696431 -0.030696431 0.021196336
-0.029427053 -0.030558864 0.029237777
-0.02797335 -0.03021122 0.02253899
-0.027437115 -0.030866755 0.022833943
-0.025884233 -0.030385839 0.023153067
-0.02493201 -0.030598378 0.02036199
-0.023398751 -0.030084109 0.029016048
-0.022061326 -0.029782791 0.028703779
-0.021010444 -0.029856946 0.030578971
-0.020130087 -0.030195132 0.029731601
-0.018749289 -0.029778283 0.028276026
-0.017682239 -0.02983878 0.034698218
-0.016461059 -0.029629907 0.034458399
-0.015296092 -0.029499607 0.033950776
-0.014565949 -0.030252358 0.029527009
-0.013426105 -0.030208737 0.031086028
-0.011964967 -0.029368557 0.03167206
-0.011234348 -0.030332742 0.026541054
-0.010000388 -0.030001167 0.032624871
-0.0087510236 -0.029534707 0.031969637
-0.0078776386 -0.030385179 0.023187608
-0.0066215061 -0.029796779 0.031656116
-0.0054785693 -0.029584276 0.032581866
-0.0044306722 -0.029907038 0.03569749
-0.0033301942 -0.029971749 0.030904442
-0.0022217457 -0.029993569 0.028593123
-0.0011086323 -0.029933073 0.032657325
0 -0.029803401 0.032073349
0.0011051646 -0.029839447 0.033533335
0.0022542325 -0.030432139 0.025599986
0.003346985 -0.030122865 0.025672555
0.0044922363 -0.030322595 0.02946806
0.005640992 -0.030461358 0.026449949
0.0067441403 -0.030348632 0.022093564
0.0081007555 -0.031245772 0.015109658
0.008989458 -0.030339422 0.022845894
0.010069908 -0.030209726 0.022674412
0.011360242 -0.030672655 0.015934408
0.013781478 -0.031008326 0.018632144
0.015007822 -0.031170093 0.016806543
0.016053662 -0.030960634 0.015662104
0.016885102 -0.030393183 0.020305425
0.018053781 -0.030465756 0.018601388
0.02279168 -0.030768769 0.015117466
-0.03449152 -0.02989265 0.019950777
-0.032802302 -0.02940896 0.02170226
-0.0319946 -0.02970927 0.021536142
-0.03052772 -0.029397063 0.028727829
-0.02930559 -0.02930559 0.02671659
-0.0282239 -0.029352855 0.027060896
-0.02698244 -0.029230976 0.028061152
-0.025878709 -0.029254191 0.02505216
-0.025012298 -0.029559989 0.025687546
-0.023318378 -0.028870374 0.03412503
-0.022263071 -0.028941991 0.031576931
-0.021252945 -0.029082976 0.025527149
-0.019889405 -0.028729141 0.033699751
-0.018782347 -0.028725941 0.032147139
-0.017549934 -0.028518643 0.03562811
-0.016479274 -0.028564077 0.030742854
-0.015324151 -0.028459137 0.037775278
-0.014605506 -0.029211013 0.026904672
-0.01313857 -0.028466901 0.032477856
-0.012207134 -0.028853226 0.032772154
-0.011132792 -0.02894526 0.032482326
-0.009945645 -0.028731866 0.024478704
-0.0089719594 -0.029158868 0.035041004
-0.0078303888 -0.029084301 0.026233345
-0.0067288252 -0.029158242 0.02757287
-0.0056477017 -0.02936805 0.027841508
-0.004443815 -0.028884798 0.031492949
-0.0033057358 -0.02864971 0.032734901
-0.0022288053 -0.02897447 0.031591475
-0.001108024 -0.028808625 0.029011875
0 -0.028890984 0.033514619
0.0011087543 -0.028827611 0.030861616
0.002223816 -0.028909607 0.023778826
0.0034192735 -0.029633705 0.021660984
0.0045535779 -0.029598257 0.023753554
0.0055895974 -0.029065905 0.023996264
0.0068533043 -0.029697653 0.02158618
0.0080390628 -0.029859377 0.015720516
0.0092245471 -0.029979777 0.015549421
0.010296584 -0.029745689 0.021266818
0.01468931 -0.029378621 0.018439174
-0.034309443 -0.028591203 0.017040938
-0.033324994 -0.028728444 0.026245892
-0.031751473 -0.028349532 0.026979029
-0.029942354 -0.027724402 0.028756618
-0.029269168 -0.028143432 0.029635876
-0.028314915 -0.028314915 0.026384979
-0.026775304 -0.027890943 0.027555317
-0.026183246 -0.02846005 0.025639415
-0.02433046 -0.02764825 0.031695217
-0.023232734 -0.027658017 0.034130394
-0.022458663 -0.028073331 0.038146317
-0.021031089 -0.027672486 0.037664592
-0.01982799 -0.027538877 0.036282808
-0.018847341 -0.027716679 0.039861888
-0.017532287 -0.027394198 0.034393251
-0.016730011 -0.027883351 0.034080297
-0.015593944 -0.027846331 0.038146138
-0.014372188 -0.027638823 0.031774908
-0.013345771 -0.027803691 0.032142371
-0.012140814 -0.027592761 0.038495719
-0.011025049 -0.027562624 0.032584786
-0.010087403 -0.028020564 0.024799019
-0.008980684 -0.028064637 0.026211917
-0.0077737044 -0.027763231 0.02721107
-0.0067696888 -0.028207038 0.025386631
-0.0056108702 -0.028054353 0.027870268
-0.0044308892 -0.027693059 0.028479576
-0.0033811126 -0.028175939 0.030062437
-0.0022167445 -0.027709307 0.030598462
-0.0011063744 -0.02765936 0.031840205
0 -0.028111307 0.030185014
0.0011104518 -0.027761294 0.027945399
0.0022609262 -0.028261576 0.027068794
0.0034614415 -0.028845346 0.019059867
0.0045328801 -0.028330503 0.021834344
0.0057584364 -0.028792184 0.017647147
0.0068485509 -0.028535629 0.01986146
0.0079645226 -0.028444724 0.01910615
0.0092654368 -0.028954491 0.01562494
0.013683011 -0.028506273 0.016326666
0.014714571 -0.028297251 0.021045417
0.016153364 -0.028845295 0.027149945
0.017194327 -0.028657213 0.021090388
0.018333985 -0.028646851 0.017123669
-0.044710156 -0.027513942 0.015387297
-0.041482903 -0.02765527 0.015397996
-0.040630199 -0.027860709 0.017487198
-0.036817346 -0.02761301 0.026307821
-0.034560073 -0.026756184 0.023982644
-0.034383841 -0.027507072 0.021025181
-0.033020202 -0.027327063 0.025594234
-0.031086454 -0.026645532 0.03079623
-0.030481435 -0.027094608 0.028760999
-0.029472595 -0.027205473 0.028206944
-0.027657066 -0.026550781 0.032074928
-0.027136629 -0.027136629 0.030330032
-0.025925871 -0.027053082 0.029751122
-0.024276666 -0.026483636 0.040038317
-0.023426458 -0.026773093 0.037417859
-0.022462079 -0.026954496 0.033288896
-0.020943033 -0.026454357 0.035457313
-0.020064134 -0.026752179 0.03575325
-0.018662062 -0.026346439 0.033105731
-0.017888185 -0.026832277 0.033984929
-0.016749894 -0.02679983 0.02987656
-0.015443885 -0.02647523 0.031606764
-0.014614794 -0.026981158 0.03431046
-0.013477026 -0.026954053 0.031538874
-0.012126601 -0.02645804 0.032587647
-0.011170938 -0.026810251 0.032346398
-0.010109751 -0.026959337 0.033833057
-0.0089489492 -0.026846847 0.028893501
-0.0078681838 -0.026976628 0.035345674
-0.0066907522 -0.026763009 0.026169509
-0.0056211599 -0.026981568 0.032597363
-0.0045157997 -0.027094798 0.029676825
-0.0033602649 -0.026882119 0.034011036
-0.0022543322 -0.027051987 0.034839362
-0.0011294287 -0.027106289 0.031017303
0 -0.026657911 0.031674743
0.0011227335 -0.026945602 0.030019104
0.0022645576 -0.027174693 0.026415586
0.0033650124 -0.026920099 0.021862537
0.0046112332 -0.027667398 0.019768327
0.0057848771 -0.027767411 0.018039316
0.008101631 -0.02777702 0.017161608
0.009298007 -0.027894022 0.017793715
0.01493034 -0.027563706 0.026134342
0.015946332 -0.02733657 0.019100338
0.017219756 -0.027551608 0.015814126
-0.045994997 -0.026447125 0.015410036
-0.044813521 -0.026428487 0.017910004
-0.041510757 -0.026520763 0.018989593
-0.039895333 -0.026216934 0.023311585
-0.036100347 -0.025947124 0.021262914
-0.034984674 -0.025956372 0.026559532
-0.034050111 -0.026105085 0.025520444
-0.032377046 -0.025678346 0.030649543
-0.031592589 -0.025951054 0.029974818
-0.030305486 -0.025815783 0.028886676
-0.028905137 -0.025569929 0.027725071
-0.028308157 -0.026043504 0.02858004
-0.027228089 -0.026093585 0.02642113
-0.025943635 -0.025943635 0.026303411
-0.024376489 -0.025484513 0.033260733
-0.023237109 -0.025450166 0.031879097
-0.022058005 -0.025366707 0.033050507
-0.021225683 -0.025694249 0.034513891
-0.020007955 -0.025565721 0.033131331
-0.018991515 -0.025694402 0.03114
-0.017989093 -0.025859322 0.032895029
-0.016703978 -0.025612768 0.026133627
-0.015738284 -0.025855755 0.036089063
-0.01455049 -0.025743175 0.026332885
-0.01332128 -0.025532456 0.028671443
-0.012362657 -0.025849193 0.034466654
-0.011285764 -0.02595726 0.028553665
-0.009928287 -0.025372291 0.034276187
-0.0090359533 -0.025978368 0.033085078
-0.0078535704 -0.025804589 0.027876526
-0.0066961143 -0.025668439 0.047818065
-0.0056633744 -0.026051523 0.031725615
-0.0044789636 -0.02575404 0.03106907
-0.003381758 -0.025926812 0.032019407
-0.0022597758 -0.02598742 0.026979506
-0.0011241762 -0.025856053 0.031046182
0 -0.025837932 0.032288134
0.0011336727 -0.026074473 0.030096501
0.0022377393 -0.025734002 0.030339748
0.0034418399 -0.02638744 0.028269589
0.0046058209 -0.026483471 0.020136476
0.0057838978 -0.02660593 0.016605407
0.0093280952 -0.026818275 0.017966747
0.014303364 -0.02741478 0.02010408
0.015100207 -0.026715754 0.015916526
-0.046791378 -0.025735257 0.015630215
-0.044734664 -0.025234938 0.021427155
-0.043904316 -0.025418287 0.016219646
-0.040881272 -0.024983 0.020956904
-0.039680108 -0.024941782 0.025304228
-0.036553998 -0.025130872 0.026315302
-0.035087403 -0.024900736 0.027048886
-0.033668719 -0.024690395 0.024382561
-0.032821815 -0.024899306 0.026524574
-0.031569783 -0.024804829 0.027233779
-0.030104697 -0.024529751 0.031393439
-0.029466789 -0.024933437 0.025663257
-0.028029552 -0.024666006 0.02705279
-0.027040819 -0.024787417 0.026667863
-0.025834018 -0.024710799 0.026939273
-0.024724953 -0.024724953 0.027429372
-0.023067988 -0.024166463 0.038839072
-0.022417424 -0.024659168 0.031376839
-0.021088837 -0.024418652 0.028631836
-0.019961488 -0.024397375 0.028927058
-0.019115161 -0.024737267 0.026667327
-0.017763847 -0.024425289 0.026207775
-0.01691987 -0.024815807 0.02618593
-0.015799267 -0.024827419 0.027186185
-0.014602366 -0.024711696 0.026555628
-0.013689015 -0.025096526 0.019060194
-0.012377779 -0.024755558 0.025634497
-0.011154661 -0.024540253 0.027316034
-0.010216185 -0.024972897 0.027244598
-0.0090006962 -0.024751915 0.026028663
-0.0078231385 -0.024587007 0.02819699
-0.006780332 -0.024861217 0.02551952
-0.0055740671 -0.024525896 0.024034947
-0.0045302445 -0.024916343 0.025472403
-0.0034297202 -0.025151281 0.019165635
-0.0022652068 -0.024917275 0.018922359
-0.0011255515 -0.024762131 0.022161543
0 -0.025076978 0.021674544
0.0011228117 -0.024701858 0.025449276
0.0022673986 -0.024941383 0.022258729
0.0033707255 -0.024718653 0.028906733
-0.046017181 -0.024159022 0.017013758
-0.044558607 -0.023993095 0.019902736
-0.040650912 -0.023713034 0.02190581
-0.04008878 -0.024053268 0.024337053
-0.038807292 -0.023969211 0.019561142
-0.036378223 -0.02387321 0.022774041
-0.034798484 -0.023573166 0.027003884
-0.034206949 -0.023944866 0.024410129
-0.032834999 -0.023777068 0.025264859
-0.031556986 -0.023667742 0.023932964
-0.030576216 -0.023781501 0.02712056
-0.029758256 -0.024035515 0.026006937
-0.028074317 -0.023582425 0.030435354
-0.027366819 -0.023945969 0.0231947
-0.025826285 -0.023580521 0.02579999
-0.024784435 -0.02365787 0.02332294
-0.023707002 -0.023707002 0.025904328
-0.022405826 -0.023526117 0.026321143
-0.021415235 -0.023669472 0.027978718
-0.020202857 -0.023570001 0.03036651
-0.01916736 -0.023677329 0.026670933
-0.017940477 -0.023546876 0.025870562
-0.017008845 -0.023812383 0.021929979
-0.015642064 -0.023463096 0.024390519
-0.014712712 -0.023766689 0.02332142
-0.013645564 -0.023879739 0.022909373
-0.012437687 -0.023744678 0.025808364
-0.011294336 -0.023718106 0.022011578
-0.010105236 -0.023578886 0.028027445
-0.0089941099 -0.023609539 0.027274072
-0.0079107005 -0.023732103 0.026715219
-0.0067059863 -0.023470953 0.02864024
-0.0056320475 -0.023654601 0.036848813
-0.0045349915 -0.023808705 0.019362628
-0.0034168446 -0.023917913 0.020848751
-0.002286335 -0.024006518 0.016221344
-0.0011589491 -0.024337931 0.021385103
0 -0.023744676 0.019120008
0.0011367237 -0.023871196 0.018925071
0.0022923022 -0.024069173 0.017828912
0.0082107289 -0.024632188 0.018776149
-0.045756374 -0.022878187 0.017743081
-0.045100853 -0.023128642 0.020123452
-0.044012468 -0.023164457 0.017072618
-0.041271832 -0.022928795 0.024892807
-0.039688297 -0.022679025 0.026524186
-0.039144386 -0.023026109 0.019636452
-0.03562329 -0.022264555 0.029357463
-0.035303582 -0.022776503 0.025914401
-0.034050971 -0.022700647 0.02825129
-0.032257885 -0.022246815 0.026337087
-0.031817857 -0.022727039 0.025345415
-0.030785175 -0.022803832 0.025617123
-0.029251684 -0.022501295 0.025597006
-0.028226804 -0.022581443 0.024482697
-0.026855288 -0.022379406 0.028012216
-0.025851946 -0.022479953 0.034679949
-0.024870535 -0.022609578 0.023788035
-0.023552937 -0.022431368 0.022501916
-0.02249505 -0.02249505 0.027176023
-0.021311633 -0.022433298 0.029904544
-0.020160533 -0.022400593 0.028958917
-0.019187389 -0.022573398 0.024751633
-0.018273797 -0.022842245 0.02183336
-0.016744463 -0.02232595 0.022005826
-0.015832368 -0.022617668 0.024004102
-0.014704304 -0.022622004 0.021571457
-0.013495369 -0.02249228 0.021719217
-0.012529007 -0.022780012 0.019699663
-0.011339003 -0.022678006 0.027055323
-0.010050634 -0.022334743 0.023598731
-0.0090941396 -0.022735348 0.024087042
-0.0079262033 -0.022646295 0.023308754
-0.0067981826 -0.022660607 0.023821235
-0.0057865269 -0.023146108 0.019437611
-0.0045043919 -0.022521958 0.031300813
-0.0033876849 -0.022584565 0.020705283
-0.0022877234 -0.022877231 0.020535082
-0.0011528855 -0.023057709 0.016954362
0.0034932818 -0.023288544 0.019487321
-0.04615945 -0.02192574 0.021793664
-0.0447753 -0.021813607 0.017240345
-0.042947888 -0.02205432 0.017394036
-0.041075896 -0.021678947 0.020285457
-0.039724939 -0.021564968 0.026308954
-0.039555606 -0.022104604 0.022333413
-0.036334783 -0.021573778 0.025499642
-0.034957707 -0.021425691 0.030144036
-0.033386376 -0.021144707 0.031340152
-0.032476716 -0.021277847 0.030276716
-0.031813201 -0.021587528 0.027317077
-0.030457467 -0.021433031 0.021949738
-0.029659769 -0.021674447 0.027423471
-0.028374596 -0.021564692 0.02557981
-0.026921283 -0.021312684 0.02733472
-0.026207516 -0.021649688 0.022085041
-0.024769191 -0.021391574 0.024909943
-0.023615826 -0.021366699 0.03359881
-0.022944279 -0.021797065 0.020633906
-0.021332715 -0.021332715 0.01701045
-0.020248407 -0.021373319 0.022658885
-0.019380065 -0.021660071 0.025923014
-0.017997526 -0.021372063 0.022444576
-0.017101636 -0.021662073 0.020791203
-0.01586497 -0.021531031 0.026587903
-0.014645946 -0.021405613 0.02237758
-0.0136833 -0.021665225 0.019603252
-0.012683227 -0.021907391 0.019823819
-0.011177811 -0.021237841 0.018193334
-0.010336828 -0.021822196 0.026085973
-0.0090596825 -0.021516746 0.020801663
-0.0079126731 -0.021477256 0.02121672
-0.0068768393 -0.021776658 0.01912266
-0.0057226741 -0.021746162 0.017588556
-0.0046077454 -0.021886792 0.015225977
-0.0034675784 -0.02196133 0.023363203
-0.0022926303 -0.021779988 0.016225427
0.0035371932 -0.022402223 0.015007019
-0.045752559 -0.020588651 0.015953183
-0.044740219 -0.020649333 0.018115371
-0.044075809 -0.020878013 0.018022656
-0.042335633 -0.020595713 0.022394001
-0.041036919 -0.020518459 0.026912898
-0.040141519 -0.02064421 0.021457344
-0.036290374 -0.020413335 0.026255459
-0.034596473 -0.020088274 0.031022012
-0.033778362 -0.020267015 0.028160781
-0.032610822 -0.020241199 0.029696941
-0.031063117 -0.019969147 0.029386222
-0.030506914 -0.020337941 0.027932614
-0.029511457 -0.020431008 0.026235223
-0.02819851 -0.020302925 0.025947541
-0.027273156 -0.020454867 0.029259294
-0.025922393 -0.020287089 0.02522555
-0.024893807 -0.02036766 0.023112416
-0.023902135 -0.020487541 0.019879371
-0.022769272 -0.020492345 0.021171689
-0.021768693 -0.020622972 0.020590127
-0.020622062 -0.020622062 0.019716203
-0.019335739 -0.020473134 0.018890709
-0.018118409 -0.020383209 0.023201883
-0.017321831 -0.020786196 0.019844025
-0.01572958 -0.020223746 0.020844221
-0.014665838 -0.020306544 0.024255335
-0.013706797 -0.020560196 0.024793059
-0.012417438 -0.020319445 0.021652848
-0.011440947 -0.020593705 0.018292844
-0.010405984 -0.020811968 0.019633681
-0.0090519581 -0.020366905 0.022801638
-0.0080892351 -0.020800889 0.015274912
-0.0068337796 -0.020501338 0.020391732
-0.0057291202 -0.020624833 0.019417852
-0.0034341719 -0.020605031 0.024486721
-0.0023251788 -0.02092661 0.015033364
-0.001151514 -0.020727251 0.01824975
0 -0.02056833 0.015423417
-0.045485932 -0.019331522 0.019301027
-0.045229826 -0.019715566 0.017486721
-0.043356929 -0.019396521 0.015914053
-0.042149432 -0.019365955 0.020843506
-0.041270714 -0.019488949 0.023008287
-0.040424135 -0.01963458 0.017551303
-0.039591257 -0.019795628 0.018477738
-0.03828451 -0.019722326 0.020667315
-0.035750195 -0.018992292 0.032209575
-0.034877017 -0.019126104 0.031802833
-0.034022599 -0.019279473 0.022963613
-0.03245049 -0.019022701 0.028023154
-0.031803295 -0.019309144 0.025621533
-0.030579153 -0.019253541 0.028251737
-0.029454602 -0.019258779 0.02480337
-0.028779196 -0.019569853 0.021037579
-0.027296558 -0.019335061 0.019994795
-0.026486162 -0.019576728 0.019219249
-0.024084875 -0.019497279 0.018226773
-0.02322687 -0.019742841 0.016087353
-0.02058816 -0.019444373 0.016334593
-0.019363713 -0.019363713 0.026707888
-0.01851094 -0.019667873 0.018748581
-0.016967585 -0.01922993 0.019505292
-0.016003203 -0.019432461 0.019141763
-0.015023635 -0.019646291 0.021798104
-0.013627184 -0.019305177 0.023066372
-0.012574874 -0.019433897 0.018853903
-0.011435497 -0.019440345 0.020219326
-0.010323253 -0.019499479 0.015226305
-0.0094067017 -0.019989243 0.015495092
-0.0080368202 -0.019517992 0.018224657
-0.0068666879 -0.019455615 0.01583758
-0.0023444397 -0.019927738 0.017739862
0 -0.01977678 0.017959416
-0.047068447 -0.018368173 0.018667847
-0.046737023 -0.018694811 0.019666731
-0.044780366 -0.018371431 0.018216223
-0.043743957 -0.018418508 0.022636175
-0.042232301 -0.018262615 0.025553495
-0.040650148 -0.018066734 0.023423254
-0.040213704 -0.018383408 0.020005196
-0.038051981 -0.018449446 0.016588926
-0.035977352 -0.017988676 0.028277367
-0.034675326 -0.017896941 0.033239663
-0.0332806 -0.017749652 0.030256748
-0.032859132 -0.018129176 0.036047369
-0.031980135 -0.018274363 0.029465377
-0.030541256 -0.018098522 0.023731947
-0.029844908 -0.018366097 0.022933304
-0.028589083 -0.018297013 0.020188391
-0.027658425 -0.01843895 0.020507723
-0.026584011 -0.018493224 0.018053323
-0.024238115 -0.018467136 0.019372493
-0.023124594 -0.018499676 0.020713687
-0.021818399 -0.018373389 0.020983964
-0.019651316 -0.018495357 0.017190248
-0.01809692 -0.01809692 0.025495827
-0.017330065 -0.018485405 0.026375026
-0.01624183 -0.018562092 0.019216806
-0.014870811 -0.018302538 0.017464608
-0.013894593 -0.018526126 0.018586546
-0.0126646 -0.018421238 0.022704959
-0.011434846 -0.018295754 0.017102927
-0.0070570996 -0.018818932 0.017301291
-0.047962669 -0.017547317 0.01910603
-0.046062429 -0.017273411 0.018431753
-0.045449276 -0.017480491 0.015452504
-0.04172226 -0.016914429 0.02824986
-0.041136879 -0.017140368 0.024663538
-0.040236685 -0.017244294 0.02309072
-0.037839208 -0.017199639 0.018242329
-0.036911819 -0.017302414 0.022837847
-0.034750227 -0.016814625 0.027848214
-0.034053054 -0.017026527 0.03064853
-0.032661378 -0.016893815 0.029876262
-0.031472623 -0.016860334 0.021639198
-0.031112142 -0.017284522 0.022956043
-0.029805098 -0.017195249 0.022765279
-0.028260399 -0.016956238 0.026563674
-0.027461102 -0.017163189 0.030484796
-0.025961157 -0.016931189 0.020950705
-0.02515311 -0.017149847 0.021416008
-0.024186786 -0.017276276 0.018863231
-0.023111001 -0.017333252 0.017478108
-0.021725677 -0.017151849 0.017796695
-0.018480534 -0.0173255 0.019896984
-0.017308908 -0.017308908 0.018608004
-0.015070967 -0.017389579 0.024384618
-0.013939057 -0.017423822 0.01819852
-0.011618693 -0.017428041 0.01764062
-0.010501304 -0.017502174 0.015278071
-0.0058207586 -0.017462276 0.01562196
-0.049983721 -0.016273769 0.015486747
-0.048839208 -0.016279737 0.018496782
-0.04764137 -0.016267784 0.01619795
-0.046141751 -0.016149614 0.021198452
-0.045486465 -0.016328475 0.016885251
-0.043687526 -0.016095404 0.019340158
-0.042505071 -0.016083 0.02099514
-0.041522942 -0.016147811 0.019616067
-0.040431526 -0.01617261 0.016755044
-0.039734788 -0.016361384 0.017195791
-0.037926786 -0.016090151 0.027936816
-0.036149267 -0.015815305 0.026241601
-0.035672475 -0.01611015 0.020875871
-0.034269411 -0.015992392 0.02632463
-0.032442231 -0.015661765 0.029441327
-0.031992901 -0.015996451 0.027987599
-0.031195382 -0.016175382 0.021693498
-0.029515289 -0.015892848 0.022061914
-0.028939566 -0.016206156 0.020192146
-0.027342409 -0.015949739 0.018078387
-0.026170593 -0.015929924 0.022558689
-0.025328062 -0.016117858 0.028597832
-0.023855425 -0.015903616 0.029916108
-0.022912242 -0.016038571 0.025586545
-0.022002893 -0.016212657 0.019843519
-0.020745339 -0.016135264 0.016412377
-0.050378721 -0.015230776 0.018566191
-0.049197126 -0.015227681 0.017722547
-0.047327179 -0.015006178 0.018236309
-0.046732605 -0.015188097 0.01603356
-0.044768758 -0.014922919 0.018269628
-0.044073883 -0.015077907 0.017812908
-0.043099146 -0.015142942 0.019370526
-0.041812666 -0.015099019 0.017262608
-0.0406559 -0.015100762 0.017217845
-0.039098077 -0.014949264 0.021520793
-0.037797675 -0.014889993 0.021282345
-0.036850188 -0.014970388 0.021675467
-0.035509706 -0.014891166 0.023429602
-0.034020685 -0.014742296 0.021319151
-0.033345714 -0.014948077 0.023219466
-0.032392211 -0.01503924 0.022980452
-0.030569214 -0.014718509 0.022206098
-0.029780244 -0.014890122 0.023620605
-0.02858617 -0.014864808 0.028466016
-0.027343243 -0.014810923 0.025355697
-0.026385495 -0.014913541 0.023582786
-0.025176236 -0.014876867 0.023951173
-0.023981404 -0.01484563 0.017649323
-0.022910517 -0.014891836 0.025734782
-0.021750286 -0.014881775 0.02206108
-0.020579416 -0.014862912 0.024328411
-0.019784996 -0.015129703 0.022796661
-0.010584294 -0.015288426 0.015500098
-0.050135057 -0.013991179 0.019270599
-0.048192769 -0.013769362 0.016511619
-0.048014443 -0.014053007 0.018722773
-0.046137039 -0.013841111 0.020255744
-0.044713076 -0.01375787 0.024215788
-0.044291724 -0.013986859 0.017134696
-0.043129425 -0.013987921 0.017624199
-0.041490294 -0.013830098 0.016826898
-0.040673919 -0.013945344 0.020522147
-0.039125886 -0.013809135 0.022396982
-0.038195487 -0.013889269 0.019534618
-0.037311863 -0.013991949 0.017181307
-0.035584044 -0.013774468 0.016990185
-0.03453568 -0.013814272 0.021272182
-0.033468172 -0.013848898 0.023367226
-0.031535018 -0.013515009 0.026605874
-0.031294011 -0.013908449 0.02305913
-0.030128866 -0.01390563 0.024692893
-0.028069822 -0.013473514 0.02289623
-0.02757461 -0.013787305 0.026866466
-0.026261594 -0.013701701 0.022927463
-0.025198277 -0.013744515 0.020593792
-0.02448047 -0.013988839 0.018502802
-0.022903778 -0.013742267 0.022547066
-0.021649031 -0.013673072 0.02108869
-0.020736644 -0.013824429 0.021261603
-0.019471841 -0.013744829 0.021288276
-0.018381914 -0.013786435 0.02423802
-0.017642166 -0.014113734 0.01819855
-0.015404209 -0.014219269 0.015984386
-0.014177976 -0.014177976 0.017618328
-0.04942083 -0.01294355 0.016027808
-0.048343532 -0.012970215 0.01605615
-0.046329543 -0.012740625 0.018170834
-0.042741749 -0.012707005 0.019154936
-0.041814514 -0.012776657 0.022680253
-0.040989231 -0.01288233 0.016467452
-0.039298002 -0.012714058 0.018244386
-0.038601141 -0.012867047 0.016425788
-0.037127875 -0.012762707 0.015262574
-0.036302458 -0.012881517 0.019616693
-0.034802552 -0.012760935 0.026306421
-0.033105623 -0.012557305 0.022931159
-0.032347668 -0.012708013 0.026121348
-0.031155037 -0.012692792 0.023693264
-0.029496869 -0.012479444 0.024694681
-0.028745564 -0.012648048 0.028202623
-0.027293297 -0.012509428 0.023023069
-0.026344651 -0.012599615 0.025509208
-0.025522765 -0.012761382 0.021934211
-0.02418695 -0.012669355 0.019624114
-0.023285288 -0.012806909 0.016485393
-0.022378206 -0.012955803 0.018533111
-0.020749092 -0.012680001 0.020897776
-0.019630594 -0.012702149 0.017441094
-0.01853135 -0.012740304 0.020902246
-0.01736477 -0.012734164 0.017883122
-0.016385972 -0.012874692 0.018152744
-0.011681569 -0.012849726 0.015209019
-0.044562936 -0.011727088 0.015680641
-0.042356007 -0.011447568 0.026634127
-0.041334216 -0.011481727 0.021443248
-0.040320281 -0.011520079 0.022322416
-0.039507065 -0.011619725 0.017735422
-0.037857503 -0.011830469 0.017086416
-0.036080629 -0.011638912 0.018694222
-0.034472927 -0.011490976 0.015561163
-0.033839479 -0.011668785 0.021619439
-0.032491099 -0.011603964 0.022912413
-0.030869707 -0.011433224 0.025422037
-0.030129829 -0.011588396 0.021776527
-0.028866077 -0.01154643 0.022899389
-0.027411908 -0.011421628 0.025580168
-0.026689298 -0.011604042 0.019595623
-0.025211103 -0.011459593 0.023347676
-0.024018513 -0.011437386 0.02213335
-0.02354251 -0.011771255 0.016827375
-0.021956258 -0.011555925 0.016707689
