ply
format ascii 1.0
comment PCL generated
element vertex 1277
property float x
property float y
property float z
element camera 0
property float view_px
property float view_py
property float view_pz
property float x_axisx
property float x_axisy
property float x_axisz
property float y_axisx
property float y_axisy
property float y_axisz
property float z_axisx
property float z_axisy
property float z_axisz
property float focal
property float scalex
property float scaley
property float centerx
property float centery
property int viewportx
property int viewporty
property float k1
property float k2
end_header
-0.039548956 -0.020339463 0.028229505
-0.038163047 -0.020203965 0.028866798
-0.03703627 -0.020201601 0.028290004
-0.036107726 -0.020310596 0.028538555
-0.034779094 -0.020194313 0.028665602
-0.033891343 -0.020334804 0.026654363
-0.032531537 -0.020191988 0.030790538
-0.031403404 -0.020187903 0.024524987
-0.030780954 -0.020520635 0.023872763
-0.029648954 -0.020526199 0.024119884
-0.028358098 -0.02041783 0.023394138
-0.027696358 -0.020772267 0.022205919
-0.026287461 -0.020572793 0.018876553
-0.025186848 -0.020607421 0.017784387
-0.047811564 -0.019824306 0.016581178
-0.045701735 -0.019423239 0.017143041
-0.044811271 -0.019533118 0.021779597
-0.042932875 -0.019206813 0.020377755
-0.041859895 -0.019232923 0.023973674
-0.041198634 -0.019454911 0.023809195
-0.039961077 -0.019409666 0.022843391
-0.038338486 -0.019169243 0.033216208
-0.037188552 -0.019157739 0.03395167
-0.03578712 -0.019011907 0.031748027
-0.034897726 -0.019137463 0.031535596
-0.034051757 -0.019295996 0.022574812
-0.032413486 -0.019001009 0.028533548
-0.031713109 -0.019254388 0.026909918
-0.030497098 -0.019201877 0.029467374
-0.029478312 -0.019274281 0.02443862
-0.028800476 -0.019584324 0.020697087
-0.027166663 -0.019243054 0.022159696
-0.026593873 -0.019656342 0.017345995
-0.025421103 -0.019643581 0.016472429
-0.046770975 -0.018708389 0.019327253
-0.044446908 -0.018234629 0.021636277
-0.043757785 -0.01842433 0.022490621
-0.042878784 -0.018542176 0.018564492
-0.040851127 -0.018156057 0.021190166
-0.03921314 -0.017926008 0.031440198
-0.038652018 -0.018189184 0.025133222
-0.037609141 -0.018234737 0.021956682
-0.036402971 -0.018201485 0.022957146
-0.035018049 -0.018073831 0.028817415
-0.033125669 -0.017667023 0.032322466
-0.032612417 -0.017993057 0.039450377
-0.03174869 -0.01814211 0.032771736
-0.030377125 -0.018001258 0.026163489
-0.029721608 -0.01829022 0.024830222
-0.028552599 -0.018273663 0.020772129
-0.027804386 -0.018536258 0.018075049
-0.026613392 -0.018513663 0.017542362
-0.025260432 -0.018371224 0.016814828
-0.024299446 -0.018513864 0.018204272
-0.044971511 -0.017296735 0.020352662
-0.04397174 -0.017357266 0.021692067
-0.04215778 -0.017090991 0.02354157
-0.041219905 -0.017174961 0.023741066
-0.040000863 -0.017143227 0.025785863
-0.038422465 -0.016951088 0.02416423
-0.037023585 -0.016828902 0.028128684
-0.036585286 -0.017149353 0.026919514
-0.035070386 -0.016969539 0.023717135
-0.034304608 -0.017152304 0.027294457
-0.032849956 -0.016991356 0.027275175
-0.031430077 -0.016837541 0.022247046
-0.030795339 -0.017108522 0.027649432
-0.029790871 -0.01718704 0.022984177
-0.028365303 -0.017019181 0.024885207
-0.027865456 -0.017415911 0.023745537
-0.048818845 -0.016272947 0.018690735
-0.047718421 -0.016294094 0.015446275
-0.046714157 -0.016349956 0.015474379
-0.043699052 -0.01609965 0.019218832
-0.042700399 -0.016156906 0.018883497
-0.041638743 -0.016192846 0.018329382
-0.040204182 -0.016081672 0.019353271
-0.03946228 -0.016249174 0.020401776
-0.038024988 -0.016131813 0.026746452
-0.036366977 -0.015910553 0.023520231
-0.035529334 -0.016045505 0.02272287
-0.034413431 -0.016059602 0.024404347
-0.032604389 -0.01574005 0.027204633
-0.031921413 -0.015960706 0.029008865
-0.030906461 -0.016025571 0.025973797
-0.029110538 -0.015674904 0.028288871
-0.028716054 -0.01608099 0.023768336
-0.027457742 -0.016017016 0.016156167
-0.026444849 -0.016096864 0.017789006
-0.025772486 -0.016400672 0.020517409
-0.024300151 -0.016200101 0.021445155
-0.023322454 -0.016325718 0.017382294
-0.046414934 -0.01471693 0.027136266
-0.045864224 -0.014905874 0.024717361
-0.044423379 -0.014807793 0.021811962
-0.044318266 -0.015161511 0.015240461
-0.043007087 -0.015110597 0.020365745
-0.041563559 -0.015009064 0.020030439
-0.040279791 -0.014961065 0.021516234
-0.039172404 -0.014977683 0.020646363
-0.037937976 -0.014945263 0.019581705
-0.037186496 -0.015107014 0.017471582
-0.03582615 -0.015023869 0.019346446
-0.034037091 -0.014749407 0.021100372
-0.033319272 -0.014936224 0.023584217
-0.03240072 -0.015043192 0.022858858
-0.030350862 -0.014613378 0.025440902
-0.029593663 -0.014796832 0.026491106
-0.028662201 -0.014904344 0.027249515
-0.027220601 -0.014744492 0.027399719
-0.026347714 -0.014892185 0.024239898
-0.025039686 -0.014796178 0.026433915
-0.023833148 -0.014753853 0.020473242
-0.023364589 -0.015186982 0.016653329
-0.022013996 -0.015062207 0.016509295
-0.020845715 -0.015055238 0.018410683
-0.019945437 -0.015252393 0.019021571
-0.018462325 -0.015000639 0.016319811
-0.047850374 -0.014004987 0.020323455
-0.045380175 -0.013614052 0.027824402
-0.043757305 -0.013463786 0.034018576
-0.043175783 -0.013634457 0.028881431
-0.042552333 -0.013800756 0.023863047
-0.041287057 -0.013762353 0.01908505
-0.040695172 -0.013952631 0.020279258
-0.039247707 -0.013852131 0.020963788
-0.038185466 -0.013885624 0.019656122
-0.037372131 -0.01401455 0.016427934
-0.035606645 -0.013783217 0.016698539
-0.034880288 -0.013952116 0.01667738
-0.033861294 -0.014011569 0.017944843
-0.031967428 -0.013700326 0.020428658
-0.031169228 -0.013852989 0.024907768
-0.030051382 -0.013869869 0.025884956
-0.027864521 -0.013374969 0.026181042
-0.027453419 -0.013726709 0.028886318
-0.02613424 -0.013635254 0.025142312
-0.025044311 -0.013660533 0.023393154
-0.024255516 -0.013860295 0.022787631
-0.023014566 -0.013808739 0.020331293
-0.021893099 -0.01382722 0.015950441
-0.053175371 -0.012998424 0.019285738
-0.049841542 -0.012750161 0.015635759
-0.046108779 -0.012679914 0.0203785
-0.045194175 -0.012747075 0.027663291
-0.043448638 -0.012577237 0.028519392
-0.042256687 -0.012562797 0.024398834
-0.0414102 -0.012653117 0.027172625
-0.040296406 -0.012664584 0.024385452
-0.039225727 -0.012690675 0.019094646
-0.037999753 -0.012666584 0.023715377
-0.036355998 -0.012497375 0.024911016
-0.035961475 -0.012760523 0.02401647
-0.034811668 -0.012764278 0.026184857
-0.032976925 -0.012508488 0.024706304
-0.03255878 -0.012790949 0.023105472
-0.031432532 -0.012805846 0.019582212
-0.029506359 -0.012483459 0.02454868
-0.028783584 -0.012664776 0.027594298
-0.027278695 -0.012502735 0.023266435
-0.026466416 -0.012657851 0.023391545
-0.025350044 -0.012675022 0.025074601
-0.024079576 -0.012613111 0.021669328
-0.023081962 -0.012695079 0.02055192
-0.022249803 -0.012881464 0.02123633
-0.020923361 -0.012786498 0.017025143
-0.05063834 -0.011508713 0.015826494
-0.050639637 -0.01177666 0.018133819
-0.049673561 -0.011827038 0.015834898
-0.045693994 -0.011716408 0.019171447
-0.044309281 -0.011660337 0.018350691
-0.042699616 -0.011540436 0.022919416
-0.041443497 -0.011512082 0.020229042
-0.040222514 -0.011492146 0.023439735
-0.039480224 -0.01161183 0.018051237
-0.038114492 -0.011549846 0.02199164
-0.037280016 -0.011650004 0.024305016
-0.035717018 -0.011521618 0.023385972
-0.0340918 -0.011363933 0.020642877
-0.033171259 -0.011438364 0.030836254
-0.032332756 -0.011547413 0.025174439
-0.031276945 -0.011584053 0.019388855
-0.030256351 -0.011637058 0.019830048
-0.02903186 -0.011612743 0.020246863
-0.027655784 -0.011523243 0.021515578
-0.026834864 -0.011667332 0.017064035
-0.025600759 -0.011636709 0.016263008
-0.024321476 -0.011581655 0.016362607
-0.022026828 -0.011593067 0.015221983
-0.051579807 -0.010550415 0.019438833
-0.050045773 -0.010474696 0.023832321
-0.049447306 -0.010595851 0.01901263
-0.043476976 -0.01057548 0.01801613
-0.042676505 -0.010669126 0.018287331
-0.039393742 -0.010427755 0.023130268
-0.037860118 -0.010325487 0.026245683
-0.037021644 -0.010412337 0.02561903
-0.035095479 -0.010189009 0.028735816
-0.034389246 -0.010316773 0.030370474
-0.033256084 -0.010320853 0.026119977
-0.031534385 -0.010136052 0.031111151
-0.031579312 -0.010526436 0.022090524
-0.030329309 -0.010498607 0.018736213
-0.028908851 -0.010407185 0.019590974
-0.028421218 -0.010657957 0.015115321
-0.027257785 -0.010666089 0.015190572
-0.02554737 -0.010451197 0.017895252
-0.024683425 -0.010578611 0.017654121
-0.02353538 -0.010590921 0.015172303
-0.053267609 -0.0092639318 0.01901722
-0.05001191 -0.0093045421 0.021118045
-0.048741985 -0.009284188 0.02080828
-0.046648297 -0.0093296599 0.019023269
-0.045833964 -0.0094018392 0.018178463
-0.044466428 -0.0093613537 0.015293986
-0.042888552 -0.0092732003 0.019886732
-0.042381477 -0.0094181066 0.017826825
-0.040397052 -0.0092336116 0.020964473
-0.039468102 -0.0092866123 0.018733591
-0.038533781 -0.0093415231 0.021362185
-0.036934145 -0.0092335362 0.017720342
-0.036389906 -0.0093909428 0.018672019
-0.035416029 -0.0094442749 0.017119229
-0.033397146 -0.0092130052 0.015371203
-0.032516871 -0.0092905341 0.021917611
-0.031837177 -0.0094332378 0.017250001
0.0037341481 -0.0099577289 0.020653814
-0.051179599 -0.0081422087 0.017162174
-0.050569415 -0.0082322303 0.020997763
-0.048823189 -0.0081371982 0.024762571
-0.046827517 -0.0079949414 0.022755355
-0.046686858 -0.0081702005 0.023343474
-0.04511432 -0.0080974419 0.022985071
-0.043898828 -0.0080866264 0.022699207
-0.042877067 -0.0081118774 0.022437394
-0.041740775 -0.008116262 0.021762341
-0.040390424 -0.0080780853 0.023151904
-0.039511248 -0.0081346687 0.024590522
-0.037936058 -0.0080470424 0.028484225
-0.037155621 -0.0081277918 0.02549997
-0.035896029 -0.0081055546 0.02334106
-0.034126382 -0.007962822 0.024026424
-0.033661451 -0.0081251776 0.019750029
-0.032610346 -0.0081525864 0.022478133
-0.030294368 -0.0081561757 0.020611912
-0.029124696 -0.0081549147 0.020517826
-0.027667476 -0.008069681 0.019522876
-0.026850324 -0.0081718378 0.021083891
-0.025403939 -0.0080830716 0.019577175
-0.024623239 -0.0082077459 0.016194731
-0.052911222 -0.007054829 0.016309947
-0.052088279 -0.0071029472 0.016799241
-0.050209127 -0.0070059244 0.022477776
-0.048453331 -0.0069219042 0.024254203
-0.047664933 -0.0069753556 0.024236143
-0.04612333 -0.0069184997 0.024509162
-0.044742215 -0.0068834177 0.026869595
-0.043969791 -0.0069425981 0.024812341
-0.04298437 -0.0069704377 0.023166806
-0.041633155 -0.0069388594 0.01991725
-0.041284885 -0.007077409 0.016909093
-0.039958991 -0.0070515866 0.015187413
-0.037736665 -0.0070756245 0.015169352
-0.036065187 -0.0069803586 0.019062638
-0.035424579 -0.0070849159 0.016828895
-0.033661045 -0.0069643538 0.02490744
-0.031749964 -0.0068035633 0.024765879
-0.031716768 -0.0070481705 0.021752924
-0.029049812 -0.0069719544 0.015845358
-0.049660813 -0.0057745129 0.023399949
-0.047797911 -0.0056902273 0.033132344
-0.047114488 -0.0057456689 0.028579742
-0.046474349 -0.0058092936 0.026087373
-0.045378 -0.0058176923 0.022719741
-0.044068161 -0.0057984423 0.022919387
-0.042552292 -0.0057503092 0.028631628
-0.041665182 -0.005786831 0.028370917
-0.040038414 -0.0057197735 0.025874734
-0.038987473 -0.0057334518 0.027800024
-0.038355973 -0.0058115111 0.026760668
-0.036467966 -0.0056981193 0.027276576
-0.0361531 -0.0058311452 0.018966049
-0.035531584 -0.0059219305 0.01573509
-0.032648537 -0.0058300961 0.022723109
-0.031399209 -0.0058146683 0.018395752
-0.030067252 -0.0057821637 0.016670853
-0.025629509 -0.0058248881 0.023742765
-0.024269622 -0.0057784813 0.019727349
-0.051059481 -0.0046417709 0.015539646
-0.05062671 -0.0047094612 0.018599242
-0.048637155 -0.0046321098 0.029349387
-0.046536364 -0.0045401328 0.03006053
-0.046109196 -0.0046109199 0.030189395
-0.044629015 -0.004577335 0.027672321
-0.043213654 -0.0045488053 0.033336043
-0.042670291 -0.0046130042 0.032833785
-0.04125534 -0.0045839269 0.029003322
-0.039792925 -0.0045477632 0.035180897
-0.039335586 -0.0046277158 0.028092414
-0.037901841 -0.004594163 0.02681002
-0.036795728 -0.004599466 0.032066673
-0.036086272 -0.004656293 0.026285738
-0.034326877 -0.0045769173 0.024028897
-0.033698406 -0.0046480559 0.022695422
-0.033073515 -0.004724788 0.015522242
-0.031317964 -0.0046396982 0.020026624
-0.030384485 -0.0046745362 0.019007742
-0.029647987 -0.004743678 0.017525911
-0.02812168 -0.004686947 0.018112838
-0.027049093 -0.00470419 0.016727626
-0.025663711 -0.0046661296 0.022136182
-0.024523478 -0.0046711387 0.01729238
-0.023624185 -0.0047248374 0.016953588
-0.052268624 -0.0035637699 0.015855163
-0.050369725 -0.0035141669 0.023231387
-0.048240893 -0.0034457778 0.025469005
-0.046763681 -0.0034217325 0.0343799
-0.045700058 -0.0034275043 0.028030127
-0.044646554 -0.0034343502 0.032309294
-0.044298701 -0.0034972657 0.027873725
-0.042725131 -0.0034641996 0.02433446
-0.04141802 -0.0034515017 0.032501847
-0.040093552 -0.0034365903 0.033237934
-0.038917113 -0.0034338629 0.026756406
-0.038067102 -0.0034606457 0.026446015
-0.037448086 -0.003510758 0.022221059
-0.035504736 -0.0034359421 0.025143415
-0.034577526 -0.0034577525 0.025926471
-0.033402856 -0.0034554678 0.028023213
-0.03189569 -0.0034173953 0.025619507
-0.031292368 -0.0034769294 0.023312122
-0.030358251 -0.0035028751 0.025043994
-0.028624747 -0.0034349693 0.0208368
-0.028072629 -0.0035090786 0.026488155
-0.026605854 -0.0034703284 0.018554211
-0.025699096 -0.0035044223 0.021235585
-0.025043162 -0.0035775944 0.018534929
-0.02341643 -0.0035124645 0.020559132
-0.022170784 -0.0035006499 0.023290157
-0.020928476 -0.0034880794 0.025753707
-0.01993571 -0.0035180666 0.015911996
-0.018938469 -0.003550963 0.01584053
-0.052130762 -0.0023695801 0.015055329
-0.049343385 -0.0022950412 0.02621448
-0.049028642 -0.0023346972 0.024596155
-0.047592554 -0.0023215879 0.025864184
-0.045785699 -0.0022892852 0.030748665
-0.044751383 -0.0022949427 0.030804753
-0.043448228 -0.0022867487 0.032171816
-0.042343892 -0.0022888589 0.030042082
-0.041936804 -0.0023298224 0.026283681
-0.040506613 -0.0023146637 0.025657773
-0.03925442 -0.0023090835 0.025371611
-0.038228121 -0.0023168561 0.028731287
-0.036590934 -0.0022869334 0.026694864
-0.035889737 -0.002315467 0.02631101
-0.034627315 -0.0023084877 0.028553605
-0.032868989 -0.0022668268 0.035953939
-0.03220275 -0.0023001966 0.031580836
-0.031135164 -0.0023063084 0.027327716
-0.029618347 -0.0022783345 0.027770311
-0.028879266 -0.0023103412 0.029332638
-0.027421562 -0.0022851303 0.030870914
-0.026529264 -0.0023068923 0.029560566
-0.025588324 -0.0023262114 0.02588737
-0.02431085 -0.0023153189 0.023211658
-0.023108648 -0.0023108649 0.021655589
-0.022222046 -0.0023391626 0.020342678
-0.020935379 -0.0023261535 0.020003945
-0.051186934 -0.0011903938 0.019376129
-0.048945047 -0.0011653582 0.02656123
-0.047224924 -0.0011518274 0.028412044
-0.046273936 -0.0011568485 0.029147208
-0.044529315 -0.0011417774 0.030635118
-0.043402497 -0.001142171 0.037271112
-0.042166807 -0.0011396435 0.035361111
-0.040778466 -0.0011327352 0.037166744
-0.04025187 -0.0011500535 0.031805187
-0.038847841 -0.0011425836 0.036405176
-0.037644915 -0.001140755 0.034249395
-0.036884967 -0.0011526552 0.031897962
-0.03578265 -0.001154279 0.027332604
-0.034682363 -0.0011560788 0.025027156
-0.033675291 -0.0011612169 0.024569571
-0.032773603 -0.0011704857 0.02953741
-0.030879211 -0.0011436745 0.028155357
-0.030267252 -0.001164125 0.032687008
-0.029157955 -0.0011663182 0.027288139
-0.027879043 -0.0011616268 0.022666514
-0.026900543 -0.0011695888 0.024398655
-0.025459977 -0.0011572717 0.023257494
-0.024665283 -0.0011745373 0.021019787
-0.023538813 -0.0011769406 0.022069901
-0.022313673 -0.0011744038 0.017906576
-0.052219409 0 0.016437441
-0.051046323 0 0.016053885
-0.049253382 0 0.016009569
-0.047911473 0 0.025015265
-0.046329897 0 0.027157247
-0.045308139 0 0.025877297
-0.044120014 0 0.023698181
-0.042454492 0 0.027735263
-0.041508812 0 0.026794136
-0.039943721 0 0.034040689
-0.038430687 0 0.035481811
-0.037516687 0 0.033593178
-0.036507752 0 0.040042818
-0.035402078 0 0.035016924
-0.034500055 0 0.037139595
-0.03325564 0 0.032816291
-0.03195449 0 0.031191975
-0.031214396 0 0.034190506
-0.030145532 0 0.028598189
-0.028426241 0 0.029454738
-0.027693611 0 0.031333894
-0.026487591 0 0.024885714
-0.025473451 0 0.023549765
-0.024629556 0 0.019728959
-0.023390291 0 0.016686469
-0.022251254 0 0.017273188
-0.051835224 0.0011780733 0.021892279
-0.050350115 0.0011709329 0.019885361
-0.049971476 0.001189797 0.016955525
-0.048697203 0.0011877366 0.021205902
-0.046123471 0.0011530868 0.025434047
-0.045587283 0.0011689047 0.02318269
-0.043762341 0.0011516406 0.028918475
-0.042928375 0.0011602263 0.028998047
-0.042319793 0.0011755498 0.029417604
-0.040356047 0.00115303 0.032461226
-0.039101925 0.0011500566 0.02962479
-0.038262568 0.0011594718 0.028050959
-0.036530979 0.0011415931 0.030828238
-0.036067221 0.0011634588 0.030542493
-0.035176702 0.0011725568 0.027070224
-0.033271413 0.00114729 0.027610391
-0.032417644 0.001157773 0.028272182
-0.03123237 0.0011567544 0.02654925
-0.030044187 0.0011555456 0.026991725
-0.02883085 0.001153234 0.032692224
-0.027544525 0.0011476885 0.029507816
-0.026558915 0.0011547353 0.026809305
-0.025699737 0.0011681699 0.026618242
-0.024496492 0.0011664996 0.027498633
-0.023429194 0.0011714598 0.022630185
-0.022428239 0.0011804336 0.025678277
-0.021094561 0.0011719201 0.018298477
-0.051410656 0.0023911933 0.016029388
-0.049522746 0.0023582259 0.023456126
-0.047806431 0.002332021 0.023583442
-0.046669088 0.0023334546 0.025870651
-0.04548509 0.0023325689 0.029008418
-0.044124078 0.0023223199 0.026247352
-0.043428943 0.0023475103 0.028924912
-0.041453637 0.0023029801 0.028445631
-0.040625673 0.002321467 0.024321377
-0.039506435 0.002323908 0.02925995
-0.037999511 0.0023030008 0.030967563
-0.037726801 0.0023579251 0.024920076
-0.036217656 0.0023366229 0.026943237
-0.0345507 0.0023033801 0.024224341
-0.033847813 0.0023343319 0.030067027
-0.032490578 0.0023207557 0.026812106
-0.031233719 0.0023136088 0.026208311
-0.030317595 0.0023321228 0.028743863
-0.029039012 0.0023231211 0.025097072
-0.027814509 0.0023178759 0.024808735
-0.027213918 0.0023664276 0.021330327
-0.026124092 0.0023749175 0.015074611
-0.024817219 0.0023635447 0.015782952
-0.049190886 0.0035136347 0.016469985
-0.048196133 0.0035265461 0.021375239
-0.046719335 0.0035039501 0.02497232
-0.045948271 0.0035344823 0.018861234
-0.044824611 0.003538785 0.022507757
-0.043205868 0.0035031785 0.022464454
-0.041903362 0.0034919467 0.025311619
-0.04159236 0.0035650593 0.024393916
-0.039669015 0.0035002071 0.025419801
-0.038787015 0.0035260923 0.024282664
-0.037603684 0.0035253451 0.025138497
-0.035962678 0.0034802591 0.026480824
-0.034936871 0.0034936871 0.028042406
-0.033732653 0.0034895844 0.027950257
-0.03219714 0.0034496936 0.029293358
-0.031134682 0.0034594089 0.031245083
-0.030222202 0.0034871772 0.027769893
-0.028752543 0.003450305 0.029551238
-0.028207017 0.0035258771 0.022057265
-0.026972676 0.0035181751 0.020380408
-0.026146457 0.003565426 0.016949534
-0.023915792 0.0035873689 0.015127063
-0.022661436 0.0035781213 0.016103327
0.0084471274 0.0036201975 0.015363067
-0.04731774 0.0047317743 0.015798479
-0.045883372 0.0047059869 0.023934066
-0.044069391 0.0046388833 0.026197821
-0.043315005 0.0046827034 0.02039969
-0.042545184 0.004727243 0.022809088
-0.040653922 0.0046461625 0.023397237
-0.039509099 0.004648129 0.024665892
-0.038908493 0.0047161812 0.02204597
-0.037085522 0.0046356902 0.026645213
-0.036367062 0.0046925237 0.020109445
-0.034901455 0.0046535274 0.02840665
-0.033393309 0.0046059736 0.027463138
-0.032555785 0.0046508261 0.02897644
-0.03147893 0.0046635452 0.029541045
-0.030076005 0.0046270778 0.027793616
-0.029340677 0.0046945084 0.024682283
-0.028036958 0.0046728263 0.021837682
-0.026946889 0.0046864152 0.023326159
-0.026274465 0.0047771758 0.024157405
-0.024702491 0.0047052363 0.022821069
-0.023622967 0.0047245938 0.017611265
-0.022774344 0.0047945986 0.020756066
-0.02111331 0.0046918467 0.019808233
-0.04570223 0.00585926 0.020195365
-0.044730131 0.0058855433 0.019763142
-0.043567631 0.0058875177 0.024673223
-0.041798532 0.0058053518 0.031455785
-0.040735696 0.0058193849 0.023469478
-0.0397476 0.0058452352 0.02704668
-0.038428161 0.0058224485 0.028219014
-0.037424833 0.0058476301 0.028030217
-0.035989154 0.0058047022 0.027889818
-0.034750912 0.0057918183 0.025244206
-0.033917908 0.0058479146 0.028873175
-0.032837573 0.0058638523 0.024231493
-0.031533893 0.0058396095 0.027179956
-0.030785436 0.005920276 0.023314834
-0.029487422 0.0058974838 0.023513258
-0.028123813 0.0058591277 0.024174154
-0.027179938 0.005908682 0.026490748
-0.025728619 0.0058474131 0.020284861
-0.024529181 0.005840281 0.024720132
-0.023538269 0.0058845673 0.027159065
-0.022126863 0.0058228583 0.024580121
-0.021205908 0.0058905301 0.018979311
-0.020435933 0.0060105682 0.017421931
-0.018771816 0.0058661923 0.015742272
-0.045627307 0.0070195859 0.022039413
-0.044389561 0.007008878 0.02177757
-0.043357246 0.0070309043 0.024720937
-0.042013526 0.0070022545 0.028054178
-0.040766194 0.0069884905 0.030392647
-0.039748311 0.0070144073 0.029888898
-0.038659446 0.0070289904 0.023600101
-0.038162574 0.0071554827 0.020736337
-0.03632712 0.0070310552 0.021421164
-0.035738297 0.0071476595 0.019990414
-0.034608025 0.0071602808 0.019872427
-0.032729164 0.0070133922 0.019024462
-0.031759471 0.0070576598 0.021947592
-0.030453777 0.0070277946 0.027791917
-0.028978312 0.0069547943 0.030692756
-0.028084874 0.0070212185 0.025536567
-0.026850013 0.0070043509 0.025029033
-0.02562595 0.0069888956 0.02534911
-0.024548799 0.0070139426 0.031270474
-0.023206208 0.0069618626 0.025940299
-0.022347109 0.0070569818 0.02143687
-0.021437602 0.0071458672 0.018272161
0.0035983964 0.0071967929 0.017021984
-0.046231288 0.008297924 0.020193845
-0.044466186 0.0081911394 0.024107307
-0.043351009 0.0082015423 0.02229166
-0.042352844 0.0082352748 0.026595771
-0.040664639 0.0081329281 0.024803877
-0.039308839 0.0080929967 0.028065234
-0.038635831 0.0081954794 0.025397629
-0.037015602 0.0080971625 0.028611571
-0.03633884 0.0082055442 0.023316771
-0.035532586 0.0082909362 0.022713214
-0.033673793 0.0081281569 0.021403968
-0.033109289 0.0082773222 0.026005566
-0.031653076 0.0082063526 0.027640194
-0.030142516 0.0081152925 0.025576293
-0.029549107 0.0082737496 0.023414165
-0.027888022 0.0081340065 0.028237581
-0.026927318 0.0081952708 0.024565428
-0.025774909 0.0082011074 0.028318703
-0.02440461 0.0081348699 0.023963332
-0.02380321 0.0083311237 0.021287203
-0.022633154 0.0083385296 0.018342376
-0.021397267 0.0083211595 0.017662376
-0.020194167 0.0083152456 0.015081644
-0.017736955 0.0082772449 0.016205639
-0.045900222 0.00941543 0.020120114
-0.045068357 0.009488075 0.022164077
-0.04385436 0.0094820233 0.026734203
-0.041902777 0.0093117282 0.025598735
-0.041019853 0.0093759662 0.022519231
-0.040151723 0.0094474638 0.025366873
-0.038754329 0.0093949893 0.026781708
-0.037124719 0.0092811799 0.026082188
-0.036431357 0.0094016409 0.027546048
-0.034564324 0.0092171524 0.029423684
-0.03396846 0.0093706092 0.026534796
-0.03286254 0.0093892971 0.022063553
-0.031474236 0.0093256989 0.025011271
-0.030243922 0.0093058217 0.026889116
-0.029173533 0.00933553 0.026698679
-0.028031308 0.0093437694 0.029185563
-0.027103843 0.0094274236 0.026560605
-0.025829948 0.0093927085 0.024689466
-0.024728201 0.0094202673 0.025204152
-0.023831323 0.0095325289 0.022138655
-0.022324331 0.0093997186 0.021800369
-0.021528911 0.0095684053 0.020219386
-0.019166211 0.0095831053 0.019005388
-0.051805012 0.010842909 0.016001344
-0.045822088 0.010574328 0.023613751
-0.044851515 0.010622727 0.029372573
-0.043086186 0.010480423 0.0258587
-0.042027339 0.010506835 0.023193091
-0.041113336 0.010572 0.027546346
-0.040007107 0.010590116 0.023737699
-0.038882606 0.010604347 0.02264908
-0.037871398 0.01065133 0.029459417
-0.036078986 0.010474544 0.026742339
-0.03516249 0.010548746 0.024096996
-0.034312256 0.01064863 0.026776582
-0.032613911 0.010483042 0.026319176
-0.031876549 0.010625516 0.023988128
-0.031045787 0.010746619 0.022191465
-0.029470112 0.01060924 0.022268027
-0.028589167 0.010720937 0.022076666
-0.027001627 0.010565853 0.027265161
-0.025795104 0.010552542 0.029581964
-0.024981294 0.010706268 0.024277538
-0.023928691 0.010767911 0.022429705
-0.020358851 0.010778215 0.016127706
0.0049089999 0.011045249 0.016190201
0.012226013 0.011003411 0.015040278
-0.050910674 0.011839692 0.015006453
-0.050513804 0.012027096 0.015301347
-0.047201123 0.011800281 0.017153025
-0.044107739 0.011921009 0.016194135
-0.042754862 0.01187635 0.019864768
-0.041191678 0.011769051 0.023706943
-0.040275276 0.01184567 0.027210504
-0.039140932 0.011860888 0.025466532
-0.037604727 0.011751478 0.019589841
-0.036896404 0.011902065 0.02243793
-0.035636373 0.01187879 0.023925364
-0.033671983 0.011611028 0.024732232
-0.033052962 0.011804629 0.023544818
-0.032158747 0.011910647 0.027538508
-0.030386036 0.011686937 0.024136662
-0.02953073 0.011812292 0.025186896
-0.028128931 0.011720388 0.025263757
-0.027032221 0.011753139 0.024172038
-0.026201978 0.011909991 0.023664206
-0.024924848 0.011868974 0.019625396
-0.023882225 0.011941113 0.015755892
-0.022930343 0.012068601 0.021627396
-0.021474976 0.011930543 0.019437671
-0.020343151 0.011966558 0.019147485
-0.019204013 0.012002507 0.02024579
-0.017680224 0.011786815 0.018079162
-0.014293251 0.011911042 0.015281051
0.0060113715 0.012022743 0.015042871
0.009751101 0.012188876 0.015284866
-0.046015158 0.012978634 0.019412845
-0.045724485 0.013236035 0.018907785
-0.042610023 0.013019729 0.021684676
-0.041611921 0.013078032 0.018119097
-0.040834319 0.013211103 0.015790761
-0.038945936 0.012981979 0.022160262
-0.03753034 0.012901054 0.027098328
-0.036618952 0.012993821 0.027079314
-0.035097949 0.012869248 0.022999913
-0.03433796 0.013024743 0.023004115
-0.033324908 0.013091928 0.022473127
-0.03191692 0.013003188 0.023085117
-0.030890111 0.013068893 0.025351554
-0.029642867 0.013042861 0.024674207
-0.028508214 0.013066265 0.022195607
-0.027650477 0.013224141 0.022515297
-0.026101185 0.013050593 0.024173856
-0.025054878 0.013123984 0.020524949
-0.024147302 0.013281016 0.027759701
-0.022436047 0.01298929 0.018240839
-0.021545911 0.013166945 0.019095421
-0.020394616 0.013196516 0.021874458
-0.018850001 0.012959375 0.025847614
-0.017917527 0.01313952 0.017883122
-0.016954798 0.013321627 0.015399396
-0.049075909 0.014363679 0.017728448
-0.047546446 0.014263934 0.019382447
-0.046224803 0.014223016 0.016548276
-0.04508948 0.014238783 0.021381944
-0.043989453 0.014266849 0.022260875
-0.042482421 0.014160807 0.018963635
-0.041666329 0.014285599 0.021517873
-0.039947674 0.014099179 0.021838278
-0.038748726 0.014090446 0.024394035
-0.037965093 0.01423691 0.02466622
-0.036070049 0.013962599 0.022021651
-0.03544917 0.014179667 0.027884781
-0.034175087 0.014141414 0.027111799
-0.033029716 0.014155593 0.024976432
-0.032113302 0.014272578 0.023399681
-0.030713955 0.014175672 0.024595588
-0.029432403 0.014127553 0.027203023
-0.028577721 0.01428886 0.024067849
-0.027209055 0.014196028 0.02331686
-0.026128771 0.014252057 0.022760272
-0.025047971 0.014313126 0.027462035
-0.02367929 0.014207575 0.020112157
-0.022443693 0.014174963 0.025520742
-0.021709856 0.014473238 0.018753082
-0.020047404 0.014151108 0.026135415
-0.01900455 0.014253412 0.023604661
-0.017904364 0.014323492 0.017565101
-0.01655023 0.01418591 0.017566741
-0.048064291 0.015620895 0.0190171
-0.04677951 0.015593169 0.019191563
-0.045099821 0.015428886 0.016332537
-0.043999523 0.015459291 0.018618017
-0.042938013 0.015505395 0.021754295
-0.041325245 0.015349377 0.020520598
-0.040361635 0.015432389 0.019334763
-0.039882176 0.01571116 0.021695346
-0.037911605 0.015401589 0.016159356
-0.037193649 0.015597335 0.018836051
-0.035931386 0.015570266 0.022485971
-0.034170672 0.015317887 0.020690918
-0.03331143 0.01546602 0.025290608
-0.032123942 0.015467083 0.025611162
-0.03046016 0.01523008 0.024739623
-0.029817874 0.015505293 0.024840921
-0.028465997 0.015419082 0.021802992
-0.027260115 0.01540789 0.021076024
-0.026278015 0.015527918 0.0285272
-0.024755903 0.015325082 0.023662239
-0.023931872 0.015555717 0.023592204
-0.02260156 0.015464225 0.026687562
-0.021217216 0.015323545 0.023110777
-0.02021767 0.015460571 0.02469635
-0.01934408 0.015717065 0.016977459
-0.017838111 0.015459696 0.017222732
-0.017028149 0.015811853 0.015397072
-0.048983522 0.01672608 0.017143637
-0.048234913 0.01688222 0.016953915
-0.046394777 0.016654534 0.021179318
-0.045190573 0.016649159 0.019218832
-0.044604279 0.016877295 0.016237855
-0.042670045 0.016593907 0.019688904
-0.041506641 0.016602656 0.020446002
-0.040777344 0.016790671 0.021761864
-0.03921546 0.016636861 0.02205798
-0.038283587 0.016749069 0.020896107
-0.037056807 0.016735332 0.016671509
-0.035558298 0.016593872 0.023043156
-0.034617268 0.016711783 0.023339123
-0.033296719 0.01664836 0.022613764
-0.031824116 0.016501393 0.025584698
-0.030884489 0.016630109 0.024615943
-0.029930929 0.01676132 0.023841351
-0.028571641 0.01666679 0.020438552
-0.027396355 0.01667604 0.032244116
-0.026066983 0.016588081 0.021052867
-0.02490462 0.016603079 0.023465484
-0.023741188 0.016618831 0.025610864
-0.022490947 0.016572276 0.025687009
-0.021213237 0.016499186 0.026493549
-0.020529579 0.016906712 0.022283345
-0.018868975 0.016510354 0.022699654
-0.018147176 0.016937364 0.019778877
-0.017023304 0.017023304 0.016199648
-0.01458573 0.017016685 0.017980903
0.0073699025 0.017196439 0.015695959
-0.052415039 0.018284315 0.015194505
-0.049757015 0.018203786 0.016535968
-0.04766066 0.017872747 0.020274937
-0.046116255 0.017737022 0.023627549
-0.0452234 0.017851342 0.024506658
-0.043893121 0.017794508 0.019367188
-0.042937126 0.01789047 0.01864332
-0.042267747 0.018114749 0.020031393
-0.040647756 0.017932834 0.017704248
-0.039135784 0.017788993 0.020136982
-0.038332622 0.017968418 0.018829107
-0.035040658 0.018124478 0.016117156
-0.033120122 0.017742923 0.019767016
-0.032458134 0.018032297 0.022858799
-0.031199472 0.017999696 0.021549195
-0.02963024 0.017778143 0.022695899
-0.028836202 0.018022627 0.029949516
-0.027322525 0.017819038 0.023335308
-0.026120845 0.017809669 0.021683693
-0.025102992 0.017930707 0.025313258
-0.02363072 0.017723041 0.024537504
-0.022323545 0.017623851 0.024905652
-0.021292403 0.017743669 0.028146893
-0.019975075 0.017625066 0.029123962
-0.019396232 0.018183967 0.018313974
-0.018015841 0.018015841 0.02055648
-0.016764298 0.017961748 0.016173869
-0.015740752 0.018162407 0.022484511
-0.01453398 0.018167475 0.01544562
-0.013276201 0.018103911 0.016762376
0.014645073 0.018306341 0.016761154
0.017093379 0.018314334 0.018171221
-0.050731253 0.019326191 0.018711478
-0.049563389 0.01934181 0.019710362
-0.047770072 0.019108029 0.017193258
-0.046714898 0.019165086 0.020180941
-0.045534834 0.01917256 0.019190997
-0.044160523 0.019096442 0.015531093
-0.043413606 0.019294936 0.020486265
-0.041758098 0.019089416 0.016363472
-0.040953469 0.019272221 0.020592242
-0.039849378 0.019320913 0.016588956
-0.034778237 0.019187992 0.019178271
-0.033620667 0.01921181 0.0201298
-0.032264616 0.019119773 0.019744188
-0.030708008 0.018897235 0.025486857
-0.029712519 0.019016011 0.02821514
-0.028385317 0.018923545 0.021359175
-0.027459793 0.019102465 0.020851344
-0.026388681 0.019191768 0.024309695
-0.024850138 0.018933438 0.0253838
-0.023593146 0.018874517 0.027869791
-0.022310985 0.018788198 0.029650241
-0.021192839 0.018838082 0.030213594
-0.020283593 0.019090442 0.020185173
-0.019376826 0.019376826 0.021112561
-0.017848799 0.01903872 0.021991342
-0.016782288 0.019179758 0.022675306
-0.015671942 0.019288545 0.020046562
-0.014200064 0.018933419 0.020096838
-0.013296356 0.019340156 0.020829111
-0.012140769 0.01942523 0.018345445
-0.010650497 0.018934218 0.018444002
-0.048245303 0.020504255 0.020828605
-0.046684124 0.02034949 0.018238604
-0.045663856 0.020428568 0.017296851
-0.045051571 0.020699369 0.015966296
-0.043607946 0.020592643 0.016164064
-0.042801023 0.020789068 0.015609264
-0.040346202 0.020784408 0.015518725
-0.039127585 0.020786529 0.015424609
-0.037247591 0.020426096 0.020748377
-0.035312932 0.020010663 0.029719055
-0.034450453 0.020195093 0.027998865
-0.033496406 0.020337105 0.025597245
-0.031798512 0.020021286 0.033430398
-0.030918244 0.020215776 0.027210742
-0.029835636 0.020288231 0.0267286
-0.02837511 0.020099036 0.027024597
-0.027412213 0.0202612 0.033256561
-0.025908222 0.020019989 0.028516561
-0.02448348 0.01981996 0.035139441
-0.023503106 0.01997764 0.037845433
-0.022403501 0.020045238 0.024486899
-0.021552168 0.020354826 0.02434361
-0.020418091 0.020418091 0.022666425
-0.018799229 0.019974181 0.025347114
-0.017869795 0.020252435 0.027224571
-0.016716635 0.02029877 0.031026214
-0.015409911 0.020151423 0.023332506
-0.014414898 0.020421106 0.023821443
-0.013199865 0.020399792 0.024894953
-0.011748531 0.019972503 0.02384907
-0.0084930453 0.020625968 0.016689688
0.0073575312 0.020846339 0.015204102
0.014774412 0.020930417 0.017659038
0.023433669 0.020966966 0.015943289
-0.046265293 0.021353211 0.026215166
-0.046013787 0.021796003 0.021054715
-0.044306092 0.021554312 0.021277994
-0.043618519 0.021809259 0.016671926
-0.042267535 0.021737589 0.019272804
-0.040499099 0.021440698 0.023112863
-0.039436307 0.021510713 0.022461981
-0.038147934 0.02145821 0.024093837
-0.03630973 0.021083068 0.030341804
-0.035356481 0.021213887 0.034939826
-0.034134857 0.021187151 0.03074199
-0.032820698 0.02109902 0.03658089
-0.03205597 0.021370646 0.030071914
-0.030782126 0.021310702 0.031778872
-0.029108923 0.020958424 0.029814154
-0.028485848 0.021364385 0.028626919
-0.026998006 0.021128872 0.030309558
-0.025829129 0.021132924 0.030119181
-0.024911311 0.02135255 0.031339794
-0.023830289 0.02144726 0.024286598
-0.022524761 0.021339245 0.026747644
-0.021370182 0.021370182 0.028016448
-0.019885115 0.021054827 0.033399493
-0.018853663 0.021210371 0.03454718
-0.017666059 0.021199269 0.038860202
-0.01638839 0.021070786 0.025665611
-0.015616386 0.021622688 0.025205076
-0.014388484 0.021582725 0.024914801
-0.013010882 0.021290533 0.024965286
-0.012073645 0.021732561 0.02489388
-0.010869117 0.021738235 0.020047843
-0.0096858246 0.021793103 0.017953843
0.012278253 0.022100855 0.016855747
0.023211462 0.021989806 0.015089691
-0.045377202 0.022688601 0.023890018
-0.044473808 0.022837901 0.022779614
-0.043434449 0.022923738 0.025186986
-0.042133156 0.022872284 0.019586086
-0.040488269 0.022625796 0.025246471
-0.039201427 0.022570521 0.031200379
-0.037492711 0.022261297 0.029822409
-0.037028439 0.02269485 0.029366702
-0.035942785 0.022763764 0.023492962
-0.034187313 0.022398584 0.033022523
-0.033276267 0.022580324 0.02787599
-0.032510061 0.022877449 0.026495278
-0.030808613 0.022513987 0.021296918
-0.029491585 0.022413604 0.029543281
-0.028052123 0.022207933 0.033268601
-0.027074622 0.022365993 0.030281752
-0.025967982 0.022426894 0.030991435
-0.024746228 0.022389444 0.030144066
-0.023630453 0.022448933 0.031656504
-0.022537196 0.022537196 0.032293081
-0.021110345 0.022283142 0.030301034
-0.019838342 0.022172265 0.034174562
-0.018825201 0.022354927 0.032254964
-0.017562684 0.022246066 0.029677391
-0.016650677 0.022597346 0.029095709
-0.015457103 0.022591151 0.026370972
-0.014128208 0.022369664 0.02634871
-0.013077023 0.022587588 0.024670213
-0.012008322 0.022815812 0.021846592
-0.010744011 0.022681803 0.020240337
-0.0098225726 0.02332861 0.016441584
-0.0072652604 0.023006659 0.019804686
0.015844876 0.023157896 0.015145689
0.022259228 0.023495853 0.016184896
0.0245928 0.023363162 0.015256464
-0.047445845 0.024331201 0.017189801
-0.046574332 0.024512805 0.015981287
-0.043507818 0.02417101 0.021326274
-0.04173949 0.023851138 0.024655581
-0.040916644 0.024068613 0.02723375
-0.03938897 0.023872104 0.027554989
-0.038370118 0.023981323 0.028701842
-0.037242305 0.024027292 0.023631454
-0.035872851 0.023915233 0.027935535
-0.03491243 0.024077535 0.027284652
-0.033461057 0.023900753 0.024907976
-0.031925365 0.023648418 0.028728068
-0.03067058 0.023592753 0.034177989
-0.029412039 0.02352963 0.031484663
-0.028162524 0.02346877 0.034772158
-0.027345423 0.023778627 0.030983329
-0.025962159 0.023601962 0.032325476
-0.024876051 0.023691475 0.03444615
-0.023846554 0.023846554 0.031044424
-0.022379583 0.023557454 0.030731887
-0.020964326 0.023293696 0.033266276
-0.020117279 0.023667386 0.031395882
-0.018608721 0.023260901 0.036437541
-0.017895568 0.023860758 0.031110048
-0.016664844 0.023806918 0.028264493
-0.015350778 0.02361658 0.029167712
-0.014424523 0.02404087 0.025761127
-0.013131686 0.023875792 0.026663899
-0.011890581 0.023781162 0.021819592
-0.010849556 0.024110125 0.020018756
-0.0096679423 0.024169857 0.01829055
-0.0083886646 0.023967613 0.015782744
0.013733025 0.024969134 0.018749952
-0.046388764 0.025635894 0.017797887
-0.044920474 0.025495404 0.020251662
-0.044063412 0.025703659 0.019043267
-0.04244969 0.025469815 0.022784084
-0.040855754 0.025234437 0.02405104
-0.039700389 0.025263885 0.024735689
-0.038769253 0.025442323 0.025177658
-0.036774602 0.024911825 0.028339505
-0.035813648 0.025069553 0.027713329
-0.034686074 0.025117502 0.03145957
-0.032938052 0.024703538 0.030517548
-0.0319902 0.024881268 0.033754855
-0.031039523 0.025070384 0.031524301
-0.029368792 0.024669785 0.033935905
-0.028495919 0.02493393 0.029637694
-0.02720212 0.024836719 0.029739231
-0.025843816 0.024669098 0.034072429
-0.024939282 0.024939282 0.03441751
-0.023353338 0.024521006 0.037997812
-0.022095909 0.024421794 0.038172722
-0.021206923 0.024741411 0.030974835
-0.01976411 0.024414491 0.038132638
-0.01881662 0.024696814 0.035216063
-0.017924318 0.025094047 0.028647751
-0.016456541 0.024684813 0.027141154
-0.015435056 0.024933552 0.030016005
-0.014251774 0.024940604 0.030651331
-0.013019532 0.02485547 0.024201453
-0.012099682 0.025409333 0.022279441
-0.010937477 0.025520781 0.019261271
-0.0097081056 0.025483778 0.018093437
-0.0084966943 0.025490083 0.01780206
-0.0072444524 0.025355585 0.016852945
0.017179858 0.025769789 0.015943885
0.025991509 0.025991509 0.017245173
-0.047984183 0.027068 0.017621636
-0.04628817 0.026798412 0.021286726
-0.044670004 0.026560541 0.023328751
-0.043863267 0.026805332 0.020010918
-0.042269971 0.026569696 0.021883458
-0.040815257 0.026409872 0.024848551
-0.039839275 0.026559519 0.026771158
-0.037892096 0.026050815 0.031801671
-0.036805455 0.026119998 0.031176627
-0.035816159 0.026265182 0.031741083
-0.034373272 0.026076274 0.029172093
-0.033467643 0.026296005 0.033477336
-0.032249995 0.026277773 0.032316774
-0.030534631 0.025836995 0.032006145
-0.02979175 0.026216738 0.030018091
-0.028404601 0.026037551 0.031675726
-0.027102022 0.025923673 0.03676188
-0.026011555 0.026011555 0.032462925
-0.024434168 0.025597697 0.037671775
-0.023465751 0.025812328 0.033225417
-0.02256324 0.026125856 0.035321534
-0.021183284 0.025890682 0.032357424
-0.019915547 0.02577306 0.030949712
-0.019114872 0.026282949 0.03061223
-0.017853472 0.026185093 0.024190366
-0.016705636 0.026251713 0.02728352
-0.015408467 0.026075866 0.032129616
-0.014176108 0.025989531 0.025876135
-0.013243399 0.026486797 0.027119517
-0.012033545 0.026473802 0.023128539
-0.010816041 0.026439212 0.018309146
-0.0097993305 0.026948158 0.017555356
-0.0084648756 0.026603894 0.018116176
-0.0072621102 0.026627738 0.016704589
-0.0012173636 0.026782 0.016121894
0.022271518 0.027220743 0.016324639
0.025772257 0.026999505 0.01629439
-0.046173498 0.027947119 0.021647453
-0.045123573 0.028049789 0.020658314
-0.043551587 0.027824627 0.021002531
-0.041867178 0.027512716 0.024767071
-0.041333411 0.027960837 0.03037703
-0.03965554 0.027638711 0.026815951
-0.038933456 0.027983423 0.024199963
-0.036941439 0.027408164 0.034959555
-0.03537409 0.027120136 0.031178176
-0.034456518 0.027327582 0.03516683
-0.033452775 0.027479066 0.031310797
-0.03196343 0.027228108 0.029080987
-0.030986825 0.027411424 0.029450268
-0.029969858 0.027572269 0.031107575
-0.028432718 0.027248021 0.031671315
-0.027341461 0.027341461 0.034179837
-0.026015943 0.027198488 0.031753272
-0.024719268 0.027073484 0.035161912
-0.023636356 0.027181812 0.035506815
-0.022234285 0.026915187 0.034416586
-0.021161713 0.027039969 0.037412584
-0.020276709 0.027433196 0.033378184
-0.0191375 0.027510157 0.022432834
-0.01803986 0.027661119 0.028445244
-0.016616419 0.027298404 0.032925516
-0.015336704 0.027134169 0.030494541
-0.014423111 0.027644299 0.028111696
-0.013227488 0.027657475 0.027407765
-0.011902236 0.027375145 0.021275312
-0.010881898 0.027809296 0.023272783
-0.0096645458 0.027785569 0.018526673
-0.0084747663 0.027845662 0.020475239
-0.0072669364 0.027856592 0.022180349
-0.0060532489 0.027844945 0.017847151
-0.0048646489 0.027971731 0.016751975
-0.0024245016 0.027881768 0.015778631
-0.0012250459 0.028176054 0.015583962
0 0.028113138 0.015121341
0.0024960898 0.028705033 0.016241282
0.019811945 0.028479673 0.016009539
0.021123512 0.028578868 0.015107781
0.02340232 0.028329125 0.015274644
0.024641978 0.028338276 0.01519984
0.027112477 0.028344864 0.015147239
-0.04884943 0.029309658 0.0171763
-0.047854796 0.029449107 0.017301589
-0.046765476 0.029536089 0.019923419
-0.044681981 0.028982906 0.023709953
-0.043529987 0.029019993 0.021241993
-0.042790633 0.029342148 0.031797171
-0.040956236 0.028910283 0.025642067
-0.039946046 0.029051669 0.026059926
-0.038949154 0.029211864 0.024608999
-0.037481621 0.029018028 0.023788452
-0.036456015 0.02916481 0.022069126
-0.03469621 0.028714104 0.025812745
-0.033114683 0.028384013 0.030456215
-0.032460514 0.028853789 0.03026703
-0.031222347 0.028820628 0.034961045
-0.029324599 0.028151613 0.03307122
-0.028505854 0.028505854 0.033829689
-0.027045367 0.028221251 0.035633266
-0.026000114 0.028363761 0.036173075
-0.024757782 0.028294608 0.037028849
-0.023713147 0.028455777 0.032437831
-0.02239969 0.028294344 0.032466054
-0.021786857 0.029049145 0.026048779
-0.020474304 0.028904898 0.024519175
-0.019229094 0.028843639 0.027392298
-0.0178803 0.028608479 0.03004685
-0.016508393 0.028300101 0.029465616
-0.015662661 0.028915683 0.02893275
-0.014466267 0.028932534 0.030565411
-0.01317201 0.028738931 0.022219956
-0.012223595 0.029336628 0.019665837
-0.010845255 0.028920682 0.023585796
-0.0095638176 0.028691452 0.021737039
-0.0084224073 0.028876824 0.024196714
-0.0072362954 0.028945182 0.026729435
-0.0060484069 0.029032353 0.015288413
-0.0048532248 0.029119348 0.02220282
-0.0036301378 0.029041102 0.017309815
-0.0024525102 0.029430119 0.017797023
-0.0012190844 0.029258024 0.015727729
0 0.028881229 0.017212927
0.019874247 0.029811369 0.015204459
0.020867145 0.029459499 0.015810996
0.023431245 0.029597363 0.015394032
0.027207462 0.029680869 0.016044468
-0.048837207 0.030523255 0.022115052
-0.047297161 0.030318694 0.027935237
-0.045492176 0.029929064 0.028596163
-0.044581052 0.030122332 0.026057661
-0.043538678 0.030235196 0.035543352
-0.04234492 0.030246373 0.021679878
-0.04118301 0.030281626 0.023697734
-0.040130135 0.030401619 0.022052914
-0.038615182 0.030168111 0.018927068
-0.037665915 0.030375738 0.020945191
-0.036463227 0.030386023 0.022551298
-0.03506764 0.030230723 0.023065329
-0.034087066 0.030434882 0.026639014
-0.032411322 0.030010482 0.029873878
-0.030702863 0.029521985 0.030340344
-0.029847052 0.029847052 0.0341838
-0.028529221 0.029717941 0.036205828
-0.027252262 0.029622026 0.032468498
-0.026342399 0.029934546 0.033664078
-0.02484463 0.02957694 0.030483991
-0.023913765 0.02989221 0.028202474
-0.023190908 0.030514354 0.02027908
-0.02167411 0.030102931 0.023296893
-0.020326477 0.029891877 0.026874572
-0.019253409 0.030083451 0.027777314
-0.017795475 0.029659128 0.027220458
-0.01699207 0.030342983 0.027052611
-0.015631018 0.030059652 0.027784795
-0.014426835 0.030055907 0.025718749
-0.013438341 0.030541686 0.016376525
-0.012185836 0.030464593 0.019906163
-0.010774059 0.029927945 0.020321071
-0.0097117946 0.030349357 0.028304964
-0.0083653256 0.029876163 0.029669315
-0.0072570974 0.030237908 0.030327708
-0.0060870382 0.030435193 0.023561954
-0.0047743483 0.029839678 0.024998754
-0.0035647734 0.029706446 0.027482182
-0.0024619945 0.030774932 0.020106912
-0.0012021019 0.030052548 0.0214459
0 0.030836172 0.016869545
0.024680827 0.030851034 0.015803069
0.026279127 0.031284675 0.016190112
0.026922589 0.030593853 0.016819835
0.028379971 0.030847795 0.018688798
0.031055754 0.031055754 0.016229421
-0.049611796 0.032247666 0.019156903
-0.047240123 0.031493414 0.020881534
-0.04599373 0.031469394 0.020934969
-0.045260035 0.031804346 0.03271845
-0.043479461 0.031401835 0.023538321
-0.042077295 0.031257421 0.027107745
-0.041380599 0.031643987 0.026264757
-0.039355353 0.031007249 0.026779532
-0.038915757 0.031619053 0.027706861
-0.037703224 0.03162206 0.024630368
-0.035907734 0.031120034 0.023372948
-0.034961786 0.031345047 0.028790683
-0.03365849 0.03125431 0.030908108
-0.031970181 0.030786099 0.028169304
-0.031203199 0.031203199 0.028878212
-0.030080695 0.031283919 0.028737009
-0.028865818 0.031271301 0.023056269
-0.028103029 0.031768642 0.023278385
-0.026490606 0.031307083 0.021629035
-0.025301347 0.031325478 0.022288203
-0.024407092 0.031729221 0.029753774
-0.022707993 0.031074094 0.023922592
-0.021549225 0.031126661 0.028447866
-0.020539252 0.031412974 0.026651442
-0.019068446 0.030986223 0.026459634
-0.018235009 0.031607348 0.021792382
-0.016949363 0.031477388 0.022086293
-0.015546318 0.031092636 0.024982929
-0.01477341 0.032009054 0.017613471
-0.013450261 0.031791527 0.019999057
-0.011870638 0.030863661 0.023017406
-0.010919076 0.031544 0.022532135
-0.0095997779 0.031199276 0.023409367
-0.008312894 0.030876465 0.02219367
-0.0072617871 0.031467743 0.027840525
-0.0059430921 0.030904079 0.030810624
-0.0047314866 0.030754663 0.029691905
-0.0036196986 0.031370722 0.03156662
-0.0024070856 0.031292111 0.020444393
-0.0012023979 0.031262342 0.019787461
0.018511366 0.032086369 0.015298486
0.021110764 0.03228705 0.017021894
0.023581022 0.032268766 0.017577291
0.024757136 0.032184277 0.016189516
0.028341951 0.032038726 0.019414842
0.029428499 0.031880874 0.016569436
-0.048075467 0.033283018 0.015816033
-0.047079425 0.03345117 0.027666479
-0.044750549 0.032655805 0.024643809
-0.043989331 0.032992002 0.027654797
-0.043020718 0.033187415 0.022691101
-0.041421231 0.03289333 0.020950109
-0.040205274 0.032895226 0.019305289
-0.039212115 0.033085223 0.024039388
-0.03733414 0.03251683 0.023413241
-0.036844622 0.033160161 0.023514777
-0.035211202 0.032782845 0.023664653
-0.033568002 0.032369144 0.025368184
-0.032617211 0.032617211 0.026076555
-0.031371705 0.032578312 0.024283826
-0.029717511 0.032094911 0.030699641
-0.028865447 0.032473631 0.032064646
-0.027370598 0.0321307 0.032020688
-0.026424777 0.03243041 0.025853395
-0.025431152 0.032697197 0.028748751
-0.024274264 0.032770257 0.019881159
-0.022974437 0.032647885 0.026082009
-0.022082819 0.033124231 0.02508831
-0.020535871 0.032615796 0.023146033
-0.019309433 0.032584671 0.026090533
-0.01809522 0.032571394 0.027430534
-0.016677592 0.032163929 0.029184043
-0.015873384 0.032967798 0.02106294
-0.014614087 0.032881696 0.020651102
-0.01298914 0.031882435 0.031088263
-0.012159394 0.032830365 0.022064894
-0.010892098 0.032676294 0.026810259
-0.0095256921 0.032149211 0.027930886
-0.0083885938 0.032356005 0.030316621
-0.0071350359 0.032107662 0.032751083
-0.0058901007 0.031806547 0.030635178
-0.0047382494 0.031983186 0.035600156
-0.0035426316 0.031883687 0.032048136
-0.0023913577 0.032283328 0.028252423
-0.0012223976 0.033004735 0.022509694
0.0049866959 0.033660199 0.015889883
0.022246914 0.033370372 0.019399703
0.024620604 0.033237815 0.016405642
0.026051205 0.033494405 0.017424226
0.027249342 0.033442374 0.016863018
0.033651352 0.033651352 0.017821431
-0.045361497 0.034327615 0.020569384
-0.042635903 0.034108724 0.018275857
-0.041877855 0.034487646 0.019370735
-0.040926635 0.034725629 0.016877115
-0.039083213 0.034197811 0.019257367
-0.038205761 0.034508429 0.02064383
