ply
format ascii 1.0
comment PCL generated
element vertex 1295
property float x
property float y
property float z
element camera 0
property float view_px
property float view_py
property float view_pz
property float x_axisx
property float x_axisy
property float x_axisz
property float y_axisx
property float y_axisy
property float y_axisz
property float z_axisx
property float z_axisy
property float z_axisz
property float focal
property float scalex
property float scaley
property float centerx
property float centery
property int viewportx
property int viewporty
property float k1
property float k2
end_header
-0.067250878 0.0070790397 0.018839628
-0.064900316 0.0069536055 0.020017266
-0.063842811 0.00696467 0.021014035
-0.062422395 0.0069358214 0.021559566
-0.061972067 0.0070157056 0.021585405
-0.061023604 0.0070411852 0.021061361
-0.060214475 0.0070840558 0.020617574
-0.058341295 0.0070009553 0.020171672
-0.058069613 0.007110565 0.018868297
-0.056427889 0.0070534861 0.018139452
-0.05623896 0.0071794414 0.017095
-0.054506499 0.0071095428 0.016131282
-0.053017553 0.0070690066 0.015204757
-0.041729175 0.007153573 0.015019864
-0.040326647 0.0071164672 0.01594916
-0.039118625 0.0071124779 0.016203731
-0.038487356 0.0072163786 0.01599583
-0.036997959 0.007160895 0.016397893
-0.035979059 0.0071958113 0.016397893
-0.034833748 0.0072069825 0.015237719
-0.020427981 0.0072098761 0.015718848
-0.01943983 0.0072899358 0.016213268
-0.018311596 0.0073246378 0.015939355
-0.016763948 0.0071845492 0.016469181
-0.015386427 0.0071014278 0.017198265
-0.014271974 0.0071359868 0.017383069
-0.012769163 0.0069649979 0.017503411
-0.011804739 0.0070828437 0.018816829
-0.010675914 0.0071172761 0.019999713
-0.0094112055 0.0070584044 0.020891011
-0.0083871018 0.0071889441 0.022094965
-0.0070506083 0.0070506083 0.022731572
-0.0058854632 0.0070625562 0.023385286
-0.0047282558 0.0070923837 0.023600608
-0.0034981666 0.0069963331 0.02413395
-0.0023400732 0.0070202197 0.024600148
-0.0011783394 0.0070700361 0.026291221
0 0.0069006872 0.027508944
0.0011666943 0.007000166 0.028092891
0.0023664115 0.007099234 0.028725952
0.0034421987 0.0068843975 0.028952539
0.0046548531 0.0069822795 0.029457748
0.0057644499 0.0069173397 0.030002505
0.0068611391 0.0068611391 0.030031174
0.0081780106 0.0070097232 0.030002326
0.0092478422 0.0069358819 0.030284405
0.010395589 0.0069303932 0.02980727
0.011668822 0.0070012929 0.029708117
0.012802683 0.0069832816 0.029708117
0.013997006 0.0069985031 0.029762894
0.015307209 0.0070648659 0.029762894
0.016076397 0.0068898848 0.029674083
0.017155526 0.0068622106 0.030008525
0.018911531 0.007091824 0.030105472
0.019490825 0.0068791145 0.02989462
0.020754591 0.006918197 0.03009513
0.021956008 0.0069334763 0.029957265
0.022954112 0.0068862336 0.029770106
0.024835201 0.0070957718 0.029703707
0.026110774 0.0071211201 0.028589457
0.027554197 0.007188051 0.028037816
0.028604856 0.0071512139 0.027581632
0.02950923 0.0070822146 0.025230318
0.030835003 0.0071157701 0.023893416
0.032551117 0.0072335815 0.023253769
0.033349041 0.007146223 0.021273136
0.034183029 0.0070723509 0.01988399
0.035813078 0.0071626157 0.018820286
0.037137404 0.0071878838 0.018070966
0.038860753 0.0072863912 0.017604947
0.040002901 0.0072732549 0.017196387
0.040601358 0.0071649454 0.015345216
-0.06773901 0.0081753982 0.017349094
-0.066281468 0.0081398292 0.019341618
-0.065283187 0.0081603983 0.020571828
-0.06344495 0.0080748117 0.021240711
-0.062534094 0.0081062717 0.022084326
-0.062248271 0.0082214698 0.021893889
-0.060351536 0.0081242453 0.021568358
-0.059456419 0.0081606852 0.021195352
-0.058868293 0.0082415612 0.02016151
-0.0578449 0.0082635572 0.019732177
-0.057032891 0.0083172964 0.019025743
-0.055658996 0.008289638 0.017710418
-0.053771574 0.0081826299 0.016824543
-0.053467989 0.0083172424 0.015776813
-0.052718133 0.0083869761 0.015595287
-0.047892857 0.0083812503 0.01501289
-0.047106884 0.0084550818 0.015240818
-0.044862878 0.0082642147 0.016137004
-0.043991163 0.0083226524 0.016267836
-0.043290615 0.0084176203 0.016267836
-0.041270465 0.0082540931 0.016642481
-0.039924331 0.0082197152 0.017326653
-0.039227329 0.008320949 0.017520666
-0.037867386 0.0082834903 0.017608821
-0.03691167 0.0083348928 0.01779595
-0.036169112 0.0084394598 0.017700374
-0.033899508 0.0081826393 0.016901642
-0.033609942 0.0084024854 0.015684873
-0.032314945 0.0083779478 0.015452474
-0.03086381 0.0083094873 0.015667975
-0.030221473 0.0084620127 0.015898973
-0.028748296 0.0083849197 0.017037362
-0.027600678 0.0084002065 0.017137766
-0.026469972 0.0084222639 0.017171353
-0.024669265 0.0082230885 0.016632974
-0.023809299 0.0083332546 0.015898973
-0.022531332 0.0083010169 0.015459388
-0.021241594 0.0082606208 0.016820312
-0.020204524 0.0083195092 0.017367989
-0.019581344 0.0085668378 0.018198431
-0.017753402 0.0082849208 0.017903507
-0.017008934 0.0085044671 0.018194765
-0.015419864 0.0083030043 0.01883927
-0.013967919 0.0081479531 0.019171208
-0.012967076 0.008251776 0.019490123
-0.011884711 0.0083192978 0.020640671
-0.010495553 0.0081632081 0.021940708
-0.0094976211 0.0083104186 0.02271691
-0.0082788058 0.0082788058 0.023857951
-0.0070214276 0.0081916656 0.024502993
-0.0059388699 0.0083144186 0.024811774
-0.00472148 0.0082625896 0.025016248
-0.0035210692 0.0082158279 0.025440842
-0.0023432705 0.0082014464 0.026712537
-0.0011595748 0.0081170239 0.027928233
0 0.0081631402 0.028918087
0.0011654276 0.0081579937 0.029402107
0.002294376 0.0080303168 0.030181617
0.0035057061 0.0081799813 0.030285686
0.0046858774 0.008200285 0.030383497
0.0056837462 0.0079572443 0.030417085
0.0069098719 0.008061517 0.030872494
0.0080919126 0.0080919126 0.031005591
0.0092079677 0.0080569722 0.030719131
0.010497199 0.0081644887 0.030488998
0.011680538 0.008176377 0.030420065
0.012703618 0.0080841212 0.030569106
0.014164629 0.0082627004 0.030222237
0.015187766 0.0081780283 0.029902846
0.016242081 0.0081210406 0.029877037
0.017446348 0.0081416294 0.029933125
0.018247981 0.0079834918 0.029876232
0.020025382 0.0082457457 0.02935338
0.020924769 0.0081374105 0.02897343
0.021774618 0.0080222273 0.028840899
0.023409858 0.008193451 0.028610349
0.024829082 0.008276361 0.027518451
0.025884725 0.0082360497 0.027304024
0.027460687 0.0083576003 0.026254982
0.028908957 0.0084317792 0.024836272
0.030332521 0.0084931059 0.023843765
0.03112955 0.0083810333 0.022957355
0.03195034 0.0082834214 0.02194652
0.033591207 0.0083978018 0.019988924
0.034832343 0.008407807 0.019764602
0.035393968 0.0082585933 0.018752098
0.036696859 0.0082863877 0.018289328
0.038660828 0.0084570562 0.017696708
0.039058901 0.0082852216 0.01646924
0.041136723 0.0084693255 0.015229583
-0.067914374 0.0093674995 0.015844524
-0.066746287 0.0093679 0.018799603
-0.065750144 0.009392878 0.020559818
-0.064073168 0.0093197329 0.021278203
-0.064149387 0.0095036123 0.021848232
-0.061729707 0.0093176924 0.022097856
-0.061118957 0.0094029158 0.021638513
-0.059728168 0.0093691247 0.021267891
-0.058644779 0.0093831643 0.020465374
-0.057791825 0.0094354004 0.019842207
-0.056789111 0.0094648516 0.019275516
-0.055050284 0.0093702609 0.017932415
-0.054309562 0.0094451411 0.017333537
-0.054283369 0.0096503766 0.01607579
-0.052161098 0.0094838366 0.015867114
-0.050819904 0.0096799815 0.01501289
-0.048697665 0.0095019834 0.015529305
-0.048257027 0.0096514057 0.015888333
-0.046188917 0.00947465 0.016529262
-0.045153689 0.0095060393 0.016894788
-0.044584326 0.0096398545 0.017766088
-0.042656895 0.0094793104 0.017766088
-0.041134633 0.0094022024 0.017976284
-0.040442929 0.0095159831 0.018384576
-0.039305698 0.0095286546 0.018576294
-0.037960906 0.0094902264 0.018989831
-0.037254762 0.0096141314 0.0191769
-0.035051275 0.0093470067 0.018759727
-0.034139499 0.0094177928 0.018360347
-0.033351246 0.0095289275 0.017646521
-0.031878237 0.0094454028 0.018247813
-0.030911405 0.0095112016 0.0187186
-0.029929528 0.0095774485 0.019100815
-0.028849186 0.0096163955 0.019017279
-0.027805168 0.0096713621 0.018978745
-0.026156707 0.0095115304 0.019017279
-0.024806188 0.0094499765 0.018645406
-0.023865419 0.0095461681 0.017988801
-0.022342844 0.0094075138 0.017886281
-0.02143902 0.0095284544 0.018249273
-0.020185975 0.0094992826 0.019144654
-0.019209092 0.0096045462 0.019388556
-0.018350203 0.0097867744 0.019352317
-0.017011549 0.0097208852 0.019497812
-0.015285276 0.0094063235 0.020112634
-0.01414203 0.0094280196 0.020852238
-0.013000655 0.0094550224 0.021416873
-0.011603811 0.009283049 0.022655815
-0.01048464 0.0093196807 0.023431271
-0.0093635721 0.0093635721 0.024920732
-0.0082639111 0.0094444705 0.025785446
-0.0070379227 0.0093838973 0.025814027
-0.0057861954 0.0092579126 0.02635482
-0.0046207961 0.0092415921 0.0265145
-0.0034879849 0.0093012936 0.026947349
-0.0023196288 0.0092785154 0.028388113
-0.0011584231 0.0092673851 0.028924733
0 0.009323501 0.030172557
0.0011559846 0.0092478767 0.03067103
0.0023068269 0.0092273075 0.030940562
0.0034662213 0.0092432573 0.031333506
0.0045793424 0.0091586849 0.031100839
0.0058566029 0.0093705645 0.031111568
0.006844447 0.0091259293 0.031229764
0.0079677962 0.009106053 0.031507492
0.009282629 0.009282629 0.031257361
0.010367255 0.0092153372 0.030901939
0.011588574 0.0092708599 0.030658185
0.012916863 0.0093940822 0.030589998
0.014034539 0.009356359 0.03026095
0.015192599 0.0093492921 0.030071408
0.016544124 0.0094537856 0.029876232
0.017541481 0.0093554566 0.029424071
0.018613592 0.0093067959 0.029486746
0.01995093 0.0093886731 0.028947502
0.020801013 0.0092448946 0.028230757
0.022258384 0.0093719512 0.027707785
0.023385627 0.0093542514 0.027560145
0.024204029 0.0092205815 0.026739091
0.026025468 0.0094638066 0.026113242
0.027267627 0.0094843917 0.024677336
0.028437326 0.0094791092 0.024176002
0.030308288 0.0096986517 0.022817612
0.031352703 0.0096469857 0.022567064
0.032132789 0.0095208259 0.020355254
0.0336271 0.0096077435 0.019651771
0.034374021 0.009482488 0.019105941
0.035994168 0.0095984451 0.018648118
0.037635375 0.0097123543 0.018141776
0.038147587 0.0095368968 0.01691699
0.04009366 0.0097196754 0.015527695
-0.069348983 0.010761048 0.015439957
-0.067234732 0.01061601 0.01831907
-0.0659969 0.010606644 0.020068377
-0.065255634 0.010678194 0.021085829
-0.06339246 0.010565409 0.021786451
-0.06125886 0.010402448 0.021974236
-0.060983736 0.010554877 0.021692485
-0.059317958 0.010467874 0.020844936
-0.058284827 0.010491268 0.020538747
-0.057133563 0.010493919 0.019931704
-0.055339314 0.010376122 0.018761098
-0.055898227 0.010703915 0.018033862
-0.055036601 0.01076803 0.01741603
-0.0536917 0.010738339 0.016863853
-0.052587621 0.010756559 0.016298711
-0.051812831 0.010844545 0.015604466
-0.04976305 0.01066351 0.016094804
-0.049329124 0.010828343 0.01658988
-0.048004579 0.01080103 0.017158747
-0.045885976 0.010589072 0.018153697
-0.045340415 0.010738518 0.018541157
-0.043899216 0.010678187 0.018979222
-0.042387985 0.010596996 0.019214004
-0.041396026 0.010644692 0.019666195
-0.040162001 0.010631117 0.020021707
-0.039157275 0.010679256 0.02003786
-0.038075574 0.010708754 0.020658672
-0.036365375 0.010557689 0.020953298
-0.035284676 0.010585402 0.020678371
-0.034455072 0.010692953 0.020412803
-0.032792699 0.01054051 0.020001501
-0.032116309 0.010705436 0.0204252
-0.031121705 0.010772898 0.020650268
-0.029724127 0.010700685 0.020895004
-0.028983479 0.010868805 0.020847201
-0.027592331 0.010796999 0.020735055
-0.026111132 0.010681827 0.02093178
-0.024919931 0.01067997 0.020673633
-0.023786223 0.0107038 0.02033183
-0.022412235 0.010616321 0.020159572
-0.021418152 0.010709076 0.020771116
-0.020013032 0.010595134 0.021339029
-0.019104769 0.010746432 0.022133499
-0.018029412 0.010817647 0.021753281
-0.016773535 0.010782987 0.021778733
-0.015406443 0.010665999 0.02214855
-0.014039644 0.010529732 0.022186726
-0.012900092 0.01055462 0.023275197
-0.0116489 0.01048401 0.024282843
-0.01056581 0.01056581 0.025172144
-0.0094435271 0.010623967 0.026452035
-0.0083240578 0.010702359 0.027224064
-0.0070009767 0.010501465 0.027553827
-0.005827643 0.010489757 0.027443916
-0.0047224713 0.01062556 0.027603239
-0.0034824961 0.010447488 0.028699607
-0.0023059729 0.010376877 0.029350936
-0.0011635433 0.01047189 0.029756725
0 0.010390174 0.03074497
0.0011603124 0.010442811 0.031300634
0.0023385251 0.010523362 0.031851292
0.0034380576 0.010314172 0.032306105
0.0046754126 0.010519677 0.031961858
0.0057913745 0.010424473 0.032152265
0.0068912609 0.010336891 0.032052308
0.0080185719 0.010309593 0.031842768
0.0092002228 0.01035025 0.031434923
0.010372737 0.010372737 0.031001478
0.011729343 0.010556408 0.030826867
0.012810269 0.010481129 0.030699074
0.014030869 0.010523152 0.03033042
0.015286049 0.010582649 0.029946715
0.016615745 0.01068155 0.029551119
0.017633755 0.010580252 0.029300869
0.01892837 0.010647207 0.029110998
0.019741761 0.01045152 0.028164357
0.021194533 0.010597266 0.027518958
0.022224812 0.010527542 0.026904792
0.022885138 0.010298312 0.026498348
0.024705159 0.010587925 0.025103003
0.025813853 0.010560213 0.02455166
0.026622288 0.010417417 0.024202138
0.028933825 0.010850185 0.023268074
0.030045066 0.010816223 0.021828562
0.031109054 0.010768518 0.020644844
0.032819167 0.010939721 0.019852608
0.033867113 0.010885857 0.019169301
0.03424878 0.01062893 0.019091129
0.03588102 0.010764306 0.018279999
0.03658393 0.010621141 0.017653435
0.038205855 0.010745397 0.016799301
0.039554242 0.01078752 0.01564762
-0.067296177 0.011806347 0.01625216
-0.066993721 0.011963164 0.019607872
-0.064404882 0.011709978 0.021170467
-0.063457273 0.011751345 0.021887422
-0.062734954 0.011836783 0.021885544
-0.061297651 0.01178801 0.021622032
-0.059530359 0.011672619 0.020926625
-0.058874186 0.011774836 0.020572096
-0.056958266 0.011624136 0.019895434
-0.057270862 0.01193143 0.01917696
-0.056555089 0.012032997 0.018359125
-0.054648954 0.011880207 0.018017799
-0.054413632 0.012091917 0.017480552
-0.052760489 0.01199102 0.016751945
-0.050905462 0.01183848 0.017084688
-0.050065674 0.011920398 0.017087609
-0.049264073 0.012015627 0.017464519
-0.047067687 0.011766922 0.018658906
-0.046200339 0.01184624 0.019408405
-0.045194775 0.011893361 0.019213736
-0.043869682 0.01185667 0.01987651
-0.042444505 0.011790141 0.020089418
-0.041170426 0.011762979 0.020544618
-0.040471461 0.01190337 0.021481544
-0.039365463 0.011928928 0.021785021
-0.03776028 0.011800088 0.022620976
-0.036888868 0.011899634 0.022948921
-0.03568561 0.011895202 0.022926688
-0.0337619 0.011642034 0.021773696
-0.033119366 0.011828344 0.021143079
-0.032339379 0.011977547 0.021365792
-0.030639084 0.011784263 0.021787971
-0.029757353 0.01190294 0.021986336
-0.028450206 0.011854253 0.022036314
-0.027382145 0.011905279 0.022031873
-0.026019873 0.011827215 0.021972805
-0.024706254 0.011764882 0.021681815
-0.023479195 0.011739598 0.021373183
-0.022636497 0.011913946 0.021145195
-0.021256851 0.011809361 0.021710277
-0.020148508 0.011852063 0.022757739
-0.019290745 0.012056715 0.02322495
-0.017848345 0.011898897 0.023220688
-0.017155478 0.012253913 0.023487002
-0.015462556 0.011894274 0.024244249
-0.013928408 0.011607006 0.024263054
-0.012856428 0.011687662 0.024672836
-0.011626881 0.011626881 0.025381297
-0.010454393 0.011615992 0.026639551
-0.0093722716 0.011715339 0.027289093
-0.008240371 0.011771959 0.028489709
-0.0069950758 0.01165846 0.029143572
-0.0058858106 0.011771621 0.02971378
-0.0046449015 0.011612253 0.029486567
-0.0034894214 0.011631404 0.029626101
-0.0023313155 0.011656578 0.030019492
-0.0011572567 0.011572566 0.030211896
0 0.01156285 0.031071514
0.0011544527 0.011544527 0.031941712
0.0022894999 0.011447499 0.032045662
0.0035075247 0.011691749 0.032634199
0.0046702581 0.011675646 0.03226018
0.0057099648 0.01141993 0.032173723
0.0069943443 0.011657241 0.031859189
0.0082267197 0.011752455 0.032136798
0.009283049 0.011603811 0.031501621
0.010497722 0.011664135 0.031460851
0.011541569 0.011541569 0.030853599
0.012881229 0.011710208 0.030692875
0.014133129 0.011777608 0.03033483
0.015278808 0.011752929 0.030154914
0.016555911 0.011825651 0.029672891
0.017819107 0.011879404 0.028846711
0.018775221 0.011734513 0.028392315
0.020063613 0.011802125 0.028019398
0.021465112 0.011925062 0.027438462
0.022117063 0.011640559 0.026485294
0.023647226 0.011823613 0.0261271
0.024965754 0.011888454 0.025245011
0.025338311 0.011517414 0.024399102
0.027135799 0.011798173 0.02381441
0.028098267 0.01170761 0.023235768
0.029658489 0.011863396 0.021247089
0.031083494 0.01195519 0.02066341
0.032194875 0.011924027 0.02006945
0.034035373 0.012155491 0.020082533
0.035257027 0.012157594 0.019324303
0.035882555 0.011960851 0.018407911
0.036736265 0.011850407 0.018446505
0.038895812 0.012154941 0.017507851
0.039371479 0.011930751 0.015985459
-0.066215299 0.013006576 0.016673028
-0.065011829 0.013002365 0.019671649
-0.063857652 0.013008039 0.02122739
-0.062250532 0.012919921 0.021736711
-0.060608502 0.012821029 0.021161407
-0.06069522 0.013091125 0.020407021
-0.058528658 0.012876304 0.019722432
-0.057677928 0.012948107 0.019447058
-0.057490841 0.013174985 0.01905641
-0.056016531 0.013110251 0.018383116
-0.055926736 0.013373784 0.0173406
-0.053693254 0.013125016 0.016941994
-0.052218575 0.013054644 0.016889542
-0.051329546 0.013130813 0.017550796
-0.050192274 0.013145595 0.017626494
-0.048997357 0.013145631 0.018505096
-0.047506157 0.013064194 0.019136697
-0.046131089 0.013011333 0.019606769
-0.045309436 0.013115888 0.019911796
-0.044167746 0.013130951 0.020580143
-0.042022131 0.012840097 0.021114469
-0.041152872 0.01293376 0.021749496
-0.040373836 0.013062123 0.022539169
-0.03878757 0.01292919 0.02340883
-0.037804484 0.012995291 0.023873359
-0.036541715 0.012966414 0.024041414
-0.035048716 0.012851195 0.024047673
-0.034300938 0.0130107 0.023381382
-0.03321765 0.013049792 0.022609621
-0.031885721 0.012990478 0.022900075
-0.030864807 0.013058187 0.023077697
-0.029720429 0.013076988 0.02318421
-0.028706806 0.013157286 0.02318421
-0.027686866 0.013241544 0.023292243
-0.026063696 0.013031848 0.023197651
-0.024791559 0.012986054 0.023013204
-0.023964671 0.01318057 0.022361428
-0.022262529 0.012888832 0.022303581
-0.02124998 0.012986099 0.023012877
-0.020172035 0.013052493 0.023636818
-0.018829538 0.012945306 0.024336666
-0.018051833 0.01323801 0.024695069
-0.016983794 0.01334441 0.025131166
-0.015313445 0.01295753 0.025196791
-0.014083219 0.012909617 0.025218815
-0.012982259 0.012982259 0.026408404
-0.011518876 0.012670764 0.027191997
-0.010506906 0.012841774 0.028018892
-0.0094335722 0.012971161 0.029122114
-0.0080964919 0.012723058 0.029788047
-0.0070483717 0.012922015 0.030463368
-0.0058473325 0.012864132 0.030522257
-0.0046426468 0.012767279 0.029875934
-0.0035189975 0.012902991 0.029927224
-0.0022984925 0.012641708 0.030292571
-0.0011554132 0.012709545 0.030385405
0 0.012832282 0.031749874
0.0011417599 0.012559359 0.032327205
0.0023183629 0.012750995 0.03219837
0.003488461 0.012791024 0.032297969
0.004628994 0.012729733 0.032253414
0.0058656172 0.012904357 0.031814098
0.0070556849 0.012935422 0.032159001
0.0081523769 0.012810878 0.032257199
0.0094194328 0.012951721 0.031410873
0.010436706 0.012755974 0.03117463
0.011591387 0.012750526 0.030732453
0.012960811 0.012960811 0.03057453
0.013987445 0.012821825 0.029863566
0.0151503 0.012819485 0.029820621
0.016559945 0.013011385 0.029373497
0.017536536 0.012860126 0.028933704
0.019079 0.013116812 0.028581858
0.02040704 0.013204555 0.028018653
0.021174354 0.012939883 0.027267307
0.022456869 0.013001345 0.026838571
0.023645679 0.013005123 0.026326418
0.024498841 0.012832725 0.025560051
0.025880262 0.012940131 0.024642467
0.027272586 0.013043409 0.02372995
0.028337367 0.01298796 0.022935778
0.029773658 0.013100409 0.021972716
0.031095697 0.013155871 0.021374196
0.032409515 0.013203876 0.02091077
0.033672221 0.013228373 0.020560503
0.034912702 0.013242748 0.019749373
0.03602609 0.013209566 0.019051045
0.037169047 0.013189016 0.018319905
0.038492758 0.013231885 0.016825676
0.040429361 0.013476454 0.015406877
-0.066209421 0.014445692 0.016665101
-0.06464573 0.014365718 0.017395526
-0.062697656 0.014195696 0.018612295
-0.0615188 0.014196645 0.019133061
-0.059904657 0.014095213 0.018797904
-0.058285635 0.013988552 0.018277138
-0.057934709 0.014188092 0.018040419
-0.057065591 0.014266398 0.017765075
-0.056851842 0.014515364 0.017689884
-0.055945054 0.014594361 0.016949475
-0.05352864 0.014274303 0.016949475
-0.052977245 0.01444834 0.017191231
-0.05160993 0.01440277 0.017643571
-0.049906123 0.014258891 0.01818344
-0.049197711 0.014399329 0.019236803
-0.04733783 0.014201349 0.019757062
-0.046099417 0.014184436 0.020170033
-0.045193236 0.014271548 0.020832717
-0.043883916 0.014232621 0.021232486
-0.041844312 0.013948104 0.021867514
-0.041392196 0.01419161 0.023419052
-0.039689571 0.014008084 0.024334669
-0.038670551 0.014062019 0.024638265
-0.037924267 0.014221599 0.024738252
-0.035966441 0.013922493 0.025455505
-0.035219427 0.014087771 0.025142908
-0.034164511 0.014137037 0.025101095
-0.032847561 0.014077526 0.024377674
-0.031912997 0.014183553 0.024616838
-0.030764557 0.014199027 0.024783939
-0.029625537 0.014220257 0.024870247
-0.028852228 0.014426114 0.024680585
-0.027336409 0.014262474 0.024666518
-0.025986854 0.014174648 0.024571091
-0.02490993 0.014234245 0.023835152
-0.023475977 0.014085586 0.023424029
-0.022314142 0.014093142 0.023233503
-0.021211194 0.014140797 0.023441494
-0.020230632 0.014280446 0.024565667
-0.019120503 0.014340377 0.025400072
-0.017895229 0.014316183 0.0255647
-0.016660236 0.014280201 0.026183516
-0.015538041 0.014342807 0.026273966
-0.014015683 0.014015683 0.026264399
-0.012760169 0.013920184 0.027110308
-0.011591164 0.013909398 0.028169721
-0.010539603 0.014052805 0.028926134
-0.0093622096 0.014043313 0.029388547
-0.0082627004 0.014164629 0.0306274
-0.0069805863 0.013961173 0.030904084
-0.0057704286 0.013849028 0.031056762
-0.0046930197 0.014079059 0.030609161
-0.003501192 0.014004768 0.030733973
-0.0023114921 0.013868953 0.030874372
-0.0011514905 0.013817886 0.031311601
0 0.013648249 0.031970978
0.001156854 0.013882248 0.032200515
0.0023051535 0.013830922 0.032461077
0.0034125149 0.01365006 0.032801926
0.0046564527 0.013969358 0.032735586
0.0058100414 0.0139441 0.032307357
0.0069399993 0.013879999 0.032065213
0.0082319872 0.014111978 0.032110393
0.0093305223 0.013995783 0.03178969
0.010533023 0.014044031 0.031508178
0.011810509 0.014172612 0.030628949
0.012790326 0.013953083 0.030258566
0.01403469 0.01403469 0.02994284
0.015293341 0.01411693 0.029131323
0.016427433 0.014080657 0.028786033
0.017621154 0.014096923 0.028586864
0.018935369 0.014201527 0.028142244
0.019956309 0.014086806 0.027730584
0.021480801 0.014320534 0.027254492
0.022672724 0.014319615 0.027100354
0.023631809 0.014179086 0.026783824
0.025092706 0.014338688 0.025722206
0.026298804 0.014344802 0.024241745
0.026985135 0.014079201 0.023772031
0.028466752 0.014233376 0.022931814
0.029430883 0.014126823 0.022075832
0.030729769 0.01418297 0.021523088
0.032842293 0.014596574 0.021121681
0.033914957 0.014534982 0.020741463
0.035139378 0.014540432 0.019669682
0.036380891 0.014552356 0.019162208
0.037671238 0.014582414 0.018602639
0.039637052 0.014863893 0.016421825
-0.065074541 0.015666092 0.015746415
-0.063647054 0.015611542 0.016159505
-0.061652351 0.015413088 0.016159505
-0.060374867 0.015389672 0.016034931
-0.059517834 0.015474636 0.01703462
-0.058517147 0.015524958 0.017625302
-0.057961591 0.01569793 0.017970592
-0.0570722 0.015785927 0.017319173
-0.055408798 0.015659008 0.017056316
-0.054102276 0.015629545 0.017057836
-0.052655969 0.015557446 0.017608315
-0.051559046 0.015587619 0.018294483
-0.051012173 0.015789481 0.019130647
-0.048706722 0.015443594 0.020594597
-0.047339018 0.015385182 0.021154016
-0.046185747 0.015395248 0.021425843
-0.045088295 0.015424943 0.022199035
-0.043105878 0.015145308 0.022652715
-0.042120773 0.015210279 0.023526788
-0.040621899 0.015088134 0.024728954
-0.039622497 0.015149777 0.025549501
-0.039264843 0.015467968 0.026134431
-0.037141785 0.015088851 0.026182115
-0.036596544 0.015346938 0.026469886
-0.035324264 0.015307181 0.026277661
-0.033916838 0.0152041 0.026189446
-0.033127584 0.015380664 0.025953621
-0.031884249 0.015351675 0.025687277
-0.030452253 0.015226127 0.025777668
-0.029843723 0.015518736 0.025884897
-0.028521478 0.015449134 0.025798768
-0.027257316 0.015406309 0.026056886
-0.026033027 0.015383152 0.026192755
-0.024619151 0.015240426 0.025640398
-0.023572756 0.015322291 0.024599373
-0.022297369 0.015256095 0.024548322
-0.02099037 0.015159712 0.024675339
-0.020155564 0.015413078 0.026145786
-0.019228136 0.015622861 0.02649793
-0.017828975 0.015451779 0.026502341
-0.016803039 0.015602823 0.026728392
-0.01561047 0.01561047 0.026921988
-0.013766785 0.014914017 0.027221143
-0.012808762 0.015137629 0.028026432
-0.011638391 0.015129908 0.028764457
-0.010364405 0.014970807 0.029437631
-0.0093834139 0.015248047 0.029853672
-0.0080974121 0.015038051 0.030742705
-0.0069997855 0.015166203 0.031345278
-0.0058650426 0.015249111 0.031304419
-0.0046139183 0.014995235 0.031059861
-0.0034709356 0.015040721 0.031066895
-0.0023540934 0.015301608 0.031389564
-0.0011458548 0.014896112 0.031444818
0 0.015118785 0.032103956
0.0011707806 0.015220148 0.03236264
0.0022960759 0.014924494 0.03241244
0.0035073177 0.015198377 0.032366961
0.0046738838 0.015190122 0.032823831
0.0058117211 0.015110476 0.032693952
0.0070100226 0.015188383 0.03230536
0.0081648054 0.01516321 0.032735974
0.0093868254 0.015253591 0.032138556
0.010617743 0.015336741 0.031595081
0.01164753 0.015141789 0.030873924
0.012934076 0.015285727 0.030320883
0.014115469 0.015291758 0.029843003
0.015213755 0.015213755 0.028903306
0.016384371 0.015214059 0.028529197
0.01776229 0.015393985 0.027687579
0.018681545 0.015178756 0.027519256
0.020226985 0.015467694 0.02743277
0.021498853 0.01552695 0.027059197
0.022314718 0.015267964 0.026455253
0.023863701 0.015511407 0.025980413
0.025048578 0.015506262 0.024626732
0.026228482 0.015498648 0.024322897
0.027721914 0.015668908 0.023438781
0.028471839 0.015422245 0.023403078
0.029595861 0.015389848 0.022454321
0.031391483 0.015695741 0.021932065
0.032270059 0.015537435 0.021623045
0.033810187 0.015697587 0.020828635
0.035249468 0.015801486 0.02007553
0.036512982 0.015822291 0.019156188
0.037430983 0.015696863 0.017950982
0.03916353 0.015910184 0.01598075
0.039487325 0.015555613 0.015026212
-0.059001938 0.016520543 0.015907556
-0.058613058 0.016746588 0.016578406
-0.058694441 0.017119212 0.016999334
-0.057266574 0.017058128 0.017503023
-0.055245455 0.016813835 0.01737985
-0.054416604 0.01692961 0.01779747
-0.052763529 0.016788395 0.017986029
-0.051742338 0.016846342 0.01881808
-0.05053192 0.016843973 0.019835293
-0.048140951 0.016438372 0.020234168
-0.047429666 0.016600383 0.021436661
-0.045995023 0.016511034 0.022063822
-0.044282291 0.016314529 0.022783309
-0.043650094 0.016516251 0.023891419
-0.041776396 0.016246377 0.024890006
-0.040913839 0.016365536 0.026136726
-0.040114652 0.016517797 0.026641458
-0.038698386 0.016417498 0.026985288
-0.037463292 0.016390191 0.027285397
-0.036000196 0.016258152 0.027571023
-0.034628551 0.016159991 0.027181596
-0.034210108 0.016515225 0.027216434
-0.033232037 0.016616018 0.026771247
-0.031827401 0.016503096 0.026625305
-0.030555628 0.01645303 0.026948303
-0.029745428 0.016657438 0.027234942
-0.028686972 0.016734067 0.027086884
-0.027582457 0.016789321 0.027215928
-0.02593312 0.016502896 0.027373493
-0.024665644 0.016443763 0.027401596
-0.023609726 0.016526809 0.026450306
-0.022044528 0.016243337 0.026404947
-0.020916281 0.016268218 0.026247382
-0.020358803 0.016766071 0.027086884
-0.018832928 0.016478812 0.027583301
-0.017961748 0.016764298 0.027589858
-0.01686557 0.01686557 0.027548999
-0.015656663 0.016861023 0.027548999
-0.014131822 0.016487125 0.027684838
-0.012802994 0.01629472 0.028393418
-0.011483894 0.016077451 0.028745055
-0.010427685 0.016220843 0.029598415
-0.009330471 0.016328324 0.030293733
-0.0081901336 0.016380267 0.030775398
-0.007070485 0.016497798 0.031393707
-0.005823114 0.016304718 0.031456292
-0.0046391226 0.016236929 0.031215787
-0.0035317016 0.016481275 0.031341285
-0.0023537732 0.016476411 0.031378984
-0.0011581896 0.016214654 0.031492144
0 0.016309403 0.031971902
0.001153802 0.016153229 0.032341719
0.0023406106 0.016384276 0.032370448
0.0035093988 0.016377194 0.032476962
0.0046249856 0.01618745 0.032458454
0.0058590644 0.016405381 0.032303602
0.007029905 0.016403113 0.032047749
0.0081180548 0.01623611 0.033192992
0.0093226731 0.016314678 0.032596856
0.010549408 0.016410191 0.031408548
0.011609997 0.016253995 0.030833066
0.013092464 0.016663136 0.030275553
0.01418591 0.01655023 0.029425979
0.015351828 0.016532738 0.028648138
0.016614903 0.016614903 0.028330654
0.017674018 0.016495749 0.027985126
0.019101817 0.01671409 0.027803421
0.020245984 0.016673164 0.026728243
0.021260357 0.016535833 0.0262582
0.022468973 0.016556086 0.025751412
0.023937164 0.016756015 0.024892211
0.024601746 0.016401164 0.024026334
0.02635077 0.016768672 0.02386269
0.027648222 0.016829353 0.023544729
0.028338058 0.016530534 0.023274899
0.029841218 0.016711082 0.02254197
0.030791206 0.016579881 0.022208363
0.032091696 0.01664014 0.021827221
0.033865225 0.016932612 0.020554513
0.034897517 0.016847078 0.019341677
0.036028638 0.016813366 0.019307226
0.037885524 0.01710959 0.017693698
0.038287476 0.01675077 0.015188724
-0.060094077 0.018028224 0.015047938
-0.059982937 0.018362124 0.01534754
-0.058366869 0.018239647 0.015499175
-0.057068054 0.018213209 0.017101049
-0.055452146 0.01808222 0.017399311
-0.053496208 0.017832069 0.017493576
-0.05294802 0.018050462 0.018298447
-0.052250914 0.018227063 0.018990546
-0.049870737 0.017810976 0.019600213
-0.049083512 0.017957382 0.020907998
-0.047534544 0.017825454 0.0222314
-0.046452109 0.017866196 0.022836119
-0.045041297 0.01777946 0.023590952
-0.043087184 0.017467778 0.024631679
-0.042213969 0.017589154 0.025614709
-0.041381814 0.017735064 0.026703805
-0.040164717 0.017719727 0.027216434
-0.038282085 0.017400948 0.027503848
-0.037504632 0.017580297 0.02768901
-0.035759661 0.017303063 0.028156281
-0.035285313 0.017642656 0.02789858
-0.034381513 0.017783539 0.02772963
-0.032670803 0.017502217 0.027521044
-0.032106865 0.017837146 0.027313113
-0.030492799 0.017592 0.027734876
-0.029532937 0.017719762 0.028052092
-0.029136913 0.018210571 0.027982175
-0.027469436 0.017914848 0.028141409
-0.025800943 0.017591553 0.028161108
-0.024734976 0.017667839 0.028141409
-0.023308178 0.017481135 0.02781862
-0.022010157 0.01737644 0.027359098
-0.02104697 0.017539142 0.027356595
-0.020040276 0.017682595 0.027917981
-0.019220885 0.018019579 0.028324097
-0.017736357 0.017736357 0.028375745
-0.016592938 0.017778149 0.028462321
-0.015847633 0.018285731 0.028431952
-0.014208014 0.017760018 0.028639287
-0.012548572 0.017111691 0.028863549
-0.01164245 0.017463675 0.029342383
-0.010457443 0.017429072 0.029605329
-0.0093471715 0.017525947 0.030714154
-0.0082273483 0.017630033 0.030694336
-0.0070029492 0.017507372 0.031141698
-0.0058085728 0.01742572 0.031193525
-0.0047108438 0.017665664 0.031036794
-0.0034962858 0.017481428 0.030629545
-0.0023446642 0.017584981 0.030642509
-0.0011728305 0.017592456 0.031111836
0 0.01740423 0.03142336
0.0011671637 0.017507456 0.031876594
0.0023462484 0.017596863 0.031488627
0.0034816621 0.017408311 0.031723708
0.0046759918 0.017534969 0.032039255
0.0058387322 0.017516198 0.032612741
0.0069832089 0.017458024 0.032508105
0.0082222307 0.017619066 0.032631546
0.0093481457 0.017527774 0.032100171
0.010528168 0.017546946 0.031143427
0.011926307 0.017889462 0.030932903
0.012803846 0.017459789 0.03004241
0.014190474 0.017738093 0.029364437
0.01548899 0.017871911 0.028485864
0.016773676 0.017971797 0.027985126
0.017684296 0.017684296 0.026803434
0.018870192 0.017690806 0.026690513
0.019841569 0.017507266 0.025617659
0.021455659 0.017879717 0.025302142
0.022738701 0.017951606 0.024745166
0.0237999 0.017849926 0.024515957
0.025488896 0.018206354 0.024329871
0.02649161 0.018062463 0.023986399
0.027525401 0.017951349 0.023872912
0.028634755 0.017896721 0.02320084
0.029557263 0.017734358 0.022893578
0.030869059 0.017809073 0.022494704
0.031913172 0.017729539 0.021214336
0.033278402 0.017827716 0.020436734
0.034786873 0.017993208 0.020058006
0.035828531 0.017914265 0.018388212
0.03657889 0.017699461 0.016692966
-0.057443704 0.019555304 0.015157759
-0.054631047 0.019002102 0.015928328
-0.054011486 0.019204084 0.017409146
-0.053379979 0.019410903 0.017957449
-0.051988032 0.019344384 0.018803477
-0.05023244 0.019136168 0.019663006
-0.049270157 0.019227378 0.020903915
-0.047350548 0.01894022 0.021995544
-0.046400357 0.019036045 0.023444265
-0.044596754 0.018777581 0.024385303
-0.042876538 0.018541206 0.025015771
-0.042830333 0.019035704 0.026182622
-0.041356597 0.018905872 0.026994914
-0.040082429 0.018862318 0.027761161
-0.038434703 0.018635008 0.028326899
-0.036745019 0.01837251 0.028683364
-0.036313619 0.018742513 0.028805196
-0.035424087 0.018892847 0.028847665
-0.034113862 0.018821441 0.028487533
-0.033099916 0.018914239 0.028291672
-0.031796847 0.018842576 0.028231531
-0.030287523 0.018638477 0.028581053
-0.029498169 0.018878827 0.028946817
-0.028547335 0.019031558 0.028656483
-0.027380049 0.01904699 0.028945446
-0.02601929 0.018923121 0.028972536
-0.024634205 0.018768918 0.028945446
-0.023498219 0.018798575 0.028638631
-0.022121351 0.018628506 0.028175235
-0.02110629 0.018761147 0.028224826
-0.020070419 0.018889805 0.028949201
-0.019146949 0.019146949 0.02953729
-0.017652448 0.018829279 0.029417247
-0.016883729 0.019295691 0.029562861
-0.015844518 0.019500947 0.029384673
-0.014143063 0.018857418 0.029143393
-0.012702787 0.018476782 0.029563218
-0.011742431 0.018787891 0.030064136
-0.010247019 0.018216923 0.029979736
-0.0093360348 0.01867207 0.030550867
-0.008160457 0.018652473 0.030855894
-0.0070377267 0.018767271 0.031058967
-0.0058808136 0.018818604 0.031059176
-0.0046499516 0.018599806 0.03069523
-0.0035127627 0.018734735 0.030632079
-0.0023543073 0.018834459 0.030632079
-0.0011574245 0.018518792 0.030689597
0 0.018757682 0.031018853
0.0011731436 0.018770298 0.031123579
0.0023126339 0.018501071 0.031649351
0.0035166009 0.018755205 0.031524807
0.0047315895 0.018926358 0.032548755
0.0058305529 0.01865777 0.032593012
0.0069916714 0.018644458 0.032362223
0.0081894537 0.018718751 0.032759875
0.0093857413 0.018771483 0.031876683
0.010725601 0.019067734 0.031322032
0.011741822 0.018786915 0.030753106
0.013033739 0.018958166 0.029746145
0.014200064 0.018933419 0.02922824
0.015337873 0.018877383 0.028680265
0.016583664 0.018952759 0.027448297
0.017955652 0.019152695 0.026113927
0.018881032 0.018881032 0.025855482
0.02034051 0.019144008 0.024995178
0.021657364 0.019250993 0.024878532
0.022600062 0.019031633 0.024579465
0.023876714 0.01910137 0.024496555
0.025251338 0.019239115 0.024257183
0.026181232 0.019040897 0.023505688
0.027668245 0.019247474 0.023217142
0.028877212 0.019251475 0.022922456
0.029476887 0.018865207 0.022002012
0.031122169 0.019152105 0.021020651
0.031752534 0.018816315 0.020514339
0.032876983 0.018786848 0.020056874
0.034265418 0.018905057 0.018913507
0.035300147 0.018826744 0.017462909
-0.05611774 0.020739164 0.015298694
-0.05391337 0.020367272 0.015319526
-0.052724417 0.020370798 0.016514152
-0.052178089 0.020628547 0.018322349
-0.050369825 0.020387787 0.019046277
-0.048497353 0.020108659 0.020450026
-0.047731254 0.020285783 0.021791875
-0.045960519 0.020034073 0.023183405
-0.043976873 0.019673863 0.024838388
-0.043482665 0.019978521 0.025737464
-0.042570394 0.020102685 0.026643485
-0.041592397 0.020202022 0.027437508
-0.040282652 0.020141326 0.028358042
-0.038422763 0.019793544 0.028848529
-0.037526339 0.019935867 0.029069543
-0.036581043 0.020060573 0.029217899
-0.035152555 0.019919781 0.029325128
-0.034140326 0.020013293 0.029219806
-0.033280302 0.020205896 0.028656095
-0.031709891 0.019965487 0.028656095
-0.030518349 0.019954305 0.028854698
-0.02972923 0.020215876 0.029184997
-0.02870349 0.02033164 0.029225111
-0.027673801 0.020454548 0.029501945
-0.025947031 0.020049978 0.029295921
-0.02455119 0.019874772 0.029295921
-0.023627229 0.020083144 0.028913647
-0.022190763 0.019854894 0.028453618
-0.020983621 0.019817866 0.028327793
-0.020084912 0.020084912 0.028686047
-0.018672615 0.019839654 0.029255629
-0.01781683 0.020192409 0.029610306
-0.016847899 0.020458164 0.029678911
-0.015709909 0.020543728 0.029610306
-0.014338903 0.020313447 0.029243231
-0.012935266 0.019990865 0.029841512
-0.011512842 0.019571831 0.030210495
-0.010510172 0.019852547 0.030580521
-0.0092907315 0.019742806 0.030752897
-0.0081446934 0.019779971 0.030688554
-0.0070307897 0.019920571 0.030878037
-0.0058497502 0.019889152 0.030878037
-0.0046589756 0.019800648 0.030349135
-0.0035474903 0.020102445 0.029934436
-0.0023292096 0.019798283 0.030124545
-0.001161387 0.019743579 0.030188948
0 0.019966304 0.030250877
0.0011637629 0.019783968 0.030523866
0.0023651524 0.020103795 0.031445533
0.0035089287 0.019883931 0.031391025
0.004638995 0.019715728 0.032128662
0.0058802082 0.019992709 0.032140583
0.0070348098 0.019931961 0.031906396
0.0080892649 0.019645358 0.032270372
0.0094627375 0.020108318 0.030643791
0.010590201 0.020003714 0.030266643
0.011899567 0.020229265 0.029719114
0.013048475 0.020165825 0.029372066
0.014361556 0.020345537 0.028732866
0.015452655 0.020207318 0.027765006
0.016753286 0.020343278 0.02653116
0.017676203 0.02003303 0.025849491
0.01893753 0.020121126 0.025368482
0.020428438 0.020428438 0.02489996
0.021283777 0.020101348 0.024715543
0.022654396 0.020269722 0.023531407
0.023920501 0.020332426 0.023271769
0.024722386 0.02001336 0.023184568
0.026495706 0.020473955 0.023062229
0.028196977 0.020841245 0.022741526
0.0289516 0.020507384 0.02142337
0.030095564 0.020464983 0.02070719
0.031087367 0.020326355 0.020317405
0.031924881 0.020100851 0.019444972
0.033528738 0.020356733 0.018751562
0.034327105 0.020122785 0.017605066
-0.053962037 0.021584813 0.015835673
-0.053664517 0.021953667 0.016593695
-0.052091725 0.021805838 0.017384708
-0.049878404 0.021376457 0.019615263
-0.049401432 0.021688432 0.020597726
-0.047978241 0.021590209 0.022027642
-0.046298396 0.021368489 0.022577792
-0.045370866 0.021491462 0.025187969
-0.043437563 0.021131786 0.026107967
-0.04276672 0.02138336 0.027019441
-0.041785412 0.021489641 0.027877361
-0.039743803 0.021040836 0.028611213
-0.038618933 0.021064872 0.029188067
-0.037800126 0.021262569 0.029768407
-0.036328558 0.021094 0.029846072
-0.035744634 0.021446779 0.029976726
-0.034339234 0.021314006 0.029803306
-0.032711808 0.021029018 0.029205829
-0.031758957 0.021172637 0.029610604
-0.030701524 0.021254901 0.029636174
-0.02916212 0.020996725 0.029841006
-0.02882003 0.021615023 0.02978307
-0.027322508 0.021382831 0.030068696
-0.025799692 0.021108838 0.030013472
-0.024717139 0.021186117 0.029965281
-0.023408072 0.021067265 0.029557645
-0.022279674 0.021107059 0.029212683
-0.021186164 0.021186164 0.028422803
-0.019863388 0.021031821 0.029179007
-0.018855611 0.021212561 0.029423594
-0.017782018 0.021338422 0.029653668
-0.016577594 0.021314049 0.029583097
-0.015904479 0.022021586 0.029583097
-0.014400905 0.021601357 0.029089242
-0.012802574 0.020949665 0.02949205
-0.01176978 0.021185603 0.030420929
-0.010530399 0.021060798 0.031002879
-0.0093457485 0.021027934 0.030947775
-0.0082239555 0.021147314 0.030580521
-0.0070504867 0.021151461 0.030834168
-0.0058113481 0.020920852 0.03098169
-0.0047011049 0.021154972 0.030276537
-0.0035096423 0.021057853 0.029981822
-0.0023511278 0.02116015 0.030509979
-0.0011749658 0.021149384 0.030360401
0 0.021052962 0.030458182
0.0011789252 0.021220652 0.030681491
0.0023680618 0.021312555 0.031181812
0.0035224338 0.021134602 0.031267047
0.0047235205 0.021255841 0.032526553
0.0058628162 0.021106139 0.032200992
0.0069806874 0.020942062 0.031184316
0.008276822 0.021283254 0.030154824
0.009336492 0.021007106 0.029975772
0.010559997 0.021119993 0.029723108
0.011913492 0.021444285 0.029264778
0.01305174 0.021357391 0.028603673
0.014199249 0.021298872 0.027746081
0.015421686 0.021353103 0.027104199
0.016622765 0.021372125 0.026528358
0.017799366 0.021359239 0.025895327
0.019075701 0.021460162 0.025949299
0.02018515 0.021372512 0.024431795
0.021842275 0.021842275 0.024403185
0.022820713 0.021619622 0.023593903
0.023847323 0.021462591 0.022565454
0.025336698 0.021717168 0.021713912
0.026559727 0.021730686 0.021604061
0.027207814 0.02129307 0.020829648
0.028938236 0.021703677 0.020785779
0.029981339 0.021586563 0.020699173
0.030971779 0.021442 0.01987651
0.032658201 0.021772131 0.019249141
0.033475753 0.021520127 0.018443704
-0.054113921 0.023367375 0.015364051
-0.051169161 0.022609631 0.017398655
-0.050541818 0.022864155 0.018202066
-0.049726192 0.023043845 0.019521236
-0.047230955 0.022434704 0.021615416
-0.046855785 0.022827176 0.022325814
-0.044782739 0.02239137 0.024227858
-0.043827534 0.02250603 0.025713444
-0.043187674 0.022793496 0.026619971
-0.041672323 0.022622118 0.02723527
-0.040504776 0.022635022 0.028000265
-0.039089255 0.022505935 0.028385073
-0.037556823 0.022299364 0.028723031
-0.037090562 0.022732925 0.028779685
-0.035800662 0.022673754 0.029420584
-0.033901919 0.022211602 0.029694051
-0.032975148 0.022375993 0.028925836
-0.032049008 0.022553004 0.028872013
-0.030479921 0.022273788 0.028779685
-0.029500702 0.022420533 0.029387712
-0.028298719 0.022403155 0.029469699
-0.027627051 0.022822347 0.030204087
-0.026120506 0.02255862 0.030100048
-0.024605725 0.022262324 0.030114293
-0.023500275 0.022325262 0.029930681
-0.022466684 0.022466684 0.028562576
-0.021012871 0.022180254 0.028172612
-0.020044204 0.022402346 0.028528601
-0.018868044 0.022405803 0.028909951
-0.01766311 0.022373272 0.02900812
-0.016739303 0.022717625 0.029239416
-0.015682645 0.022920789 0.029183745
-0.014258247 0.022575559 0.028864145
-0.012953795 0.022374738 0.029040635
-0.011753201 0.022331083 0.029280692
-0.010520965 0.022210928 0.030341864
-0.0094679212 0.022486312 0.030860424
-0.0082178917 0.022305707 0.030666292
-0.007051866 0.02233091 0.031067938
-0.0058855875 0.022365233 0.031152546
-0.0046579302 0.02212517 0.030554533
-0.0035123436 0.022244845 0.030213833
-0.0023915421 0.02271965 0.030252695
-0.0011700186 0.022230353 0.029831946
0 0.022547504 0.029854238
0.0011779973 0.02238195 0.030310959
0.0023233271 0.022071607 0.030626297
0.0035591188 0.022541087 0.030593395
0.0047346693 0.022489678 0.030480117
0.0058158543 0.022100247 0.029870927
0.0070993681 0.022481333 0.030031085
0.0083091166 0.022553317 0.030117691
0.0092774415 0.022033924 0.029196709
0.010628378 0.022437688 0.029040933
0.011694141 0.022218868 0.028508604
0.013091088 0.022611881 0.027885318
0.014481797 0.022929512 0.027281523
0.015508543 0.022666331 0.026922584
0.016701806 0.022666737 0.02678898
0.017961649 0.022751423 0.025437564
0.018913811 0.02246015 0.025301844
0.020400068 0.022800077 0.024833322
0.021752143 0.022960598 0.023490191
0.022650477 0.022650477 0.022844791
0.024027072 0.02282572 0.022364408
0.025153683 0.022758095 0.022167414
0.026165996 0.022597905 0.021902025
0.027752921 0.022926325 0.020805091
0.028723331 0.022739304 0.02006498
0.030207369 0.022957601 0.020122766
0.031466 0.022994384 0.019016743
0.032518264 0.022883223 0.016489267
-0.052136809 0.024249678 0.015643895
-0.050950386 0.024262087 0.017719418
-0.049680464 0.024234371 0.018518716
-0.049833409 0.024916705 0.019186318
-0.046259165 0.023722649 0.019821286
-0.045298006 0.023841055 0.022489369
-0.044529025 0.024069741 0.024781168
-0.043020878 0.023900488 0.025975734
-0.041790452 0.023880258 0.027198911
-0.040790789 0.023994582 0.027925372
-0.039220728 0.023770137 0.028180182
-0.038119521 0.023824701 0.028493166
-0.037101138 0.023936216 0.028679073
-0.03542649 0.023617659 0.029039472
-0.034436829 0.023749536 0.0293594
-0.033115745 0.023654103 0.02908659
-0.031552959 0.023372561 0.028757721
-0.030815944 0.023704572 0.028727502
-0.029456103 0.023564883 0.028987527
-0.028382828 0.023652358 0.029180467
-0.027811086 0.024183551 0.029228598
-0.026017006 0.023651823 0.029112071
-0.024916919 0.023730397 0.029523969
-0.023704225 0.023704225 0.028796732
-0.022194657 0.023362795 0.028578401
-0.021020178 0.023355752 0.0272367
-0.020182444 0.02374405 0.027330577
-0.018690504 0.02336313 0.027293146
-0.018014241 0.024018986 0.02847755
-0.016757719 0.023939598 0.028145909
-0.015483711 0.023821093 0.028238744
-0.014526057 0.024210095 0.028932601
-0.012987043 0.023612805 0.029035777
-0.011645841 0.023291683 0.02861464
-0.010638593 0.023641318 0.029040635
-0.0094472868 0.023618216 0.029673159
-0.0081538111 0.023296602 0.030498356
-0.0071047167 0.023682389 0.031009376
-0.0058736065 0.023494426 0.031060815
-0.0046632099 0.023316048 0.030192584
-0.0035663592 0.023775728 0.02986145
-0.002354712 0.023547119 0.0299142
-0.0011801684 0.023603367 0.029423594
0 0.023698442 0.029581755
0.0011678057 0.023356114 0.028903335
0.0023656737 0.023656737 0.02963984
0.0035709266 0.023806177 0.029776126
0.0047012097 0.023506047 0.029822886
0.0059174504 0.023669802 0.02971226
0.0071748653 0.023916217 0.029145569
0.0082697459 0.023627846 0.029487133
0.0094818706 0.023704676 0.02874729
0.010490096 0.023311324 0.028587461
0.011767603 0.023535205 0.027671099
0.013167846 0.023941537 0.027876139
0.014154981 0.023591634 0.026752561
0.015480547 0.023816226 0.026405275
0.017020158 0.024314512 0.02634269
0.018117392 0.024156524 0.025952935
0.019297067 0.024121333 0.024626076
0.020498957 0.024116419 0.024179459
0.021415504 0.023795003 0.023673475
0.022663908 0.023856744 0.023106039
0.02427597 0.02427597 0.022543937
0.025057403 0.023864193 0.022050917
0.026661813 0.024238013 0.021387547
0.027823672 0.024194496 0.020685732
0.028883258 0.024069382 0.018651456
0.030892061 0.024713648 0.017534494
-0.050427616 0.025213808 0.017197311
-0.050369587 0.025799057 0.01801452
-0.048736475 0.025586652 0.019843459
-0.047706924 0.025688345 0.019786268
-0.046020191 0.025432212 0.020589709
-0.044810548 0.025433013 0.021654397
-0.043685701 0.025483327 0.023430467
-0.042328671 0.025397204 0.02572155
-0.040637087 0.025099378 0.02667129
-0.039273825 0.024992436 0.027218848
-0.038569193 0.025311032 0.027417094
-0.036661681 0.024835331 0.02758199
-0.035946626 0.025162639 0.028380066
-0.034592725 0.025049906 0.028448403
-0.032905735 0.024679303 0.02835232
-0.032232974 0.02507009 0.027920127
-0.031006346 0.025043586 0.02786988
-0.029557189 0.024828039 0.028091371
-0.028678266 0.025093485 0.028286219
-0.027656537 0.025251621 0.028364301
-0.025992291 0.024810825 0.028485566
-0.025029948 0.025029948 0.028358638
-0.023498081 0.024672985 0.027972817
-0.022254232 0.024596784 0.026488721
-0.021222252 0.024759296 0.025738806
-0.019937862 0.024629124 0.026354611
-0.019178759 0.025172122 0.026226968
-0.018062143 0.025286999 0.026369572
-0.016505104 0.024757657 0.026533186
-0.01551892 0.025069026 0.027234524
-0.014335036 0.025086315 0.02765426
-0.012943203 0.024709752 0.027878016
-0.011902454 0.024995156 0.028056264
-0.010724897 0.025024761 0.028247476
-0.0094636129 0.024841985 0.029347032
-0.008276361 0.024829082 0.029607207
-0.0070475508 0.024666429 0.029965162
-0.005876509 0.024681339 0.029714942
-0.004743231 0.024901962 0.029401481
-0.0035381378 0.024766965 0.028935075
-0.0023573339 0.024752006 0.028893828
-0.0011896384 0.024982408 0.02863887
0 0.024527257 0.02882123
0.0011863502 0.024913356 0.028598875
0.0023871704 0.02506529 0.028974265
0.0035153038 0.024607128 0.028834701
0.0047422568 0.024896847 0.028967708
0.0059358738 0.024930671 0.028754592
0.0071027125 0.024859495 0.028553307
0.0083952639 0.025185792 0.028667033
0.0095542017 0.025079781 0.028319031
0.010788451 0.025173055 0.027742684
0.011968197 0.025133217 0.027123928
0.013081132 0.02497307 0.026989222
0.014267842 0.024968725 0.0264135
0.015620982 0.025233895 0.025389522
0.016997539 0.025496308 0.025366127
0.018229172 0.025520843 0.025309145
0.01950293 0.025597598 0.024547249
