ply
format ascii 1.0
comment PCL generated
element vertex 1287
property float x
property float y
property float z
element camera 0
property float view_px
property float view_py
property float view_pz
property float x_axisx
property float x_axisy
property float x_axisz
property float y_axisx
property float y_axisy
property float y_axisz
property float z_axisx
property float z_axisy
property float z_axisz
property float focal
property float scalex
property float scaley
property float centerx
property float centery
property int viewportx
property int viewporty
property float k1
property float k2
end_header
-0.03533943 -0.0094238482 0.018801302
-0.033428885 -0.0092217615 0.017912626
-0.033031117 -0.0094374623 0.016371161
-0.066547729 -0.0083184661 0.016903847
-0.063880123 -0.0081301974 0.020314872
-0.063268185 -0.0082014306 0.020990431
-0.061309721 -0.0080975108 0.022036701
-0.059713341 -0.0080383345 0.023691237
-0.059363887 -0.0081479847 0.025084138
-0.057906412 -0.0081068976 0.025986314
-0.056009449 -0.0080013499 0.026918411
-0.055498764 -0.0080935694 0.027786881
-0.053683981 -0.0079954863 0.028921276
-0.053233854 -0.0081008039 0.029408157
-0.052164823 -0.0081145279 0.029734105
-0.049977034 -0.0079508917 0.029955953
-0.049435571 -0.0080476515 0.03008607
-0.047975175 -0.0079958625 0.029737025
-0.046034295 -0.0078595132 0.028897017
-0.045745358 -0.0080054374 0.028654128
-0.044413846 -0.0079717161 0.027731806
-0.043130819 -0.0079451511 0.02734074
-0.042223431 -0.0079882164 0.026737064
-0.041246749 -0.0080202017 0.025544256
-0.040020555 -0.0080041112 0.024750262
-0.039438959 -0.0081197862 0.024446309
-0.038304992 -0.0081253015 0.023574919
-0.037420101 -0.0081856474 0.022431225
-0.036174905 -0.0081685269 0.021586269
-0.034327008 -0.0080096349 0.020607829
-0.03392772 -0.00818945 0.019800007
-0.033030957 -0.0082577392 0.01869303
-0.03162187 -0.0081982622 0.017142653
-0.03059807 -0.0082379421 0.015244961
-0.064394265 -0.0070248288 0.018101752
-0.062324513 -0.0069249454 0.02058807
-0.061610084 -0.0069747269 0.021918058
-0.060768943 -0.0070118015 0.02302441
-0.058709268 -0.0069069727 0.024417043
-0.057291657 -0.0068749981 0.025499254
-0.056041345 -0.0068622055 0.026630461
-0.054167286 -0.0067709107 0.027474195
-0.053495456 -0.0068292068 0.028462589
-0.053353008 -0.0069590877 0.029656857
-0.051654354 -0.0068872469 0.030366659
-0.050773673 -0.0069236825 0.03049916
-0.049114335 -0.0068531632 0.030422956
-0.047388818 -0.0067698308 0.029936135
-0.04662798 -0.0068236063 0.029247582
-0.045453575 -0.0068180365 0.029052913
-0.044607323 -0.0068626651 0.028565437
-0.043706857 -0.0069010826 0.028171688
-0.042674385 -0.00692017 0.027568251
-0.041333668 -0.0068889451 0.026775897
-0.040498346 -0.0069425735 0.026223868
-0.03914725 -0.0069083385 0.025696099
-0.038318571 -0.0069670128 0.02481398
-0.037094887 -0.0069552911 0.023492008
-0.03577311 -0.0069238273 0.022426277
-0.034999602 -0.0069999201 0.021649152
-0.033930857 -0.0070201769 0.020665526
-0.032214873 -0.0069031864 0.01973772
-0.031894151 -0.0070875888 0.018543988
-0.030713201 -0.0070876619 0.016950041
-0.029074151 -0.0069777961 0.015565991
-0.062747523 -0.0058099553 0.018677384
-0.062547579 -0.005900715 0.021075934
-0.060333978 -0.0058013438 0.022522658
-0.058976531 -0.0057820124 0.023610979
-0.058016565 -0.0058016558 0.024724752
-0.055040933 -0.0056164218 0.02660659
-0.054889753 -0.0057176827 0.028230429
-0.054092091 -0.0057544778 0.029024422
-0.052677747 -0.005725842 0.030094117
-0.051759712 -0.0057510789 0.03045249
-0.050612729 -0.0057514464 0.030584157
-0.048680682 -0.0056605441 0.030616462
-0.04757889 -0.005664153 0.030278832
-0.046734009 -0.005699269 0.029800445
-0.04548667 -0.0056858337 0.029604822
-0.045001704 -0.0057694493 0.029299974
-0.043874417 -0.0057729492 0.0286237
-0.04275446 -0.0057776296 0.028198242
-0.041756999 -0.0057995832 0.027463436
-0.040251002 -0.005750143 0.026546657
-0.039377864 -0.0057908623 0.026200742
-0.038498342 -0.0058330819 0.025792807
-0.036751915 -0.0057424861 0.024732023
-0.035966542 -0.0058010551 0.023780435
-0.035048224 -0.0058413707 0.022763312
-0.033704519 -0.0058111236 0.021962792
-0.032854605 -0.0058668936 0.021004528
-0.031507615 -0.0058347434 0.019857377
-0.03005776 -0.0057803383 0.018626451
-0.029647158 -0.0059294314 0.017083168
-0.064393774 -0.0047699087 0.015148252
-0.061693959 -0.0046561481 0.018788874
-0.060524296 -0.0046557151 0.021807253
-0.059505634 -0.0046671089 0.022991687
-0.057588611 -0.0046070889 0.023627102
-0.056590445 -0.0046196282 0.026355207
-0.055225443 -0.0046021203 0.027951807
-0.052861214 -0.0044988268 0.028794885
-0.052227821 -0.0045415494 0.030052453
-0.051662996 -0.0045922659 0.030638099
-0.049600791 -0.0045091626 0.030903995
-0.048901007 -0.004548931 0.031272054
-0.047692277 -0.0045421212 0.031086773
-0.046307575 -0.0045178118 0.030533135
-0.046225678 -0.0046225684 0.030255973
-0.045028988 -0.0046183579 0.029741794
-0.043910235 -0.0046221302 0.029342681
-0.042944349 -0.0046426323 0.028782547
-0.041240036 -0.0045822267 0.028272748
-0.0403159 -0.0046075317 0.027636439
-0.039281879 -0.0046213972 0.026736975
-0.03791187 -0.0045953779 0.026222408
-0.037243057 -0.0046553821 0.025353193
-0.036133386 -0.0046623722 0.024374247
-0.034403488 -0.004587132 0.023917317
-0.033730153 -0.0046524345 0.022972643
-0.03269203 -0.0046702898 0.022302985
-0.03137381 -0.0046479716 0.021339685
-0.030435108 -0.0046823244 0.019928396
-0.029789472 -0.0047663157 0.019129872
-0.028377304 -0.0047295508 0.017320722
-0.027093895 -0.0047119819 0.015042186
-0.061736934 -0.0034945435 0.017115593
-0.060937483 -0.003515624 0.0197649
-0.059019532 -0.003471737 0.021923572
-0.057571702 -0.003454302 0.023107648
-0.056888219 -0.0034829522 0.02517128
-0.054755881 -0.0034222426 0.02672407
-0.053645059 -0.0034241527 0.028526366
-0.053128961 -0.0034649321 0.029057056
-0.051276933 -0.0034184619 0.03028813
-0.050401889 -0.0034364925 0.030702472
-0.049384333 -0.0034454186 0.031454235
-0.047759525 -0.0034113945 0.031272054
-0.047211319 -0.0034544866 0.030920297
-0.046209697 -0.0034657272 0.030845731
-0.045037068 -0.0034643898 0.030490935
-0.043994229 -0.0034732283 0.03005597
-0.042163517 -0.0034186635 0.029337466
-0.041308708 -0.0034423925 0.028724939
-0.040233865 -0.0034486169 0.028176248
-0.039078236 -0.0034480793 0.027176201
-0.0382175 -0.0034743182 0.026896179
-0.03731972 -0.0034987237 0.025893897
-0.035436891 -0.0034293765 0.025100321
-0.034772705 -0.0034772705 0.024530381
-0.033730887 -0.0034894019 0.023621827
-0.032280594 -0.003458635 0.023097456
-0.031436909 -0.0034929898 0.022488624
-0.030761657 -0.0035494219 0.021560729
-0.028976185 -0.003477142 0.020194054
-0.028605802 -0.0035757252 0.018590659
-0.026786465 -0.0034938867 0.016130209
-0.061240267 -0.0023553949 0.018162549
-0.059168506 -0.0023203336 0.020919621
-0.058331911 -0.0023332764 0.023499876
-0.056829784 -0.0023195832 0.025331467
-0.056087647 -0.0023369854 0.026294112
-0.054607917 -0.0023237411 0.02765885
-0.052734099 -0.002292787 0.028971791
-0.05251563 -0.002334028 0.0298253
-0.050789356 -0.0023086073 0.030963629
-0.048681233 -0.0022642433 0.031507224
-0.048694991 -0.002318809 0.031546295
-0.047480643 -0.0023161287 0.031496078
-0.045904618 -0.002295231 0.031451494
-0.04496913 -0.0023061093 0.031305611
-0.043122988 -0.002269631 0.030791909
-0.042006921 -0.0022706443 0.030530304
-0.04166352 -0.00231464 0.030086607
-0.040245116 -0.0022997209 0.029478103
-0.039266817 -0.0023098127 0.028170973
-0.038372505 -0.0023256065 0.027654409
-0.036561757 -0.0022851098 0.027057946
-0.036025427 -0.002324221 0.025967538
-0.034857154 -0.0023238102 0.025523901
-0.033498611 -0.0023102488 0.024853677
-0.032614905 -0.0023296361 0.024212092
-0.031475179 -0.0023314946 0.023686081
-0.0302733 -0.0023287153 0.022936106
-0.029565418 -0.0023652334 0.021529824
-0.027897771 -0.0023248144 0.019847572
-0.02686529 -0.0023361121 0.017752349
-0.025799952 -0.0023454502 0.016182005
-0.061844535 -0.001189318 0.015406489
-0.059971098 -0.0011759038 0.019289821
-0.058253791 -0.0011650758 0.022279412
-0.056548573 -0.0011540526 0.024747312
-0.056721669 -0.0011817014 0.025793642
-0.053911086 -0.0011470444 0.027468294
-0.053094052 -0.0011542186 0.029206634
-0.051779911 -0.0011506646 0.02991575
-0.050256461 -0.0011421923 0.030933708
-0.050058138 -0.0011641427 0.031342566
-0.048254818 -0.0011489242 0.031685114
-0.046943899 -0.0011449731 0.031701356
-0.045895338 -0.0011473835 0.031212777
-0.044406239 -0.0011386216 0.031476796
-0.042938855 -0.0011299698 0.031132728
-0.042609368 -0.0011516045 0.030918747
-0.04131192 -0.0011475533 0.030587733
-0.040579278 -0.001159408 0.030013949
-0.03955638 -0.0011634229 0.028894275
-0.037981819 -0.0011509642 0.028360993
-0.037200056 -0.0011625018 0.028134137
-0.03598807 -0.0011609055 0.027439773
-0.034507245 -0.0011502415 0.026247114
-0.033470705 -0.0011541622 0.02576834
-0.032478958 -0.0011599627 0.024867326
-0.031043472 -0.0011497581 0.024356455
-0.03057258 -0.0011758686 0.023803264
-0.029250761 -0.0011700304 0.022471547
-0.027903877 -0.0011626616 0.021185517
-0.026813736 -0.0011658146 0.019264787
-0.025529629 -0.0011604377 0.017144233
-0.024785485 -0.0011802611 0.015946239
-0.060958412 0 0.016830355
-0.059370283 0 0.020323813
-0.058322195 0 0.022716999
-0.055277571 0 0.024588794
-0.054497585 0 0.026945949
-0.052620508 0 0.028542191
-0.051376514 0 0.02983138
-0.050408624 0 0.030328214
-0.049286645 0 0.031180561
-0.047307491 0 0.031622767
-0.046904251 0 0.031653225
-0.044847049 0 0.031519055
-0.044051357 0 0.031275153
-0.043211177 0 0.031554848
-0.042265784 0 0.031263322
-0.041559096 0 0.031109571
-0.040619798 0 0.03069976
-0.038802516 0 0.030046314
-0.037725244 0 0.02987358
-0.036992058 0 0.029170811
-0.035743188 0 0.028850466
-0.034826577 0 0.028100669
-0.033655994 0 0.027065426
-0.032191228 0 0.026208222
-0.031526491 0 0.024971783
-0.03015344 0 0.024348468
-0.028514484 0 0.023292989
-0.027879128 0 0.022369504
-0.026718611 0 0.020631194
-0.025748037 0 0.018536806
-0.024795791 0 0.017390043
-0.023721583 0 0.016080707
-0.060196284 0.0011803193 0.015721202
-0.059485059 0.0011897011 0.018682033
-0.057438262 0.0011722095 0.02117008
-0.056558929 0.0011783111 0.023999631
-0.054594185 0.0011615785 0.026123345
-0.052400213 0.001139135 0.027433604
-0.05214256 0.0011587235 0.028912425
-0.050621815 0.0011504958 0.029522747
-0.047897 0.0011138837 0.030496001
-0.047763254 0.0011372204 0.031315714
-0.046687741 0.0011387253 0.031676799
-0.045509461 0.0011377365 0.031484723
-0.04454115 0.0011420808 0.031564683
-0.043326378 0.0011401678 0.031698376
-0.042108402 0.0011380649 0.031551152
-0.041338153 0.0011482821 0.03137669
-0.040209353 0.0011488387 0.031173497
-0.039075069 0.0011492667 0.03082487
-0.038322732 0.0011612949 0.030840904
-0.036597107 0.0011436596 0.030832797
-0.036278296 0.0011702676 0.030256063
-0.03515299 0.0011717663 0.029573828
-0.033209682 0.0011451615 0.029121786
-0.032431271 0.0011582596 0.027895838
-0.030982694 0.0011475071 0.02663514
-0.02987491 0.0011490349 0.025976181
-0.028871929 0.0011548771 0.025207043
-0.027715435 0.0011548098 0.023775816
-0.026763333 0.0011636231 0.02186954
-0.025826983 0.0011739539 0.020385385
-0.0247906 0.0011805047 0.019123912
-0.024195308 0.0012097654 0.018079162
-0.023160763 0.0012189875 0.016715795
-0.0213599 0.0011866612 0.015657306
-0.058976278 0.002359051 0.016215533
-0.057600841 0.0023510547 0.019000798
-0.056447983 0.0023519993 0.021041483
-0.054454219 0.0023172009 0.0236274
-0.053617414 0.0023311919 0.026401401
-0.052583795 0.0023370574 0.027571678
-0.050869361 0.0023122437 0.028995603
-0.050519098 0.0023497255 0.030014277
-0.048402093 0.0023048616 0.030773848
-0.04662016 0.002274154 0.031050265
-0.045443509 0.0022721756 0.031415731
-0.04426619 0.0022700611 0.03150779
-0.042652428 0.0022448648 0.03156206
-0.043038052 0.0023263812 0.031993747
-0.040887397 0.0022715221 0.031638354
-0.040060155 0.0022891518 0.031520396
-0.039206911 0.0023062888 0.031244487
-0.037845097 0.0022936424 0.031506717
-0.03728918 0.0023305737 0.031392127
-0.036093272 0.0023285982 0.031425148
-0.034335453 0.0022890302 0.030355394
-0.033738464 0.0023267907 0.029877156
-0.032204453 0.0023003181 0.028710991
-0.030898632 0.0022887874 0.027506232
-0.029982209 0.0023063237 0.02675274
-0.028953815 0.0023163052 0.026037127
-0.027672812 0.0023060679 0.024342
-0.027204115 0.0023655752 0.023075491
-0.025820045 0.0023472768 0.021632552
-0.02470853 0.0023531932 0.020634294
-0.024103733 0.0024103734 0.018956721
-0.022550697 0.0023737575 0.01797843
-0.021410137 0.0023789043 0.016795784
-0.020447627 0.0024056032 0.015753686
0.06760183 0.0024143511 0.015333503
0.067150801 0.0023561683 0.015502036
0.067891836 0.0023410979 0.015082091
-0.059350491 0.0035610294 0.015029997
-0.0581812 0.0035621144 0.016412795
-0.056118749 0.0035074218 0.019036412
-0.05502262 0.0035120822 0.02158156
-0.054302052 0.0035414381 0.023819625
-0.051762272 0.0034508179 0.025762439
-0.050911244 0.0034712211 0.027727306
-0.049663268 0.0034648792 0.029420793
-0.047543041 0.0033959313 0.030468851
-0.046980038 0.0034375638 0.031321079
-0.045746166 0.0034309626 0.031109422
-0.04441461 0.0034165082 0.031644732
-0.04364593 0.003445731 0.032254875
-0.042224173 0.0034235814 0.032535195
-0.041302148 0.0034418458 0.032521516
-0.040087175 0.0034360434 0.032234728
-0.038931571 0.0034351386 0.03202638
-0.038159348 0.0034690315 0.031913429
-0.037129115 0.0034808542 0.031762958
-0.035487775 0.0034343007 0.031887949
-0.034759935 0.0034759934 0.030856341
-0.033312909 0.0034461629 0.030248612
-0.031963814 0.0034246945 0.029201835
-0.03094743 0.0034386031 0.028005153
-0.030192142 0.0034837087 0.027141541
-0.028831653 0.0034597984 0.026696563
-0.02811791 0.0035147388 0.025086939
-0.026842467 0.0035011913 0.02393046
-0.02593483 0.0035365678 0.023280978
-0.02507513 0.0035821612 0.022195756
-0.023834189 0.0035751285 0.02052483
-0.022641763 0.0035750151 0.019389927
-0.021541376 0.0035902292 0.018937886
-0.020096233 0.0035463939 0.017270982
-0.019081766 0.0035778307 0.016554654
-0.017801316 0.003560263 0.015492976
0.06322021 0.0035785025 0.015747756
0.063693605 0.0035385336 0.017466903
0.065858081 0.003592259 0.017945319
0.065997928 0.0035356034 0.01858899
0.066554524 0.0035028697 0.018785
0.068058804 0.0035202827 0.019021243
0.06858819 0.0034875348 0.018678784
0.070604496 0.0035302248 0.018187076
0.072354048 0.0035583957 0.016739547
-0.058040567 0.0047380058 0.015038043
-0.057436787 0.0047863987 0.016788781
-0.055616271 0.0047332994 0.019563586
-0.05331172 0.0046358015 0.021921009
-0.052134693 0.0046341945 0.025267154
-0.050678141 0.0046071038 0.026746005
-0.048960965 0.0045545083 0.028761625
-0.04840539 0.004610037 0.030882895
-0.046988972 0.0045842896 0.031307101
-0.045509778 0.0045509776 0.031575829
-0.044427849 0.0045567024 0.032316893
-0.043352045 0.004563373 0.032734871
-0.042252459 0.0045678336 0.032859594
-0.041419305 0.0046021449 0.032913148
-0.039945994 0.0045652562 0.032837808
-0.038932789 0.0045803282 0.032711059
-0.038218677 0.0046325671 0.032533139
-0.03670821 0.0045885262 0.032374382
-0.035624571 0.0045967186 0.032361656
-0.034589544 0.0046119392 0.031736255
-0.03291009 0.0045393226 0.031265259
-0.032145344 0.0045921924 0.030356526
-0.031076513 0.004603928 0.02888152
-0.029830802 0.0045893542 0.027828127
-0.029258523 0.0046813637 0.026844442
-0.028023811 0.0046706353 0.025663316
-0.026855886 0.0046705888 0.02436325
-0.026174013 0.0047589117 0.024094999
-0.024667967 0.0046986602 0.023243636
-0.023616878 0.0047233757 0.022578746
-0.022760458 0.0047916756 0.020962179
-0.021211985 0.0047137747 0.020538062
-0.019965308 0.0046977196 0.020137787
-0.019039433 0.0047598584 0.019090116
-0.017605342 0.004694758 0.017256469
-0.016788028 0.0047965795 0.01682505
-0.015503051 0.0047701695 0.016364962
-0.014022015 0.0046740049 0.015907079
-0.013304304 0.0048379293 0.015454531
0.059188884 0.0047351103 0.015119523
0.061174419 0.0047979937 0.015601933
0.062725179 0.0048250137 0.016630024
0.062196918 0.004694107 0.018391013
0.064217575 0.0047568572 0.018670321
0.065587573 0.0047700056 0.020167112
0.065337121 0.004666937 0.020326883
0.067547448 0.0047401721 0.020804197
0.067836851 0.0046784035 0.020982116
0.0685369 0.0046465695 0.020999283
0.070993714 0.0047329143 0.021119744
0.071778908 0.0047068135 0.020611644
0.073103808 0.0047163744 0.019272804
0.07605318 0.004828773 0.017397165
0.075538896 0.004721181 0.015436321
-0.057321869 0.005971028 0.015805155
-0.055182129 0.0058704391 0.01844421
-0.054257579 0.0058975625 0.020719171
-0.052591294 0.0058434764 0.023281902
-0.050623398 0.0057526589 0.025927305
-0.049785934 0.005789062 0.027293175
-0.048798796 0.0058093802 0.028840095
-0.046741471 0.0057001789 0.030404687
-0.046673339 0.0058341674 0.031200141
-0.044791073 0.0057424451 0.031574816
-0.04302562 0.0056612659 0.032093436
-0.04270504 0.005770951 0.032898545
-0.041654252 0.005785313 0.032820493
-0.04052949 0.0057899267 0.032751381
-0.039326224 0.0057832683 0.033394694
-0.037822582 0.0057306942 0.03322345
-0.036571044 0.0057142251 0.033164561
-0.035478473 0.0057223337 0.033013672
-0.03405232 0.0056753862 0.032272786
-0.033334177 0.0057472717 0.031415761
-0.032169994 0.0057446412 0.030230552
-0.031042796 0.0057486654 0.028924048
-0.030347249 0.005836009 0.027722001
-0.029352024 0.0058704047 0.026910841
-0.027739657 0.005779095 0.026058584
-0.027056735 0.0058818986 0.024901599
-0.025941573 0.0058958121 0.024673253
-0.024763171 0.0058959927 0.024126709
-0.023755055 0.0059387637 0.023534
-0.02225299 0.0058560497 0.022872776
-0.020972382 0.0058256616 0.022396505
-0.020124227 0.0059188898 0.022002757
-0.018409207 0.0057528773 0.021331459
-0.017826017 0.0059420057 0.020954549
-0.016710781 0.0059681353 0.020088583
-0.015153255 0.0058281748 0.01979816
-0.014270269 0.0059459452 0.018202871
-0.013091406 0.005950639 0.016904354
-0.011758822 0.005879411 0.016219229
-0.010802458 0.0060013658 0.015829086
0.041560531 0.0059372182 0.015747041
0.042769171 0.0059401626 0.015233904
0.044037119 0.0059509613 0.015743405
0.044847764 0.005901021 0.01606375
0.046483222 0.0059593874 0.016271621
0.048318665 0.0060398332 0.016231
0.04905666 0.0059825191 0.01597622
0.051465269 0.0061268178 0.015579611
0.05210853 0.0060591316 0.015470684
0.053130038 0.0060375039 0.015197903
0.054183561 0.0060203956 0.01548031
0.054853849 0.0059623746 0.015299141
0.056246553 0.0059836758 0.015806496
0.057949517 0.0060364078 0.016607761
0.058101237 0.0059286975 0.016949207
0.059287064 0.0059287059 0.017173052
0.061326955 0.0060124462 0.017852068
0.061538145 0.0059171291 0.018301845
0.062518746 0.0058979951 0.019364834
0.064838998 0.0060036108 0.020603001
0.063878179 0.0058071068 0.021577537
0.065480731 0.0058464934 0.021968246
0.066912524 0.0058695194 0.022547841
0.068013474 0.0058632302 0.023113668
0.069495887 0.0058894814 0.023403823
0.069465064 0.0057887547 0.023538291
0.071571045 0.0058664787 0.023067057
0.073142886 0.0058986195 0.022074431
0.074009702 0.0058737854 0.018849432
0.076438457 0.0059717544 0.018062323
-0.05610235 0.0071620019 0.01710853
-0.054634664 0.0071262601 0.020537347
-0.052608594 0.0070144786 0.022064418
-0.051266979 0.006990952 0.023647249
-0.050097041 0.0069902847 0.025906146
-0.048430413 0.0069186301 0.027152479
-0.048070259 0.007034672 0.029072136
-0.046577111 0.0069865668 0.030049264
-0.044614419 0.006863757 0.031330705
-0.043870613 0.0069269384 0.032196164
-0.042627215 0.0069125206 0.032648981
-0.041783992 0.006963999 0.033325255
-0.039909501 0.0068416288 0.033099532
-0.039376523 0.006948798 0.033541411
-0.037378151 0.0067960275 0.033550531
-0.03674677 0.0068900194 0.033452451
-0.035286941 0.0068297302 0.033261448
-0.034317449 0.0068634893 0.032116741
-0.033523493 0.006935895 0.031499535
-0.031712499 0.0067955349 0.030485958
-0.031378429 0.0069729839 0.029001743
-0.030256048 0.0069821645 0.028161556
-0.02886726 0.0069281422 0.026986599
-0.027973866 0.0069934665 0.026446819
-0.027041808 0.0070543848 0.025878578
-0.026071934 0.0071105273 0.025722027
-0.024841594 0.0070975982 0.02530849
-0.023505799 0.0070517403 0.024656385
-0.022239499 0.0070229997 0.024203569
-0.021172291 0.0070574302 0.024175406
-0.019820124 0.0069953375 0.024185717
-0.018734131 0.0070252991 0.023628473
-0.017842771 0.0071371081 0.022999525
-0.016235916 0.0069582495 0.022396505
-0.015239874 0.0070337881 0.022231966
-0.014288062 0.0071440311 0.021398962
-0.012890506 0.0070311851 0.020158589
-0.011902259 0.0071413554 0.018540978
-0.010753811 0.007169208 0.017728239
-0.0095340945 0.0071505709 0.016764253
-0.0084105711 0.0072090607 0.016481787
-0.0071310783 0.0071310783 0.015551567
0.036128622 0.0072257239 0.015611917
0.036811404 0.0071247877 0.015864462
0.038539864 0.0072262245 0.016547203
0.039802387 0.0072367974 0.017104715
0.040351432 0.0071208407 0.016808599
0.041792952 0.0071645058 0.018500388
0.042802688 0.0071337814 0.018330604
0.043685202 0.0070840861 0.018605977
0.045362875 0.0071625588 0.018756688
0.04621185 0.0071095149 0.018738061
0.047683664 0.0071525499 0.018540233
0.049156945 0.007193699 0.018458366
0.049945693 0.0071350988 0.01805225
0.051499415 0.0071859648 0.017482519
0.052906904 0.0072145783 0.017409325
0.053791851 0.007172246 0.017424971
0.054687604 0.0071331654 0.017335981
0.056523554 0.0072157728 0.017583638
0.056660339 0.0070825424 0.018236965
0.058879141 0.0072096912 0.018512487
0.059747875 0.0071697449 0.018848002
0.05990912 0.0070481314 0.019568622
0.062221438 0.0071793967 0.020592004
0.063090034 0.0071422681 0.022403866
0.062725827 0.0069695362 0.022806555
0.064749725 0.0070636058 0.023617327
0.065052472 0.0069699078 0.024189472
0.066235937 0.006972204 0.024960697
0.068284146 0.0070638768 0.025743306
0.068354771 0.0069513326 0.025379986
0.070334584 0.007033458 0.025296479
0.071539223 0.007036645 0.02508378
0.072692178 0.0070347269 0.024024278
0.073844068 0.0070327683 0.022795886
0.075025693 0.0070336587 0.020709813
0.077799216 0.0071814661 0.017536134
-0.056307849 0.0083862748 0.015540004
-0.054334361 0.0082682725 0.018113971
-0.053102668 0.0082604149 0.020534098
-0.052046191 0.0082800761 0.022574902
-0.05010806 0.0081571257 0.023872912
-0.049284123 0.0082140202 0.026062816
-0.048212551 0.0082314108 0.027235687
-0.046014708 0.0080525735 0.028284103
-0.045518983 0.0081700739 0.030081928
-0.043628991 0.0080369189 0.030801058
-0.042605281 0.0080604581 0.031830192
-0.041673012 0.0081030857 0.032368362
-0.04040318 0.0080806362 0.032533467
-0.038464088 0.0079190768 0.032924652
-0.03796012 0.008052147 0.033118665
-0.036354404 0.0079525253 0.032847643
-0.035598308 0.0080383271 0.031804919
-0.034755617 0.0081096441 0.031595558
-0.032922588 0.0079468312 0.030826122
-0.032945812 0.0082364529 0.029638588
-0.031252343 0.0081024589 0.028936833
-0.029834067 0.0080322493 0.028247982
-0.029311802 0.0082073044 0.027282208
-0.028048685 0.0081808669 0.026901692
-0.027184904 0.0082736658 0.026846826
-0.026103022 0.0083055068 0.026495725
-0.024873832 0.0082912771 0.026220232
-0.023513371 0.0082296804 0.02586177
-0.022224711 0.0081880512 0.025939882
-0.020873245 0.0081173731 0.025994033
-0.019681599 0.0081041874 0.025900424
-0.018876649 0.0082585337 0.025697678
-0.017206918 0.0080298958 0.025136292
-0.016435714 0.0082178572 0.025031835
-0.015212324 0.0081912512 0.024979889
-0.014052745 0.0081974352 0.024218827
-0.01313467 0.0083584264 0.023040473
-0.012045612 0.0084319282 0.021528631
-0.010589357 0.0082361661 0.020540595
-0.0095571131 0.0083624739 0.019670099
-0.0082728323 0.0082728323 0.018144757
-0.0071530999 0.0083452836 0.017670184
-0.0060559162 0.008478283 0.017623097
-0.0048060967 0.0084106689 0.016544998
-0.0036176371 0.008441153 0.016392261
-0.0024188678 0.008466037 0.015137494
-0.0011963374 0.0083743613 0.015080571
0 0.0084059685 0.015362531
0.0012002393 0.0084016751 0.015496433
0.0023955789 0.0083845258 0.016002983
0.0036703104 0.0085640578 0.015200406
0.033560555 0.0083901389 0.015904516
0.034775916 0.0083941864 0.01720646
0.035866354 0.0083688153 0.017554224
0.037126482 0.0083833989 0.018090248
0.038561646 0.0084353602 0.018529743
0.038882453 0.0082477937 0.019866377
0.04060385 0.0083596157 0.020546138
0.041476659 0.0082953321 0.021252751
0.042018391 0.0081702434 0.021326423
0.04379575 0.0082856817 0.021581173
0.045185767 0.0083236936 0.021594614
0.045739066 0.0082095759 0.021389514
0.047240112 0.0082670199 0.021227509
0.049348921 0.0084254257 0.020759523
0.049289215 0.0082148695 0.020281971
0.051481705 0.0083807427 0.019566357
0.052590143 0.0083666136 0.019467235
0.053222623 0.008279074 0.019294947
0.05549895 0.008445492 0.01918298
0.055983424 0.0083379569 0.01968661
0.057349596 0.0083634825 0.020143241
0.058918301 0.0084169004 0.020920664
0.058320809 0.0081649125 0.020794094
0.060236748 0.0082677891 0.022647232
0.062520757 0.0084162559 0.023492217
0.062094513 0.0082011623 0.023931563
0.06456995 0.0083701788 0.025450915
0.064574398 0.0082185594 0.026442319
0.065195277 0.0081494097 0.026957899
0.066831917 0.0082074283 0.027510911
0.066811658 0.0080634756 0.028039664
0.069220334 0.0082125822 0.027655572
0.070552453 0.0082311193 0.026996166
0.070635647 0.0081057297 0.026600182
0.07247638 0.0081828171 0.026044607
0.07486935 0.0083188163 0.024525374
0.074768439 0.0081777982 0.022116542
0.07711944 0.0083051706 0.018973887
-0.054384783 0.0094582224 0.016105592
-0.054155242 0.0096275983 0.017985612
-0.051198561 0.0093088299 0.020099372
-0.050942402 0.0094776563 0.021449685
-0.049223267 0.00937586 0.023661941
-0.047357455 0.0092404792 0.025766075
-0.046376538 0.0092753079 0.027183115
-0.044922914 0.0092149572 0.028046489
-0.044187378 0.0093026059 0.029444128
-0.041913759 0.0090624345 0.03045404
-0.041356314 0.0091902921 0.030677259
-0.039748743 0.009085427 0.030885696
-0.038836118 0.0091379099 0.031474352
-0.037557356 0.0091048134 0.03166607
-0.03661523 0.0091538075 0.031570762
-0.036092199 0.0093141161 0.03130272
-0.034188624 0.0091169663 0.031089038
-0.033788599 0.009320993 0.029889226
-0.032510057 0.0092885885 0.029249281
-0.031209828 0.0092473561 0.029421091
-0.030231269 0.0093019288 0.028467715
-0.029334771 0.0093871262 0.028184384
-0.027986033 0.0093286773 0.027860254
-0.02731522 0.0095009459 0.027876407
-0.025709422 0.0093488814 0.028075635
-0.02457862 0.0093632834 0.027914673
-0.023434335 0.0093737347 0.027686894
-0.021950621 0.009242367 0.027860254
-0.020951197 0.0093116434 0.027876407
-0.019830819 0.0093321502 0.027759016
-0.018506382 0.0092531908 0.027088046
-0.017688604 0.0094339224 0.026881456
-0.016411915 0.0093782376 0.026532978
-0.015103091 0.00929421 0.026302844
-0.014233434 0.0094889561 0.025921017
-0.013189693 0.0095925042 0.024939835
-0.011747639 0.0093981111 0.024167389
-0.010551012 0.0093786782 0.023975283
-0.0093957549 0.0093957549 0.022371233
-0.0082690315 0.0094503211 0.021306992
-0.0071081449 0.0094775269 0.020828247
-0.0058922637 0.009427622 0.020494044
-0.0046968744 0.0093937488 0.019842744
-0.003586194 0.0095631843 0.018353075
-0.0023907113 0.0095628453 0.018188059
-0.0011867711 0.0094941687 0.017260015
0 0.0094902972 0.017879367
0.001183601 0.0094688078 0.017997146
0.0024033915 0.0096135661 0.018215626
0.0036395967 0.009705591 0.017737418
0.0047578346 0.0095156692 0.017409593
0.0060199723 0.009631956 0.016939372
0.0072101858 0.0096135819 0.016262174
0.0083291931 0.0095190778 0.016416758
0.0096775936 0.0096775936 0.015691429
0.010831861 0.009628321 0.015648961
0.011993245 0.009594596 0.015405208
0.013290915 0.0096661197 0.015552163
0.014442567 0.0096283779 0.015402377
0.015517362 0.0095491465 0.015273452
0.016856309 0.0096321767 0.015552163
0.018034024 0.0096181463 0.01564613
0.019295836 0.0096479179 0.015700907
0.020447943 0.0096225617 0.015254289
0.022723498 0.0095677888 0.01511839
0.024112621 0.0096450495 0.015115649
0.024992844 0.009521083 0.015504807
0.026676307 0.0097004753 0.015382469
0.027870961 0.0096942466 0.015594959
0.028903225 0.0096344082 0.015852362
0.03010902 0.0096348859 0.015829414
0.03097309 0.009530182 0.016897768
0.032050673 0.0094964961 0.017227888
0.033717353 0.009633529 0.017998368
0.034626175 0.0095520476 0.018748075
0.035848267 0.0095595382 0.019383579
0.037311289 0.0096287197 0.020530343
0.037778109 0.0094445273 0.021437913
0.039496172 0.0095748305 0.021904498
0.040752728 0.0095888767 0.022229522
0.040775407 0.0093200933 0.022789925
0.042718098 0.0094929114 0.022856146
0.043730825 0.009455313 0.02287218
0.044198908 0.0093050329 0.022907406
0.046030372 0.0094421273 0.02293238
0.047123879 0.0094247758 0.02298525
0.047944266 0.0093549779 0.023164928
0.050577991 0.0096339025 0.023275733
0.050767776 0.0094451671 0.022599429
0.051427864 0.0093505206 0.022139579
0.054029837 0.0096053043 0.022088379
0.054554723 0.0094877779 0.02245751
0.056108892 0.0095504494 0.022379369
0.057698499 0.0096164169 0.023426235
0.057756241 0.0094295908 0.024048746
0.05963384 0.0095414137 0.024604589
0.060246311 0.0094504012 0.026134104
0.060543668 0.0093144104 0.026328295
0.062697038 0.0094637042 0.027154833
0.064642012 0.0095765945 0.027990609
0.064013377 0.0093110362 0.028316736
0.06610515 0.0094435923 0.029057741
0.066526115 0.0093369987 0.02930373
0.067109533 0.0092564877 0.029470354
0.068598002 0.009301424 0.029057741
0.069970444 0.0093293926 0.028800666
0.071481638 0.0093746418 0.028350085
0.072181724 0.0093137706 0.027541548
0.074004702 0.009397422 0.026310265
0.076267563 0.0095334454 0.023723304
0.075997278 0.009353511 0.019453645
0.076810189 0.0093103256 0.01554215
-0.053083796 0.010616759 0.016552687
-0.052534293 0.010745651 0.018168002
-0.051150836 0.010705988 0.019743294
-0.048879474 0.010474172 0.021560222
-0.048150595 0.010569642 0.023603052
-0.0466507 0.010496407 0.025344163
-0.045351207 0.010465663 0.026091456
-0.043472465 0.010296109 0.027768612
-0.042567372 0.010354225 0.028851599
-0.04121862 0.010304655 0.029711694
-0.040526699 0.010421151 0.030750662
-0.039189287 0.010373634 0.031031817
-0.037926279 0.010343531 0.0312123
-0.037074149 0.010427103 0.031415641
-0.03544781 0.010291299 0.031159878
-0.034728453 0.010418535 0.030617893
-0.034169432 0.010604306 0.030579627
-0.032172907 0.010341291 0.030222535
-0.031636789 0.010545596 0.030002177
-0.030846503 0.010677635 0.029355526
-0.029082248 0.010469609 0.02935341
-0.028429979 0.010661243 0.029246449
-0.027063217 0.010589954 0.02925384
-0.025855362 0.010577193 0.029871434
-0.024600331 0.010542998 0.029986233
-0.02335638 0.01051037 0.029858321
-0.021870788 0.010359846 0.030361563
-0.020884315 0.010442157 0.030824006
-0.01962062 0.010387387 0.030661523
-0.018572645 0.010447113 0.030772328
-0.01744095 0.01046457 0.03007105
-0.016164551 0.010391496 0.029367805
-0.015216348 0.010534394 0.028206736
-0.014129581 0.010597185 0.027806282
-0.012884674 0.010542005 0.026532352
-0.011746406 0.010571766 0.026114762
-0.010633276 0.010633276 0.025757462
-0.0094147595 0.010591604 0.025054425
-0.0083428305 0.010726496 0.023343921
-0.007033526 0.010550288 0.022999167
-0.0059202951 0.010656531 0.022385776
-0.00479245 0.010783012 0.02194947
-0.0035953305 0.010785991 0.021882862
-0.0023648597 0.010641868 0.02130121
-0.0011919506 0.010727555 0.020562917
0 0.010640355 0.020111889
0.0011921945 0.01072975 0.020003051
0.0023931449 0.010769151 0.02032724
0.003528398 0.010585194 0.020101756
0.0048419475 0.010894381 0.01946941
0.0059763738 0.010757473 0.019344181
0.007087287 0.01063093 0.019032717
0.0083611766 0.010750084 0.019041777
0.0095688356 0.01076494 0.018732548
0.01077863 0.01077863 0.018210649
0.012040752 0.010836677 0.018162817
0.013162182 0.010769057 0.017949015
0.014393541 0.010795156 0.017906785
0.015790595 0.010931949 0.017626584
0.016988471 0.01092116 0.018163323
0.017830214 0.010698128 0.018210649
0.019280195 0.010845109 0.018788964
0.020084474 0.010632956 0.017634183
0.021562848 0.010781424 0.016509086
0.022745434 0.010774152 0.01654771
0.023719249 0.010673663 0.016297817
0.025372487 0.010873922 0.016549498
0.026585175 0.010875753 0.017154723
0.027450955 0.010741677 0.017517477
0.029605618 0.011102106 0.017989486
0.030130243 0.010846887 0.017963767
0.03067885 0.010619601 0.018549323
0.032178711 0.010726237 0.018584043
0.033233698 0.010682261 0.019292802
0.034188829 0.010610325 0.020122945
0.036192872 0.010857861 0.021444798
0.036666833 0.010645209 0.022581339
0.038328361 0.010779851 0.023421645
0.039273556 0.01071097 0.023898989
0.040135153 0.01062401 0.024233282
0.041259997 0.010609712 0.024181277
0.042610932 0.010652733 0.024696499
0.043277092 0.010526859 0.024967551
0.04468317 0.010582856 0.024942249
0.046077643 0.010633302 0.024353355
0.047111694 0.010600131 0.02459389
0.048476309 0.01064114 0.025352091
0.049424388 0.01059094 0.025201708
0.051406253 0.010759448 0.02448535
0.052520964 0.010742924 0.024879545
0.052963853 0.010592769 0.024949521
0.05429836 0.010623591 0.025161326
0.055875462 0.010699555 0.025071174
0.055432282 0.010393553 0.025243223
0.058859132 0.010810861 0.025666744
0.058959287 0.01061267 0.026227295
0.059502997 0.010500528 0.027458161
0.061310656 0.01061146 0.02849859
0.062879533 0.010677656 0.029053777
0.063421823 0.010570303 0.02991423
0.065395139 0.010701022 0.029886872
0.06530045 0.010494715 0.030097425
0.065851852 0.010397661 0.030116975
0.06820827 0.010584041 0.030351758
0.068455674 0.01044239 0.029854178
0.069717228 0.010457584 0.029529482
0.072018318 0.010625653 0.028986484
0.07239835 0.010509437 0.028439492
0.073207974 0.010458281 0.026804745
0.075261973 0.010583715 0.024606079
0.075175919 0.010408972 0.020239383
0.077838339 0.010614319 0.015530258
-0.052827142 0.012006168 0.015964925
-0.050035015 0.011636049 0.017333657
-0.049375661 0.011756109 0.018498778
-0.048269596 0.011773071 0.021177649
-0.046332557 0.011583139 0.022613049
-0.045660868 0.011707915 0.024509519
-0.044362318 0.011674293 0.025717109
-0.043308228 0.011704926 0.026333928
-0.042208459 0.011724573 0.027776718
-0.040998269 0.011713792 0.028804332
-0.039818894 0.011711439 0.02913636
-0.038419217 0.011642187 0.029494792
-0.036651973 0.011453741 0.030809045
-0.036253959 0.011694824 0.030787498
-0.035258889 0.011752963 0.030749917
-0.033368725 0.011506457 0.030605763
-0.03290654 0.011752335 0.030757159
-0.031948563 0.0118328 0.030383497
-0.03004759 0.011556765 0.030197293
-0.02932084 0.011728335 0.029948771
-0.028146457 0.01172769 0.030229628
-0.027025223 0.011750096 0.03055504
-0.025703864 0.011683574 0.030845404
-0.024391785 0.011615136 0.031044692
-0.023011634 0.011505817 0.031044692
-0.022038396 0.011599155 0.031763822
-0.020817311 0.011565173 0.031904489
-0.019712636 0.011595668 0.031850278
-0.018772297 0.011732685 0.031737894
-0.017216973 0.011477982 0.031505495
-0.016474036 0.011767169 0.031035334
-0.015141789 0.01164753 0.030888468
-0.013907203 0.011589336 0.030198306
-0.012891282 0.011719348 0.028156132
-0.011773131 0.011773131 0.027472675
-0.01048072 0.011645244 0.027297229
-0.0093542319 0.011692789 0.026595592
-0.0082339719 0.011762817 0.025991678
-0.0070601702 0.011766951 0.02582413
-0.0059272577 0.011854515 0.025520325
-0.0047082934 0.011770733 0.023702294
-0.0035486694 0.011828898 0.023453236
-0.0023965382 0.011982691 0.023274392
-0.0011752389 0.011752388 0.023041219
0 0.01187312 0.022933215
0.0011943792 0.011943791 0.023399264
0.002345823 0.011729115 0.022787005
0.003585974 0.011953246 0.022863507
0.0047853384 0.011963345 0.021814972
0.0059095821 0.011819164 0.02136457
0.0071069798 0.011844966 0.020360619
0.0083534289 0.011933469 0.020847172
0.0095463283 0.011932909 0.020501018
0.010837774 0.012041971 0.020246208
0.011928522 0.011928522 0.020170689
0.013178158 0.011980143 0.020246208
0.014491393 0.012076161 0.020078689
0.015643137 0.012033181 0.020020753
0.016868062 0.012048616 0.020241469
0.017957989 0.011971992 0.020700097
0.01873624 0.011710149 0.021052152
0.020316232 0.011950724 0.020904005
0.021649258 0.012027366 0.020038664
0.022328772 0.011751984 0.019719034
0.024090435 0.012045218 0.019986957
0.025441293 0.012114901 0.019826293
0.02627161 0.011941641 0.019383878
0.028000807 0.012174264 0.01990667
0.028764177 0.011985074 0.019975185
0.029927697 0.011971079 0.019935578
0.031092985 0.01195884 0.020448893
0.031807341 0.011780496 0.020196408
0.033327084 0.011902531 0.021408349
0.034548253 0.01191319 0.02241534
0.035512369 0.011837455 0.023457527
0.036544096 0.011788418 0.024188101
0.038415544 0.012004858 0.025639176
0.03869788 0.01172663 0.02601701
0.040308319 0.011855388 0.026319981
0.041484982 0.011852851 0.026473224
0.041843466 0.011623185 0.026899666
0.043512598 0.011760161 0.027834922
0.045346968 0.011933412 0.027594596
0.045234971 0.011598711 0.026986361
0.04710165 0.011775413 0.027454495
0.048003569 0.011708187 0.027088195
0.049212705 0.01171731 0.027010262
0.051590875 0.011997877 0.026862919
0.052115314 0.011844389 0.026935816
0.053017993 0.011781775 0.026804894
0.054601599 0.011869912 0.027080208
0.055357181 0.011778123 0.026940048
0.057021029 0.011879381 0.026827067
0.058387261 0.011915768 0.027461052
0.05875624 0.011751247 0.028173625
0.059465602 0.011659921 0.028856188
0.061816294 0.011887749 0.029860705
0.060736451 0.011459707 0.030547231
0.064246692 0.011897535 0.031206369
0.0647038 0.011764327 0.031320304
0.065053247 0.01161665 0.031469166
0.06664262 0.011691687 0.031569064
0.067452036 0.011629661 0.031644344
0.068707876 0.011645402 0.031371653
0.070794657 0.011799108 0.030706495
0.071267933 0.011683268 0.030056745
0.072162591 0.011639127 0.029013455
0.074827366 0.011877359 0.027265251
0.073924735 0.011550739 0.023531407
0.07720916 0.011878332 0.01921159
-0.050271202 0.013166266 0.016191006
-0.04833607 0.012968213 0.017890871
-0.047549825 0.013076203 0.019008994
-0.045974936 0.01296729 0.021411687
-0.04554002 0.013182636 0.023948312
-0.04428003 0.013164332 0.025177956
-0.043097381 0.013168645 0.025868833
-0.042204857 0.013264383 0.026670754
-0.040832255 0.013210435 0.027052313
-0.038322497 0.012774165 0.027936995
-0.037328135 0.012831546 0.028662771
-0.036735751 0.013035267 0.03008163
-0.034545444 0.012666662 0.030344725
-0.033958916 0.012880968 0.03040266
-0.032856718 0.012907996 0.03055504
-0.031366851 0.012779088 0.030723482
-0.030273352 0.012807957 0.030886859
-0.029314362 0.012898318 0.030790627
-0.028531577 0.013076973 0.031132966
-0.027127028 0.012973796 0.031750381
-0.025573647 0.012786823 0.032174051
-0.024111534 0.012629851 0.032582104
-0.023364427 0.012850435 0.033029169
-0.021746598 0.012590135 0.033623487
-0.020865271 0.012750999 0.033664823
-0.01983247 0.012832775 0.033623487
-0.018421238 0.0126646 0.033482909
-0.017487198 0.012823945 0.03313005
-0.016305806 0.012811705 0.032335192
-0.015086151 0.012765205 0.031791002
-0.014082489 0.012908948 0.031471938
-0.012972206 0.012972206 0.030933827
-0.011569452 0.012726396 0.029521137
-0.010515133 0.012851829 0.028802514
-0.009401395 0.012926918 0.028458655
-0.0081237946 0.012765963 0.027725458
-0.0070885955 0.012995759 0.027408838
-0.005906757 0.012994865 0.02707082
-0.0047306577 0.013009309 0.026070744
-0.0035714761 0.013095412 0.025877655
-0.0023654175 0.013009796 0.025174558
-0.0011678475 0.012846323 0.024112314
0 0.012988503 0.024546832
0.0011677867 0.012845652 0.024624705
0.0023871164 0.01312914 0.024576396
0.0035562993 0.013039763 0.024580806
0.0047143237 0.012964389 0.024016738
0.0059631332 0.013118894 0.023873687
0.0071390592 0.013088275 0.023666829
0.0082487892 0.012962382 0.023221493
0.0096090799 0.013212484 0.022601306
0.010696116 0.013073031 0.021955699
0.011864369 0.013050807 0.022474229
0.013246998 0.013246998 0.022518426
0.014327408 0.013133457 0.022783726
0.015543115 0.013151866 0.023000717
0.016798733 0.013199004 0.023693025
0.017643433 0.012938517 0.023871422
0.019040994 0.013090684 0.023772597
0.02016479 0.013047804 0.023719281
0.021235732 0.012977391 0.023039788
0.02255057 0.013055593 0.022742897
0.023796652 0.013088158 0.022240371
0.024923218 0.013055019 0.022604972
0.026675588 0.013337794 0.02245149
0.028001778 0.013392154 0.022602171
0.028626492 0.013120476 0.02240622
0.029673282 0.013056244 0.022267848
0.030947043 0.01309298 0.022553116
0.032022007 0.013046002 0.022561759
0.033229567 0.013054472 0.023462981
0.034239233 0.012987295 0.024427593
0.035174534 0.012897329 0.025614977
0.036686774 0.013017886 0.026640743
0.037382577 0.01285026 0.027627826
0.039112322 0.01303744 0.028202593
0.040501863 0.013103544 0.028007358
0.040593937 0.012758095 0.028358251
0.042933472 0.01311856 0.028613061
0.043626539 0.012970052 0.029197812
0.044064291 0.012755453 0.029141933
0.045705222 0.012891216 0.028871834
0.047103442 0.012953446 0.028889716
0.047580313 0.012765449 0.028900474
0.049619421 0.012995562 0.028854012
0.051230516 0.01310548 0.028793126
0.052077282 0.013019321 0.029184073
0.053287126 0.013025741 0.029659808
0.053500589 0.012793618 0.029483229
0.055478785 0.012984396 0.029008359
0.056543846 0.012957965 0.02900815
0.057310328 0.012865584 0.029459476
0.059466131 0.013082549 0.030300379
0.060192585 0.012982714 0.031146109
0.059709571 0.012630871 0.031707853
0.062138442 0.012896658 0.0320476
0.06279102 0.012790763 0.032373875
0.063693322 0.012738665 0.032363206
0.065657534 0.012897016 0.032363206
0.066817194 0.012894546 0.032325327
0.067388222 0.012780524 0.032172114
0.068148457 0.012705644 0.031619191
0.070927545 0.013003383 0.031016976
0.071039163 0.01281034 0.030597985
0.072893672 0.012932748 0.029195577
0.074583597 0.013022533 0.026291996
0.076165728 0.013090984 0.023229867
0.076922655 0.01301768 0.017022938
-0.049289688 0.01442625 0.015760779
-0.047696851 0.014309055 0.016411036
-0.046518158 0.014313279 0.01816088
-0.045444552 0.014350911 0.019307673
-0.044297088 0.014366623 0.021699667
-0.042593874 0.014197959 0.023393571
-0.042386729 0.014532593 0.025794625
-0.040540271 0.014308331 0.027675897
-0.03866053 0.014058375 0.028073579
-0.038178951 0.014317106 0.028434098
-0.035544485 0.013759154 0.029424429
-0.035139203 0.01405568 0.029881299
-0.03395649 0.014050961 0.030956894
-0.03266881 0.014000918 0.031128466
-0.031781644 0.014125175 0.031483859
-0.030513128 0.014082982 0.031687796
-0.029271206 0.014050178 0.03189677
-0.028176185 0.014088092 0.032241136
-0.026759814 0.013961642 0.032821268
-0.024989419 0.013630592 0.033418804
-0.024426788 0.013958164 0.033821821
-0.022730902 0.013638541 0.033932626
-0.021836421 0.013791422 0.034226149
-0.020999676 0.013999783 0.034271359
-0.019667491 0.013882935 0.034265935
-0.018630384 0.013972788 0.034072131
-0.017342512 0.013874009 0.033959955
-0.016111914 0.013810212 0.033753157
-0.015089029 0.013928335 0.033099353
-0.014043463 0.014043463 0.032541156
-0.012657631 0.013808325 0.031771898
-0.011675856 0.014011027 0.031064957
-0.010558797 0.014078396 0.029724598
-0.0093695214 0.014054282 0.029297113
-0.0083326586 0.014284557 0.028827071
-0.0069897273 0.013979455 0.02847141
-0.0058009 0.01392216 0.028088689
-0.0047376314 0.014212894 0.027488172
-0.0035282522 0.014113009 0.027358383
-0.0023442819 0.014065691 0.02695027
-0.0011811113 0.014173335 0.026822954
0 0.013854498 0.026366323
0.0011781248 0.014137497 0.026137799
0.0023667105 0.014200263 0.025749058
0.0034880277 0.013952111 0.025904685
0.0047295871 0.014188761 0.025834948
0.0058810408 0.014114498 0.025594175
0.0070317769 0.014063554 0.025167376
0.0083283931 0.014277245 0.025533289
0.0094270455 0.014140568 0.025412649
0.010632282 0.014176377 0.025148064
0.011953693 0.014344431 0.024957567
0.013019526 0.01420312 0.024995625
0.014225494 0.014225494 0.025181323
0.01549607 0.014304064 0.025724649
0.016680701 0.014297743 0.026132315
0.0176915 0.0141532 0.026354164
0.018961677 0.014221258 0.026126117
0.019812418 0.013985235 0.025717348
0.021242978 0.014161985 0.025209486
0.02249806 0.0142093 0.024509877
0.023629375 0.014177625 0.024436325
0.025024964 0.014299979 0.02423504
0.026705811 0.014566806 0.023930043
0.02733501 0.014261744 0.023963422
0.028690152 0.014345076 0.023963422
0.029579917 0.014198359 0.023602277
0.030734511 0.014185159 0.023747623
0.032321818 0.014365252 0.024576724
0.033019502 0.014151216 0.025455326
0.033972356 0.014057525 0.02599436
0.035299655 0.014119863 0.027049392
0.036414776 0.014096041 0.028007478
0.038215887 0.014330957 0.028679758
0.039191719 0.014251534 0.029257804
0.039931156 0.014093348 0.029909194
0.041081935 0.014085235 0.029797554
0.042368788 0.014122929 0.030695975
0.042956524 0.013931844 0.031425297
0.044598375 0.014083697 0.031430811
0.045761112 0.014080342 0.031316876
0.046779882 0.014033966 0.031137824
0.048126306 0.014085747 0.030939817
0.049015079 0.014004307 0.030478001
0.05089334 0.014202792 0.030459553
0.05260139 0.014345833 0.030764401
0.053261545 0.014203077 0.030880749
0.053569216 0.013974577 0.030951977
0.054740842 0.013976385 0.030913889
0.055601627 0.013900407 0.030492187
0.058029566 0.014211323 0.030806243
0.058482185 0.014035724 0.031664729
0.059944741 0.014104645 0.032407343
0.062150519 0.014342427 0.032746345
0.062182087 0.014078963 0.033009619
0.062316917 0.013848203 0.033009619
0.064037539 0.013971826 0.033078164
0.065754317 0.01409021 0.032966971
0.066255316 0.013948488 0.032733798
0.06881085 0.014236728 0.032107562
0.068353556 0.013902418 0.031722009
0.070253514 0.014050703 0.03155145
0.072066955 0.014177105 0.030063301
0.07295204 0.014119748 0.02792719
0.074244581 0.014141825 0.02594611
0.076842159 0.014407904 0.021065742
-0.048549421 0.015778562 0.015093803
-0.047311764 0.015770588 0.017497778
-0.045768414 0.015657615 0.018132001
-0.044078108 0.015486902 0.01941669
-0.043082234 0.015557474 0.020699114
-0.041151002 0.015284658 0.023514122
-0.039921865 0.015264243 0.026662976
-0.039160617 0.01542691 0.028201133
-0.037165113 0.015098328 0.029127598
-0.036988337 0.015511237 0.029588073
-0.035730835 0.015483362 0.030238777
-0.033930939 0.015210421 0.030727565
-0.033088434 0.015362486 0.030977905
-0.031674106 0.015250495 0.031872064
-0.030325757 0.015162879 0.0321289
-0.029308466 0.015240402 0.032649338
-0.02786739 0.015094836 0.033267915
-0.026221767 0.014820999 0.03381747
-0.025496194 0.015065934 0.034623832
-0.023756465 0.014706383 0.03475219
-0.023050511 0.014982833 0.034812927
-0.022032501 0.01507487 0.035151243
-0.020718593 0.014963428 0.035154581
-0.019685626 0.015053714 0.035158455
-0.018615292 0.015124924 0.035047024
-0.017224232 0.014927668 0.034512132
-0.016205307 0.015047785 0.034217715
-0.015132987 0.015132987 0.034164757
-0.013840615 0.014994 0.033965737
-0.012787988 0.015113078 0.032778352
-0.011710281 0.015223366 0.032328963
-0.010413757 0.015042094 0.031715035
-0.0093994997 0.015274187 0.030875474
-0.0081050899 0.015052309 0.030004859
-0.0069540828 0.01506718 0.029972255
-0.005869613 0.015260994 0.029904664
-0.0046821716 0.015217057 0.029366255
-0.0035007361 0.015169856 0.028734058
-0.0023656725 0.015376871 0.028606206
-0.0011586528 0.015062487 0.028156847
0 0.01525743 0.02801013
0.001172487 0.015242331 0.027759731
0.0023245972 0.015109882 0.027631104
0.0035451627 0.015362372 0.027126133
0.004765538 0.015487998 0.027566552
0.0058945981 0.015325955 0.027516127
0.0071050837 0.015394349 0.027071893
0.0083055627 0.015424617 0.027689993
0.009499914 0.01543736 0.027194977
0.010751542 0.015530005 0.027164608
0.011706017 0.015217822 0.027356714
0.013015832 0.015382347 0.027055353
0.014320877 0.015514283 0.027566224
0.01531036 0.01531036 0.028213084
0.016492663 0.015314614 0.028690428
0.017674593 0.01531798 0.028558612
0.018603601 0.015115425 0.028381765
0.020086212 0.015360044 0.027887911
0.021184338 0.015299801 0.027655482
0.022149323 0.015154799 0.026289821
0.023851529 0.015503493 0.025949478
0.024982119 0.015465121 0.025668681
0.026122721 0.015436154 0.025615335
0.027793283 0.015709246 0.025606275
0.0286412 0.015513984 0.025597036
0.029597385 0.015390639 0.025400937
0.030958235 0.015479118 0.025757045
0.031623211 0.01522599 0.02666676
0.032839905 0.015247098 0.027036697
0.03409135 0.015282328 0.027721792
0.035203934 0.015255038 0.028333336
0.036342259 0.015240301 0.029388547
0.038420927 0.015608502 0.030294955
0.038859967 0.015308472 0.031020343
0.040427703 0.015457651 0.031706423
0.041718353 0.015495389 0.031739771
0.041996218 0.015165302 0.032257378
0.043256316 0.015198165 0.032526344
0.044979937 0.015387873 0.032397032
