ply
format ascii 1.0
comment PCL generated
element vertex 1277
property float x
property float y
property float z
element camera 0
property float view_px
property float view_py
property float view_pz
property float x_axisx
property float x_axisy
property float x_axisz
property float y_axisx
property float y_axisy
property float y_axisz
property float z_axisx
property float z_axisy
property float z_axisz
property float focal
property float scalex
property float scaley
property float centerx
property float centery
property int viewportx
property int viewporty
property float k1
property float k2
end_header
-0.041756615 -0.020314027 0.022744089
-0.040801037 -0.020400519 0.023704439
-0.039548956 -0.020339463 0.024374098
-0.038163047 -0.020203965 0.02549848
-0.03703627 -0.020201601 0.026487529
-0.036107726 -0.020310596 0.027163357
-0.034779094 -0.020194313 0.027760565
-0.033891343 -0.020334804 0.027602285
-0.032531537 -0.020191988 0.027161658
-0.031403404 -0.020187903 0.026589453
-0.030780954 -0.020520635 0.025505513
-0.029648954 -0.020526199 0.024851471
-0.028358098 -0.02041783 0.023463011
-0.027696358 -0.020772267 0.022598565
-0.026287461 -0.020572793 0.02095595
-0.025186848 -0.020607421 0.019289911
-0.024321133 -0.020846685 0.016027421
-0.047811564 -0.019824306 0.015147388
-0.045701735 -0.019423239 0.0177086
-0.044811271 -0.019533118 0.019609362
-0.042932875 -0.019206813 0.021472484
-0.041859895 -0.019232923 0.022760451
-0.041198634 -0.019454911 0.023760349
-0.039961077 -0.019409666 0.024398893
-0.038338486 -0.019169243 0.025346875
-0.037188552 -0.019157739 0.025862783
-0.03578712 -0.019011907 0.02629894
-0.034897726 -0.019137463 0.026461363
-0.034051757 -0.019295996 0.026782304
-0.032413486 -0.019001009 0.026745141
-0.031713109 -0.019254388 0.026060849
-0.030497098 -0.019201877 0.025429785
-0.029478312 -0.019274281 0.024730742
-0.028800476 -0.019584324 0.02329424
-0.027166663 -0.019243054 0.022397667
-0.026593873 -0.019656342 0.021004915
-0.025421103 -0.019643581 0.018587053
-0.024367221 -0.019725844 0.016542375
-0.023590721 -0.020052115 0.015221804
-0.047490895 -0.018533032 0.015510201
-0.046770975 -0.018708389 0.017767876
-0.044446908 -0.018234629 0.019363791
-0.043757785 -0.01842433 0.020461559
-0.042878784 -0.018542176 0.022621632
-0.040851127 -0.018156057 0.023556441
-0.03921314 -0.017926008 0.023920983
-0.038652018 -0.018189184 0.024618268
-0.037609141 -0.018234737 0.025356561
-0.036402971 -0.018201485 0.025721043
-0.035018049 -0.018073831 0.025891483
-0.033125669 -0.017667023 0.026135206
-0.032612417 -0.017993057 0.026010334
-0.03174869 -0.01814211 0.025501609
-0.030377125 -0.018001258 0.025039494
-0.029721608 -0.01829022 0.024581105
-0.028552599 -0.018273663 0.023158014
-0.027804386 -0.018536258 0.021898896
-0.026613392 -0.018513663 0.021055609
-0.025260432 -0.018371224 0.018656582
-0.024299446 -0.018513864 0.017135531
-0.023479965 -0.018783972 0.015810192
-0.048636168 -0.017793721 0.016053379
-0.046518374 -0.017444391 0.018077493
-0.044971511 -0.017296735 0.019848824
-0.04397174 -0.017357266 0.020895123
-0.04215778 -0.017090991 0.02181229
-0.041219905 -0.017174961 0.023445547
-0.040000863 -0.017143227 0.024150223
-0.038422465 -0.016951088 0.024529845
-0.037023585 -0.016828902 0.024888158
-0.036585286 -0.017149353 0.025191039
-0.035070386 -0.016969539 0.025342792
-0.034304608 -0.017152304 0.026128709
-0.032849956 -0.016991356 0.026394248
-0.031430077 -0.016837541 0.025626063
-0.030795339 -0.017108522 0.024363905
-0.029790871 -0.01718704 0.023700505
-0.028365303 -0.017019181 0.022770941
-0.027865456 -0.017415911 0.021366626
-0.026320737 -0.017165696 0.019054502
-0.02551852 -0.017398991 0.017838299
-0.02468003 -0.017628592 0.016391128
-0.02347371 -0.017605282 0.01514107
-0.047718421 -0.016294094 0.01514563
-0.046714157 -0.016349956 0.016891211
-0.045857832 -0.016461786 0.018987417
-0.043699052 -0.01609965 0.020610452
-0.042700399 -0.016156906 0.021326333
-0.041638743 -0.016192846 0.0220927
-0.040204182 -0.016081672 0.0231722
-0.03946228 -0.016249174 0.024084747
-0.038024988 -0.016131813 0.024379432
-0.036366977 -0.015910553 0.024773329
-0.035529334 -0.016045505 0.024904341
-0.034413431 -0.016059602 0.024924845
-0.032604389 -0.01574005 0.025353462
-0.031921413 -0.015960706 0.024308264
-0.030906461 -0.016025571 0.023989201
-0.029110538 -0.015674904 0.023524314
-0.028716054 -0.01608099 0.022710055
-0.027457742 -0.016017016 0.020759523
-0.026444849 -0.016096864 0.019179881
-0.025772486 -0.016400672 0.017464221
-0.024300151 -0.016200101 0.016487271
-0.023322454 -0.016325718 0.015375823
-0.046414934 -0.01471693 0.015957266
-0.045864224 -0.014905874 0.017445803
-0.044423379 -0.014807793 0.018602043
-0.044318266 -0.015161511 0.020158708
-0.043007087 -0.015110597 0.021019161
-0.041563559 -0.015009064 0.021450996
-0.040279791 -0.014961065 0.022093683
-0.039172404 -0.014977683 0.022402406
-0.037937976 -0.014945263 0.023068011
-0.037186496 -0.015107014 0.023111582
-0.03582615 -0.015023869 0.023385853
-0.034037091 -0.014749407 0.023413718
-0.033319272 -0.014936224 0.023507744
-0.03240072 -0.015043192 0.02345714
-0.030350862 -0.014613378 0.023257971
-0.029593663 -0.014796832 0.022756606
-0.028662201 -0.014904344 0.021440029
-0.027220601 -0.014744492 0.019842237
-0.026347714 -0.014892185 0.018644691
-0.025039686 -0.014796178 0.01746285
-0.023833148 -0.014753853 0.016264439
-0.047850374 -0.014004987 0.017019659
-0.045380175 -0.013614052 0.018004686
-0.043757305 -0.013463786 0.018888444
-0.043175783 -0.013634457 0.019883066
-0.042552333 -0.013800756 0.020708919
-0.041287057 -0.013762353 0.021438301
-0.040695172 -0.013952631 0.022155255
-0.039247707 -0.013852131 0.022533864
-0.038185466 -0.013885624 0.022758394
-0.037372131 -0.01401455 0.022825211
-0.035606645 -0.013783217 0.022870481
-0.034880288 -0.013952116 0.023252696
-0.033861294 -0.014011569 0.022948325
-0.031967428 -0.013700326 0.022884846
-0.031169228 -0.013852989 0.022222161
-0.030051382 -0.013869869 0.021178544
-0.027864521 -0.013374969 0.02055192
-0.027453419 -0.013726709 0.019583583
-0.02613424 -0.013635254 0.018582284
-0.025044311 -0.013660533 0.01713115
-0.024255516 -0.013860295 0.016218632
-0.049405068 -0.013255017 0.018149078
-0.046108779 -0.012679914 0.019603997
-0.045194175 -0.012747075 0.019944698
-0.043448638 -0.012577237 0.020910233
-0.042256687 -0.012562797 0.021125108
-0.0414102 -0.012653117 0.020988941
-0.040296406 -0.012664584 0.021809042
-0.039225727 -0.012690675 0.021929294
-0.037999753 -0.012666584 0.021974713
-0.036355998 -0.012497375 0.022242397
-0.035961475 -0.012760523 0.022670627
-0.034811668 -0.012764278 0.022982538
-0.032976925 -0.012508488 0.022649854
-0.03255878 -0.012790949 0.022812307
-0.031432532 -0.012805846 0.021626383
-0.029506359 -0.012483459 0.020571142
-0.028783584 -0.012664776 0.020618737
-0.027278695 -0.012502735 0.019083172
-0.026466416 -0.012657851 0.017713904
-0.025350044 -0.012675022 0.016651928
-0.024079576 -0.012613111 0.015392423
-0.049673561 -0.011827038 0.015742749
-0.048490863 -0.01182704 0.019259483
-0.048462734 -0.012115683 0.020459503
-0.045693994 -0.011716408 0.02064985
-0.044309281 -0.011660337 0.021633178
-0.042699616 -0.011540436 0.021845639
-0.041443497 -0.011512082 0.021781892
-0.040222514 -0.011492146 0.021946222
-0.039480224 -0.01161183 0.022324562
-0.038114492 -0.011549846 0.022501051
-0.037280016 -0.011650004 0.022469252
-0.035717018 -0.011521618 0.022149354
-0.0340918 -0.011363933 0.022339046
-0.033171259 -0.011438364 0.021962672
-0.032332756 -0.011547413 0.021712601
-0.031276945 -0.011584053 0.021006495
-0.030256351 -0.011637058 0.020709217
-0.02903186 -0.011612743 0.019703954
-0.027655784 -0.011523243 0.018736035
-0.026834864 -0.011667332 0.017888844
-0.025600759 -0.011636709 0.016759932
-0.024321476 -0.011581655 0.015169173
-0.050045773 -0.010474696 0.015242308
-0.049447306 -0.010595851 0.017688781
-0.049169999 -0.010793414 0.020105332
-0.047155369 -0.010609958 0.020890713
-0.046704695 -0.010778006 0.02148664
-0.045723226 -0.010829184 0.022166014
-0.043476976 -0.01057548 0.022666365
-0.042676505 -0.010669126 0.02259624
-0.041457668 -0.010660543 0.022702545
-0.039393742 -0.010427755 0.02264291
-0.037860118 -0.010325487 0.022822887
-0.037021644 -0.010412337 0.022325158
-0.035095479 -0.010189009 0.02226308
-0.034389246 -0.010316773 0.022144228
-0.033256084 -0.010320853 0.022129714
-0.031534385 -0.010136052 0.021650016
-0.031579312 -0.010526436 0.02009514
-0.030329309 -0.010498607 0.020149589
-0.028908851 -0.010407185 0.01977846
-0.028421218 -0.010657957 0.018822968
-0.027257785 -0.010666089 0.017985672
-0.02554737 -0.010451197 0.017144382
-0.024683425 -0.010578611 0.015531957
-0.05001191 -0.0093045421 0.016013086
-0.048741985 -0.009284188 0.018966496
-0.04846891 -0.0094573479 0.02153945
-0.046648297 -0.0093296599 0.021878451
-0.045833964 -0.0094018392 0.022685111
-0.044466428 -0.0093613537 0.023372173
-0.042888552 -0.0092732003 0.023217827
-0.042381477 -0.0094181066 0.023469567
-0.040397052 -0.0092336116 0.023603112
-0.039468102 -0.0092866123 0.023455858
-0.038533781 -0.0093415231 0.023364753
-0.036934145 -0.0092335362 0.022776306
-0.036389906 -0.0093909428 0.022569388
-0.035416029 -0.0094442749 0.022444904
-0.033397146 -0.0092130052 0.021885186
-0.032516871 -0.0092905341 0.021293312
-0.031837177 -0.0094332378 0.020680934
-0.031056922 -0.0095559759 0.020326912
-0.030425414 -0.0097361319 0.020055681
-0.028640335 -0.0095467791 0.019342273
-0.027357217 -0.0095155537 0.01841113
-0.026574528 -0.0096634654 0.016996056
-0.02495577 -0.0095069595 0.015783042
-0.050569415 -0.0082322303 0.01672551
-0.048823189 -0.0081371982 0.020496875
-0.046827517 -0.0079949414 0.022236824
-0.046686858 -0.0081702005 0.023004472
-0.04511432 -0.0080974419 0.023625821
-0.043898828 -0.0080866264 0.024223626
-0.042877067 -0.0081118774 0.02426368
-0.041740775 -0.008116262 0.024083823
-0.040390424 -0.0080780853 0.024493128
-0.039511248 -0.0081346687 0.024493128
-0.037936058 -0.0080470424 0.024521768
-0.037155621 -0.0081277918 0.02374506
-0.035896029 -0.0081055546 0.023543447
-0.034126382 -0.007962822 0.023350924
-0.033661451 -0.0081251776 0.023090184
-0.032610346 -0.0081525864 0.022474498
-0.031424787 -0.008147167 0.021998018
-0.030294368 -0.0081561757 0.021474749
-0.029124696 -0.0081549147 0.020913959
-0.027667476 -0.008069681 0.019858658
-0.026850324 -0.0081718378 0.019239485
-0.025403939 -0.0080830716 0.017937511
-0.024623239 -0.0082077459 0.016468853
-0.052088279 -0.0071029472 0.015188843
-0.050209127 -0.0070059244 0.017324269
-0.048453331 -0.0069219042 0.02119571
-0.047664933 -0.0069753556 0.02281785
-0.04612333 -0.0069184997 0.024070114
-0.044742215 -0.0068834177 0.024605125
-0.043969791 -0.0069425981 0.025265902
-0.04298437 -0.0069704377 0.025772512
-0.041633155 -0.0069388594 0.025833935
-0.041284885 -0.007077409 0.025934517
-0.039958991 -0.0070515866 0.025997162
-0.038936157 -0.0070793014 0.025758952
-0.037736665 -0.0070756245 0.025464803
-0.036065187 -0.0069803586 0.024416745
-0.035424579 -0.0070849159 0.023809344
-0.033661045 -0.0069643538 0.023312122
-0.031749964 -0.0068035633 0.022669882
-0.031716768 -0.0070481705 0.022367924
-0.030931495 -0.0071380376 0.021710038
-0.029049812 -0.0069719544 0.021196783
-0.028864847 -0.0072162119 0.020284384
-0.02699421 -0.0070419675 0.019291192
-0.026066575 -0.007109066 0.017505437
-0.025212385 -0.007203538 0.016159058
-0.049660813 -0.0057745129 0.017659545
-0.047797911 -0.0056902273 0.020917177
-0.047114488 -0.0057456689 0.022815764
-0.046474349 -0.0058092936 0.023894638
-0.045378 -0.0058176923 0.024686158
-0.044068161 -0.0057984423 0.025346786
-0.042552292 -0.0057503092 0.025559455
-0.041665182 -0.005786831 0.026123673
-0.040038414 -0.0057197735 0.026241869
-0.038987473 -0.0057334518 0.026407778
-0.038355973 -0.0058115111 0.026291579
-0.036467966 -0.0056981193 0.02618432
-0.0361531 -0.0058311452 0.025427938
-0.035531584 -0.0059219305 0.024836957
-0.034681514 -0.0059795706 0.024138868
-0.032648537 -0.0058300961 0.023723602
-0.031399209 -0.0058146683 0.022659898
-0.030067252 -0.0057821637 0.022163153
-0.02973235 -0.0059464695 0.021518558
-0.028521117 -0.005941899 0.020611912
-0.026783731 -0.00582255 0.019225419
-0.025629509 -0.0058248881 0.017732441
-0.024269622 -0.0057784813 0.016282529
-0.05062671 -0.0047094612 0.018044621
-0.048637155 -0.0046321098 0.02122739
-0.046536364 -0.0045401328 0.023190081
-0.046109196 -0.0046109199 0.02404052
-0.044629015 -0.004577335 0.025000662
-0.043213654 -0.0045488053 0.025672972
-0.042670291 -0.0046130042 0.025847703
-0.04125534 -0.0045839269 0.026296675
-0.039792925 -0.0045477632 0.026496321
-0.039335586 -0.0046277158 0.026524186
-0.037901841 -0.004594163 0.026523471
-0.036795728 -0.004599466 0.025909394
-0.036086272 -0.004656293 0.025639147
-0.034326877 -0.0045769173 0.025577754
-0.033698406 -0.0046480559 0.024928033
-0.033073515 -0.004724788 0.024455428
-0.031317964 -0.0046396982 0.023705184
-0.030384485 -0.0046745362 0.023091376
-0.029647987 -0.004743678 0.022092938
-0.02812168 -0.004686947 0.021140844
-0.027049093 -0.00470419 0.019890308
-0.025663711 -0.0046661296 0.0184789
-0.024523478 -0.0046711387 0.017474353
-0.050369725 -0.0035141669 0.01919964
-0.048240893 -0.0034457778 0.022102743
-0.046763681 -0.0034217325 0.023873895
-0.045700058 -0.0034275043 0.024825394
-0.044646554 -0.0034343502 0.025311321
-0.044298701 -0.0034972657 0.026201755
-0.042725131 -0.0034641996 0.026643455
-0.04141802 -0.0034515017 0.026643455
-0.040093552 -0.0034365903 0.026838869
-0.038917113 -0.0034338629 0.026838869
-0.038067102 -0.0034606457 0.026639223
-0.037448086 -0.003510758 0.026141495
-0.035504736 -0.0034359421 0.025964797
-0.034577526 -0.0034577525 0.025521398
-0.033402856 -0.0034554678 0.024793267
-0.03189569 -0.0034173953 0.024371088
-0.031292368 -0.0034769294 0.023853451
-0.030358251 -0.0035028751 0.023166716
-0.028624747 -0.0034349693 0.022536159
-0.028072629 -0.0035090786 0.021621495
-0.026605854 -0.0034703284 0.020887166
-0.025699096 -0.0035044223 0.019085497
-0.025043162 -0.0035775944 0.017888904
-0.052130762 -0.0023695801 0.015134782
-0.049343385 -0.0022950412 0.018786907
-0.049028642 -0.0023346972 0.022316307
-0.047592554 -0.0023215879 0.02365002
-0.045785699 -0.0022892852 0.02509746
-0.044751383 -0.0022949427 0.025772035
-0.043448228 -0.0022867487 0.026812583
-0.042343892 -0.0022888589 0.027082354
-0.041936804 -0.0023298224 0.027082354
-0.040506613 -0.0023146637 0.02714321
-0.03925442 -0.0023090835 0.026838064
-0.038228121 -0.0023168561 0.02672866
-0.036590934 -0.0022869334 0.026495934
-0.035889737 -0.002315467 0.026277244
-0.034627315 -0.0023084877 0.02611658
-0.032868989 -0.0022668268 0.025581479
-0.03220275 -0.0023001966 0.025267571
-0.031135164 -0.0023063084 0.024748355
-0.029618347 -0.0022783345 0.024066359
-0.028879266 -0.0023103412 0.023474306
-0.027421562 -0.0022851303 0.022594273
-0.026529264 -0.0023068923 0.021738559
-0.025588324 -0.0023262114 0.020548344
-0.02431085 -0.0023153189 0.019090116
-0.023108648 -0.0023108649 0.016006678
-0.051186934 -0.0011903938 0.016982883
-0.048945047 -0.0011653582 0.021034271
-0.047224924 -0.0011518274 0.023120135
-0.046273936 -0.0011568485 0.024710149
-0.044529315 -0.0011417774 0.025536001
-0.043402497 -0.001142171 0.02629739
-0.042166807 -0.0011396435 0.02723527
-0.040778466 -0.0011327352 0.027179062
-0.04025187 -0.0011500535 0.027246237
-0.038847841 -0.0011425836 0.026714712
-0.037644915 -0.001140755 0.026622176
-0.036884967 -0.0011526552 0.026707232
-0.03578265 -0.001154279 0.026543051
-0.034682363 -0.0011560788 0.02638033
-0.033675291 -0.0011612169 0.025813788
-0.032773603 -0.0011704857 0.025392026
-0.030879211 -0.0011436745 0.024695128
-0.030267252 -0.001164125 0.024169862
-0.029157955 -0.0011663182 0.023898274
-0.027879043 -0.0011616268 0.022670418
-0.026900543 -0.0011695888 0.021862864
-0.025459977 -0.0011572717 0.020545483
-0.024665283 -0.0011745373 0.019564599
-0.023538813 -0.0011769406 0.016428381
-0.022313673 -0.0011744038 0.015241712
-0.051046323 0 0.015726656
-0.049253382 0 0.019574732
-0.047911473 0 0.022121996
-0.046329897 0 0.024136186
-0.045308139 0 0.025517344
-0.044120014 0 0.026258588
-0.042454492 0 0.02678743
-0.041508812 0 0.02697134
-0.039943721 0 0.027216375
-0.038430687 0 0.026915342
-0.037516687 0 0.027406156
-0.036507752 0 0.027375638
-0.035402078 0 0.027406156
-0.034500055 0 0.027155906
-0.03325564 0 0.026731521
-0.03195449 0 0.026352316
-0.031214396 0 0.025109649
-0.030145532 0 0.024418443
-0.028426241 0 0.023787886
-0.027693611 0 0.022978961
-0.026487591 0 0.022464931
-0.025473451 0 0.021714747
-0.024629556 0 0.020457536
-0.023390291 0 0.019068271
-0.022251254 0 0.016597241
-0.049971476 0.001189797 0.019066125
-0.048697203 0.0011877366 0.021401346
-0.046123471 0.0011530868 0.023282319
-0.045587283 0.0011689047 0.024206698
-0.043762341 0.0011516406 0.025193751
-0.042928375 0.0011602263 0.02640003
-0.042319793 0.0011755498 0.026393741
-0.040356047 0.00115303 0.026823014
-0.039101925 0.0011500566 0.026572078
-0.038262568 0.0011594718 0.027016222
-0.036530979 0.0011415931 0.027649462
-0.036067221 0.0011634588 0.027672559
-0.035176702 0.0011725568 0.027796984
-0.033271413 0.00114729 0.027726054
-0.032417644 0.001157773 0.027480245
-0.03123237 0.0011567544 0.026478946
-0.030044187 0.0011555456 0.025661111
-0.02883085 0.001153234 0.025012672
-0.027544525 0.0011476885 0.023877978
-0.026558915 0.0011547353 0.023218751
-0.025699737 0.0011681699 0.022624224
-0.024496492 0.0011664996 0.021733344
-0.023429194 0.0011714598 0.020601839
-0.022428239 0.0011804336 0.017767638
-0.021094561 0.0011719201 0.016817808
-0.049522746 0.0023582259 0.016264677
-0.047806431 0.002332021 0.020157903
-0.046669088 0.0023334546 0.02229166
-0.04548509 0.0023325689 0.023644865
-0.044124078 0.0023223199 0.024437428
-0.043428943 0.0023475103 0.025407195
-0.041453637 0.0023029801 0.026169598
-0.040625673 0.002321467 0.026334941
-0.039506435 0.002323908 0.026485085
-0.037999511 0.0023030008 0.026960194
-0.037726801 0.0023579251 0.027363658
-0.036217656 0.0023366229 0.027666777
-0.0345507 0.0023033801 0.027831405
-0.033847813 0.0023343319 0.02780515
-0.032490578 0.0023207557 0.027591527
-0.031233719 0.0023136088 0.026969433
-0.030317595 0.0023321228 0.026272506
-0.029039012 0.0023231211 0.02568984
-0.027814509 0.0023178759 0.024534523
-0.027213918 0.0023664276 0.023992836
-0.026124092 0.0023749175 0.023132831
-0.024817219 0.0023635447 0.022361606
-0.023988025 0.0023988027 0.020755976
-0.022453489 0.0023635251 0.018125921
-0.021582277 0.0023980311 0.015847445
-0.049190886 0.0035136347 0.015059173
-0.048196133 0.0035265461 0.018811285
-0.046719335 0.0035039501 0.020631343
-0.045948271 0.0035344823 0.02278617
-0.044824611 0.003538785 0.02400583
-0.043205868 0.0035031785 0.024764419
-0.041903362 0.0034919467 0.025603235
-0.04159236 0.0035650593 0.026016891
-0.039669015 0.0035002071 0.026236862
-0.038787015 0.0035260923 0.026838541
-0.037603684 0.0035253451 0.027044982
-0.035962678 0.0034802591 0.027363718
-0.034936871 0.0034936871 0.027497828
-0.033732653 0.0034895844 0.02754876
-0.03219714 0.0034496936 0.027242512
-0.031134682 0.0034594089 0.026902288
-0.030222202 0.0034871772 0.026160806
-0.028752543 0.003450305 0.025749683
-0.028207017 0.0035258771 0.024779201
-0.026972676 0.0035181751 0.024136782
-0.026146457 0.003565426 0.023383796
-0.025072571 0.0035817958 0.022672296
-0.023915792 0.0035873689 0.021126032
-0.022661436 0.0035781213 0.018320709
-0.050035357 0.0048814979 0.017737627
-0.04731774 0.0047317743 0.020573437
-0.045883372 0.0047059869 0.022019893
-0.044069391 0.0046388833 0.023566306
-0.043315005 0.0046827034 0.024362028
-0.042545184 0.004727243 0.024907142
-0.040653922 0.0046461625 0.025478154
-0.039509099 0.004648129 0.026300073
-0.038908493 0.0047161812 0.026409119
-0.037085522 0.0046356902 0.026481748
-0.036367062 0.0046925237 0.026907444
-0.034901455 0.0046535274 0.027394861
-0.033393309 0.0046059736 0.027280122
-0.032555785 0.0046508261 0.026609123
-0.03147893 0.0046635452 0.026442081
-0.030076005 0.0046270778 0.025542885
-0.029340677 0.0046945084 0.02561143
-0.028036958 0.0046728263 0.024891317
-0.026946889 0.0046864152 0.02385807
-0.026274465 0.0047771758 0.023276031
-0.024702491 0.0047052363 0.022301525
-0.023622967 0.0047245938 0.020386815
-0.022774344 0.0047945986 0.017182767
-0.02111331 0.0046918467 0.015428931
-0.04931777 0.006014362 0.01625365
-0.048095405 0.0060119256 0.019448131
-0.04570223 0.00585926 0.021328956
-0.044730131 0.0058855433 0.022070467
-0.043567631 0.0058875177 0.023333341
-0.041798532 0.0058053518 0.023616731
-0.040735696 0.0058193849 0.024293602
-0.0397476 0.0058452352 0.025311321
-0.038428161 0.0058224485 0.025839716
-0.037424833 0.0058476301 0.026361823
-0.035989154 0.0058047022 0.026873648
-0.034750912 0.0057918183 0.02712065
-0.033917908 0.0058479146 0.026563197
-0.032837573 0.0058638523 0.02603969
-0.031533893 0.0058396095 0.025755316
-0.030785436 0.005920276 0.025560468
-0.029487422 0.0058974838 0.025511533
-0.028123813 0.0058591277 0.02465573
-0.027179938 0.005908682 0.023947954
-0.025728619 0.0058474131 0.023040265
-0.024529181 0.005840281 0.021744341
-0.023538269 0.0058845673 0.020406604
-0.022126863 0.0058228583 0.017154634
-0.021205908 0.0058905301 0.015753984
-0.047950599 0.0071925898 0.017820269
-0.045627307 0.0070195859 0.020885587
-0.044389561 0.007008878 0.021982282
-0.043357246 0.0070309043 0.022659451
-0.042013526 0.0070022545 0.023581207
-0.040766194 0.0069884905 0.024413437
-0.039748311 0.0070144073 0.025004536
-0.038659446 0.0070289904 0.025360078
-0.038162574 0.0071554827 0.025440425
-0.03632712 0.0070310552 0.0262402
-0.035738297 0.0071476595 0.026056945
-0.034608025 0.0071602808 0.026034176
-0.032729164 0.0070133922 0.025270164
-0.031759471 0.0070576598 0.025336891
-0.030453777 0.0070277946 0.025232643
-0.028978312 0.0069547943 0.025051802
-0.028084874 0.0070212185 0.02433899
-0.026850013 0.0070043509 0.023641676
-0.02562595 0.0069888956 0.022364408
-0.024548799 0.0070139426 0.021191627
-0.023206208 0.0069618626 0.019222796
-0.022347109 0.0070569818 0.017393947
-0.021437602 0.0071458672 0.016268164
-0.020364815 0.0071875816 0.015193403
-0.047640495 0.008337087 0.016847879
-0.046231288 0.008297924 0.019143671
-0.044466186 0.0081911394 0.021599174
-0.043351009 0.0082015423 0.022361785
-0.042352844 0.0082352748 0.023419946
-0.040664639 0.0081329281 0.023613751
-0.039308839 0.0080929967 0.024506986
-0.038635831 0.0081954794 0.025065154
-0.037015602 0.0080971625 0.025208384
-0.03633884 0.0082055442 0.02533856
-0.035532586 0.0082909362 0.025299937
-0.033673793 0.0081281569 0.025263757
-0.033109289 0.0082773222 0.025198638
-0.031653076 0.0082063526 0.025323004
-0.030142516 0.0081152925 0.025207609
-0.029549107 0.0082737496 0.024228781
-0.027888022 0.0081340065 0.023580343
-0.026927318 0.0081952708 0.022526175
-0.025774909 0.0082011074 0.021862
-0.02440461 0.0081348699 0.021098882
-0.02380321 0.0083311237 0.019277185
-0.022633154 0.0083385296 0.018180579
-0.021397267 0.0083211595 0.017335951
-0.020194167 0.0083152456 0.016068548
-0.019393232 0.0084845386 0.015084326
-0.045900222 0.00941543 0.018023461
-0.045068357 0.009488075 0.019610196
-0.04385436 0.0094820233 0.021422237
-0.041902777 0.0093117282 0.02209264
-0.041019853 0.0093759662 0.022939235
-0.040151723 0.0094474638 0.023721725
-0.038754329 0.0093949893 0.024013042
-0.037124719 0.0092811799 0.024365515
-0.036431357 0.0094016409 0.024667233
-0.034564324 0.0092171524 0.024596274
-0.03396846 0.0093706092 0.024664223
-0.03286254 0.0093892971 0.024664223
-0.031474236 0.0093256989 0.025571495
-0.030243922 0.0093058217 0.025082946
-0.029173533 0.00933553 0.024298638
-0.028031308 0.0093437694 0.023822755
-0.027103843 0.0094274236 0.022979796
-0.025829948 0.0093927085 0.022508681
-0.024728201 0.0094202673 0.02111429
-0.023831323 0.0095325289 0.020028055
-0.022324331 0.0093997186 0.018907875
-0.021528911 0.0095684053 0.017943263
-0.020548381 0.0096698264 0.017056018
-0.019166211 0.0095831053 0.016004264
-0.045822088 0.010574328 0.017883539
-0.044851515 0.010622727 0.019432873
-0.043086186 0.010480423 0.020163983
-0.042027339 0.010506835 0.021551311
-0.041113336 0.010572 0.022105545
-0.040007107 0.010590116 0.022984207
-0.038882606 0.010604347 0.02316469
-0.037871398 0.01065133 0.023822427
-0.036078986 0.010474544 0.024246961
-0.03516249 0.010548746 0.024393559
-0.034312256 0.01064863 0.024591267
-0.032613911 0.010483042 0.024608731
-0.031876549 0.010625516 0.024862111
-0.031045787 0.010746619 0.024855793
-0.029470112 0.01060924 0.024627924
-0.028589167 0.010720937 0.024128884
-0.027001627 0.010565853 0.023819894
-0.025795104 0.010552542 0.02331686
-0.024981294 0.010706268 0.022543639
-0.023928691 0.010767911 0.021694034
-0.022648251 0.010728118 0.020895094
-0.021793043 0.010896522 0.020289093
-0.020358851 0.010778215 0.019114822
-0.019164218 0.010779873 0.017942369
-0.047151506 0.01209013 0.017674714
-0.045898095 0.012078445 0.018945336
-0.044107739 0.011921009 0.01988402
-0.042754862 0.01187635 0.020343035
-0.041191678 0.011769051 0.020742327
-0.040275276 0.01184567 0.022321254
-0.039140932 0.011860888 0.022545606
-0.037604727 0.011751478 0.023429483
-0.036896404 0.011902065 0.023698777
-0.035636373 0.01187879 0.023982406
-0.033671983 0.011611028 0.023938358
-0.033052962 0.011804629 0.024009377
-0.032158747 0.011910647 0.02408579
-0.030386036 0.011686937 0.024108768
-0.02953073 0.011812292 0.02398631
-0.028128931 0.011720388 0.023994029
-0.027032221 0.011753139 0.023635119
-0.026201978 0.011909991 0.022991776
-0.024924848 0.011868974 0.022723913
-0.023882225 0.011941113 0.022173136
-0.022930343 0.012068601 0.021441996
-0.021474976 0.011930543 0.020799369
-0.020343151 0.011966558 0.019431859
-0.019204013 0.012002507 0.018288225
-0.04812479 0.013234318 0.015309662
-0.046015158 0.012978634 0.016822487
-0.045724485 0.013236035 0.018437773
-0.044399049 0.013199717 0.019176453
-0.042610023 0.013019729 0.020004213
-0.041611921 0.013078032 0.020443201
-0.040834319 0.013211103 0.020964116
-0.038945936 0.012981979 0.02183494
-0.03753034 0.012901054 0.022567481
-0.036618952 0.012993821 0.023166955
-0.035097949 0.012869248 0.023584783
-0.03433796 0.013024743 0.023487985
-0.033324908 0.013091928 0.023635119
-0.03191692 0.013003188 0.023680955
-0.030890111 0.013068893 0.023845524
-0.029642867 0.013042861 0.023597449
-0.028508214 0.013066265 0.023888558
-0.027650477 0.013224141 0.023746699
-0.026101185 0.013050593 0.023072481
-0.025054878 0.013123984 0.022854805
-0.024147302 0.013281016 0.022562504
-0.022436047 0.01298929 0.021751404
-0.021545911 0.013166945 0.020955473
-0.020394616 0.013196516 0.019937277
-0.018850001 0.012959375 0.0189614
-0.017917527 0.01313952 0.015568644
-0.046224803 0.014223016 0.015815377
-0.04508948 0.014238783 0.017428666
-0.043989453 0.014266849 0.01835838
-0.042482421 0.014160807 0.01912111
-0.041666329 0.014285599 0.020859122
-0.039947674 0.014099179 0.021792024
-0.038748726 0.014090446 0.022095621
-0.037965093 0.01423691 0.022519529
-0.036070049 0.013962599 0.0232912
-0.03544917 0.014179667 0.023586273
-0.034175087 0.014141414 0.023801297
-0.033029716 0.014155593 0.023910761
-0.032113302 0.014272578 0.024022669
-0.030713955 0.014175672 0.023972571
-0.029432403 0.014127553 0.024037629
-0.028577721 0.01428886 0.023986638
-0.027209055 0.014196028 0.023631871
-0.026128771 0.014252057 0.023139864
-0.025047971 0.014313126 0.022849172
-0.02367929 0.014207575 0.022724509
-0.022443693 0.014174963 0.021930873
-0.021709856 0.014473238 0.021272421
-0.020047404 0.014151108 0.020443708
-0.01900455 0.014253412 0.01926139
-0.017904364 0.014323492 0.017936528
-0.048064291 0.015620895 0.015411854
-0.04677951 0.015593169 0.016595364
-0.045099821 0.015428886 0.017684191
-0.043999523 0.015459291 0.018684477
-0.042938013 0.015505395 0.019690782
-0.041325245 0.015349377 0.021359891
-0.040361635 0.015432389 0.022261441
-0.039882176 0.01571116 0.022588462
-0.037911605 0.015401589 0.022836804
-0.037193649 0.015597335 0.023551345
-0.035931386 0.015570266 0.023919553
-0.034170672 0.015317887 0.024147421
-0.03331143 0.01546602 0.024399012
-0.032123942 0.015467083 0.024454296
-0.03046016 0.01523008 0.02445212
-0.029817874 0.015505293 0.024455011
-0.028465997 0.015419082 0.024378389
-0.027260115 0.01540789 0.02415058
-0.026278015 0.015527918 0.023960739
-0.024755903 0.015325082 0.023954272
-0.023931872 0.015555717 0.023571104
-0.02260156 0.015464225 0.023008525
-0.021217216 0.015323545 0.022191852
-0.02021767 0.015460571 0.021496147
-0.01934408 0.015717065 0.020450652
-0.017838111 0.015459696 0.019233406
-0.017028149 0.015811853 0.017591685
-0.015772799 0.015772799 0.015049547
-0.048234913 0.01688222 0.015247852
-0.046394777 0.016654534 0.01625222
-0.045190573 0.016649159 0.017316639
-0.044604279 0.016877295 0.018852085
-0.042670045 0.016593907 0.020003796
-0.041506641 0.016602656 0.021605879
-0.040777344 0.016790671 0.022469223
-0.03921546 0.016636861 0.022853017
-0.038283587 0.016749069 0.023175955
-0.037056807 0.016735332 0.023898333
-0.035558298 0.016593872 0.024000674
-0.034617268 0.016711783 0.024326622
-0.033296719 0.01664836 0.024588615
-0.031824116 0.016501393 0.024588615
-0.030884489 0.016630109 0.024935424
-0.029930929 0.01676132 0.025328636
-0.028571641 0.01666679 0.02520144
-0.027396355 0.01667604 0.02510789
-0.026066983 0.016588081 0.02523157
-0.02490462 0.016603079 0.025265455
-0.023741188 0.016618831 0.024660826
-0.022490947 0.016572276 0.024664164
-0.021213237 0.016499186 0.023865253
-0.020529579 0.016906712 0.023175538
-0.018868975 0.016510354 0.022184044
-0.018147176 0.016937364 0.02055189
-0.017023304 0.017023304 0.019237995
-0.015724758 0.016934354 0.016518295
-0.01458573 0.017016685 0.015129924
-0.04766066 0.017872747 0.015072525
-0.046116255 0.017737022 0.01676026
-0.0452234 0.017851342 0.017803341
-0.043893121 0.017794508 0.018854827
-0.042937126 0.01789047 0.019964755
-0.042267747 0.018114749 0.021443576
-0.040647756 0.017932834 0.021818876
-0.039135784 0.017788993 0.022361755
-0.038332622 0.017968418 0.023121953
-0.037106205 0.017954616 0.023884356
-0.036637884 0.018318942 0.024337292
-0.035040658 0.018124478 0.024764448
-0.033120122 0.017742923 0.024750471
-0.032458134 0.018032297 0.024915606
-0.031199472 0.017999696 0.025464147
-0.02963024 0.017778143 0.026039213
-0.028836202 0.018022627 0.02607736
-0.027322525 0.017819038 0.02607736
-0.026120845 0.017809669 0.026200771
-0.025102992 0.017930707 0.02627939
-0.02363072 0.017723041 0.025989503
-0.022323545 0.017623851 0.025647253
-0.021292403 0.017743669 0.025366068
-0.019975075 0.017625066 0.024723291
-0.019396232 0.018183967 0.023964554
-0.018015841 0.018015841 0.022689909
-0.016764298 0.017961748 0.021718711
-0.015740752 0.018162407 0.019489318
-0.01453398 0.018167475 0.01687637
-0.013276201 0.018103911 0.015343875
-0.046714898 0.019165086 0.016831487
-0.045534834 0.01917256 0.018262476
-0.044160523 0.019096442 0.019032717
-0.043413606 0.019294936 0.019946367
-0.041758098 0.019089416 0.021118432
-0.040953469 0.019272221 0.022053808
-0.039849378 0.019320913 0.022754043
-0.038396962 0.019198481 0.023254752
-0.037708994 0.019462707 0.023969501
-0.036749188 0.019599568 0.025150895
-0.034778237 0.019187992 0.025418371
-0.033620667 0.01921181 0.025640011
-0.032264616 0.019119773 0.025886655
-0.030708008 0.018897235 0.026404023
-0.029712519 0.019016011 0.026990265
-0.028385317 0.018923545 0.026939273
-0.027459793 0.019102465 0.027081788
-0.026388681 0.019191768 0.027249187
-0.024850138 0.018933438 0.027579784
-0.023593146 0.018874517 0.027081788
-0.022310985 0.018788198 0.026771039
-0.021192839 0.018838082 0.026693195
-0.020283593 0.019090442 0.026301384
-0.019376826 0.019376826 0.025637478
-0.017848799 0.01903872 0.024985135
-0.016782288 0.019179758 0.023503393
-0.015671942 0.019288545 0.021342933
-0.014200064 0.018933419 0.018515289
-0.013296356 0.019340156 0.016977459
-0.012140769 0.01942523 0.015732348
-0.046684124 0.02034949 0.017310768
-0.045663856 0.020428568 0.018125981
-0.045051571 0.020699369 0.01947999
-0.043607946 0.020592643 0.020734787
-0.042801023 0.020789068 0.0217852
-0.04170879 0.020854395 0.022572696
-0.040346202 0.020784408 0.023342997
-0.039127585 0.020786529 0.023576796
-0.037247591 0.020426096 0.024091572
-0.035312932 0.020010663 0.024829179
-0.034450453 0.020195093 0.025701463
-0.033496406 0.020337105 0.026195854
-0.031798512 0.020021286 0.026639104
-0.030918244 0.020215776 0.027005553
-0.029835636 0.020288231 0.027856022
-0.02837511 0.020099036 0.027791023
-0.027412213 0.0202612 0.028110623
-0.025908222 0.020019989 0.028131038
-0.02448348 0.01981996 0.028340131
-0.023503106 0.01997764 0.028090745
-0.022403501 0.020045238 0.027914941
-0.021552168 0.020354826 0.027548879
-0.020418091 0.020418091 0.027281851
-0.018799229 0.019974181 0.026575983
-0.017869795 0.020252435 0.025628448
-0.016716635 0.02029877 0.025146157
-0.015409911 0.020151423 0.022374332
-0.014414898 0.020421106 0.02099514
-0.013199865 0.020399792 0.018205047
-0.011748531 0.019972503 0.017014384
-0.010958555 0.020699495 0.015175879
-0.046265293 0.021353211 0.016751379
-0.046013787 0.021796003 0.01885429
-0.044306092 0.021554312 0.019108742
-0.043618519 0.021809259 0.020990133
-0.042267535 0.021737589 0.022150844
-0.040499099 0.021440698 0.023416102
-0.039436307 0.021510713 0.024042964
-0.038147934 0.02145821 0.024545759
-0.03630973 0.021083068 0.024953663
-0.035356481 0.021213887 0.025353163
-0.034134857 0.021187151 0.026182473
-0.032820698 0.02109902 0.027183056
-0.03205597 0.021370646 0.027588159
-0.030782126 0.021310702 0.027966976
-0.029108923 0.020958424 0.028549343
-0.028485848 0.021364385 0.028735757
-0.026998006 0.021128872 0.029042125
-0.025829129 0.021132924 0.029130429
-0.024911311 0.02135255 0.029345363
-0.023830289 0.02144726 0.029192716
-0.022524761 0.021339245 0.029046834
-0.021370182 0.021370182 0.028417826
-0.019885115 0.021054827 0.028355658
-0.018853663 0.021210371 0.027569354
-0.017666059 0.021199269 0.026556849
-0.01638839 0.021070786 0.026076615
-0.015616386 0.021622688 0.024187416
-0.014388484 0.021582725 0.021419019
-0.013010882 0.021290533 0.01964274
-0.012073645 0.021732561 0.018459231
-0.010869117 0.021738235 0.017373592
-0.0096858246 0.021793103 0.015550494
-0.048451606 0.02360463 0.015966296
-0.045377202 0.022688601 0.018735737
-0.044473808 0.022837901 0.020043105
-0.043434449 0.022923738 0.020541757
-0.042133156 0.022872284 0.021759868
-0.040488269 0.022625796 0.022727907
-0.039201427 0.022570521 0.023642182
-0.037492711 0.022261297 0.024538368
-0.037028439 0.02269485 0.025218397
-0.035942785 0.022763764 0.025445163
-0.034187313 0.022398584 0.026173353
-0.033276267 0.022580324 0.027525991
-0.032510061 0.022877449 0.028353125
-0.030808613 0.022513987 0.028614044
-0.029491585 0.022413604 0.029501349
-0.028052123 0.022207933 0.029462188
-0.027074622 0.022365993 0.029841214
-0.025967982 0.022426894 0.029800624
-0.024746228 0.022389444 0.03001675
-0.023630453 0.022448933 0.030081898
-0.022537196 0.022537196 0.029834598
-0.021110345 0.022283142 0.029603481
-0.019838342 0.022172265 0.029191405
-0.018825201 0.022354927 0.028595954
-0.017562684 0.022246066 0.027488917
-0.016650677 0.022597346 0.026357085
-0.015457103 0.022591151 0.024388909
-0.014128208 0.022369664 0.021837741
-0.013077023 0.022587588 0.021158338
-0.012008322 0.022815812 0.019687384
-0.010744011 0.022681803 0.018069118
-0.0098225726 0.02332861 0.017403275
-0.0084702512 0.022990683 0.015697449
-0.047445845 0.024331201 0.015995771
-0.046574332 0.024512805 0.018405765
-0.045706984 0.024706475 0.020369112
-0.043507818 0.02417101 0.021143407
-0.04173949 0.023851138 0.021846145
-0.040916644 0.024068613 0.022940964
-0.03938897 0.023872104 0.024033725
-0.038370118 0.023981323 0.024025798
-0.037242305 0.024027292 0.024945199
-0.035872851 0.023915233 0.026172251
-0.03491243 0.024077535 0.026966631
-0.033461057 0.023900753 0.02779904
-0.031925365 0.023648418 0.02874729
-0.03067058 0.023592753 0.029192865
-0.029412039 0.02352963 0.030033499
-0.028162524 0.02346877 0.030169874
-0.027345423 0.023778627 0.030426532
-0.025962159 0.023601962 0.030384094
-0.024876051 0.023691475 0.030526787
-0.023846554 0.023846554 0.030483991
-0.022379583 0.023557454 0.030404717
-0.020964326 0.023293696 0.029762626
-0.020117279 0.023667386 0.029546976
-0.018608721 0.023260901 0.028822064
-0.017895568 0.023860758 0.027784467
-0.016664844 0.023806918 0.025955379
-0.015350778 0.02361658 0.024682254
-0.014424523 0.02404087 0.023124635
-0.013131686 0.023875792 0.022225261
-0.011890581 0.023781162 0.02024883
-0.010849556 0.024110125 0.01882413
-0.0096679423 0.024169857 0.018038779
-0.0083886646 0.023967613 0.016611308
-0.0073703304 0.024567768 0.015057623
-0.048366368 0.02604343 0.016533762
-0.046388764 0.025635894 0.018404007
-0.044920474 0.025495404 0.020429283
-0.044063412 0.025703659 0.021251112
-0.04244969 0.025469815 0.022290498
-0.040855754 0.025234437 0.022790641
-0.039700389 0.025263885 0.023706853
-0.038769253 0.025442323 0.024199158
-0.036774602 0.024911825 0.024947822
-0.035813648 0.025069553 0.026546597
-0.034686074 0.025117502 0.02719751
-0.032938052 0.024703538 0.027962446
-0.0319902 0.024881268 0.028997123
-0.031039523 0.025070384 0.029485524
-0.029368792 0.024669785 0.030068547
-0.028495919 0.02493393 0.030386031
-0.02720212 0.024836719 0.030323714
-0.025843816 0.024669098 0.03058207
-0.024939282 0.024939282 0.030799836
-0.023353338 0.024521006 0.030318052
-0.022095909 0.024421794 0.030313194
-0.021206923 0.024741411 0.030002624
-0.01976411 0.024414491 0.029772013
-0.01881662 0.024696814 0.029273868
-0.017924318 0.025094047 0.028194636
-0.016456541 0.024684813 0.026777416
-0.015435056 0.024933552 0.025627971
-0.014251774 0.024940604 0.024258524
-0.013019532 0.02485547 0.023248881
-0.012099682 0.025409333 0.021989316
-0.010937477 0.025520781 0.020132601
-0.0097081056 0.025483778 0.019078135
-0.0084966943 0.025490083 0.018142372
-0.0072444524 0.025355585 0.016695917
-0.0060984418 0.025613457 0.015422523
-0.047984183 0.027068 0.015981287
-0.04628817 0.026798412 0.018062174
-0.044670004 0.026560541 0.019503832
-0.043863267 0.026805332 0.021148592
-0.042269971 0.026569696 0.02209571
-0.040815257 0.026409872 0.023142546
-0.039839275 0.026559519 0.02400592
-0.037892096 0.026050815 0.024867982
-0.036805455 0.026119998 0.025539815
-0.035816159 0.026265182 0.027464628
-0.034373272 0.026076274 0.028055727
-0.033467643 0.026296005 0.02866289
-0.032249995 0.026277773 0.029442489
-0.030534631 0.025836995 0.030185729
-0.02979175 0.026216738 0.030414104
-0.028404601 0.026037551 0.030865282
-0.027102022 0.025923673 0.030822784
-0.026011555 0.026011555 0.031107068
-0.024434168 0.025597697 0.031107068
-0.023465751 0.025812328 0.030618489
-0.02256324 0.026125856 0.030539721
-0.021183284 0.025890682 0.030389756
-0.019915547 0.02577306 0.030030668
-0.019114872 0.026282949 0.02895087
-0.017853472 0.026185093 0.028232634
-0.016705636 0.026251713 0.027211219
-0.015408467 0.026075866 0.025896519
-0.014176108 0.025989531 0.024971247
-0.013243399 0.026486797 0.023874432
-0.012033545 0.026473802 0.02325511
-0.010816041 0.026439212 0.021296203
-0.0097993305 0.026948158 0.020103872
-0.0084648756 0.026603894 0.019274324
-0.0072621102 0.026627738 0.018489867
-0.0061140624 0.026901875 0.017241418
-0.0049011284 0.026956206 0.015450746
-0.047597088 0.028070077 0.015460968
-0.046173498 0.027947119 0.018175602
-0.045123573 0.028049789 0.019973397
-0.043551587 0.027824627 0.0208776
-0.041867178 0.027512716 0.022537351
-0.041333411 0.027960837 0.023193866
-0.03965554 0.027638711 0.023873329
-0.038933456 0.027983423 0.025314957
-0.036941439 0.027408164 0.026042074
-0.03537409 0.027120136 0.027059615
-0.034456518 0.027327582 0.028257489
-0.033452775 0.027479066 0.028634578
-0.03196343 0.027228108 0.028761566
-0.030986825 0.027411424 0.030169427
-0.029969858 0.027572269 0.030676156
-0.028432718 0.027248021 0.030935466
-0.027341461 0.027341461 0.03105545
-0.026015943 0.027198488 0.031223297
-0.024719268 0.027073484 0.031339794
-0.023636356 0.027181812 0.031223297
-0.022234285 0.026915187 0.030947983
-0.021161713 0.027039969 0.030873179
-0.020276709 0.027433196 0.03010729
-0.0191375 0.027510157 0.029572099
-0.01803986 0.027661119 0.028778195
-0.016616419 0.027298404 0.027759731
-0.015336704 0.027134169 0.027159661
-0.014423111 0.027644299 0.026124865
-0.013227488 0.027657475 0.024884194
-0.011902236 0.027375145 0.023941219
-0.010881898 0.027809296 0.022542357
-0.0096645458 0.027785569 0.021588981
-0.0084747663 0.027845662 0.020472586
-0.0072669364 0.027856592 0.019301504
-0.0060532489 0.027844945 0.018461138
-0.0048646489 0.027971731 0.017526835
-0.0036953166 0.028330762 0.015676618
-0.046765476 0.029536089 0.01686582
-0.044681981 0.028982906 0.019444913
-0.043529987 0.029019993 0.020553648
-0.042790633 0.029342148 0.02136609
-0.040956236 0.028910283 0.022692889
-0.039946046 0.029051669 0.024007827
-0.038949154 0.029211864 0.024885982
-0.037481621 0.029018028 0.025566012
-0.036456015 0.02916481 0.026901037
-0.03469621 0.028714104 0.026943326
-0.033114683 0.028384013 0.027635306
-0.032460514 0.028853789 0.028357029
-0.031222347 0.028820628 0.02854082
-0.029324599 0.028151613 0.028700143
-0.028505854 0.028505854 0.02975741
-0.027045367 0.028221251 0.030371904
-0.026000114 0.028363761 0.030800253
-0.024757782 0.028294608 0.030789047
-0.023713147 0.028455777 0.0308097
-0.02239969 0.028294344 0.030332625
-0.021786857 0.029049145 0.03021127
-0.020474304 0.028904898 0.029592752
-0.019229094 0.028843639 0.029243946
-0.0178803 0.028608479 0.028751612
-0.016508393 0.028300101 0.028173298
-0.015662661 0.028915683 0.027389199
-0.014466267 0.028932534 0.026358217
-0.01317201 0.028738931 0.025523335
-0.012223595 0.029336628 0.024792194
-0.010845255 0.028920682 0.024043918
-0.0095638176 0.028691452 0.023505181
-0.0084224073 0.028876824 0.022631973
-0.0072362954 0.028945182 0.020763218
-0.0060484069 0.029032353 0.020279914
-0.0048532248 0.029119348 0.018753141
-0.0036301378 0.029041102 0.01720956
-0.0024525102 0.029430119 0.015231252
-0.044581052 0.030122332 0.018349856
-0.043538678 0.030235196 0.019984514
-0.04234492 0.030246373 0.021124929
-0.04118301 0.030281626 0.022007614
-0.040130135 0.030401619 0.022467017
-0.038615182 0.030168111 0.023974717
-0.037665915 0.030375738 0.024914443
-0.036463227 0.030386023 0.025789052
-0.03506764 0.030230723 0.026928097
-0.034087066 0.030434882 0.027058512
-0.032411322 0.030010482 0.027453721
-0.030702863 0.029521985 0.027439266
-0.029847052 0.029847052 0.028549194
-0.028529221 0.029717941 0.028650105
-0.027252262 0.029622026 0.028685719
-0.026342399 0.029934546 0.02913326
-0.02484463 0.02957694 0.02913326
-0.023913765 0.02989221 0.029159546
-0.023190908 0.030514354 0.029485643
-0.02167411 0.030102931 0.029325694
-0.020326477 0.029891877 0.028428823
-0.019253409 0.030083451 0.028584808
-0.017795475 0.029659128 0.028579473
-0.01699207 0.030342983 0.027983129
-0.015631018 0.030059652 0.026640713
-0.014426835 0.030055907 0.026589692
-0.013438341 0.030541686 0.02588591
-0.012185836 0.030464593 0.025532365
-0.010774059 0.029927945 0.025292337
-0.0097117946 0.030349357 0.024862915
-0.0083653256 0.029876163 0.024531603
-0.0072570974 0.030237908 0.023064822
-0.0060870382 0.030435193 0.021790653
-0.0047743483 0.029839678 0.020891935
-0.0035647734 0.029706446 0.019375622
-0.0024619945 0.030774932 0.01753059
-0.0012021019 0.030052548 0.015893728
-0.045260035 0.031804346 0.017403334
-0.043479461 0.031401835 0.019443035
-0.042077295 0.031257421 0.020749688
-0.041380599 0.031643987 0.02158919
-0.039355353 0.031007249 0.022377044
-0.038915757 0.031619053 0.022868603
-0.037703224 0.03162206 0.023278058
-0.035907734 0.031120034 0.024104446
-0.034961786 0.031345047 0.025516033
-0.03365849 0.03125431 0.026365668
-0.031970181 0.030786099 0.027213544
-0.031203199 0.031203199 0.027313769
-0.030080695 0.031283919 0.027890056
-0.028865818 0.031271301 0.028454065
-0.028103029 0.031768642 0.028570324
-0.026490606 0.031307083 0.028629273
-0.025301347 0.031325478 0.02872017
-0.024407092 0.031729221 0.028801203
-0.022707993 0.031074094 0.028621346
-0.021549225 0.031126661 0.028884381
-0.020539252 0.031412974 0.028457135
-0.019068446 0.030986223 0.028564662
-0.018235009 0.031607348 0.028435379
-0.016949363 0.031477388 0.027922958
-0.015546318 0.031092636 0.026696891
-0.01477341 0.032009054 0.026655227
-0.013450261 0.031791527 0.026626676
-0.011870638 0.030863661 0.026878834
-0.010919076 0.031544 0.02672568
-0.0095997779 0.031199276 0.0262779
-0.008312894 0.030876465 0.025524378
-0.0072617871 0.031467743 0.024849653
-0.0059430921 0.030904079 0.023303241
-0.0047314866 0.030754663 0.022016495
-0.0036196986 0.031370722 0.020930856
-0.0024070856 0.031292111 0.01971665
-0.0012023979 0.031262342 0.017333865
0 0.031790838 0.016065359
-0.043989331 0.032992002 0.018168658
-0.043020718 0.033187415 0.019195676
-0.041421231 0.03289333 0.020558923
-0.040205274 0.032895226 0.02171427
-0.039212115 0.033085223 0.022704899
-0.03733414 0.03251683 0.022992164
-0.036844622 0.033160161 0.023581147
-0.035211202 0.032782845 0.023844779
-0.033568002 0.032369144 0.024328291
-0.032617211 0.032617211 0.026076555
-0.031371705 0.032578312 0.02699703
-0.029717511 0.032094911 0.027254999
-0.028865447 0.032473631 0.027701169
-0.027370598 0.0321307 0.027770102
-0.026424777 0.03243041 0.027529329
-0.025431152 0.032697197 0.027783453
-0.024274264 0.032770257 0.02750662
-0.022974437 0.032647885 0.027374059
-0.022082819 0.033124231 0.027705044
-0.020535871 0.032615796 0.027288914
-0.019309433 0.032584671 0.027426243
-0.01809522 0.032571394 0.027279526
-0.016677592 0.032163929 0.027512848
-0.015873384 0.032967798 0.027253151
-0.014614087 0.032881696 0.027172238
-0.01298914 0.031882435 0.028196365
-0.012159394 0.032830365 0.028571963
-0.010892098 0.032676294 0.028703958
-0.0095256921 0.032149211 0.028674752
-0.0083885938 0.032356005 0.027536452
-0.0071350359 0.032107662 0.026751608
-0.0058901007 0.031806547 0.026050717
-0.0047382494 0.031983186 0.02385366
-0.0035426316 0.031883687 0.022821039
-0.0023913577 0.032283328 0.021690398
-0.0012223976 0.033004735 0.018922836
0 0.033036046 0.017559975
0.0012508084 0.033771828 0.016462147
-0.04473649 0.03479505 0.015306562
-0.042635903 0.034108724 0.018136621
-0.041877855 0.034487646 0.019179314
-0.040926635 0.034725629 0.019694746
-0.039083213 0.034197811 0.020473659
-0.038205761 0.034508429 0.021832347
-0.036883846 0.034424923 0.02208513
-0.035198174 0.033984445 0.023120552
-0.034296259 0.034296259 0.02382338
-0.032995094 0.034217134 0.023920089
-0.031088602 0.033480033 0.02502811
-0.030324088 0.03396298 0.026118457
-0.028901331 0.033718221 0.027102798
-0.027946966 0.034022391 0.027277172
-0.026926681 0.034270324 0.027497232
-0.025609225 0.034145631 0.027238399
-0.024391623 0.034148272 0.027427971
-0.02310212 0.034045227 0.027141809
-0.021519033 0.03347405 0.027091801
-0.02006436 0.033047181 0.027054667
-0.018756701 0.032824226 0.02723521
-0.017756598 0.033145651 0.027371407
-0.017111335 0.03422267 0.027763426
-0.015855655 0.034150641 0.027715147
-0.014144649 0.03300418 0.028509855
-0.013484539 0.034324281 0.02932471
-0.011990702 0.033573966 0.02991733
-0.010687186 0.033249024 0.030249774
-0.009704561 0.03396596 0.030158043
-0.0083318148 0.033327259 0.029451936
-0.007113745 0.033197477 0.02850762
-0.0059532607 0.03333826 0.027699053
-0.0047194357 0.033036049 0.025821865
-0.0035783385 0.033397827 0.023597211
-0.0024307291 0.034030207 0.022653699
-0.0012134901 0.033977725 0.020814538
0 0.034909453 0.018029481
0.0012548523 0.035135861 0.017064124
0.0024549379 0.03436913 0.015682876
0.0037204868 0.034724545 0.01521188
0.02473183 0.034624562 0.015160739
0.025914095 0.034552127 0.015293121
0.027183229 0.034596838 0.015210509
0.028544761 0.034750145 0.015210509
0.029506084 0.034423765 0.015175045
0.030714143 0.034399837 0.015020907
0.032463197 0.034960367 0.015462101
-0.043480847 0.036026988 0.015182376
-0.042208385 0.036001269 0.016491979
-0.040631406 0.03570639 0.018053532
-0.039957069 0.036211092 0.018649757
