ply
format ascii 1.0
comment PCL generated
element vertex 1267
property float x
property float y
property float z
element camera 0
property float view_px
property float view_py
property float view_pz
property float x_axisx
property float x_axisy
property float x_axisz
property float y_axisx
property float y_axisy
property float y_axisz
property float z_axisx
property float z_axisy
property float z_axisz
property float focal
property float scalex
property float scaley
property float centerx
property float centery
property int viewportx
property int viewporty
property float k1
property float k2
end_header
0.0079020569 -0.044025745 0.019666612
0.0089465277 -0.04361432 0.020313442
0.0098863002 -0.042840634 0.022371501
0.011007187 -0.042928033 0.023347259
0.011982331 -0.042482812 0.024320036
0.013081622 -0.042515274 0.025701702
0.014174605 -0.042523813 0.025970548
0.01518217 -0.042293187 0.026411861
0.016308816 -0.042402923 0.027210653
0.017557403 -0.042796172 0.027517349
0.01826527 -0.041902676 0.027859092
0.01981668 -0.042936139 0.028313637
0.020823076 -0.0427421 0.028179318
0.02139754 -0.041725207 0.027999222
0.022352574 -0.041511923 0.027543843
0.024097772 -0.042718779 0.027641594
0.024658691 -0.041812561 0.027594864
0.026337722 -0.042798799 0.027559966
0.026738962 -0.04171278 0.0273197
0.02871741 -0.043076113 0.026820093
0.030104797 -0.043484706 0.026725799
0.03081614 -0.042922478 0.026415259
0.031535462 -0.042409759 0.026043445
0.033158008 -0.043105409 0.025703311
0.034024253 -0.042804703 0.025751561
0.035287291 -0.043006383 0.02487734
0.036326859 -0.042931739 0.024555326
0.037193801 -0.042663477 0.023735106
0.038074359 -0.042425714 0.022967637
0.039910924 -0.043236833 0.023093998
0.040411122 -0.042595502 0.023021311
0.042285848 -0.043398634 0.022432834
0.043631028 -0.043631028 0.022359073
0.04406257 -0.042961005 0.021763444
0.045353431 -0.043141067 0.020875961
0.04677736 -0.043436121 0.019848108
0.047722962 -0.043283615 0.018951982
0.048899435 -0.04334268 0.017861485
0.050795086 -0.044022407 0.016496152
0.05172915 -0.043857321 0.015877575
0.053000167 -0.043978862 0.015399754
-0.013352682 -0.042283494 0.01734215
-0.012556545 -0.043377154 0.01862523
-0.011218561 -0.042630531 0.019694805
-0.0098602548 -0.04163219 0.02099815
-0.0088714622 -0.042139445 0.02130127
-0.0077221035 -0.041919991 0.022093594
-0.0065627657 -0.041564185 0.023208916
-0.0055574728 -0.042236794 0.024022937
-0.0044055548 -0.041852772 0.02501601
-0.0033140713 -0.04197824 0.02522704
-0.0021983674 -0.041768979 0.025137842
-0.0010875998 -0.041328795 0.024969399
0 -0.041771803 0.024717689
0.0011119414 -0.042253774 0.023791969
0.0021990957 -0.041782819 0.023537695
0.0033601429 -0.042561814 0.021754503
0.0044662543 -0.042429417 0.021394461
0.0054904018 -0.041727055 0.020967096
0.0067452164 -0.042719707 0.020367801
0.0079311309 -0.043054711 0.020367801
0.0088394172 -0.041987233 0.020763755
0.0099296207 -0.041925065 0.022565931
0.010977647 -0.041715059 0.023781478
0.011983184 -0.041396454 0.024541467
0.013146629 -0.041630991 0.025967211
0.014065195 -0.041113649 0.026376158
0.01521721 -0.041303858 0.026729375
0.016422797 -0.041604422 0.027739346
0.017149135 -0.040729199 0.028184921
0.018578924 -0.041529361 0.028546691
0.019706782 -0.041603211 0.028849959
0.020413291 -0.040826581 0.028984845
0.021731228 -0.041289333 0.028592706
0.022920562 -0.0414753 0.027733028
0.023796808 -0.041103579 0.028055787
0.025085501 -0.041445609 0.027917504
0.026205827 -0.041492559 0.02796191
0.027161837 -0.041285992 0.027909487
0.028700603 -0.041947037 0.027585328
0.029657336 -0.041739952 0.027370244
0.030677631 -0.04163393 0.026764691
0.031985402 -0.041911907 0.025913119
0.032611985 -0.041308515 0.025773346
0.034341887 -0.042096503 0.025333017
0.035475731 -0.04212743 0.024403453
0.03643728 -0.041958082 0.023987681
0.03733011 -0.041721888 0.023208052
0.038381804 -0.041671675 0.022698343
0.039700527 -0.041906115 0.022646755
0.041368961 -0.04248704 0.022917211
0.043113373 -0.043113373 0.022565335
0.042981565 -0.041879475 0.021924675
0.044374991 -0.042156246 0.021064788
0.044839233 -0.041558314 0.020220041
0.046775714 -0.042320885 0.018970698
0.04801451 -0.042431429 0.017031699
0.048658729 -0.042023446 0.016360283
0.052481983 -0.044318117 0.01522401
-0.015927538 -0.042094212 0.015335411
-0.014443187 -0.041107535 0.017705053
-0.013598296 -0.041928083 0.019203484
-0.012321115 -0.041443754 0.019985318
-0.01113012 -0.041181445 0.021202266
-0.010024799 -0.041213069 0.021731794
-0.0088613816 -0.040983889 0.022233158
-0.0076754531 -0.040570255 0.023015171
-0.0066571762 -0.041052587 0.024082929
-0.0054853028 -0.040591244 0.025644243
-0.0043742792 -0.040462084 0.026207507
-0.0033104699 -0.04082913 0.026319176
-0.0021909853 -0.04053323 0.026278853
-0.0010922241 -0.040412292 0.026263982
0 -0.040643808 0.025755316
0.001086031 -0.040183149 0.025505513
0.0022236502 -0.041137531 0.024367601
0.0033714881 -0.04158169 0.022922009
0.0043206085 -0.03996563 0.022323102
0.0055639241 -0.041173041 0.021853775
0.0067726453 -0.04176465 0.021752954
0.0078008138 -0.041232873 0.021234483
0.0088516688 -0.04093897 0.02178967
0.0098592676 -0.040532548 0.023018837
0.01105789 -0.040914193 0.024320155
0.012100129 -0.040700436 0.025346279
0.013136572 -0.040504433 0.026683569
0.01418916 -0.040384538 0.027664721
0.015315038 -0.040475458 0.027870387
0.016324677 -0.040267538 0.028595746
0.017323956 -0.040061653 0.02912733
0.018525481 -0.040320165 0.02912733
0.019518105 -0.040120553 0.029113442
0.020842075 -0.040587202 0.02909264
0.021859974 -0.040440954 0.028770626
0.022727236 -0.040043227 0.028174341
0.023957038 -0.040291384 0.028088331
0.025105253 -0.04038671 0.027895659
0.026262803 -0.040488489 0.027995914
0.027521113 -0.040731248 0.02795738
0.028541837 -0.040617231 0.027525276
0.029543158 -0.040485069 0.027133316
0.031086667 -0.041078813 0.026483268
0.031492274 -0.0401798 0.026307225
0.032941028 -0.040627271 0.025731593
0.034573138 -0.041264713 0.0245094
0.035146922 -0.040638629 0.023572683
0.036297917 -0.040697668 0.023172826
0.03764933 -0.040971328 0.022701949
0.03781905 -0.03998014 0.022410065
0.0404673 -0.041591395 0.022565335
0.041948937 -0.041948937 0.022128612
0.042032242 -0.040926132 0.0209921
0.043401551 -0.041175831 0.020899951
0.044039611 -0.040736645 0.01983121
0.045463718 -0.041028235 0.01821664
0.04721256 -0.041592021 0.016670108
0.04764653 -0.040998179 0.015534133
-0.01694829 -0.040675897 0.015272409
-0.015637988 -0.040211968 0.017941743
-0.014586908 -0.040394511 0.019223958
-0.013619579 -0.040858738 0.020367324
-0.012242432 -0.040066142 0.021291405
-0.011218847 -0.040387847 0.021982074
-0.010119413 -0.040477652 0.022481292
-0.00877498 -0.039487407 0.023009092
-0.0077485973 -0.039849926 0.024599522
-0.0066178758 -0.039707251 0.025482148
-0.0054868474 -0.039505299 0.026905566
-0.0044182632 -0.039764367 0.027166784
-0.0032884458 -0.039461348 0.027419746
-0.0021766629 -0.039179932 0.027166784
-0.0010978155 -0.039521355 0.027236909
0 -0.038933367 0.026899457
0.0011052852 -0.039790269 0.026498437
0.0022471088 -0.040447958 0.025383025
0.0033234253 -0.039881103 0.025046587
0.0045180987 -0.040662888 0.023962975
0.0056632543 -0.040775429 0.023138285
0.0066881934 -0.040129159 0.023212314
0.0078506079 -0.040374555 0.022745371
0.0087604085 -0.039421834 0.022669733
0.0098718787 -0.039487515 0.02391541
0.011066461 -0.03983926 0.024459809
0.012040094 -0.039403945 0.025666088
0.013089277 -0.039267831 0.026582986
0.014154493 -0.039197054 0.027531892
0.01525477 -0.039226551 0.028355539
0.016362958 -0.039271094 0.02857846
0.017368648 -0.039079458 0.029378116
0.018354313 -0.038867954 0.029351026
0.01984139 -0.039682779 0.029462963
0.021069231 -0.039920647 0.028770894
0.021663534 -0.038994357 0.028739125
0.023096614 -0.039594192 0.028113544
0.024313301 -0.0397854 0.027725279
0.025179245 -0.03941099 0.02760759
0.026846331 -0.040269494 0.027601749
0.027466705 -0.039552052 0.027452171
0.028712139 -0.039755266 0.026212692
0.030097879 -0.040130503 0.025629401
0.0307544 -0.039541371 0.025445879
0.031611789 -0.039242219 0.025044382
0.033504397 -0.040205274 0.024244457
0.0343857 -0.039931778 0.023095608
0.035373729 -0.039795443 0.023084611
0.036326051 -0.039628416 0.0226852
0.037122846 -0.039306544 0.021435708
0.038901128 -0.040012591 0.021097541
0.040452432 -0.040452432 0.021195263
0.040998448 -0.039890379 0.020222068
0.043041073 -0.04077575 0.019271553
0.043694168 -0.040333077 0.019007891
0.045436975 -0.040893279 0.017763555
0.046469681 -0.040802643 0.016193718
0.047078531 -0.040353023 0.015234232
-0.018073618 -0.03953604 0.015417218
-0.016612396 -0.038762257 0.018159121
-0.015758712 -0.039396781 0.019531786
-0.014703769 -0.039587069 0.020546973
-0.013242248 -0.038623225 0.021616638
-0.012484244 -0.039722595 0.022420794
-0.011131442 -0.038960047 0.023346871
-0.0098254075 -0.038209919 0.023646355
-0.0088799121 -0.038849615 0.024527043
-0.0076554962 -0.038277481 0.026099533
-0.0066422909 -0.038746696 0.027318031
-0.0055080988 -0.038556691 0.027788013
-0.0043908097 -0.038419582 0.028538853
-0.0032933608 -0.038422544 0.028598368
-0.0022064201 -0.038612351 0.028257519
-0.0010969638 -0.038393732 0.027872235
0 -0.038196132 0.027734846
0.0011123926 -0.038933743 0.027264029
0.0022037474 -0.03856558 0.026195914
0.0033325395 -0.038879625 0.025585145
0.0045635556 -0.039931111 0.024530917
0.0056031551 -0.039222088 0.023880929
0.0067753042 -0.039522611 0.02315858
0.0077817626 -0.038908813 0.022792488
0.0089377277 -0.039102558 0.022679031
0.0099675115 -0.038762543 0.023108721
0.011009993 -0.038534977 0.024183065
0.012122227 -0.038570721 0.025754869
0.013209461 -0.038527597 0.026766717
0.014166288 -0.038140006 0.02771914
0.015382211 -0.038455524 0.028422177
0.016569601 -0.038662404 0.02878201
0.017392859 -0.038046878 0.029414743
0.018673021 -0.038444452 0.029601246
0.019995391 -0.038879927 0.02922684
0.020900935 -0.038501721 0.029013902
0.021949792 -0.038412139 0.028972328
0.023099136 -0.038498558 0.027911991
0.024137165 -0.038400035 0.026957184
0.025544634 -0.038872268 0.02633357
0.026441842 -0.03856102 0.026326865
0.027331771 -0.038264476 0.025952011
0.028913861 -0.038922504 0.025006741
0.029597197 -0.038366735 0.024447173
0.031030912 -0.038788639 0.023809433
0.032001734 -0.038622782 0.023556232
0.033248231 -0.0387896 0.022661716
0.034408245 -0.038848016 0.02268365
0.035615928 -0.038954921 0.022055507
0.036284052 -0.038483083 0.021211743
0.038203135 -0.039326757 0.02005735
0.039417949 -0.039417949 0.019228816
0.039792605 -0.038687255 0.017958343
0.041837707 -0.039576206 0.01777029
0.042806879 -0.039427388 0.017835051
0.043187317 -0.038757846 0.016647875
0.045865159 -0.040132016 0.015604466
-0.019320937 -0.038641874 0.016115278
-0.017616099 -0.037434209 0.018288583
-0.017033963 -0.038610313 0.020291477
-0.015722977 -0.038184375 0.021263391
-0.01460034 -0.038185507 0.022428989
-0.013430913 -0.038054254 0.023237556
-0.012403404 -0.038337797 0.023670703
-0.011015385 -0.03745231 0.0239622
-0.0099958852 -0.037762232 0.024334818
-0.0087423418 -0.037154954 0.025521278
-0.0076988069 -0.037394207 0.027370095
-0.0067096869 -0.038021561 0.028221399
-0.0055600055 -0.037808038 0.028899223
-0.0044580922 -0.037893783 0.029259861
-0.0033277848 -0.037714895 0.029383391
-0.0021869645 -0.037178397 0.028959155
-0.0010978669 -0.037327476 0.028596312
0 -0.037488718 0.028425425
0.0011004187 -0.037414238 0.027647406
0.0022203801 -0.037746463 0.026580215
0.0033560358 -0.038035072 0.026191682
0.0044926 -0.038187101 0.024921954
0.0056608533 -0.038493805 0.024295211
0.0067876894 -0.038463574 0.023352087
0.0076792464 -0.037299197 0.022808313
0.00900573 -0.038274352 0.022650152
0.0099647241 -0.037644517 0.022904634
0.011124713 -0.037824027 0.023394763
0.012323236 -0.038090006 0.024542242
0.013146698 -0.03724898 0.025972575
0.014154317 -0.037018985 0.0265311
0.01552661 -0.037707482 0.02719596
0.016391909 -0.037154995 0.028036505
0.017440286 -0.037060607 0.028736621
0.018895779 -0.037791558 0.028633624
0.019756032 -0.037316952 0.027817756
0.021025319 -0.037624255 0.027100265
0.022142589 -0.037642404 0.027092963
0.022937154 -0.037136346 0.026202798
0.024467969 -0.037814133 0.025386244
0.025504045 -0.037701633 0.025004059
0.026633792 -0.037731208 0.024699211
0.028013725 -0.038098663 0.024389774
0.02891372 -0.037810247 0.024010688
0.030009415 -0.037789632 0.023753524
0.03139051 -0.038117051 0.023275524
0.03225458 -0.037815712 0.022450358
0.033575211 -0.038051907 0.021886528
0.035209905 -0.038617313 0.020495683
0.035639007 -0.037866443 0.02006346
0.037097048 -0.038221203 0.018847644
0.038219489 -0.038219489 0.018682122
0.038716644 -0.037610456 0.017410129
0.040709492 -0.038447853 0.016542912
0.041466039 -0.038103923 0.016079932
0.042395342 -0.037932672 0.015806168
-0.021610955 -0.037534814 0.015998811
-0.020402668 -0.037404891 0.017255545
-0.018996723 -0.036875993 0.019867718
-0.017739253 -0.036587209 0.021166354
-0.016727792 -0.036801144 0.021937191
-0.015560444 -0.036678191 0.022826612
-0.014606532 -0.037078116 0.023388416
-0.013365915 -0.036756266 0.024091214
-0.012273008 -0.036819026 0.024450034
-0.011142212 -0.036769301 0.025222272
-0.0099071963 -0.036326386 0.025458723
-0.0088992119 -0.036709245 0.026881486
-0.0078258766 -0.036893416 0.028156936
-0.0066170213 -0.036393616 0.02864942
-0.0055541736 -0.036657546 0.029674798
-0.0044490532 -0.036704689 0.030113369
-0.0033217312 -0.036539044 0.030077904
-0.00218353 -0.036028244 0.029974282
-0.0011077574 -0.036555994 0.029392272
0 -0.035880294 0.029098004
0.0011025921 -0.03638554 0.028579205
0.0022620428 -0.037323706 0.02706784
0.003296756 -0.036264315 0.026602089
0.0044774921 -0.036939308 0.025445789
0.0056632459 -0.037377421 0.024482012
0.0066932174 -0.036812697 0.02389273
0.0078913756 -0.037202202 0.023356378
0.0089449007 -0.036897715 0.023110002
0.010043345 -0.036825601 0.023314476
0.011223617 -0.037037935 0.023288637
0.012128007 -0.03638402 0.024007142
0.01332947 -0.036656041 0.024668932
0.014500726 -0.036809538 0.025425911
0.015392095 -0.036281366 0.025991142
0.016462721 -0.036217984 0.026189864
0.017701365 -0.036509063 0.026200831
0.018520903 -0.035952341 0.026029617
0.01996229 -0.036597535 0.026023358
0.021238431 -0.036887802 0.026012391
0.021871634 -0.036088195 0.0253959
0.023484809 -0.0369047 0.024914742
0.024416976 -0.036625464 0.024420291
0.02537816 -0.036412142 0.024131328
0.027001819 -0.037127502 0.02403298
0.027447887 -0.036231209 0.022317469
0.028935473 -0.036725793 0.021817923
0.030657357 -0.037470099 0.021341294
0.03107959 -0.036629517 0.020483255
0.032456357 -0.036933094 0.019282132
0.034007568 -0.037408322 0.019092709
0.035258502 -0.037533242 0.018348455
0.036439199 -0.037577923 0.017118543
0.037314568 -0.037314568 0.016542941
0.038219146 -0.037095051 0.016426235
0.039834928 -0.037558649 0.015576571
0.041027296 -0.037608355 0.015053451
-0.023567291 -0.035912063 0.015893698
-0.022637291 -0.036219668 0.017022938
-0.021121584 -0.035573196 0.018162757
-0.019936802 -0.035443205 0.02068904
-0.018961322 -0.035691898 0.022279501
-0.017905109 -0.035810217 0.022630125
-0.0166601 -0.035541546 0.023457795
-0.015677538 -0.035834372 0.023852468
-0.014543927 -0.035800438 0.024536699
-0.013335803 -0.035562139 0.024832338
-0.012359695 -0.035955478 0.025501251
-0.011151752 -0.035685606 0.025900185
-0.0099523989 -0.035386309 0.026310354
-0.0088985758 -0.035594303 0.027240813
-0.0077946996 -0.035632912 0.028438509
-0.0065902784 -0.035148151 0.029079348
-0.0055625872 -0.035600558 0.029378772
-0.0043587838 -0.034870271 0.030354053
-0.0033025269 -0.035226952 0.030530512
-0.0021873745 -0.034997992 0.030415863
-0.0010894429 -0.034862172 0.029738784
0 -0.035105404 0.029356211
0.001099958 -0.035198655 0.028399527
0.0022015972 -0.035225555 0.027738929
0.0033386298 -0.03561205 0.026901603
0.004421507 -0.035372056 0.026089519
0.0055844667 -0.035740588 0.024869174
0.0068426146 -0.036493946 0.023825258
0.0079555027 -0.036368012 0.023144543
0.0090079606 -0.036031842 0.023038864
0.010179907 -0.036195226 0.022774428
0.011177272 -0.035767268 0.023062468
0.012318258 -0.035834935 0.023342401
0.013442974 -0.035847928 0.023727059
0.014426256 -0.035510782 0.023727059
0.015619708 -0.035702191 0.024398595
0.016759409 -0.035753403 0.024411261
0.017523218 -0.035046436 0.024437279
0.019045975 -0.035851248 0.024643302
0.0200614 -0.035664711 0.024576902
0.020867802 -0.035145774 0.02458483
0.022382326 -0.035811722 0.024042517
0.023629749 -0.036007237 0.023949683
0.02433243 -0.035392627 0.022952735
0.025815928 -0.035917815 0.022291183
0.026570404 -0.035427205 0.021791041
0.027826488 -0.035617903 0.020146728
0.02958471 -0.036411949 0.018268794
0.030452291 -0.036091603 0.017399192
0.031481408 -0.035978753 0.017113775
0.0324031 -0.035755146 0.016286999
0.033998024 -0.036264561 0.016159773
0.03519043 -0.036325604 0.01552394
0.036144044 -0.036144044 0.015514433
0.03707017 -0.035946831 0.015255213
-0.026334673 -0.035494562 0.016204089
-0.024951482 -0.03515891 0.017385513
-0.023829423 -0.035176769 0.018239468
-0.022940442 -0.035557687 0.019208789
-0.020759961 -0.033871517 0.021754026
-0.01986745 -0.034216169 0.023052335
-0.018928885 -0.034517381 0.023310363
-0.017519837 -0.033944685 0.024281442
-0.016704362 -0.034522351 0.024660945
-0.01566189 -0.034679897 0.024933755
-0.014406959 -0.034355056 0.025377125
-0.013538208 -0.034973707 0.02554521
-0.012054613 -0.033972092 0.026198387
-0.010932714 -0.033891413 0.026648074
-0.010051711 -0.034622565 0.026731461
-0.0088983718 -0.034481194 0.028098136
-0.0076004998 -0.033659358 0.029136628
-0.0066353348 -0.034282565 0.029787511
-0.0054892092 -0.034033101 0.030504555
-0.0043516117 -0.033724993 0.030810475
-0.00331138 -0.034217596 0.030810475
-0.0021879242 -0.033912826 0.030687094
-0.0010902638 -0.033798181 0.030340284
0 -0.034342933 0.029281944
0.0010818744 -0.033538107 0.028730839
0.0022154024 -0.034338739 0.028201222
0.0033704694 -0.034828186 0.027094454
0.0043970831 -0.034077395 0.025771081
0.0055314577 -0.034295037 0.024561584
0.0067465743 -0.034857303 0.023649037
0.0077949478 -0.034520485 0.022576362
0.0090797432 -0.035184007 0.02208665
0.010274341 -0.035389401 0.021947742
0.011195866 -0.034707189 0.021947742
0.012416258 -0.034991276 0.0220038
0.013481331 -0.034826774 0.02271679
0.014603643 -0.034824073 0.022063941
0.015759706 -0.034896493 0.02263689
0.016699806 -0.034512933 0.022638857
0.017839598 -0.034564223 0.022756577
0.019196318 -0.035005052 0.022657633
0.020168075 -0.03473391 0.022599936
0.02117186 -0.034543563 0.022517264
0.022549419 -0.034951601 0.022323102
0.023496673 -0.034685563 0.021806777
0.024962166 -0.035173964 0.02023837
0.025999645 -0.035043001 0.019766182
0.027233895 -0.035177115 0.018763483
0.028415915 -0.035235733 0.0177975
0.029386999 -0.035038348 0.016807109
0.030528646 -0.035051409 0.015817553
0.031684518 -0.035079289 0.015559793
-0.028129982 -0.033755977 0.01537168
-0.027425498 -0.034281872 0.017489851
-0.025976634 -0.033882566 0.018683702
-0.024941506 -0.034011144 0.019610196
-0.023970367 -0.034243383 0.020779133
-0.022083635 -0.033125453 0.022924691
-0.021166632 -0.033420999 0.024558455
-0.020004602 -0.033341005 0.025116235
-0.018759996 -0.033105876 0.0265567
-0.017646611 -0.033087395 0.026632339
-0.016696587 -0.033393174 0.027026892
-0.015340718 -0.032872967 0.027297556
-0.014540833 -0.033555772 0.027307749
-0.013266544 -0.03316636 0.027326852
-0.011980007 -0.032672748 0.027617246
-0.011040552 -0.033121657 0.027764082
-0.010028996 -0.033429988 0.027592659
-0.0088903317 -0.033338744 0.028393328
-0.0076734354 -0.032886151 0.029786468
-0.0065501365 -0.032750685 0.029892653
-0.0054872097 -0.032923259 0.030296862
-0.004412266 -0.033091992 0.030692995
-0.0032685939 -0.032685939 0.030825675
-0.0021797046 -0.032695569 0.030462563
-0.0010978887 -0.032936662 0.03005302
0 -0.032540925 0.029425442
0.0011085903 -0.033257708 0.02922532
0.0022164301 -0.033246454 0.028550804
0.0033452059 -0.03345206 0.027510762
0.0045017661 -0.033763245 0.02601561
0.0056389063 -0.03383344 0.024939716
0.0066219997 -0.03311 0.023374081
0.0078360029 -0.03358287 0.022910237
0.0090989722 -0.034121145 0.022250414
0.010338111 -0.034460369 0.022121578
0.011326853 -0.03398056 0.022114456
0.0123805 -0.033765003 0.022029012
0.01363121 -0.034078024 0.021717817
0.014852903 -0.03427593 0.021717817
0.015782258 -0.03381912 0.021592975
0.016860645 -0.033721291 0.021592975
0.018114192 -0.033964109 0.021592975
0.018952088 -0.033444863 0.020890057
0.020222187 -0.033703644 0.020472914
0.021300497 -0.03363236 0.02041471
0.02242372 -0.033635583 0.019906133
0.023809699 -0.034013856 0.019286841
0.024925476 -0.033989288 0.018212616
0.025962671 -0.033864353 0.017552257
0.027314788 -0.034143485 0.017214149
0.028377282 -0.034052737 0.016619563
0.029845323 -0.034436911 0.015962601
-0.030866008 -0.033152379 0.015903175
-0.02942316 -0.032818142 0.016841352
-0.028434057 -0.032983508 0.018762439
-0.026868114 -0.03246564 0.019703746
-0.026164319 -0.032989796 0.020518363
-0.025042253 -0.033010244 0.021371126
-0.023584485 -0.032569051 0.023188055
-0.022088891 -0.032028891 0.025546283
-0.021227062 -0.0323992 0.026517272
-0.019770958 -0.03185321 0.026669681
-0.018734509 -0.031958867 0.027250737
-0.017694566 -0.0320714 0.027732193
-0.01644166 -0.031787213 0.028195679
-0.015433724 -0.031969856 0.028392673
-0.014724452 -0.032846857 0.028327644
-0.013218641 -0.03194505 0.028173655
-0.012289147 -0.03239866 0.028237909
-0.011183624 -0.032432511 0.028053939
-0.0098234434 -0.031653319 0.028237909
-0.008904608 -0.032279205 0.028755963
-0.0076561142 -0.031718187 0.029194057
-0.0066009578 -0.03190463 0.029853344
-0.0055304798 -0.032076783 0.02987507
-0.0043525053 -0.031555664 0.030392528
-0.0032737546 -0.031646296 0.029928565
-0.0022049169 -0.031971294 0.029853344
-0.0010991239 -0.031874593 0.029955238
0 -0.032082804 0.029633462
0.0011019214 -0.031955723 0.029002428
0.0021892267 -0.031743787 0.02880162
0.0033491035 -0.032374669 0.026861727
0.0045142677 -0.032728441 0.025464892
0.0055842977 -0.032388929 0.023860663
0.0067136982 -0.032449543 0.023119897
0.0077838083 -0.032247208 0.021983176
0.0089216335 -0.032340921 0.021440208
0.010375574 -0.033432405 0.02057603
0.011399454 -0.03305842 0.020135522
0.012427572 -0.0327636 0.020135522
0.013837228 -0.033439968 0.020135522
0.014966252 -0.033386257 0.020135522
0.015962135 -0.033064425 0.020093441
0.017170943 -0.033197157 0.020135522
0.01772568 -0.032127794 0.020499915
0.019177642 -0.032714799 0.019772977
0.020419454 -0.032898013 0.019846022
0.021209748 -0.032372776 0.01906234
0.022906458 -0.033214364 0.018746823
0.023726054 -0.03276455 0.018543929
0.024911331 -0.032837663 0.017072231
-0.03231521 -0.03231521 0.016542226
-0.030489657 -0.031618901 0.018497676
-0.029289475 -0.03154251 0.019114405
-0.028287305 -0.03168178 0.020474702
-0.026874317 -0.031353369 0.021152437
-0.026247159 -0.031953063 0.022281677
-0.02475539 -0.031506862 0.023683012
-0.023265922 -0.03102123 0.02586937
-0.022357671 -0.031300742 0.026438594
-0.020987235 -0.030928556 0.026883096
-0.019812735 -0.030819811 0.02762711
-0.018915521 -0.031154977 0.027833015
-0.017468197 -0.030569347 0.02861917
-0.016597748 -0.030982461 0.028623611
-0.015628794 -0.031257588 0.028715521
-0.014398281 -0.031011682 0.028660715
-0.01325965 -0.030939184 0.028326243
-0.012349512 -0.031435125 0.028385788
-0.011037234 -0.030904256 0.028395444
-0.009995942 -0.031098489 0.028754264
-0.0088385595 -0.030934958 0.029045433
-0.0076434216 -0.030573687 0.029290855
-0.0065313331 -0.030479556 0.030133843
-0.0054952712 -0.030773519 0.030255795
-0.0043883109 -0.030718178 0.03047365
-0.0033338217 -0.03111567 0.030398071
-0.0021927778 -0.030698888 0.030335218
-0.0010918978 -0.030573139 0.03051126
0 -0.031089291 0.029661536
0.0010939052 -0.030629344 0.029450506
0.0022443582 -0.031421013 0.027759105
0.0033818127 -0.031563584 0.026425779
0.0044133705 -0.030893594 0.025058955
0.0056190435 -0.031466644 0.024496734
0.0068375007 -0.031908337 0.022989601
0.0077519808 -0.031007923 0.021697521
0.0089971637 -0.031490073 0.020513386
0.010032065 -0.03121087 0.019291431
0.011321208 -0.031699382 0.018616974
0.012827735 -0.032652419 0.018279612
0.013739724 -0.032059357 0.018279612
0.014963369 -0.032228794 0.017752469
0.015927514 -0.031855028 0.017300934
0.0170126 -0.031756852 0.017417014
0.018246163 -0.031930782 0.017546624
0.019422788 -0.031990472 0.017546624
0.020281967 -0.031549726 0.017207891
0.021900374 -0.032274235 0.016321927
0.02344998 -0.032829974 0.015139669
-0.033481438 -0.031172374 0.016509265
-0.031435378 -0.030312687 0.018902302
-0.030696431 -0.030696431 0.020261437
-0.029427053 -0.030558864 0.021164954
-0.02797335 -0.03021122 0.021864057
-0.027437115 -0.030866755 0.022913903
-0.025884233 -0.030385839 0.024392664
-0.02493201 -0.030598378 0.024911404
-0.023398751 -0.030084109 0.026391596
-0.022061326 -0.029782791 0.027603388
-0.021010444 -0.029856946 0.028161764
-0.020130087 -0.030195132 0.028515518
-0.018749289 -0.029778283 0.029187322
-0.017682239 -0.02983878 0.029325515
-0.016461059 -0.029629907 0.029244244
-0.015296092 -0.029499607 0.029163688
-0.014565949 -0.030252358 0.029141486
-0.013426105 -0.030208737 0.028613031
-0.011964967 -0.029368557 0.028453737
-0.011234348 -0.030332742 0.028394163
-0.010000388 -0.030001167 0.028783977
-0.0087510236 -0.029534707 0.02907747
-0.0078776386 -0.030385179 0.029196292
-0.0066215061 -0.029796779 0.029334962
-0.0054785693 -0.029584276 0.029407322
-0.0044306722 -0.029907038 0.029814631
-0.0033301942 -0.029971749 0.029960841
-0.0022217457 -0.029993569 0.02994594
-0.0011086323 -0.029933073 0.030014157
0 -0.029803401 0.029382974
0.0011051646 -0.029839447 0.027816176
0.0022542325 -0.030432139 0.026734769
0.003346985 -0.030122865 0.025091022
0.0044922363 -0.030322595 0.024964601
0.005640992 -0.030461358 0.023727477
0.0067441403 -0.030348632 0.022178113
0.0081007555 -0.031245772 0.020013303
0.008989458 -0.030339422 0.018381238
0.010069908 -0.030209726 0.018047392
0.011360242 -0.030672655 0.017265379
0.012553649 -0.030813504 0.017231524
0.013781478 -0.031008326 0.016233474
0.015007822 -0.031170093 0.016073495
0.016053662 -0.030960634 0.015615702
0.016885102 -0.030393183 0.015615702
-0.03449152 -0.02989265 0.016512454
-0.032802302 -0.02940896 0.01825881
-0.0319946 -0.02970927 0.020726085
-0.03052772 -0.029397063 0.022103578
-0.02930559 -0.02930559 0.022629082
-0.0282239 -0.029352855 0.023248464
-0.02698244 -0.029230976 0.024554074
-0.025878709 -0.029254191 0.025359094
-0.025012298 -0.029559989 0.02576369
-0.023318378 -0.028870374 0.026374161
-0.022263071 -0.028941991 0.027605206
-0.021252945 -0.029082976 0.028219432
-0.019889405 -0.028729141 0.028721392
-0.018782347 -0.028725941 0.029121071
-0.017549934 -0.028518643 0.029578626
-0.016479274 -0.028564077 0.029311389
-0.015324151 -0.028459137 0.029523432
-0.014605506 -0.029211013 0.02918151
-0.01313857 -0.028466901 0.028996944
-0.012207134 -0.028853226 0.029322237
-0.011132792 -0.02894526 0.029195935
-0.009945645 -0.028731866 0.029195935
-0.0089719594 -0.029158868 0.029310524
-0.0078303888 -0.029084301 0.0299218
-0.0067288252 -0.029158242 0.029592007
-0.0056477017 -0.02936805 0.029944927
-0.004443815 -0.028884798 0.030345708
-0.0033057358 -0.02864971 0.030367732
-0.0022288053 -0.02897447 0.028958887
-0.001108024 -0.028808625 0.028665662
0 -0.028890984 0.027702838
0.0011087543 -0.028827611 0.026028991
0.002223816 -0.028909607 0.025699615
0.0034192735 -0.029633705 0.025244832
0.0045535779 -0.029598257 0.024540514
0.0055895974 -0.029065905 0.022274077
0.0068533043 -0.029697653 0.020685881
0.0080390628 -0.029859377 0.018599212
0.0092245471 -0.029979777 0.017051488
0.010296584 -0.029745689 0.016033798
0.011443015 -0.029751841 0.015011936
0.012814647 -0.030289166 0.015090913
-0.036763236 -0.028721277 0.015142977
-0.03618373 -0.029180428 0.017612934
-0.034309443 -0.028591203 0.020018876
-0.033324994 -0.028728444 0.021166652
-0.031751473 -0.028349532 0.022634029
-0.029942354 -0.027724402 0.023215026
-0.029269168 -0.028143432 0.024192512
-0.028314915 -0.028314915 0.024983764
-0.026775304 -0.027890943 0.025755942
-0.026183246 -0.02846005 0.026764184
-0.02433046 -0.02764825 0.02693826
-0.023232734 -0.027658017 0.027213722
-0.022458663 -0.028073331 0.02816993
-0.021031089 -0.027672486 0.028751671
-0.01982799 -0.027538877 0.028835356
-0.018847341 -0.027716679 0.029670179
-0.017532287 -0.027394198 0.029958189
-0.016730011 -0.027883351 0.029994875
-0.015593944 -0.027846331 0.029886186
-0.014372188 -0.027638823 0.029629797
-0.013345771 -0.027803691 0.028823704
-0.012140814 -0.027592761 0.028835654
-0.011025049 -0.027562624 0.028770626
-0.010087403 -0.028020564 0.02869907
-0.008980684 -0.028064637 0.028325289
-0.0077737044 -0.027763231 0.028827965
-0.0067696888 -0.028207038 0.028827965
-0.0056108702 -0.028054353 0.028913766
-0.0044308892 -0.027693059 0.028838545
-0.0033811126 -0.028175939 0.028255254
-0.0022167445 -0.027709307 0.027842104
-0.0011063744 -0.02765936 0.026866823
0 -0.028111307 0.026350975
0.0011104518 -0.027761294 0.025574684
0.0022609262 -0.028261576 0.024768621
0.0034614415 -0.028845346 0.024397254
0.0045328801 -0.028330503 0.022839755
0.0057584364 -0.028792184 0.020561039
0.0068485509 -0.028535629 0.018748105
0.0079645226 -0.028444724 0.016301572
-0.038524766 -0.028018011 0.015609801
-0.036817346 -0.02761301 0.017568886
-0.034560073 -0.026756184 0.020832539
-0.034383841 -0.027507072 0.022702307
-0.033020202 -0.027327063 0.023477405
-0.031086454 -0.026645532 0.024458438
-0.030481435 -0.027094608 0.024684191
-0.029472595 -0.027205473 0.025806546
-0.027657066 -0.026550781 0.026351303
-0.027136629 -0.027136629 0.026782155
-0.025925871 -0.027053082 0.027263463
-0.024276666 -0.026483636 0.027430385
-0.023426458 -0.026773093 0.027483433
-0.022462079 -0.026954496 0.028109998
-0.020943033 -0.026454357 0.028927058
-0.020064134 -0.026752179 0.028684974
-0.018662062 -0.026346439 0.029000014
-0.017888185 -0.026832277 0.029033691
-0.016749894 -0.02679983 0.029012114
-0.015443885 -0.02647523 0.028879076
-0.014614794 -0.026981158 0.028819472
-0.013477026 -0.026954053 0.028263152
-0.012126601 -0.02645804 0.028265804
-0.011170938 -0.026810251 0.028123587
-0.010109751 -0.026959337 0.027545452
-0.0089489492 -0.026846847 0.027276486
-0.0078681838 -0.026976628 0.027286142
-0.0066907522 -0.026763009 0.027276486
-0.0056211599 -0.026981568 0.027317017
-0.0045157997 -0.027094798 0.026881665
-0.0033602649 -0.026882119 0.026626617
-0.0022543322 -0.027051987 0.026263982
-0.0011294287 -0.027106289 0.025534093
0 -0.026657911 0.025230914
0.0011227335 -0.026945602 0.024670601
0.0022645576 -0.027174693 0.023817807
0.0033650124 -0.026920099 0.022493541
0.0046112332 -0.027667398 0.020165175
0.0057848771 -0.027767411 0.018141598
0.0068912231 -0.027564893 0.015496969
-0.039895333 -0.026216934 0.015034914
-0.039440185 -0.026680125 0.016464978
-0.039335206 -0.027415447 0.01742965
-0.036100347 -0.025947124 0.020161301
-0.034984674 -0.025956372 0.022027999
-0.034050111 -0.026105085 0.024138957
-0.032377046 -0.025678346 0.024227113
-0.031592589 -0.025951054 0.024960279
-0.030305486 -0.025815783 0.025380254
-0.028905137 -0.025569929 0.02624917
-0.028308157 -0.026043504 0.026687115
-0.027228089 -0.026093585 0.026858956
-0.025943635 -0.025943635 0.027322292
-0.024376489 -0.025484513 0.027298391
-0.023237109 -0.025450166 0.027551085
-0.022058005 -0.025366707 0.02758798
-0.021225683 -0.025694249 0.027872533
-0.020007955 -0.025565721 0.02779296
-0.018991515 -0.025694402 0.02851221
-0.017989093 -0.025859322 0.028820664
-0.016703978 -0.025612768 0.02851221
-0.015738284 -0.025855755 0.02848345
-0.01455049 -0.025743175 0.027691245
-0.01332128 -0.025532456 0.026880831
-0.012362657 -0.025849193 0.026896566
-0.011285764 -0.02595726 0.026786029
-0.009928287 -0.025372291 0.026678234
-0.0090359533 -0.025978368 0.02662006
-0.0078535704 -0.025804589 0.02655071
-0.0066961143 -0.025668439 0.026468396
-0.0056633744 -0.026051523 0.026404738
-0.0044789636 -0.02575404 0.026329339
-0.003381758 -0.025926812 0.025546402
-0.0022597758 -0.02598742 0.0253883
-0.0011241762 -0.025856053 0.02475515
0 -0.025837932 0.024364322
0.0011336727 -0.026074473 0.022992581
0.0022377393 -0.025734002 0.020646363
0.0034418399 -0.02638744 0.019004881
0.0046058209 -0.026483471 0.017463505
0.0057838978 -0.02660593 0.015874594
-0.039680108 -0.024941782 0.01677677
-0.039738566 -0.025713189 0.017944545
-0.038193326 -0.025462216 0.019561112
-0.036553998 -0.025130872 0.021922469
-0.035087403 -0.024900736 0.023798853
-0.033668719 -0.024690395 0.024600357
-0.032821815 -0.024899306 0.024711818
-0.031569783 -0.024804829 0.02530089
-0.030104697 -0.024529751 0.025898874
-0.029466789 -0.024933437 0.026412725
-0.028029552 -0.024666006 0.026729375
-0.027040819 -0.024787417 0.027020842
-0.025834018 -0.024710799 0.027126461
-0.024724953 -0.024724953 0.027336478
-0.023067988 -0.024166463 0.027222663
-0.022417424 -0.024659168 0.027305752
-0.021088837 -0.024418652 0.027337611
-0.019961488 -0.024397375 0.027166098
-0.019115161 -0.024737267 0.027296364
-0.017763847 -0.024425289 0.027430594
-0.01691987 -0.024815807 0.027141869
-0.015799267 -0.024827419 0.027123243
-0.014602366 -0.024711696 0.026904672
-0.013689015 -0.025096526 0.026554316
-0.012377779 -0.024755558 0.026495904
-0.011154661 -0.024540253 0.026599377
-0.010216185 -0.024972897 0.026270062
-0.0090006962 -0.024751915 0.025777102
-0.0078231385 -0.024587007 0.025750935
-0.006780332 -0.024861217 0.025149077
-0.0055740671 -0.024525896 0.02503106
-0.0045302445 -0.024916343 0.024736732
-0.0034297202 -0.025151281 0.02438581
-0.0022652068 -0.024917275 0.024270475
-0.0011255515 -0.024762131 0.023337334
0 -0.025076978 0.021484852
0.0011228117 -0.024701858 0.019764543
0.0022673986 -0.024941383 0.018826485
0.0033707255 -0.024718653 0.01623705
0.0045088143 -0.024798477 0.016213238
-0.043168347 -0.024500953 0.015213877
-0.040650912 -0.023713034 0.016277641
-0.04008878 -0.024053268 0.018104911
-0.038807292 -0.023969211 0.019055724
-0.038256481 -0.024345035 0.020919323
-0.036378223 -0.02387321 0.02282542
-0.034798484 -0.023573166 0.024754226
-0.034206949 -0.023944866 0.025093496
-0.032834999 -0.023777068 0.0251773
-0.031556986 -0.023667742 0.025630295
-0.030576216 -0.023781501 0.02627641
-0.029758256 -0.024035515 0.026648998
-0.028074317 -0.023582425 0.026648998
-0.027366819 -0.023945969 0.027062893
-0.025826285 -0.023580521 0.026987374
-0.024784435 -0.02365787 0.02700156
-0.023707002 -0.023707002 0.027126461
-0.022405826 -0.023526117 0.027317941
-0.021415235 -0.023669472 0.027176023
-0.020202857 -0.023570001 0.027013093
-0.01916736 -0.023677329 0.02706635
-0.017940477 -0.023546876 0.027069837
-0.017008845 -0.023812383 0.026822329
-0.015642064 -0.023463096 0.026590198
-0.014712712 -0.023766689 0.026341289
-0.013645564 -0.023879739 0.02537939
-0.012437687 -0.023744678 0.025100917
-0.011294336 -0.023718106 0.025237352
-0.010105236 -0.023578886 0.025072008
-0.0089941099 -0.023609539 0.024870276
-0.0079107005 -0.023732103 0.024961382
-0.0067059863 -0.023470953 0.02499339
-0.0056320475 -0.023654601 0.024862617
-0.0045349915 -0.023808705 0.023995459
-0.0034168446 -0.023917913 0.023698539
-0.002286335 -0.024006518 0.022452712
-0.0011589491 -0.024337931 0.020221293
0 -0.023744676 0.018980145
0.0011367237 -0.023871196 0.017917097
0.0022923022 -0.024069173 0.016411841
-0.042956173 -0.023219552 0.016233981
-0.041271832 -0.022928795 0.017420322
-0.039688297 -0.022679025 0.019020379
-0.039144386 -0.023026109 0.020213246
-0.03880813 -0.023520079 0.022227943
-0.03562329 -0.022264555 0.023709148
-0.035303582 -0.022776503 0.025240034
-0.034050971 -0.022700647 0.025430083
-0.032257885 -0.022246815 0.025494516
-0.031817857 -0.022727039 0.026017517
-0.030785175 -0.022803832 0.026538461
-0.029251684 -0.022501295 0.026931942
-0.028226804 -0.022581443 0.026563674
-0.026855288 -0.022379406 0.027168483
-0.025851946 -0.022479953 0.027008563
-0.024870535 -0.022609578 0.026437223
-0.023552937 -0.022431368 0.026516289
-0.02249505 -0.02249505 0.026558906
-0.021311633 -0.022433298 0.026670933
-0.020160533 -0.022400593 0.026497722
-0.019187389 -0.022573398 0.02608034
-0.018273797 -0.022842245 0.026125878
-0.016744463 -0.02232595 0.025875211
-0.015832368 -0.022617668 0.025681108
-0.014704304 -0.022622004 0.025173128
-0.013495369 -0.02249228 0.024700016
-0.012529007 -0.022780012 0.024481475
-0.011339003 -0.022678006 0.024532497
-0.010050634 -0.022334743 0.024302572
-0.0090941396 -0.022735348 0.024117738
-0.0079262033 -0.022646295 0.023703456
-0.0067981826 -0.022660607 0.023911357
-0.0057865269 -0.023146108 0.022764534
-0.0045043919 -0.022521958 0.021678329
-0.0033876849 -0.022584565 0.020189613
-0.0022877234 -0.022877231 0.019645542
-0.0011528855 -0.023057709 0.01898697
0 -0.022976175 0.016733408
0.0011602542 -0.023205085 0.016250849
-0.04615945 -0.02192574 0.015276879
-0.0447753 -0.021813607 0.015566915
-0.043653727 -0.021826863 0.016578913
-0.042947888 -0.02205432 0.017244309
-0.041075896 -0.021678947 0.018918872
-0.039724939 -0.021564968 0.019788414
-0.039555606 -0.022104604 0.020735621
-0.038692631 -0.022277577 0.02287671
-0.036334783 -0.021573778 0.023971289
-0.034957707 -0.021425691 0.025305033
-0.033386376 -0.021144707 0.025520444
-0.032476716 -0.021277847 0.025506884
-0.031813201 -0.021587528 0.026062518
-0.030457467 -0.021433031 0.026282251
-0.029659769 -0.021674447 0.026452899
-0.028374596 -0.021564692 0.0260306
-0.026921283 -0.021312684 0.026282251
-0.026207516 -0.021649688 0.026059657
-0.024769191 -0.021391574 0.025298834
-0.023615826 -0.021366699 0.025068671
-0.022944279 -0.021797065 0.025371134
-0.021332715 -0.021332715 0.02532956
-0.020248407 -0.021373319 0.025143683
-0.019380065 -0.021660071 0.02485159
-0.017997526 -0.021372063 0.024707437
-0.017101636 -0.021662073 0.024354368
-0.01586497 -0.021531031 0.023859769
-0.014645946 -0.021405613 0.023745656
-0.0136833 -0.021665225 0.023745656
-0.012683227 -0.021907391 0.023588926
-0.011177811 -0.021237841 0.023024172
-0.010336828 -0.021822196 0.022764534
-0.0090596825 -0.021516746 0.021916628
-0.0079126731 -0.021477256 0.020372242
-0.0068768393 -0.021776658 0.020202845
-0.0057226741 -0.021746162 0.019860029
-0.0046077454 -0.021886792 0.019093543
-0.0034675784 -0.02196133 0.018980443
-0.0022926303 -0.021779988 0.017013997
-0.0011463867 -0.021781348 0.016591579
-0.045752559 -0.020588651 0.015634507
-0.044740219 -0.020649333 0.016171515
-0.044075809 -0.020878013 0.017199159
-0.042335633 -0.020595713 0.017847568
-0.041036919 -0.020518459 0.019418538
-0.040141519 -0.02064421 0.02030459
-0.039436318 -0.02087805 0.020945996
-0.038576864 -0.021041924 0.022665411
-0.036290374 -0.020413335 0.023737758
-0.034596473 -0.020088274 0.025315255
-0.033778362 -0.020267015 0.02554965
-0.032610822 -0.020241199 0.025499493
-0.031063117 -0.019969147 0.025678664
-0.030506914 -0.020337941 0.026017517
-0.029511457 -0.020431008 0.025749087
-0.02819851 -0.020302925 0.025394827
-0.027273156 -0.020454867 0.02559638
-0.025922393 -0.020287089 0.024648666
-0.024893807 -0.02036766 0.024181455
-0.023902135 -0.020487541 0.0232867
-0.022769272 -0.020492345 0.022960275
-0.021768693 -0.020622972 0.022737205
-0.020622062 -0.020622062 0.022558689
-0.019335739 -0.020473134 0.022135764
-0.018118409 -0.020383209 0.02179262
-0.017321831 -0.020786196 0.021651536
-0.01572958 -0.020223746 0.021452069
-0.014665838 -0.020306544 0.021529227
-0.013706797 -0.020560196 0.021406919
-0.012417438 -0.020319445 0.020626605
-0.011440947 -0.020593705 0.020077676
-0.010405984 -0.020811968 0.019978255
-0.0090519581 -0.020366905 0.019727737
-0.0080892351 -0.020800889 0.01929155
-0.0068337796 -0.020501338 0.018665105
-0.0057291202 -0.020624833 0.017141879
-0.0046163173 -0.020773426 0.015556425
-0.0034341719 -0.020605031 0.015197873
-0.045485932 -0.019331522 0.015697718
-0.045229826 -0.019715566 0.016359806
-0.043356929 -0.019396521 0.017639399
-0.042149432 -0.019365955 0.01848197
-0.041270714 -0.019488949 0.019642025
-0.040424135 -0.01963458 0.020644367
-0.039591257 -0.019795628 0.021202445
-0.03828451 -0.019722326 0.021732599
-0.035750195 -0.018992292 0.02332148
-0.034877017 -0.019126104 0.023861647
-0.034022599 -0.019279473 0.025157362
-0.03245049 -0.019022701 0.025236934
-0.031803295 -0.019309144 0.025491953
-0.030579153 -0.019253541 0.025673717
-0.029454602 -0.019258779 0.025245726
-0.028779196 -0.019569853 0.02522698
-0.027296558 -0.019335061 0.024698436
-0.026486162 -0.019576728 0.023492932
-0.025546897 -0.019740785 0.023109317
-0.024084875 -0.019497279 0.022742778
-0.02322687 -0.019742841 0.022630692
-0.022120235 -0.019791789 0.021847159
-0.02058816 -0.019444373 0.020749927
-0.019363713 -0.019363713 0.020900071
-0.01851094 -0.019667873 0.020846665
-0.016967585 -0.01922993 0.020469606
-0.016003203 -0.019432461 0.020314515
-0.015023635 -0.019646291 0.020123631
-0.013627184 -0.019305177 0.01960054
-0.012574874 -0.019433897 0.018767327
-0.011435497 -0.019440345 0.018127054
-0.010323253 -0.019499479 0.016804039
-0.0094067017 -0.019989243 0.015336603
-0.0080368202 -0.019517992 0.015259266
-0.0068666879 -0.019455615 0.01517421
-0.046737023 -0.018694811 0.015675485
-0.044780366 -0.018371431 0.016495705
-0.043743957 -0.018418508 0.017156124
-0.042232301 -0.018262615 0.018347681
-0.040650148 -0.018066734 0.019337624
-0.040213704 -0.018383408 0.020401955
-0.039745983 -0.018703992 0.020863742
-0.038051981 -0.018449446 0.021601498
-0.035977352 -0.017988676 0.022154629
-0.034675326 -0.017896941 0.023266822
-0.0332806 -0.017749652 0.023299575
-0.032859132 -0.018129176 0.02387768
-0.031980135 -0.018274363 0.024942517
-0.030541256 -0.018098522 0.025143623
-0.029844908 -0.018366097 0.024959832
-0.028589083 -0.018297013 0.024312675
-0.027658425 -0.01843895 0.023867935
-0.026584011 -0.018493224 0.022862196
-0.025392931 -0.018467586 0.022234648
-0.024238115 -0.018467136 0.021954775
-0.023124594 -0.018499676 0.021804243
-0.021818399 -0.018373389 0.021485835
-0.020787477 -0.018477758 0.020717412
-0.019651316 -0.018495357 0.020633548
-0.01809692 -0.01809692 0.020539016
-0.017330065 -0.018485405 0.020288467
-0.01624183 -0.018562092 0.018347442
-0.014870811 -0.018302538 0.017470032
-0.013894593 -0.018526126 0.016303539
-0.0126646 -0.018421238 0.016115814
-0.011434846 -0.018295754 0.015186191
-0.047962669 -0.017547317 0.015226245
-0.046062429 -0.017273411 0.01662147
-0.045449276 -0.017480491 0.017075241
-0.044870723 -0.017712127 0.017562568
-0.04172226 -0.016914429 0.019168764
-0.041136879 -0.017140368 0.020026982
-0.040236685 -0.017244294 0.020944089
-0.039279141 -0.017329033 0.021286994
-0.037839208 -0.017199639 0.0214926
-0.036911819 -0.017302414 0.022062272
-0.034750227 -0.016814625 0.022635281
-0.034053054 -0.017026527 0.0229761
-0.032661378 -0.016893815 0.024124414
-0.031472623 -0.016860334 0.024359047
-0.031112142 -0.017284522 0.024657309
-0.029805098 -0.017195249 0.02430138
-0.028260399 -0.016956238 0.023539305
-0.027461102 -0.017163189 0.022632867
-0.025961157 -0.016931189 0.022466362
-0.02515311 -0.017149847 0.021947384
-0.024186786 -0.017276276 0.021500319
-0.023111001 -0.017333252 0.021440476
-0.021725677 -0.017151849 0.021382749
-0.021092989 -0.017577492 0.020743221
-0.019767055 -0.017441519 0.018873483
-0.018480534 -0.0173255 0.018607199
-0.017308908 -0.017308908 0.017730206
-0.016023444 -0.017167976 0.017439067
-0.015070967 -0.017389579 0.016875982
-0.013939057 -0.017423822 0.016053677
-0.012720765 -0.017346498 0.015596837
-0.046141751 -0.016149614 0.015701413
-0.045486465 -0.016328475 0.016948044
-0.043687526 -0.016095404 0.017250955
-0.042505071 -0.016083 0.01792109
-0.041522942 -0.016147811 0.019622564
-0.040431526 -0.01617261 0.020329446
-0.039734788 -0.016361384 0.021143615
-0.037926786 -0.016090151 0.021405518
-0.036149267 -0.015815305 0.021754503
-0.035672475 -0.01611015 0.022017181
-0.034269411 -0.015992392 0.022078425
-0.032442231 -0.015661765 0.023103327
-0.031992901 -0.015996451 0.024056166
-0.031195382 -0.016175382 0.024197757
-0.029515289 -0.015892848 0.023947269
-0.028939566 -0.016206156 0.023809791
-0.027342409 -0.015949739 0.022975296
-0.026170593 -0.015929924 0.02286607
-0.025328062 -0.016117858 0.022318631
-0.023855425 -0.015903616 0.022084802
-0.022912242 -0.016038571 0.021095514
-0.022002893 -0.016212657 0.021045804
-0.020745339 -0.016135264 0.019320369
-0.019846467 -0.016344151 0.018935114
-0.019100843 -0.016713237 0.018679291
-0.01751234 -0.016344851 0.018188745
-0.01642477 -0.01642477 0.017661273
-0.015065204 -0.016224066 0.017309994
-0.013971018 -0.01629952 0.015734822
-0.046732605 -0.015188097 0.015178293
-0.044768758 -0.014922919 0.016665041
-0.044073883 -0.015077907 0.017676115
-0.043099146 -0.015142942 0.018006235
-0.041812666 -0.015099019 0.018367201
-0.0406559 -0.015100762 0.020011365
-0.039098077 -0.014949264 0.020348579
-0.037797675 -0.014889993 0.020742357
-0.036850188 -0.014970388 0.021053493
-0.035509706 -0.014891166 0.02152431
-0.034020685 -0.014742296 0.021879315
-0.033345714 -0.014948077 0.022251993
-0.032392211 -0.01503924 0.022900045
-0.030569214 -0.014718509 0.023511201
-0.029780244 -0.014890122 0.023412615
-0.02858617 -0.014864808 0.023347676
-0.027343243 -0.014810923 0.0229415
-0.026385495 -0.014913541 0.02254045
-0.025176236 -0.014876867 0.021906674
-0.023981404 -0.01484563 0.021859109
-0.022910517 -0.014891836 0.020667136
-0.021750286 -0.014881775 0.020218909
-0.020579416 -0.014862912 0.01944688
-0.019784996 -0.015129703 0.019170254
-0.018529553 -0.015055262 0.018848479
-0.017694689 -0.015335398 0.018238276
-0.01667599 -0.015484847 0.017469764
-0.015214548 -0.015214548 0.016157001
-0.014075264 -0.015248203 0.015594602
-0.044713076 -0.01375787 0.015761882
-0.044291724 -0.013986859 0.016885251
-0.043129425 -0.013987921 0.017424971
-0.041490294 -0.013830098 0.018270373
-0.040673919 -0.013945344 0.019009531
-0.039125886 -0.013809135 0.019168556
-0.038195487 -0.013889269 0.020989299
-0.037311863 -0.013991949 0.02094847
-0.035584044 -0.013774468 0.021303773
-0.03453568 -0.013814272 0.021702409
-0.033468172 -0.013848898 0.022048712
-0.031535018 -0.013515009 0.022520095
-0.031294011 -0.013908449 0.022493511
-0.030128866 -0.01390563 0.022251993
-0.028069822 -0.013473514 0.022262156
-0.02757461 -0.013787305 0.021618605
-0.026261594 -0.013701701 0.021288037
-0.025198277 -0.013744515 0.020823389
-0.02448047 -0.013988839 0.020727187
-0.022903778 -0.013742267 0.019848704
-0.021649031 -0.013673072 0.019687623
-0.020736644 -0.013824429 0.019293487
-0.019471841 -0.013744829 0.018576413
-0.018381914 -0.013786435 0.018429577
-0.017642166 -0.014113734 0.017159164
-0.016319133 -0.013987829 0.016378343
-0.015404209 -0.014219269 0.015681714
-0.046535667 -0.013125444 0.016192198
-0.044783708 -0.012963705 0.016659826
-0.042741749 -0.012707005 0.016659439
-0.041814514 -0.012776657 0.017315537
-0.040989231 -0.01288233 0.017990261
-0.039298002 -0.012714058 0.018757731
-0.038601141 -0.012867047 0.019481152
-0.037127875 -0.012762707 0.021101415
-0.036302458 -0.012881517 0.021433562
-0.034802552 -0.012760935 0.021772683
-0.033105623 -0.012557305 0.022181869
-0.032347668 -0.012708013 0.022756428
-0.031155037 -0.012692792 0.022161931
-0.029496869 -0.012479444 0.021950722
-0.028745564 -0.012648048 0.022459656
-0.027293297 -0.012509428 0.021537334
-0.026344651 -0.012599615 0.021232724
-0.025522765 -0.012761382 0.020578146
-0.02418695 -0.012669355 0.020396054
-0.023285288 -0.012806909 0.020120919
-0.022378206 -0.012955803 0.019712329
-0.020749092 -0.012680001 0.018857419
-0.019630594 -0.012702149 0.018374175
-0.01853135 -0.012740304 0.017019957
-0.01736477 -0.012734164 0.016660243
-0.016385972 -0.012874692 0.01560235
-0.015333245 -0.012974284 0.015248954
-0.046602573 -0.011949378 0.015507638
-0.044562936 -0.011727088 0.016859621
-0.042356007 -0.011447568 0.016899496
-0.041334216 -0.011481727 0.017697603
-0.040320281 -0.011520079 0.018272817
-0.039507065 -0.011619725 0.018761933
-0.038705897 -0.01172906 0.019529402
-0.037857503 -0.011830469 0.020091742
-0.036080629 -0.011638912 0.020510048
-0.034472927 -0.011490976 0.02148971
-0.033839479 -0.011668785 0.021981001
