ply
format ascii 1.0
comment PCL generated
element vertex 1305
property float x
property float y
property float z
element camera 0
property float view_px
property float view_py
property float view_pz
property float x_axisx
property float x_axisy
property float x_axisz
property float y_axisx
property float y_axisy
property float y_axisz
property float z_axisx
property float z_axisy
property float z_axisz
property float focal
property float scalex
property float scaley
property float centerx
property float centery
property int viewportx
property int viewporty
property float k1
property float k2
end_header
0.051847275 -0.0035350416 0.025656372
0.051724099 -0.0034482731 0.024076074
0.053563647 -0.0034932813 0.021910042
0.054769307 -0.0034959132 0.019187212
0.055014506 -0.0034384066 0.017237008
0.057039462 -0.0034922119 0.015674949
-0.056611665 -0.0024090072 0.015134037
-0.05387377 -0.0023423377 0.01679635
-0.053044602 -0.0023575379 0.020379782
-0.051093373 -0.0023224261 0.022767812
-0.04915569 -0.002286311 0.024761856
-0.048595659 -0.0023140789 0.025491774
-0.047381163 -0.0023112763 0.026977539
-0.045926459 -0.0022963232 0.027986258
-0.044834219 -0.0022991907 0.029027164
-0.043969531 -0.0023141857 0.030051172
-0.042465199 -0.0022954161 0.030315846
-0.041455824 -0.0023031014 0.030710101
-0.03940535 -0.0022517343 0.030501634
-0.038454995 -0.0022620587 0.031545311
-0.038332399 -0.0023231758 0.031659186
-0.036073565 -0.0022545978 0.03159529
-0.035314944 -0.0022783834 0.031533837
-0.034324512 -0.0022883008 0.031102002
-0.032754354 -0.0022589208 0.030212611
-0.032166984 -0.0022976417 0.029617757
-0.031210724 -0.0023119054 0.029024869
-0.0295345 -0.0022718846 0.027204603
-0.029168332 -0.0023334664 0.026756734
-0.027637755 -0.0023031463 0.026572376
-0.026581068 -0.0023113971 0.026474863
-0.025612434 -0.0023284033 0.026392162
-0.024636921 -0.0023463734 0.026528537
-0.023167109 -0.002316711 0.027899951
-0.021863308 -0.0023014008 0.028378516
-0.02031699 -0.0022574435 0.030023396
-0.019198649 -0.0022586645 0.030837923
-0.018255418 -0.0022819273 0.031578094
-0.016975356 -0.0022633809 0.032187611
-0.015960272 -0.0022800388 0.032687426
-0.01483893 -0.0022829124 0.032406896
-0.01354715 -0.0022578584 0.03202644
-0.012445931 -0.0022628966 0.03217724
-0.011419459 -0.0022838919 0.03217724
-0.010149194 -0.0022553767 0.031832784
-0.0091083087 -0.0022770772 0.032459795
-0.007997456 -0.0022849874 0.032371879
-0.0067806155 -0.0022602053 0.032337934
-0.0057113725 -0.0022845492 0.031923383
-0.0045565441 -0.0022782721 0.031671703
-0.0034096176 -0.0022730783 0.031758755
-0.0022860402 -0.0022860402 0.031878024
-0.001142604 -0.0022852081 0.031902969
0 -0.0022768008 0.032070249
0.001140409 -0.0022808181 0.031858444
0.0022532362 -0.0022532362 0.032031685
0.0034154709 -0.0022769808 0.032084793
0.0045526419 -0.0022763209 0.032033592
0.0056238808 -0.0022495524 0.032225132
0.0069137695 -0.0023045898 0.032093197
0.0079727033 -0.0022779154 0.032362789
0.0090390546 -0.0022597637 0.032224834
0.010302812 -0.0022895138 0.032054812
0.011423727 -0.0022847452 0.032147408
0.012649755 -0.0022999556 0.032120854
0.013777532 -0.0022962552 0.032492965
0.014914988 -0.0022946135 0.032605678
0.015986718 -0.0022838169 0.032912374
0.016922345 -0.0022563126 0.033329576
0.018121868 -0.0022652335 0.034015864
0.019285642 -0.002268899 0.034191847
0.02024572 -0.0022495245 0.034352124
0.021078715 -0.002218812 0.034489751
0.022768833 -0.0022768835 0.034690052
0.023913171 -0.0022774448 0.034122586
0.024840927 -0.0022582661 0.034203589
0.026277244 -0.0022849778 0.033854365
0.027328072 -0.0022773393 0.032769471
0.02820072 -0.0022560575 0.032426417
0.029806606 -0.0022928158 0.030219823
0.030678527 -0.0022724834 0.029869527
0.031814434 -0.0022724597 0.029247344
0.033551522 -0.0023138979 0.029278159
0.034599952 -0.0023066634 0.027975231
0.035544861 -0.0022932168 0.02747348
0.036608435 -0.0022880272 0.027076095
0.037995499 -0.0023027577 0.026585847
0.039642774 -0.0023319279 0.025989026
0.040936068 -0.0023392038 0.026237041
0.041204404 -0.0022891336 0.026740849
0.042103518 -0.0022758658 0.026781201
0.043524347 -0.002290755 0.0262402
0.044128917 -0.0022630214 0.026428968
0.046431255 -0.0023215627 0.026209831
0.047493078 -0.0023167355 0.026349753
0.049275693 -0.0023464616 0.025703371
0.050834529 -0.0023643968 0.023733884
0.052309439 -0.0023777017 0.022707343
0.053281821 -0.0023680809 0.019863725
0.054336324 -0.0023624487 0.019513935
0.055396322 -0.0023572904 0.017255276
0.056869347 -0.0023695561 0.015559018
-0.053800385 -0.0011955641 0.01652953
-0.051069845 -0.0011606783 0.019263625
-0.050459605 -0.0011734792 0.021692753
-0.048631769 -0.0011578993 0.023715973
-0.047299534 -0.0011536471 0.025443017
-0.04657973 -0.0011644933 0.026965857
-0.044879604 -0.0011507591 0.027457505
-0.043935344 -0.0011561932 0.027830899
-0.042834017 -0.0011576761 0.028436124
-0.040990535 -0.001138626 0.029276252
-0.040305022 -0.0011515721 0.030066788
-0.039589435 -0.0011643951 0.030169964
-0.037873529 -0.0011476827 0.030147374
-0.036468741 -0.0011396481 0.030189514
-0.035422694 -0.0011426675 0.030082017
-0.033877917 -0.0011292639 0.029795408
-0.033112682 -0.0011418166 0.029498339
-0.03215025 -0.0011482233 0.028732568
-0.030719878 -0.0011377733 0.027444959
-0.030208716 -0.0011618737 0.026939809
-0.029060585 -0.0011624234 0.026869923
-0.027839601 -0.0011599835 0.026816607
-0.026704527 -0.0011610663 0.026818126
-0.02550284 -0.00115922 0.027087033
-0.024830239 -0.0011823922 0.02806437
-0.023245277 -0.0011622639 0.028902829
-0.021343917 -0.001123364 0.029819071
-0.02033253 -0.0011295851 0.031093687
-0.01928168 -0.0011342164 0.03216666
-0.0179144 -0.00111965 0.032703638
-0.017179335 -0.0011452889 0.032766342
-0.01597663 -0.0011411879 0.033531934
-0.014560985 -0.0011200758 0.033295989
-0.013587503 -0.001132292 0.033241987
-0.012478231 -0.0011343847 0.033366233
-0.011303749 -0.001130375 0.033016473
-0.010272733 -0.0011414149 0.032756925
-0.0090459678 -0.001130746 0.033385336
-0.007919006 -0.0011312866 0.03302756
-0.0068450621 -0.0011408437 0.032920271
-0.0056669172 -0.0011333835 0.032834679
-0.0045031752 -0.0011257938 0.032789499
-0.0033997716 -0.0011332573 0.032809287
-0.0022560621 -0.0011280311 0.032956868
-0.0011356636 -0.0011356636 0.032956868
0 -0.0011301184 0.033124536
0.0011253587 -0.0011253587 0.033175379
0.0022960615 -0.0011480307 0.033264995
0.0034050765 -0.0011350255 0.032871574
0.0045300028 -0.0011325007 0.033244759
0.0056818547 -0.0011363709 0.033576995
0.0069054207 -0.0011509035 0.033309788
0.0079160193 -0.0011308598 0.033292681
0.0091449711 -0.0011431214 0.033197403
0.010156422 -0.0011284914 0.032934695
0.011450044 -0.0011450044 0.033005178
0.012710887 -0.0011555352 0.033085823
0.013553129 -0.0011294273 0.03330788
0.014890566 -0.0011454283 0.0333049
0.016026966 -0.0011447832 0.033812493
0.016653791 -0.0011102527 0.034133643
0.018265337 -0.0011415835 0.034566671
0.019170865 -0.001127698 0.034775198
0.019886276 -0.0011047932 0.034768462
0.021446908 -0.0011287846 0.034640282
0.022683786 -0.0011341893 0.034957618
0.023583483 -0.001123023 0.034573436
0.02510101 -0.001140955 0.034449428
0.026138877 -0.0011364729 0.034447402
0.027458338 -0.0011440974 0.033382326
0.028709136 -0.0011483654 0.032987952
0.029129777 -0.0011203761 0.031151146
0.030838145 -0.0011421535 0.030666262
0.032155357 -0.0011484057 0.030216873
0.033065062 -0.0011401746 0.030088454
0.034541905 -0.0011513968 0.028921306
0.03627076 -0.0011700244 0.028415114
0.036348149 -0.0011358797 0.027805895
0.038264576 -0.0011595327 0.026927441
0.04007281 -0.0011786121 0.026497751
0.040836524 -0.0011667579 0.02663064
0.041637674 -0.0011566022 0.02625367
0.042652056 -0.0011527581 0.025436938
0.043012671 -0.0011319123 0.02504617
0.044945877 -0.0011524584 0.023486733
0.046368588 -0.0011592148 0.022897601
0.047304507 -0.0011537684 0.021706015
0.049258322 -0.0011728172 0.020745426
0.050037283 -0.0011636578 0.019741237
0.052096572 -0.0011840131 0.018973678
0.053816751 -0.0011959277 0.017356515
0.055250805 -0.0012011044 0.016865432
0.056797195 -0.001208451 0.015497923
-0.052131403 0 0.016618401
-0.050621394 0 0.019053787
-0.048774552 0 0.0212304
-0.048107944 0 0.022840172
-0.046808004 0 0.024142265
-0.045473814 0 0.024502784
-0.04396316 0 0.025941014
-0.042501669 0 0.027505726
-0.041211478 0 0.028040677
-0.040460348 0 0.028111398
-0.038823176 0 0.028488398
-0.037775379 0 0.028769732
-0.036933705 0 0.029693276
-0.035339884 0 0.029000103
-0.034487285 0 0.028830051
-0.033146296 0 0.028549701
-0.03203113 0 0.027954698
-0.03155113 0 0.02735275
-0.030197738 0 0.027061909
-0.028537305 0 0.026978821
-0.027928796 0 0.027119875
-0.026743812 0 0.02740857
-0.025540423 0 0.02768603
-0.024436468 0 0.028663367
-0.022859247 0 0.02984193
-0.021294223 0 0.031350613
-0.020375354 0 0.032320589
-0.019268276 0 0.033042908
-0.018227374 0 0.033429563
-0.017128205 0 0.033918262
-0.015725857 0 0.034462392
-0.014517455 0 0.034048647
-0.013681892 0 0.033982575
-0.012337469 0 0.034002364
-0.011290375 0 0.034016222
-0.010273863 0 0.033645302
-0.0091293938 0 0.034058601
-0.00788745 0 0.034036428
-0.0068063075 0 0.033929139
-0.0056132809 0 0.033929139
-0.0045219688 0 0.033476412
-0.0033955751 0 0.033645302
-0.0022705814 0 0.033593416
-0.001143411 0 0.033631474
0 0 0.033638805
0.0011354233 0 0.033711374
0.0022855811 0 0.034077883
0.0033739903 0 0.03366968
0.0045797708 0 0.034531057
0.0056334008 0 0.034616172
0.0067642392 0 0.034168273
0.0079749366 0 0.034264833
0.0090703806 0 0.033862382
0.010129569 0 0.03384909
0.011410459 0 0.033904463
0.012447428 0 0.033978373
0.013552439 0 0.034160793
0.014888235 0 0.033967227
0.015796667 0 0.034279048
0.016840298 0 0.034467041
0.018364826 0 0.034994543
0.018901655 0 0.035277188
0.020396186 0 0.035323113
0.021641392 0 0.035323113
0.022305062 0 0.035429239
0.023876386 0 0.035182834
0.025048848 0 0.035260439
0.025889736 0 0.034368277
0.027649786 0 0.034014165
0.028126521 0 0.033111304
0.029487407 0 0.031943232
0.030448943 0 0.031692207
0.032102667 0 0.031131417
0.032878216 0 0.03046453
0.03496886 0 0.030153424
0.035797842 0 0.028625071
0.037676699 0 0.027915537
0.038184479 0 0.027396232
0.039637066 0 0.026174456
0.041219335 0 0.025813043
0.042293686 0 0.025598019
0.043119457 0 0.023977011
0.044323001 0 0.022697806
0.046205167 0 0.020782292
0.046210982 0 0.019396842
0.048267107 0 0.017805696
0.048896804 0 0.016996503
0.05055622 0 0.017017961
0.051587366 0 0.016662657
0.054024141 0 0.015567929
0.054693673 0 0.015360594
-0.05092885 0.0011843919 0.016220391
-0.049821205 0.0011862192 0.017923951
-0.04857783 0.0011848251 0.019561231
-0.046589438 0.001164736 0.021319628
-0.045547046 0.001167873 0.022758514
-0.043787714 0.0011523083 0.022978127
-0.043083381 0.0011644157 0.023714781
-0.042098977 0.0011694161 0.023562104
-0.040468723 0.0011562493 0.024914026
-0.039250657 0.001154431 0.025971472
-0.038689714 0.0011724157 0.027242213
-0.037203949 0.0011626234 0.028148055
-0.036212336 0.0011681399 0.02841574
-0.03495051 0.001165017 0.028444976
-0.033176173 0.0011440059 0.02848056
-0.032535162 0.00116197 0.02848056
-0.031089464 0.0011514616 0.028224379
-0.029893894 0.0011497652 0.028033763
-0.028853672 0.0011541469 0.028052002
-0.027892189 0.0011621746 0.028221607
-0.026690526 0.0011604576 0.028087795
-0.02566893 0.0011667695 0.028221995
-0.024303405 0.001157305 0.028842658
-0.022999244 0.0011499623 0.029787481
-0.021463109 0.0011296374 0.031342626
-0.020313891 0.0011285495 0.033223838
-0.019395601 0.0011409178 0.033826321
-0.018265337 0.0011415835 0.034163922
-0.016720511 0.0011147008 0.034605443
-0.015660971 0.0011186408 0.035497338
-0.014699631 0.0011307409 0.034761816
-0.013476334 0.0011230279 0.034280658
-0.012444037 0.0011312761 0.034092307
-0.011248888 0.0011248889 0.034216553
-0.0099523272 0.0011058142 0.033869445
-0.0092239799 0.0011529975 0.034124523
-0.0078379214 0.0011197031 0.034106761
-0.0067576328 0.0011262721 0.034043133
-0.0056577716 0.0011315544 0.034044802
-0.0045304908 0.0011326227 0.033921301
-0.0033961132 0.0011320377 0.03409344
-0.0022555743 0.0011277872 0.034239918
-0.0011270661 0.0011270661 0.034231633
0 0.0011284722 0.034686148
0.0011374928 0.0011374928 0.034684598
0.0022514281 0.001125714 0.035100341
0.0033931865 0.0011310622 0.034974337
0.004614145 0.0011535363 0.035470426
0.0055751558 0.0011150312 0.035395682
0.0068146992 0.0011357833 0.035100043
0.0080030784 0.0011432969 0.034373045
0.0090986388 0.0011373298 0.034183383
0.010218967 0.0011354408 0.033910245
0.011391526 0.0011391527 0.03422758
0.012405149 0.0011277408 0.034139812
0.013711836 0.0011426531 0.034172028
0.014948402 0.0011498771 0.034209996
0.015968952 0.0011406394 0.034362912
0.017054118 0.0011369411 0.034458637
0.018134711 0.0011334195 0.03496623
0.019312749 0.001136044 0.03528738
0.020386254 0.0011325697 0.035652637
0.021178432 0.0011146542 0.035733044
0.022713017 0.0011356509 0.035792977
0.023986284 0.0011422039 0.035526991
0.024838481 0.0011290219 0.034881234
0.025895257 0.0011258807 0.034410805
0.027394064 0.0011414194 0.034078717
0.028243583 0.0011297433 0.032822669
0.029859088 0.0011484266 0.032520771
0.030693598 0.0011367999 0.032169491
0.03210767 0.0011467026 0.032110244
0.033484817 0.0011546487 0.03085497
0.034687832 0.0011562611 0.030049831
0.03584861 0.0011564068 0.028914809
0.037293419 0.0011654194 0.027989775
0.038725812 0.0011735095 0.026654601
0.040159572 0.0011811639 0.026401579
0.041846383 0.001195611 0.024855316
0.042171124 0.0011714202 0.024622053
0.044101045 0.0011919201 0.021929651
0.045067921 0.001185998 0.021261573
0.045620419 0.0011697543 0.01827544
0.047552921 0.001188823 0.01713255
0.04811028 0.0011734214 0.016148627
0.049597073 0.0011808827 0.016172588
0.051126976 0.0011889995 0.016172618
-0.047910884 0.002337116 0.017229289
-0.047186017 0.0023593009 0.01816383
-0.04600342 0.0023591497 0.019381016
-0.044414718 0.0023376166 0.020054519
-0.04354351 0.0023537031 0.020600587
-0.041573882 0.0023096602 0.020382345
-0.040880792 0.0023360453 0.022514552
-0.040196378 0.0023644927 0.023184747
-0.039108474 0.0023702106 0.024172366
-0.039280839 0.0024550525 0.025052309
-0.037252281 0.0024033729 0.025811106
-0.034501448 0.0023000967 0.026570797
-0.034013595 0.002345765 0.02696985
-0.032652374 0.0023323125 0.027332544
-0.03118444 0.0023099585 0.0272488
-0.030504271 0.0023464826 0.027589858
-0.029035969 0.0023228775 0.02848056
-0.027721019 0.0023100851 0.02849561
-0.026845688 0.0023344075 0.028774291
-0.025404822 0.0023095293 0.028927088
-0.02387481 0.0022737915 0.02922377
-0.022988068 0.0022988068 0.030243665
-0.021479111 0.002260959 0.031069577
-0.020364136 0.002262682 0.033577323
-0.019583905 0.0023039889 0.034141243
-0.017926903 0.0022408629 0.034518242
-0.017036593 0.0022715458 0.034928262
-0.015825476 0.0022607825 0.035120696
-0.014558473 0.0022397649 0.035046756
-0.013713171 0.0022855285 0.034609795
-0.012440568 0.0022619215 0.034646481
-0.011275603 0.0022551208 0.034695417
-0.01027099 0.0022824425 0.034373164
-0.0091492748 0.0022873187 0.034684896
-0.0078860717 0.0022531634 0.034460276
-0.0067400108 0.0022466704 0.034365982
-0.0056863748 0.00227455 0.034781158
-0.0044894754 0.0022447377 0.034459531
-0.0033276696 0.0022184465 0.034850061
-0.0022639676 0.0022639676 0.035178453
-0.0011057754 0.0022115507 0.035558969
0 0.0022858251 0.035619318
0.0011206531 0.0022413062 0.035555065
0.002282138 0.002282138 0.03559804
0.003367363 0.0022449088 0.035879076
0.004522888 0.002261444 0.035748839
0.0056302822 0.0022521128 0.035640299
0.0069042584 0.0023014196 0.035493165
0.007933015 0.0022665758 0.035113901
0.0091507379 0.0022876845 0.035062134
0.010191439 0.0022647644 0.034688503
0.011335949 0.00226719 0.035249978
0.012339997 0.0022436359 0.035244614
0.013775337 0.0022958897 0.035422891
0.0149443 0.0022991232 0.035106808
0.015957711 0.0022796732 0.035519928
0.017201109 0.0022934813 0.035551637
0.018203752 0.002275469 0.035662115
0.01940267 0.002282667 0.035841763
0.020298351 0.0022553722 0.036189944
0.021457125 0.0022586447 0.036343694
0.022934476 0.0022934477 0.036343694
0.023837727 0.0022702597 0.035438955
0.025237394 0.0022943087 0.035343826
0.026537664 0.0023076229 0.03564781
0.027333917 0.0022778264 0.033643156
0.028856443 0.0023085154 0.033454001
0.029822426 0.0022940328 0.032992184
0.03081486 0.0022825822 0.032842934
0.032117594 0.0022941139 0.032080114
0.033267573 0.0022943155 0.031413615
0.034857154 0.0023238102 0.029634029
0.035872776 0.0023143727 0.029166341
0.036732916 0.0022958072 0.028244227
0.03951155 0.0023946394 0.027081609
0.041022655 0.0024130975 0.026203871
0.041161422 0.0023520812 0.025463074
0.043242 0.0024023333 0.024316192
0.044819508 0.0024226762 0.022033244
0.045111328 0.0023742805 0.019192189
0.04644601 0.0023818468 0.017797351
0.047571894 0.0023785948 0.01627779
-0.045893837 0.0035302951 0.016471684
-0.044794627 0.0035364176 0.017145425
-0.043329421 0.0035131963 0.017159104
-0.042285949 0.0035238294 0.017525613
-0.042055815 0.0036047841 0.019707531
-0.040325895 0.003558167 0.020945936
-0.039370563 0.0035791423 0.022338152
-0.038811497 0.0036385776 0.022673547
-0.036912486 0.003572176 0.024168551
-0.035248794 0.0035248792 0.024858147
-0.033873741 0.0035041799 0.025736988
-0.032474745 0.003479437 0.026719511
-0.031770352 0.0035300388 0.027210861
-0.030461082 0.0035147402 0.027344406
-0.028927501 0.0034713 0.028180867
-0.02805656 0.00350707 0.028625488
-0.026600255 0.0034695982 0.029265702
-0.025403088 0.0034640576 0.029586613
-0.024279783 0.0034685403 0.029946774
-0.022897581 0.0034346373 0.030384719
-0.021338757 0.0033692773 0.030863106
-0.020458112 0.0034096853 0.032441616
-0.019226309 0.003392878 0.034156322
-0.018087465 0.0033913997 0.034672707
-0.01696321 0.0033926417 0.034939051
-0.015613659 0.0033457843 0.034732163
-0.01481731 0.003419379 0.034581095
-0.013663955 0.0034159888 0.034397781
-0.012556363 0.0034244626 0.034487486
-0.011283352 0.0033850055 0.034535468
-0.010282352 0.0034274508 0.034511924
-0.0090437913 0.0033914216 0.034786314
-0.007979407 0.0034197459 0.034511924
-0.0067435638 0.0033717819 0.034166276
-0.0056417785 0.0033850672 0.034360915
-0.0045469617 0.0034102213 0.034185052
-0.003409381 0.003409381 0.034952998
-0.0022768588 0.0034152882 0.035341322
-0.0011389888 0.0034169662 0.035908431
0 0.0033968554 0.036061257
0.0011433789 0.0034301365 0.036037326
0.0022782001 0.0034173001 0.036125809
0.003376822 0.003376822 0.03624922
0.0045850077 0.0034387556 0.036308795
0.0056981747 0.0034189047 0.036211938
0.0068218457 0.0034109228 0.035638064
0.0080677457 0.0034576051 0.03603816
0.0092037544 0.0034514079 0.035482377
0.010231879 0.0034106262 0.034872442
0.011433301 0.0034299903 0.034790397
0.01258184 0.0034314108 0.034650058
0.013715151 0.0034287877 0.035312921
0.015042306 0.0034713014 0.035273641
0.016175861 0.0034662557 0.035443664
0.01716611 0.003433222 0.03532511
0.018235635 0.0034191816 0.035367131
0.019256344 0.0033981781 0.035473019
0.020660948 0.0034434914 0.036083549
0.021717161 0.0034290254 0.036105603
0.022550464 0.0033825694 0.03670904
0.023911521 0.0034159315 0.036141545
0.02535353 0.0034572997 0.036223859
0.02624183 0.0034228473 0.034922093
0.027535073 0.0034418842 0.034522176
0.028700816 0.0034440977 0.034272224
0.029703312 0.0034273053 0.0339275
0.031078832 0.0034532035 0.032957226
0.031953596 0.0034235995 0.032426029
0.033228256 0.0034374057 0.031228483
0.034707036 0.0034707037 0.030273139
0.03555562 0.0034408662 0.029497772
0.037216637 0.0034890596 0.028005064
0.038726851 0.0035206231 0.026156723
0.039664883 0.0034998425 0.02577433
0.042408727 0.0036350337 0.024579674
0.043409672 0.0036174727 0.022434324
0.044454891 0.0036044505 0.019486099
0.046536125 0.0036739046 0.017679214
0.04680977 0.0036007515 0.016592145
-0.041174773 0.0047056885 0.016739815
-0.040411774 0.0047543263 0.017777175
-0.039572243 0.0047966358 0.018162906
-0.038143549 0.0047679436 0.018580765
-0.036760923 0.0047433446 0.021889418
-0.035640199 0.0047520264 0.023633659
-0.033615518 0.0046366234 0.024391592
-0.032637533 0.0046625044 0.025612861
-0.032039031 0.0047465232 0.026616156
-0.029998491 0.0046151527 0.027389824
-0.028897965 0.0046236743 0.028252721
-0.027655711 0.0046092854 0.0285438
-0.026595475 0.0046252999 0.029333889
-0.025703894 0.0046734354 0.03004992
-0.023976211 0.0045668972 0.030353129
-0.0227692 0.00455384 0.030825257
-0.02208814 0.0046501346 0.030761093
-0.020497136 0.004554919 0.032392383
-0.019428868 0.0045714979 0.034224093
-0.018240113 0.0045600282 0.034689009
-0.017017676 0.0045380467 0.034852505
-0.016094463 0.0045984178 0.035268873
-0.014923934 0.00459198 0.03537637
-0.013573701 0.0045245672 0.035206079
-0.01266537 0.0046055894 0.035324782
-0.011490956 0.0045963824 0.035342097
-0.01029694 0.0045764181 0.035334051
-0.0092215966 0.0046107983 0.035334051
-0.0079229027 0.0045273728 0.035008729
-0.0068334015 0.0045556012 0.034705192
-0.005647447 0.0045179576 0.035037518
-0.0045700306 0.0045700306 0.034775883
-0.0034144283 0.0045525711 0.034988195
-0.0022927832 0.0045855665 0.035876691
-0.0011436587 0.0045746346 0.035335869
0 0.0046085501 0.035985231
0.0011389637 0.0045558549 0.035296589
0.0022436401 0.0044872803 0.035195082
0.0034063801 0.0045418404 0.035180271
0.004599784 0.004599784 0.035765022
0.0056913435 0.0045530749 0.03602165
0.0069383844 0.0046255896 0.035509557
0.0081038419 0.0046307668 0.035639703
0.009121622 0.004560811 0.035108507
0.010339731 0.0045954366 0.034376442
0.011335525 0.0045342101 0.034359366
0.012696882 0.004617048 0.0342893
0.01388306 0.0046276865 0.034432948
0.014858971 0.0045719915 0.034840643
0.016192568 0.0046264483 0.035029799
0.017281806 0.0046084817 0.03544116
0.01811729 0.0045293225 0.0354442
0.019635987 0.0046202322 0.0354442
0.020696679 0.0045992625 0.035487741
0.021553526 0.0045375843 0.035279691
0.023023747 0.0046047494 0.035748243
0.024355972 0.004639233 0.035416961
0.024781065 0.0045056483 0.035576522
0.026507271 0.0046099601 0.035516888
0.027535934 0.0045893225 0.035034776
0.028569354 0.0045710965 0.034330368
0.030174086 0.0046421671 0.033689082
0.031058446 0.0046012513 0.032910317
0.031968225 0.0045668893 0.031778693
0.033345692 0.0045994059 0.030869901
0.034584071 0.0046112095 0.029974699
0.03538524 0.0045658373 0.028809816
0.036941595 0.0046176994 0.026880234
0.03779155 0.0045807944 0.025720388
0.040426232 0.0047560274 0.024872452
0.04220584 0.004823525 0.022792161
0.043072052 0.0047857841 0.020730406
0.045426618 0.0049109855 0.018421322
0.046193745 0.0048624994 0.017034978
-0.041059233 0.0060381219 0.015717477
-0.039567128 0.0059950193 0.016975194
-0.039149921 0.0061171749 0.017795563
-0.037085902 0.0059815971 0.018575877
-0.034725375 0.0057875626 0.019778311
-0.033969048 0.0058567319 0.022702068
-0.032575309 0.0058170194 0.024596155
-0.031008301 0.005742278 0.025756747
-0.030369395 0.005840268 0.026781559
-0.029348982 0.005869796 0.027925313
-0.027925164 0.0058177421 0.028316349
-0.026734732 0.005811898 0.028666615
-0.025140651 0.0057137841 0.030186534
-0.024021568 0.0057194205 0.030438602
-0.023158286 0.0057895714 0.030643493
-0.021719547 0.0057156701 0.030701786
-0.020530546 0.0057029296 0.031374276
-0.019681003 0.0057885298 0.033003867
-0.018081691 0.0056505282 0.033627182
-0.017306911 0.0057689697 0.033770591
-0.016200645 0.0057859444 0.034239978
-0.014778542 0.0056840549 0.033957452
-0.013904609 0.0057935868 0.033957452
-0.012614063 0.0057336651 0.033475727
-0.011345568 0.0056727841 0.033475727
-0.010444771 0.0058026509 0.033784628
-0.0091311187 0.0057069492 0.033616364
-0.0080161337 0.0057258098 0.034061819
-0.0069736708 0.0058113923 0.034061819
-0.0056960611 0.0056960611 0.034143478
-0.0045694145 0.0057117678 0.034196615
-0.0034735943 0.0057893237 0.034403086
-0.0022921094 0.0057302732 0.035060078
-0.0011452117 0.0057260585 0.034672916
0 0.0058126552 0.035143793
0.0011317983 0.0056589907 0.034808099
0.0023002794 0.005750698 0.035412759
0.0034205511 0.0057009184 0.034161866
0.0045462465 0.0056828083 0.034261733
0.005780194 0.005780194 0.034261733
0.006900148 0.0057501234 0.034527391
0.0079546841 0.0056819175 0.034912229
0.0092579126 0.0057861954 0.035125673
0.010380587 0.0057669925 0.03463611
0.011424806 0.005712403 0.034108698
0.012730047 0.0057863849 0.034108698
0.013791255 0.0057463557 0.034064233
0.014880736 0.00572336 0.034637541
0.016304718 0.005823114 0.034968734
0.017280407 0.0057601356 0.034993321
0.018518379 0.0057869935 0.035029382
0.019512204 0.0057388833 0.035094917
0.020460378 0.0056834389 0.035050988
0.021780876 0.0057318094 0.0348382
0.022999959 0.0057499898 0.035336584
0.024006223 0.0057157669 0.03512454
0.025521021 0.0058002323 0.035314977
0.026485529 0.0057577235 0.035242021
0.027928084 0.0058183507 0.034902602
0.028947359 0.0057894713 0.034120262
0.029905898 0.0057511339 0.033169657
0.031005017 0.0057416698 0.032869995
0.032846089 0.0058653732 0.031812549
0.033284798 0.005738758 0.031027585
0.034378815 0.005729802 0.030064315
0.035991039 0.0058050058 0.027676076
0.036837488 0.0057558571 0.026318669
0.038422145 0.0058215368 0.024508327
0.040239204 0.0059175296 0.023038864
0.041860275 0.005980039 0.020910114
0.043639243 0.0060610063 0.018084079
0.045184992 0.0061060796 0.016763598
0.045726545 0.0060166502 0.016174644
-0.039429426 0.0071689868 0.015145421
-0.039173868 0.0073450995 0.016491771
-0.036935776 0.0071488591 0.017577201
-0.035132751 0.0070265499 0.018442661
-0.034086041 0.0070522837 0.019532889
-0.033219617 0.0071184891 0.023117959
-0.032068245 0.0071262764 0.025235325
-0.030306667 0.006993846 0.026586145
-0.028718179 0.0068923626 0.027534366
-0.027760616 0.0069401539 0.02837041
-0.026593819 0.0069375178 0.028815389
-0.025435772 0.0069370288 0.030240685
-0.024270069 0.0069343047 0.030792505
-0.023029618 0.0069088857 0.030867815
-0.021997664 0.0069466308 0.031108171
-0.020771034 0.0069236783 0.03129521
-0.019467007 0.0068707084 0.031892896
-0.01854796 0.0069554849 0.032451719
-0.017403189 0.0069612758 0.032317758
-0.015962943 0.0068412614 0.032094091
-0.014980832 0.0069142305 0.032215893
-0.013981649 0.0069908244 0.0321742
-0.0124829 0.0068088551 0.031950533
-0.011543265 0.0069259587 0.032047451
-0.010410401 0.0069402675 0.032192141
-0.0092610093 0.0069457567 0.032139271
-0.0081741698 0.0070064315 0.032539994
-0.0068984474 0.0068984474 0.032586664
-0.0057851775 0.006942213 0.032770425
-0.0046124212 0.0069186315 0.032468677
-0.0034332366 0.0068664732 0.032845318
-0.0023181248 0.0069543743 0.03333956
-0.0011548055 0.0069288327 0.03339529
0 0.0068286224 0.033331692
0.0011621217 0.0069727302 0.033140421
0.0023030047 0.0069090142 0.033242673
0.0034019607 0.0068039214 0.03325668
0.0046351003 0.0069526499 0.033525795
0.0057699364 0.0069239242 0.033757389
0.0068289507 0.0068289507 0.033775955
0.0081481403 0.0069841207 0.033845007
0.009196151 0.0068971133 0.034241587
0.010357188 0.0069047925 0.033212751
0.011568864 0.0069413185 0.033113599
0.012653854 0.0069021019 0.032908171
0.013861717 0.0069308584 0.033076614
0.015035492 0.0069394582 0.033203125
0.01620606 0.006945454 0.033937067
0.017279815 0.006911926 0.034817278
0.018757524 0.0070340717 0.03456375
0.019269221 0.0068009011 0.034945369
0.020633992 0.0068779979 0.035054058
0.021802114 0.006884878 0.034890056
0.022695927 0.0068087783 0.035093457
0.024345504 0.0069558583 0.035030842
0.025699612 0.0070089847 0.034909338
0.026427222 0.0068940576 0.034807205
0.027973866 0.0069934665 0.034143269
0.029026994 0.0069664782 0.033357263
0.030055152 0.0069358042 0.033118814
0.031291381 0.0069536399 0.032890201
0.032843262 0.0070378417 0.031971604
0.033646937 0.0069614346 0.031058311
0.034994133 0.0069988263 0.029462457
0.035560176 0.006882614 0.027747691
0.03714934 0.0069655012 0.026165873
0.038611323 0.0070202406 0.024665326
0.039562419 0.0069816029 0.020910114
0.041535728 0.0071204104 0.019165516
0.043768916 0.0072948197 0.016687334
-0.035651136 0.0083185984 0.017042071
-0.034022946 0.0082124351 0.018568575
-0.033340883 0.0083352206 0.019847214
-0.031768043 0.0082361586 0.023687273
-0.030034954 0.008086334 0.025665581
-0.029240305 0.0081872856 0.026694208
-0.027626581 0.0080577526 0.027464211
-0.026924521 0.0081944186 0.028074443
-0.025555274 0.0081312237 0.029102147
-0.023998037 0.0079993457 0.029652476
-0.023139505 0.0080988267 0.030646741
-0.022100907 0.0081424396 0.031406015
-0.020649603 0.0080304015 0.031489342
-0.01940823 0.0079916241 0.031508833
-0.018679764 0.0081723966 0.031508833
-0.016896211 0.0078848982 0.030939519
-0.016218197 0.0081090983 0.03109017
-0.014912101 0.0080295922 0.031696171
-0.013739033 0.0080144359 0.031696171
-0.012788085 0.0081378724 0.03109017
-0.011710403 0.0081972815 0.031254977
-0.010303558 0.0080138789 0.031479716
-0.009343042 0.0081751617 0.031303674
-0.0080564963 0.0080564963 0.031246215
-0.0068839029 0.0080312202 0.031589121
-0.0058203 0.0081484206 0.031497389
-0.0046290597 0.0081008542 0.031246215
-0.0035111927 0.0081927832 0.031645507
-0.0023272973 0.008145541 0.031984836
-0.0011508567 0.0080559971 0.031791747
0 0.0081674075 0.032713979
0.0011582946 0.0081080627 0.032704443
0.0022760865 0.0079663023 0.03267327
0.0034808326 0.0081219431 0.032494217
0.0046702707 0.008172974 0.032352805
0.0057002059 0.007980288 0.032367766
0.0070119179 0.0081805708 0.032964349
0.0081486627 0.0081486627 0.033304632
0.0092411274 0.0080859857 0.03341952
0.010525724 0.0081866747 0.033245534
0.011499525 0.0080496678 0.033240229
0.012728422 0.0080999052 0.033388972
0.014015451 0.0081756795 0.033173829
0.014939825 0.0080445213 0.033255398
0.016176401 0.0080882004 0.033579051
0.017623635 0.0082243634 0.033931434
0.018411728 0.008055131 0.034119338
0.019906301 0.0081967125 0.033984959
0.020750461 0.0080696242 0.034055471
0.021582548 0.0079514645 0.034167677
0.02308714 0.0080804992 0.034211993
0.024326621 0.0081088729 0.034308136
0.025237875 0.008030233 0.034220666
0.02660534 0.008097277 0.034103662
0.027607594 0.008052215 0.033605486
0.028957365 0.0081080617 0.033128262
0.030425655 0.0081915222 0.032372445
0.031165296 0.0080798911 0.032035619
0.032666538 0.0081666345 0.031305075
0.033903033 0.0081834905 0.030684769
0.03476109 0.0081109209 0.029127628
0.035852689 0.0080957683 0.027342081
0.037250914 0.0081486376 0.026030749
0.037633292 0.0079828193 0.022956491
0.039525706 0.0081376452 0.019638866
0.040877212 0.008175442 0.017748952
0.042309124 0.0082267746 0.016028851
-0.034474529 0.0095102144 0.017551363
-0.033279728 0.0095084934 0.018835008
-0.032152496 0.0095266653 0.021987587
-0.030397348 0.0093530305 0.024527341
-0.029573588 0.0094635477 0.026597857
-0.028254764 0.0094182556 0.026833594
-0.026868669 0.0093456237 0.027821451
-0.025290262 0.0091964593 0.028330475
-0.024215534 0.0092249652 0.029112518
-0.023257762 0.0093031051 0.029882729
-0.021945994 0.0092404187 0.030205727
-0.020924887 0.0092999507 0.030756414
-0.019801825 0.0093185063 0.030899078
-0.018384552 0.0091922758 0.03075096
-0.017577119 0.0093744639 0.030668199
-0.016350502 0.0093431436 0.03067416
-0.01497081 0.0092128059 0.030816317
-0.014000171 0.0093334476 0.031125188
-0.012868598 0.0093589807 0.030633301
-0.011513612 0.0092108902 0.030584961
-0.010396326 0.0092411796 0.030749202
-0.0093211504 0.0093211504 0.03044349
-0.0080919592 0.009247954 0.030154467
-0.0069596549 0.0092795398 0.030491084
-0.00574261 0.0091881771 0.030796796
-0.0046237218 0.0092474436 0.030092657
-0.0034940201 0.0093173869 0.030209124
-0.0023249937 0.0092999749 0.031006366
-0.0011533023 0.0092264181 0.031278849
0 0.0093591036 0.031927556
0.0011548264 0.009238611 0.032096863
0.0023154835 0.0092619341 0.031555712
0.0035024327 0.0093398206 0.032160223
0.0045917789 0.0091835577 0.03123638
0.0058398391 0.0093437433 0.031206459
0.0069538029 0.0092717372 0.031509221
0.008073613 0.0092269862 0.032079101
0.0094050188 0.0094050188 0.031580746
0.010491772 0.0093260193 0.031427145
0.011520926 0.0092167407 0.030972153
0.012827707 0.0093292417 0.030685037
0.013965802 0.0093105352 0.03052032
0.014927244 0.0091859968 0.03052032
0.016275441 0.0093002515 0.031121939
0.017490307 0.0093281642 0.032291651
0.018726649 0.0093633244 0.032636374
0.01992815 0.0093779536 0.032487959
0.020437064 0.0090831397 0.033050239
0.022076735 0.0092954673 0.033044428
0.02316156 0.0092646247 0.033101916
0.023999473 0.0091426559 0.033390254
0.025469711 0.0092617134 0.033378989
0.026566302 0.0092404531 0.03309682
0.027542043 0.0091806808 0.032688618
0.029120293 0.0093184933 0.031569123
0.030063607 0.0092503401 0.031178206
0.031249244 0.0092590349 0.030871749
0.03286254 0.0093892971 0.030514449
0.033672221 0.0092888884 0.029685497
0.034974676 0.00932658 0.028357118
0.036536876 0.0094288709 0.027051002
0.036792189 0.0091980472 0.024393529
0.038449574 0.0093211094 0.020589471
0.039837793 0.0093735987 0.018471926
0.040227003 0.0091947438 0.016310602
-0.035426609 0.010994464 0.015626848
-0.033158783 0.010658179 0.019133955
-0.03213273 0.010710909 0.020808607
-0.030938238 0.010709389 0.023058891
-0.029360598 0.010569815 0.025568247
-0.028724985 0.01077187 0.026604503
-0.026627887 0.010419607 0.026873738
-0.025500502 0.010432024 0.028148144
-0.024454592 0.010480539 0.029411137
-0.023418482 0.010538317 0.029645026
-0.021991108 0.01041684 0.030494332
-0.021027915 0.010513958 0.03082481
-0.0196434 0.010399446 0.030860543
-0.018546332 0.010432311 0.031006902
-0.017533241 0.010519944 0.030594885
-0.016191844 0.010409041 0.029972285
-0.015217931 0.010535491 0.030022234
-0.013986267 0.010489699 0.030022234
-0.012798874 0.010471806 0.02939406
-0.011612945 0.01045165 0.029628843
-0.010551001 0.010551001 0.029677451
-0.0093279695 0.010493965 0.029625803
-0.0082327537 0.010584968 0.029777855
-0.0069168615 0.010375292 0.029863089
-0.0058160615 0.01046891 0.029582202
-0.0047027213 0.010581123 0.029520512
-0.0035112079 0.010533623 0.029889822
-0.0023092646 0.010391691 0.030192047
-0.0011668961 0.010502065 0.030170083
0 0.010432419 0.030520886
0.0011690907 0.010521816 0.030450195
0.0023476691 0.010564511 0.031000853
0.0034380576 0.010314172 0.030717254
0.0046983324 0.010571247 0.030070662
0.0058127092 0.010462876 0.030198127
0.0069545303 0.010431795 0.030282736
0.008207581 0.010552604 0.030679733
0.0093538109 0.010523037 0.030570954
0.010566359 0.010566359 0.030234694
0.011726296 0.010553666 0.030181915
0.012813621 0.010483871 0.029720724
0.013940201 0.010455151 0.029298961
0.015190209 0.010516299 0.029341191
0.016338546 0.010503351 0.029978007
0.017485727 0.010491435 0.030234694
0.018767564 0.010556754 0.030813009
0.019676531 0.010416986 0.030351877
0.020997223 0.010498611 0.030170262
0.022051271 0.010445338 0.030836135
0.022900965 0.010305434 0.030787528
0.024605444 0.010545189 0.030787528
0.025714757 0.010519673 0.031086206
0.026444517 0.010347853 0.030727625
0.028381787 0.010643169 0.03012681
0.029232832 0.010523818 0.029738694
0.030017728 0.010390752 0.029305458
0.03172547 0.010575156 0.028346747
0.032925509 0.010583199 0.028272539
0.033915527 0.010525508 0.028260499
0.035736952 0.010721085 0.027360946
0.036634803 0.01063591 0.025087267
0.038203914 0.01074485 0.021651685
0.038557816 0.010515768 0.019720256
0.03986048 0.010551303 0.01747179
-0.033934921 0.012119615 0.015051395
-0.032623462 0.012082763 0.019205123
-0.030618524 0.011776355 0.020739853
-0.02981819 0.011927276 0.023132652
-0.027979979 0.011658324 0.024808109
-0.026825069 0.011663072 0.025725514
-0.025642268 0.011655577 0.026837856
-0.024469763 0.011652268 0.027659804
-0.02347189 0.011735945 0.028383493
-0.022558987 0.01187315 0.028899401
-0.0211023 0.0117235 0.029999763
-0.019952832 0.011736959 0.029945552
-0.019055884 0.011909927 0.029766947
-0.017409766 0.011606511 0.029356271
-0.016598554 0.011856111 0.02936244
-0.01517743 0.011674945 0.029672831
-0.01382824 0.011523534 0.030075401
-0.012843693 0.011676084 0.029225916
-0.011742663 0.011742663 0.029061198
-0.010432454 0.011591615 0.02907902
-0.0093508186 0.011688523 0.02893278
-0.0081652841 0.011664691 0.028963447
-0.0069734999 0.0116225 0.029168069
-0.0058830678 0.011766136 0.028995037
-0.004662944 0.011657359 0.028767824
-0.0035058791 0.011686264 0.028907359
-0.0023620373 0.011810185 0.029023826
-0.0011590854 0.011590853 0.02893278
0 0.011743282 0.029106289
0.0011782866 0.011782866 0.029747367
0.0023072988 0.011536494 0.029851317
0.003519594 0.011731979 0.029935658
0.0047112191 0.011778047 0.029494226
0.0057794498 0.0115589 0.029346675
0.0070155552 0.011692592 0.028896719
0.0082553038 0.01179329 0.029520899
0.0094239516 0.01177994 0.029278189
0.010714368 0.011904853 0.029278189
0.011671975 0.011671975 0.029032052
0.012890613 0.011718739 0.028975904
0.014256693 0.011880578 0.028918594
0.015212278 0.011701752 0.029061317
0.016384484 0.011703203 0.029218614
0.01777068 0.01184712 0.029382706
0.018495532 0.011559707 0.029759943
0.019863794 0.011684584 0.029671967
0.021414692 0.011897051 0.029530436
0.021898415 0.011525481 0.029672623
0.023362305 0.011681153 0.029530436
0.024722872 0.011772796 0.029504776
0.025442755 0.011564888 0.029062361
0.027061615 0.011765919 0.028795421
0.027740484 0.011558535 0.02867952
0.029120075 0.011648029 0.02771908
0.030567914 0.01175689 0.02736637
0.031662837 0.011726976 0.026700824
0.03330325 0.011894017 0.026300967
0.034618776 0.011937508 0.025809467
0.035780434 0.011926811 0.02358824
0.037163936 0.011988365 0.021749407
0.039208859 0.012252769 0.020734251
0.03935945 0.011927106 0.017805398
-0.031217467 0.01320739 0.018801481
-0.029483175 0.012972596 0.020891249
-0.028205944 0.012927725 0.021713763
-0.027138224 0.01297915 0.02276659
-0.025560256 0.012780128 0.024792612
-0.024607493 0.012889639 0.026030153
-0.023985369 0.013191953 0.027620316
-0.0223088 0.012915621 0.028175503
-0.02136068 0.013053749 0.028664201
-0.020185495 0.013061202 0.028622866
-0.01866875 0.012834766 0.028411448
-0.017567601 0.012882907 0.028096914
-0.016418379 0.012900154 0.028419554
-0.015093278 0.012771235 0.028493017
-0.014066404 0.012894203 0.028649956
-0.013012419 0.013012419 0.028817445
-0.011588341 0.012747175 0.028763235
-0.010522262 0.012860543 0.028623104
-0.0094062705 0.012933621 0.028816462
-0.0081169689 0.012755238 0.02851674
-0.0070319162 0.012891847 0.028848976
-0.0058448948 0.012858769 0.028579503
-0.0047057904 0.012940924 0.027726591
-0.0035431338 0.01299149 0.02777788
-0.002353593 0.012944761 0.02777788
-0.0011683352 0.012851686 0.027762413
0 0.013027391 0.02822873
0.0011644951 0.012809446 0.02857694
0.0023654175 0.013009796 0.028628498
0.0035338083 0.012957297 0.028181493
0.0046689771 0.012839686 0.027939469
0.0059101088 0.01300224 0.027882069
0.0070867673 0.012992407 0.028437197
0.0081626158 0.012826967 0.028548449
0.0095359515 0.013111933 0.027913451
0.01061769 0.012977176 0.027913451
0.011723003 0.012895304 0.027230501
0.013005046 0.013005046 0.027345717
0.014138783 0.012960551 0.027744502
0.015249296 0.012903251 0.027574956
0.016508777 0.012971181 0.027591616
0.017631555 0.012929806 0.028156549
0.019190088 0.013193185 0.028393388
0.020651361 0.013362645 0.028480679
0.021281766 0.013005523 0.028569788
0.022365483 0.012948437 0.028094143
0.023425303 0.012883917 0.028209478
0.024390191 0.012775814 0.028209478
0.025908381 0.01295419 0.027331948
0.027497921 0.013151179 0.027052522
0.027997132 0.012832019 0.026718199
0.029396487 0.012934454 0.025611162
0.030694013 0.012985929 0.022340983
0.031882435 0.01298914 0.021521926
0.033461109 0.013145436 0.021232903
0.034685273 0.013156482 0.020800471
0.036314201 0.013315205 0.020778865
0.037939556 0.013462422 0.01636979
-0.031409733 0.0144968 0.015802175
-0.029478027 0.014149452 0.018562943
-0.028373305 0.014186652 0.020528734
-0.026845185 0.014006183 0.021584481
-0.025765946 0.014054153 0.022007555
-0.02472971 0.014131263 0.023620635
-0.023477195 0.014086316 0.025132179
-0.022456419 0.014183001 0.025245279
-0.021506008 0.014337339 0.025659561
-0.020087777 0.014179607 0.025239855
-0.018889572 0.014167179 0.025132179
-0.017625723 0.014100578 0.025406152
-0.016306343 0.013976865 0.026468873
-0.015229196 0.01405772 0.027217209
-0.01418821 0.01418821 0.027360499
-0.012845951 0.014013765 0.027462274
-0.011781263 0.014137516 0.02748391
-0.010572507 0.014096676 0.02733162
-0.0094543444 0.014181516 0.027479351
-0.0082998127 0.01422825 0.027328879
-0.006981683 0.013963366 0.02748391
-0.0058697658 0.014087439 0.027479351
-0.0047793183 0.014337954 0.026926219
-0.0035366628 0.014146651 0.026773691
-0.0023423315 0.014053989 0.027024448
-0.001180258 0.014163096 0.027437389
0 0.013921784 0.027344137
0.0011788562 0.014146274 0.027062893
0.0023652478 0.014191486 0.026833922
0.0034860163 0.013944065 0.027034551
0.0047064279 0.014119283 0.027045846
0.005841732 0.014020157 0.02674675
0.0070010629 0.014002126 0.026777834
0.008317302 0.014258231 0.026880771
0.0094012078 0.014101812 0.026803106
0.01058841 0.014117881 0.026880026
0.01186108 0.014233297 0.026412368
0.012884151 0.014055437 0.025720924
0.014266433 0.014266433 0.025203735
0.015426382 0.014239737 0.024613857
0.016648296 0.014269968 0.024552554
0.017716167 0.014172933 0.025134981
0.019207224 0.014405418 0.024620295
0.020250302 0.01429433 0.024517357
0.021803012 0.014535342 0.024286032
0.022930671 0.014482528 0.023763955
0.023710944 0.014226566 0.022206247
0.025116991 0.014352566 0.021943361
0.026459463 0.014432435 0.021555215
0.027216053 0.014199679 0.021588594
0.028725194 0.014362597 0.021395743
0.02942176 0.014122443 0.021116436
0.030669676 0.014155235 0.019944757
0.032755274 0.014557898 0.01633805
-0.030123519 0.015664229 0.016176045
-0.02860616 0.015495003 0.017511308
-0.027138367 0.015339077 0.019478947
-0.026322193 0.015554023 0.020808429
-0.025002567 0.015477779 0.021949083
-0.023846658 0.015500329 0.02240029
-0.022652451 0.015499045 0.023698956
-0.021176668 0.01529426 0.023759484
-0.020228021 0.015468487 0.023771673
-0.019069323 0.015493825 0.023766935
-0.017600598 0.015253851 0.02376911
-0.016625682 0.015438132 0.024429411
-0.015448141 0.015448141 0.024968356
-0.014209767 0.015393914 0.024968356
-0.013008459 0.015373634 0.024981767
-0.011760849 0.015289104 0.024971485
-0.010525621 0.015203675 0.024628401
-0.0095038135 0.015443698 0.025786996
-0.0082253739 0.015275694 0.025308847
-0.0071200742 0.015426828 0.026033789
-0.0059339032 0.015428149 0.025966346
-0.0046877782 0.015235278 0.025933504
-0.0034957998 0.015148466 0.025487244
-0.0023772516 0.015452135 0.025747687
-0.0011646253 0.015140129 0.026061177
0 0.015404793 0.026099771
0.0011783375 0.015318388 0.025797129
0.0023395892 0.015207329 0.025960237
0.0035841044 0.015531119 0.025837809
0.004750181 0.015438089 0.026141286
0.0059031295 0.015348136 0.02617076
0.0071789389 0.015554368 0.026281655
0.0083038565 0.015421448 0.025935143
0.0095359851 0.015495976 0.025303662
0.010838182 0.015655151 0.025167584
0.01180776 0.015350088 0.025090218
0.01306341 0.015438575 0.024607211
0.014399094 0.015599018 0.023988843
0.015349953 0.015349953 0.023694932
0.016430415 0.015256815 0.022102684
0.017864604 0.015482656 0.021629959
0.018832564 0.015301459 0.0215514
0.020540623 0.015707534 0.02052629
0.021914192 0.015826916 0.020381719
0.022797031 0.015597967 0.020494223
0.02455394 0.01596006 0.019345105
0.025503565 0.01578792 0.017662108
0.026615376 0.015727269 0.017055422
0.028175317 0.015925178 0.017176151
0.028965324 0.01568955 0.017166913
0.029872615 0.015533759 0.015165985
-0.028886979 0.016850738 0.016264647
-0.027872106 0.01696563 0.017598867
-0.02635077 0.016768672 0.019528717
-0.025176823 0.016784549 0.020454317
-0.0240102 0.016807141 0.020531803
-0.022529112 0.016600398 0.02114737
-0.021258164 0.016534129 0.022165239
-0.020431252 0.016825737 0.022165239
-0.018644901 0.016314289 0.022486627
-0.018112466 0.016904969 0.02239266
-0.016805036 0.016805036 0.022778481
-0.01548168 0.01667258 0.022778481
-0.014350371 0.016742099 0.022778481
-0.013132667 0.016714305 0.022168249
-0.01169772 0.016376808 0.023148179
-0.010767634 0.016749654 0.023298264
-0.0094903409 0.016608097 0.023712128
-0.008381634 0.016763268 0.024006903
-0.0072024632 0.016805748 0.025078118
-0.0058724699 0.016442915 0.024558544
-0.0046900646 0.016415225 0.024583399
-0.0035221954 0.016436912 0.024706692
-0.0023634012 0.016543809 0.024903089
-0.0011746429 0.016445 0.025161743
0 0.016681369 0.025607437
0.0011729366 0.016421113 0.025547832
0.0023787576 0.016651303 0.02569741
0.0035677152 0.016649337 0.024635702
0.0046905521 0.016416932 0.024264902
0.0059078112 0.016541872 0.024364293
0.0071808933 0.016755419 0.024372548
0.0082750078 0.016550016 0.025264502
0.009499114 0.01662345 0.024537086
0.010767086 0.016748801 0.024280518
0.011912766 0.016677873 0.023877263
0.013231838 0.016840521 0.022313744
0.014385454 0.016783031 0.021899313
0.015455551 0.016644441 0.020980924
0.016664354 0.016664354 0.020036578
0.017956268 0.016759183 0.0186598
0.019279128 0.016869238 0.018508434
0.020621696 0.016982574 0.017932922
0.021909058 0.017040379 0.017251313
0.022946617 0.016908033 0.016778171
0.024668731 0.017268112 0.015819222
0.02506692 0.01671128 0.01560238
-0.027897574 0.01819407 0.015188009
-0.026347052 0.017963899 0.017841429
-0.025304889 0.01807492 0.018501639
-0.023870494 0.017902872 0.019080549
-0.022560611 0.01781101 0.020223379
-0.021563036 0.017969199 0.020727247
-0.020115824 0.017749257 0.02112785
-0.019274462 0.018069809 0.020936728
-0.0179583 0.0179583 0.021023601
-0.016554575 0.017737044 0.021260679
-0.015544409 0.017935857 0.021325409
-0.014362227 0.017952785 0.021325409
-0.01321992 0.018027164 0.021098703
-0.011918388 0.017877584 0.020937055
-0.010840125 0.018066877 0.021080077
-0.0095274961 0.017864056 0.021267503
-0.0084039047 0.018008368 0.021189272
-0.0071619661 0.017904915 0.022541791
-0.0058527458 0.017558238 0.023030639
-0.0047315597 0.017743349 0.023021132
-0.0035432633 0.017716317 0.023041934
-0.0023970657 0.017977994 0.022978812
-0.0011942787 0.01791418 0.023450762
0 0.017748805 0.023537576
0.0011881854 0.017822782 0.023695439
0.0023851229 0.017888423 0.023854673
0.0035438119 0.01771906 0.02340287
0.0047527635 0.017822862 0.023336709
0.0059066671 0.017720003 0.02358079
0.0071056704 0.017764177 0.023452282
0.0083949491 0.017989177 0.022819519
0.0095260348 0.017861314 0.022657245
0.010748567 0.01791428 0.022052526
0.012063364 0.018095046 0.022160411
0.01315493 0.017938541 0.021597356
0.014639225 0.018299032 0.020791978
0.015732044 0.018152358 0.018815011
0.016942479 0.018152656 0.017350376
0.017959213 0.017959213 0.017174274
0.019382594 0.018171182 0.017041862
0.020612588 0.018187577 0.016192049
0.022331109 0.018609259 0.015844494
-0.025312668 0.019285843 0.015516162
-0.024064133 0.019251307 0.016334027
-0.022911111 0.019293567 0.018145651
-0.021567527 0.019171137 0.018855184
-0.020407772 0.019207316 0.019332767
-0.019382671 0.019382671 0.019304037
-0.017836014 0.019025082 0.019670457
-0.016781434 0.019178782 0.019601494
-0.015679859 0.019298287 0.020223737
-0.014330878 0.019107837 0.019982457
-0.013303726 0.019350875 0.019227833
-0.012085343 0.019336548 0.01947397
-0.010612122 0.018865995 0.019672602
-0.009603085 0.01920617 0.020672113
-0.0083540529 0.019094978 0.020332217
-0.0072263354 0.019270228 0.020296305
-0.0060538328 0.019372266 0.020505071
-0.0047530346 0.019012138 0.020206064
-0.0035388996 0.018874131 0.021042734
-0.0023967121 0.019173697 0.021042734
-0.0011880097 0.019008156 0.021347314
0 0.019150538 0.021974295
0.0011898375 0.019037399 0.021419525
0.0023357859 0.018686287 0.022108614
0.003567961 0.019029126 0.021766365
0.0048193196 0.019277278 0.021978587
0.005989864 0.019167567 0.022489876
0.0071941693 0.019184452 0.022098064
0.0084482925 0.019310383 0.022381693
0.0095738461 0.019147692 0.022012115
0.010937206 0.019443924 0.021399349
0.01202078 0.019233247 0.020960748
0.013467193 0.019588644 0.020421535
0.014761316 0.019681754 0.01830101
0.015728148 0.01935772 0.017116457
0.016895663 0.019309331 0.016553193
0.018349268 0.019572552 0.015498668
0.019202469 0.019202469 0.015418082
-0.019254066 0.020457445 0.016669184
-0.018181184 0.020605342 0.016744673
-0.017073777 0.020732444 0.016729861
-0.015746322 0.020591343 0.016756743
-0.014645074 0.02074719 0.017610818
-0.013425613 0.020748675 0.017505109
-0.011864244 0.020169215 0.01754126
