ply
format ascii 1.0
comment PCL generated
element vertex 1276
property float x
property float y
property float z
element camera 0
property float view_px
property float view_py
property float view_pz
property float x_axisx
property float x_axisy
property float x_axisz
property float y_axisx
property float y_axisy
property float y_axisz
property float z_axisx
property float z_axisy
property float z_axisz
property float focal
property float scalex
property float scaley
property float centerx
property float centery
property int viewportx
property int viewporty
property float k1
property float k2
end_header
-0.020141704 -0.040283408 0.016326427
-0.019078419 -0.040401354 0.016470701
-0.018065762 -0.040647961 0.017031312
-0.017106686 -0.041056044 0.017970294
-0.015835969 -0.040721063 0.019131333
-0.014808639 -0.041008536 0.019685
-0.013498659 -0.040495977 0.020189881
-0.012098859 -0.039596267 0.021156996
-0.010948682 -0.039415255 0.02214399
-0.0099746082 -0.039898433 0.02235356
-0.008837156 -0.039767198 0.022949785
-0.0078659095 -0.040453248 0.023871481
-0.0066889222 -0.040133532 0.024326026
-0.0055606286 -0.040036526 0.024908513
-0.0045433613 -0.04089025 0.023821265
-0.0033478383 -0.04017406 0.023613214
-0.0022219671 -0.039995406 0.023441792
-0.00112065 -0.040343396 0.023482651
0 -0.039654844 0.023911625
0.0011137268 -0.040094163 0.024512053
0.0022134648 -0.039842367 0.025113672
0.0032576565 -0.039091878 0.025192648
0.004396887 -0.039571982 0.025884926
0.005528444 -0.039804798 0.025766164
0.0065559377 -0.039335627 0.02602309
0.0077558225 -0.039887086 0.026089519
0.0087866383 -0.03953987 0.025678694
0.0098478356 -0.039391343 0.02508688
0.011078604 -0.039882973 0.024571747
0.012275821 -0.040175412 0.024862856
0.013483361 -0.040450085 0.0249677
0.014583751 -0.040385772 0.02554822
0.015479943 -0.039805565 0.025564849
0.016548662 -0.039716788 0.025317341
0.017702641 -0.039830942 0.025554448
0.018508004 -0.039193422 0.025568187
0.019827193 -0.039654385 0.025607765
0.020964345 -0.039721917 0.025702178
0.022069922 -0.039725859 0.025765538
0.023459587 -0.040216431 0.025202781
0.024458714 -0.040023349 0.024916679
0.025354952 -0.039686009 0.023819953
0.027292995 -0.040939491 0.022185445
0.02796676 -0.040272132 0.021243453
0.029140726 -0.040348694 0.02020818
0.030312197 -0.040416259 0.018366128
0.031147948 -0.040047359 0.015511513
-0.038092006 -0.039212361 0.015250176
-0.037378844 -0.03964423 0.015976757
-0.035491917 -0.038819283 0.016231239
-0.03499401 -0.039509367 0.017190218
-0.034120508 -0.039807256 0.017156661
-0.031934969 -0.038542204 0.017208487
-0.03186908 -0.039836351 0.016669631
-0.03052666 -0.039571594 0.016669631
-0.029197548 -0.039304391 0.016673863
-0.028574606 -0.040004447 0.016761452
-0.027019575 -0.039403547 0.016882062
-0.025805464 -0.039269183 0.017269194
-0.025083223 -0.039905127 0.017437845
-0.023734801 -0.039557997 0.017567992
-0.022315016 -0.039051279 0.017194092
-0.021347081 -0.039323572 0.017206252
-0.020055467 -0.038996741 0.017184466
-0.018950552 -0.039015841 0.017416328
-0.018103722 -0.039601892 0.017712176
-0.016821815 -0.039250899 0.018557489
-0.015968636 -0.039921589 0.019346505
-0.01484978 -0.039980177 0.019751132
-0.013345709 -0.038924985 0.020515114
-0.012303235 -0.039146658 0.021775365
-0.011009386 -0.038532849 0.023166955
-0.0097800437 -0.038033504 0.023492455
-0.0089066336 -0.038966522 0.023938328
-0.007748602 -0.038743008 0.024525523
-0.0066003827 -0.038502231 0.025523216
-0.0055661043 -0.038962729 0.025606841
-0.0044724448 -0.039133891 0.025701314
-0.0033192369 -0.03872443 0.02584672
-0.002231932 -0.039058812 0.025031477
-0.0011114815 -0.038901851 0.025279552
0 -0.038748898 0.025760472
0.0011156121 -0.039046422 0.026239604
0.0021911128 -0.038344476 0.026646584
0.0033042943 -0.038550101 0.026664138
0.0044197221 -0.038672566 0.027179688
0.0054625445 -0.038237814 0.027364731
0.0066648852 -0.038878497 0.027372062
0.0077681583 -0.038840789 0.027269602
0.0088075195 -0.038532898 0.027165413
0.0099390913 -0.038652021 0.026897311
0.011035497 -0.038624238 0.027117819
0.012156291 -0.038679108 0.026584566
0.013599261 -0.039664511 0.026455134
0.014603534 -0.039317206 0.026690602
0.015564937 -0.038912341 0.026733756
0.016645174 -0.03883874 0.026560158
0.017589998 -0.038478121 0.026877135
0.018747304 -0.03859739 0.02705586
0.019905824 -0.03870577 0.026895136
0.020715326 -0.03815981 0.026955307
0.022022594 -0.03853954 0.027204216
0.023302957 -0.03883826 0.026314169
0.024366675 -0.038765166 0.026083559
0.025732934 -0.03915881 0.025028318
0.026715428 -0.038959999 0.024058729
0.027469695 -0.038457572 0.022808522
0.029364606 -0.039529275 0.0219163
0.029572651 -0.038334917 0.020604342
0.031314261 -0.039142825 0.017222345
0.032282852 -0.038962059 0.015622526
-0.038956031 -0.037843 0.015306383
-0.037947789 -0.037947789 0.016033441
-0.037458729 -0.038593844 0.01666826
-0.036288254 -0.03855627 0.016760826
-0.035063431 -0.038456667 0.017774582
-0.033429801 -0.037887108 0.018154114
-0.03234069 -0.037916671 0.018023312
-0.031655252 -0.038438521 0.017712235
-0.030078158 -0.037876196 0.01784423
-0.029563183 -0.038659547 0.017728388
-0.028501868 -0.03876254 0.018118799
-0.027012236 -0.038267337 0.018642396
-0.026355064 -0.03895966 0.018912077
-0.024705535 -0.038181283 0.019103527
-0.023513068 -0.038068775 0.019150704
-0.022560077 -0.038352132 0.018816382
-0.021080665 -0.037723295 0.018886626
-0.019947223 -0.037678093 0.018308073
-0.019233223 -0.038466446 0.018464565
-0.017934695 -0.038111228 0.018060863
-0.01717148 -0.038922019 0.01901406
-0.015880242 -0.038566303 0.019567162
-0.014634285 -0.038274284 0.020384133
-0.013557715 -0.038413528 0.021011025
-0.012313884 -0.038061097 0.022881955
-0.010986231 -0.037353188 0.023591101
-0.0099636316 -0.037640385 0.023887634
-0.0087214466 -0.037066147 0.0249286
-0.0076975315 -0.037388012 0.025794148
-0.0067042192 -0.037990578 0.026098162
-0.0055387425 -0.037663452 0.026421279
-0.0044675698 -0.037974343 0.026480258
-0.0033248684 -0.037681844 0.026626915
-0.0021846558 -0.037139151 0.026503623
-0.0010929457 -0.037160154 0.026678532
0 -0.037453599 0.027204245
0.0010935533 -0.037180811 0.027492285
0.0022122387 -0.037608061 0.027650982
0.0033181247 -0.037605416 0.027930439
0.004366233 -0.037112977 0.029042631
0.0055271992 -0.037584957 0.028873265
0.0066225715 -0.037527908 0.029037267
0.0076669147 -0.037239302 0.028410256
0.0089882361 -0.038200002 0.028252095
0.0098286038 -0.037130281 0.027855694
0.011067012 -0.037627846 0.027769566
0.012233716 -0.037813302 0.027663141
0.013246538 -0.037531856 0.027178943
0.014295624 -0.037388556 0.027377158
0.015882792 -0.038572494 0.027500749
0.016584981 -0.037592623 0.027020693
0.017608328 -0.037417695 0.027500749
0.018872045 -0.03774409 0.027550548
0.019727627 -0.037263297 0.027439892
0.020826988 -0.037269346 0.027609646
0.021975109 -0.037357688 0.027656794
0.022774065 -0.036872294 0.027382255
0.024458626 -0.037799697 0.027260065
0.025413364 -0.037567582 0.026667684
0.026501337 -0.037543561 0.025526166
0.02816987 -0.038311023 0.023981214
0.028951554 -0.037859723 0.023368031
0.029780272 -0.037501082 0.021720052
0.031249655 -0.037946012 0.020186782
0.032096416 -0.037630279 0.017679274
0.03369154 -0.038183745 0.015329033
-0.039144173 -0.036907364 0.015271604
-0.037803274 -0.036691412 0.016257018
-0.037098717 -0.037098717 0.017167538
-0.035946831 -0.03707017 0.017510951
-0.034255516 -0.036465548 0.018104702
-0.033751227 -0.037126351 0.018495142
-0.032454602 -0.036931098 0.018495142
-0.031181434 -0.036749549 0.018428892
-0.030758854 -0.037594151 0.019014955
-0.029369066 -0.037276119 0.019083232
-0.027719302 -0.036589477 0.019602895
-0.027131392 -0.037305664 0.019902945
-0.025577705 -0.036698446 0.020118296
-0.024662601 -0.036993898 0.019662142
-0.023608426 -0.037098955 0.019595116
-0.022013659 -0.036322538 0.019595116
-0.021113874 -0.036671463 0.019932717
-0.020048616 -0.0367558 0.019683748
-0.019132968 -0.037140466 0.019220948
-0.017752854 -0.036615264 0.019177228
-0.01680431 -0.036969479 0.019527435
-0.015650572 -0.036890633 0.01999715
-0.014760501 -0.037468962 0.020229906
-0.01359552 -0.03738768 0.020751804
-0.012353193 -0.037059579 0.021777064
-0.011124595 -0.036711164 0.022853047
-0.0098869652 -0.036252204 0.023821205
-0.0088301916 -0.03642454 0.024922013
-0.007785046 -0.03670093 0.025613248
-0.0066272295 -0.03644976 0.026413828
-0.0055687567 -0.036753796 0.027000666
-0.0044859992 -0.037009493 0.027085513
-0.003302407 -0.036326479 0.027297199
-0.002195562 -0.036226772 0.027364522
-0.0011084259 -0.036578055 0.027693987
0 -0.035838183 0.028200269
0.0011038682 -0.036427651 0.028406739
0.0022329956 -0.036844425 0.028775424
0.0032597485 -0.03585723 0.02940762
0.004437143 -0.036606431 0.030495286
0.0055420203 -0.036577336 0.030604541
0.0064959829 -0.035727907 0.030747771
0.0077220984 -0.036404178 0.030358493
0.0087927654 -0.036270157 0.030335546
0.0098689208 -0.036186047 0.029824913
0.011192027 -0.03693369 0.029008985
0.01199637 -0.035989109 0.028734326
0.013268971 -0.036489669 0.028699428
0.014462827 -0.036713328 0.028734803
0.015570648 -0.036702242 0.028529257
0.016824348 -0.037013564 0.028387427
0.017914131 -0.036947895 0.028452665
0.018578703 -0.036064539 0.02828145
0.019890171 -0.036465313 0.028332174
0.020805936 -0.036136627 0.028283179
0.021607008 -0.035651565 0.028117269
0.022966126 -0.036089625 0.028081596
0.024000483 -0.036000725 0.027945787
0.02512978 -0.03605577 0.027603507
0.026715016 -0.036733147 0.026920408
0.027197696 -0.035900958 0.025933415
0.028465619 -0.036129441 0.024286091
0.030419981 -0.037179977 0.02322644
0.031116934 -0.036673527 0.02157253
0.032451086 -0.036927097 0.019969225
0.033858489 -0.037244339 0.017321765
0.0350857 -0.037349295 0.015607893
-0.040819753 -0.036284223 0.015119284
-0.03897823 -0.035637241 0.0156703
-0.03795293 -0.035720404 0.016350627
-0.037306055 -0.036175571 0.017189562
-0.035690356 -0.035690356 0.017765552
-0.034910515 -0.036036659 0.018009871
-0.033978023 -0.036243226 0.018923759
-0.03269494 -0.036077175 0.01896596
-0.031739466 -0.036273677 0.018958509
-0.030283639 -0.035891719 0.0196428
-0.028934982 -0.035612285 0.019536644
-0.027802221 -0.035586841 0.020327091
-0.026732037 -0.035642717 0.02081123
-0.025553541 -0.035552751 0.020881623
-0.024539383 -0.035693649 0.020979166
-0.023309808 -0.035519708 0.020706058
-0.022219632 -0.035551414 0.02082777
-0.021140043 -0.035604279 0.020538777
-0.020035168 -0.035618078 0.020055234
-0.018889055 -0.035555869 0.01971975
-0.018160673 -0.036321346 0.019352019
-0.016900627 -0.036054671 0.019681185
-0.015752373 -0.036005426 0.019665927
-0.014729517 -0.036257271 0.020119548
-0.013544311 -0.036118165 0.020531148
-0.012480665 -0.036307391 0.020938367
-0.010986477 -0.035156727 0.02252835
-0.0098736454 -0.035106298 0.023370296
-0.0088096093 -0.035238437 0.024976492
-0.0077045141 -0.035220638 0.025407851
-0.0066435169 -0.035432093 0.026486188
-0.0055628908 -0.035602503 0.027262717
-0.0044040028 -0.035232022 0.027772725
-0.003314561 -0.035355318 0.02817446
-0.0022318659 -0.035709854 0.028748721
-0.0010964327 -0.035085846 0.029046804
0 -0.035340749 0.029203475
0.0010971013 -0.03510724 0.029753178
0.0021614819 -0.03458371 0.03024298
0.0032841105 -0.035030514 0.030864209
0.0044728043 -0.035782434 0.031935096
0.0054410337 -0.034822617 0.031798095
0.0066103344 -0.035255115 0.032038808
0.0076874979 -0.035142846 0.031400234
0.0087726619 -0.035090648 0.031334907
0.0098747397 -0.035110187 0.030989259
0.011158435 -0.035706993 0.030521184
0.011796949 -0.034318399 0.029324681
0.013210407 -0.035227749 0.029266804
0.014236717 -0.035044227 0.029266804
0.015549974 -0.035542797 0.029220134
0.016901538 -0.036056612 0.029036194
0.017815709 -0.035631418 0.029215008
0.018844664 -0.035472311 0.028858244
0.019735696 -0.035085682 0.029153734
0.020575954 -0.034654237 0.029220134
0.021879679 -0.035007488 0.028857291
0.023197638 -0.03534878 0.029357642
0.023874462 -0.034726489 0.029319167
0.025053887 -0.034857579 0.029072225
0.026162682 -0.034883577 0.028294086
0.027430655 -0.035111237 0.026850671
0.028975982 -0.035662748 0.025130481
0.030167384 -0.035753936 0.024158388
0.031600252 -0.036114573 0.022141963
0.032362666 -0.035710528 0.021434605
0.033623442 -0.035865005 0.018927604
0.035389565 -0.036531162 0.016875267
-0.041080534 -0.035374906 0.015172601
-0.039049391 -0.034586605 0.016078085
-0.038168322 -0.034800529 0.016779423
-0.036785457 -0.034556039 0.018057466
-0.035933882 -0.034810949 0.018535852
-0.034988713 -0.034988713 0.019161135
-0.033682726 -0.034805484 0.019391686
-0.032467436 -0.03470657 0.020184457
-0.031304147 -0.034658164 0.019872934
-0.03005207 -0.034504227 0.020113796
-0.029098351 -0.034694187 0.020379007
-0.028059445 -0.034793712 0.021190703
-0.026141567 -0.033766191 0.02179423
-0.025583651 -0.034482311 0.021957427
-0.024675045 -0.034769386 0.02198571
-0.023200892 -0.034248937 0.021813035
-0.022457127 -0.03480855 0.021784753
-0.020984948 -0.034238599 0.021297663
-0.019964745 -0.034383729 0.020794511
-0.019075509 -0.034784753 0.0196805
-0.017861953 -0.034607533 0.01925227
-0.01716364 -0.035471521 0.019257903
-0.015828604 -0.035049055 0.019598871
-0.014677893 -0.035001133 0.019874394
-0.013832074 -0.035732858 0.020178109
-0.012515862 -0.035271976 0.020399868
-0.010897464 -0.033782139 0.021774918
-0.0099937292 -0.034422848 0.023748547
-0.008759791 -0.033944193 0.02526626
-0.0076685781 -0.033960845 0.026134044
-0.0067305262 -0.034774389 0.026911438
-0.0055496939 -0.034408104 0.028578937
-0.0044209128 -0.034262076 0.028953075
-0.0033214106 -0.034321245 0.029161274
-0.0022083505 -0.034229431 0.029462188
-0.0011077722 -0.03434094 0.03004232
0 -0.0346407 0.030264378
0.0010934859 -0.033898063 0.031158626
0.0022089584 -0.034238856 0.031093538
0.0033370948 -0.034483314 0.031666011
0.0043294844 -0.033553503 0.032493472
0.0054603349 -0.033854079 0.032162398
0.006587192 -0.034033827 0.032543302
0.0076332623 -0.03380445 0.032086164
0.0088079292 -0.03413073 0.031830758
0.0097656297 -0.03363717 0.031487763
0.010788678 -0.033444904 0.031044662
0.011787224 -0.03321854 0.029926777
0.01315611 -0.033986621 0.029771715
0.014222912 -0.033916179 0.029271245
0.015268066 -0.033807863 0.029203326
0.016509352 -0.03411933 0.029011846
0.017996076 -0.034867402 0.029129565
0.019175669 -0.034967396 0.028967142
0.019638978 -0.033822685 0.029062897
0.020679196 -0.033739742 0.029259801
0.021983529 -0.03407447 0.029462367
0.022683276 -0.033484839 0.029666394
0.024084779 -0.033937644 0.029773563
0.025478955 -0.034341201 0.029399931
0.026380422 -0.034074713 0.029200673
0.027592242 -0.034214381 0.027816921
0.02849897 -0.033979543 0.026537895
0.029924329 -0.034357563 0.024631828
0.031553764 -0.034934528 0.023189306
0.032281045 -0.034507323 0.022220016
0.033271696 -0.034380756 0.01987344
0.035024412 -0.035024412 0.017924607
0.035784561 -0.034666296 0.01564002
-0.039853897 -0.034160484 0.016171873
-0.037609011 -0.033184424 0.017232925
-0.036860377 -0.033509433 0.017806768
-0.036318868 -0.034048937 0.019013762
-0.035361771 -0.034221068 0.019532412
-0.034482189 -0.034482189 0.019793004
-0.033025809 -0.034164626 0.019990385
-0.031014532 -0.033229854 0.019705564
-0.030290341 -0.033655934 0.020811409
-0.029280536 -0.033785235 0.020879805
-0.027737033 -0.033284437 0.02196759
-0.026689859 -0.033362325 0.022143066
-0.025733691 -0.033565685 0.022662729
-0.024287011 -0.033118654 0.022934794
-0.023415677 -0.033450965 0.022339553
-0.022305904 -0.033458859 0.022364348
-0.021183943 -0.033448331 0.02182591
-0.020212347 -0.033687245 0.021414608
-0.019062594 -0.033639871 0.020620942
-0.018047117 -0.033838343 0.019969881
-0.017205168 -0.034410335 0.020174116
-0.015665704 -0.033569366 0.020347267
-0.014883715 -0.034347035 0.020821959
-0.013726023 -0.034315057 0.020831198
-0.012402564 -0.033825174 0.020921439
-0.011048454 -0.033145364 0.022030145
-0.010001094 -0.033336982 0.024076641
-0.0087935487 -0.032975808 0.025341004
-0.0078032338 -0.03344243 0.026325762
-0.0065439353 -0.032719675 0.027361751
-0.0054662339 -0.032797404 0.028833717
-0.0044339113 -0.033254337 0.029125422
-0.0032934016 -0.032934017 0.029560238
-0.0022299287 -0.033448931 0.030087054
-0.0011135155 -0.033405464 0.030747712
0 -0.032577407 0.030981123
0.0010932068 -0.032796204 0.031409621
0.0022091337 -0.033137005 0.031994581
0.0032324768 -0.032324769 0.032264948
0.0043478161 -0.032608621 0.033257663
0.0054619778 -0.032771867 0.033234
0.00649177 -0.032458853 0.033343583
0.0077602514 -0.033258222 0.032980949
0.0087050349 -0.032643881 0.0328376
0.0098101534 -0.032700513 0.032442361
0.010791937 -0.032375813 0.031823516
0.011837595 -0.032284349 0.030689627
0.013197986 -0.032994967 0.030284762
0.014438128 -0.033318758 0.030068874
0.015352628 -0.032898489 0.029866487
0.016372116 -0.032744233 0.029604137
0.017936297 -0.033630557 0.029687762
0.018843649 -0.033253498 0.029301375
0.020098634 -0.033497725 0.029128373
0.020921985 -0.033034712 0.029399306
0.021827357 -0.032741036 0.029561698
0.023116015 -0.033022877 0.030047864
0.024089329 -0.032849085 0.030110896
0.025048148 -0.032671496 0.029830277
0.026429107 -0.033036385 0.029534101
0.027580764 -0.033096917 0.028108358
0.029151171 -0.033635966 0.026904225
0.03037552 -0.033750575 0.025475025
0.030904133 -0.033111572 0.024307162
0.032199197 -0.033309512 0.023384213
0.033550829 -0.033550829 0.021233618
0.034694605 -0.033575423 0.01908353
0.036237407 -0.033972569 0.017100781
-0.03954944 -0.032769538 0.015634
-0.038011447 -0.032421529 0.017230332
-0.036879092 -0.032408901 0.018734902
-0.03565621 -0.03231344 0.019355208
-0.035313711 -0.033035405 0.020031214
-0.034224667 -0.033083845 0.020634413
-0.032419674 -0.032419674 0.020684898
-0.03218041 -0.03332971 0.020882279
-0.030530151 -0.032791644 0.020882279
-0.02905551 -0.03240807 0.021095723
-0.028009171 -0.032490637 0.022173792
-0.026522812 -0.032048397 0.022259891
-0.025685329 -0.032385848 0.022613853
-0.02459872 -0.032425586 0.022615016
-0.023345986 -0.032239698 0.022556901
-0.02241203 -0.032497447 0.022253156
-0.021461366 -0.032756824 0.021989048
-0.019932806 -0.032113969 0.021357447
-0.019099139 -0.032580882 0.020496994
-0.017995002 -0.032615941 0.020190537
-0.01695307 -0.032775935 0.019676626
-0.015839605 -0.032810614 0.020294249
-0.015076878 -0.033633038 0.020608544
-0.013619117 -0.032912869 0.020618558
-0.012706431 -0.033498775 0.021277428
-0.011358112 -0.032938529 0.021852046
-0.0098819938 -0.031841982 0.02311185
-0.0088763954 -0.032176934 0.025312275
-0.0077391155 -0.03206205 0.026417911
-0.0065586348 -0.031700071 0.027536094
-0.0055183172 -0.032006241 0.02851814
-0.0043199095 -0.031319343 0.02959466
-0.0032974719 -0.031875566 0.029896349
-0.002234838 -0.032405153 0.030337423
-0.001101739 -0.031950433 0.030998558
0 -0.031678926 0.031375796
0.0010880554 -0.031553607 0.031630397
0.0021808341 -0.031622097 0.032148212
0.0032514965 -0.031431135 0.032495826
0.0043821819 -0.031770822 0.033500463
0.0054371343 -0.03153538 0.033648968
0.0066297818 -0.032043945 0.033822954
0.0077765719 -0.032217227 0.033302099
0.0087664612 -0.031778425 0.033277541
0.0098891081 -0.031864904 0.032669485
0.010988466 -0.03186655 0.031386763
0.011961471 -0.031534791 0.030708998
0.013437481 -0.032473914 0.030211002
0.014417067 -0.032161154 0.029585361
0.015548595 -0.032207806 0.030141205
0.016623981 -0.0321397 0.029487669
0.017401909 -0.03154096 0.029487669
0.018757233 -0.031997636 0.029104203
0.020038884 -0.032284871 0.029320836
0.020955821 -0.031985201 0.029468179
0.022246815 -0.032257885 0.030549347
0.022983776 -0.031739503 0.030720651
0.02396014 -0.031583823 0.031138241
0.025318058 -0.031922769 0.030325502
0.026400426 -0.031900518 0.029954284
0.02727017 -0.031633399 0.028604746
0.029181743 -0.032548867 0.027484328
0.030151699 -0.032385159 0.026360869
0.031050766 -0.032159723 0.025229543
0.032097764 -0.032097764 0.024304122
0.03321854 -0.032111257 0.02261579
0.034888897 -0.032638002 0.020651519
0.036162533 -0.032772299 0.01894629
0.037525147 -0.032976646 0.01655969
-0.039658196 -0.031726558 0.015381277
-0.038397308 -0.031621311 0.017266273
-0.036763553 -0.031193318 0.017761827
-0.036093228 -0.031581577 0.01867497
-0.035359412 -0.031937532 0.020228267
-0.033646569 -0.031403463 0.020301104
-0.033171371 -0.032027528 0.020270467
-0.032233659 -0.032233659 0.020245135
-0.030325796 -0.031448975 0.020210385
-0.029452028 -0.031717569 0.020336419
-0.028146157 -0.031523693 0.020959079
-0.026591616 -0.031023551 0.021672934
-0.026316995 -0.032038078 0.021717072
-0.024735348 -0.031481352 0.022316873
-0.023700908 -0.031601209 0.022493362
-0.02253142 -0.031543989 0.021849245
-0.02107266 -0.031054446 0.020875722
-0.020285249 -0.031554833 0.020722955
-0.019328773 -0.031835627 0.019688219
-0.017963178 -0.03143556 0.019398004
-0.017054541 -0.031835143 0.019274265
-0.015992194 -0.031984389 0.019440025
-0.014747608 -0.031764079 0.01961574
-0.013995811 -0.032656893 0.020028949
-0.012660525 -0.03222679 0.020374477
-0.011217225 -0.031408232 0.021696746
-0.0100452 -0.031251732 0.022381008
-0.0089879204 -0.031457722 0.024347931
-0.0078213736 -0.031285495 0.026226282
-0.0067681656 -0.031584773 0.02727288
-0.0055861995 -0.031282719 0.02819851
-0.0044518113 -0.031162677 0.028970063
-0.0032962319 -0.030764831 0.029864371
-0.0022235557 -0.031129777 0.030474484
-0.0011029075 -0.030881409 0.031092614
0 -0.030685645 0.031868756
0.0010670807 -0.029878257 0.032168388
0.0022026314 -0.030836839 0.032426327
0.0032790792 -0.030604741 0.032512605
0.0043508438 -0.030455906 0.033755869
0.0054140734 -0.030318812 0.034049511
0.0066966414 -0.031250995 0.034409463
0.0076515102 -0.030606041 0.034049511
0.0087480675 -0.030618235 0.033744842
0.009784136 -0.030439535 0.032430589
0.01077272 -0.030163618 0.0315063
0.011936167 -0.030382972 0.029858708
0.013180855 -0.030755328 0.029793113
0.014101116 -0.030371634 0.029238969
0.015604113 -0.031208226 0.029116362
0.016698953 -0.031171378 0.029010624
0.017978737 -0.031462789 0.029077709
0.018622113 -0.030671718 0.028808773
0.019523976 -0.030370632 0.029076993
0.021189256 -0.031226272 0.02875942
0.022688158 -0.031763423 0.029888839
0.022995492 -0.030660655 0.029948711
0.024294408 -0.030920157 0.030824959
0.025184255 -0.030659091 0.03088221
0.02625208 -0.030627426 0.030109078
0.027569422 -0.030877752 0.029343098
0.028471977 -0.030662129 0.028198004
0.029699847 -0.03079984 0.027650058
0.031339977 -0.031339977 0.026524246
0.031876463 -0.030777274 0.025452852
0.033097014 -0.030890545 0.02413097
0.03542709 -0.03199866 0.022882849
0.035586815 -0.031138463 0.02061215
0.038013875 -0.0322542 0.018246651
0.039293718 -0.032359533 0.016471148
-0.038067874 -0.030230371 0.015079349
-0.036761794 -0.030077834 0.016460717
-0.036295369 -0.030624218 0.017394125
-0.035057049 -0.03053356 0.018012434
-0.034569588 -0.03111263 0.018677741
-0.033404011 -0.031100288 0.017955631
-0.031962164 -0.030820657 0.018024474
-0.031089766 -0.031089766 0.017982006
-0.030369388 -0.031537443 0.018249691
-0.02856081 -0.030845674 0.019974768
-0.027276792 -0.030686393 0.020207107
-0.025934525 -0.030444875 0.02043131
-0.025100399 -0.030805036 0.02087599
-0.02398053 -0.030832112 0.020756483
-0.022660434 -0.030591588 0.020229369
-0.021595832 -0.030688815 0.020223171
-0.020499848 -0.030749774 0.019948393
-0.019164678 -0.030438017 0.019587725
-0.018188974 -0.030693896 0.019127905
-0.017000003 -0.030600008 0.019003212
-0.015765104 -0.030404132 0.018976331
-0.014880556 -0.03090577 0.019163787
-0.014025933 -0.03155835 0.019359618
-0.012501471 -0.030685429 0.01976797
-0.011399774 -0.030779392 0.020489961
-0.010138333 -0.030415 0.021838039
-0.0091485763 -0.030876447 0.02294606
-0.0080164485 -0.030920587 0.025011182
-0.0068087419 -0.030639341 0.02671653
-0.0055968883 -0.030223198 0.027332664
-0.0044608461 -0.030110711 0.028048277
-0.0033093884 -0.029784497 0.02921629
-0.0022556926 -0.030451851 0.029733479
-0.0011172104 -0.03016468 0.031153679
0 -0.029704845 0.031535208
0.0010955523 -0.029579915 0.032105178
0.0021953429 -0.02963713 0.032171756
0.0032947881 -0.029653095 0.032329202
0.0044153421 -0.029803559 0.033405751
0.0054782652 -0.029582635 0.034047693
0.006565664 -0.02954549 0.034286082
0.007786944 -0.030035358 0.033698022
0.0087373992 -0.029488724 0.032823384
0.0097682923 -0.029304879 0.031985343
0.011001415 -0.02970382 0.030615866
0.011962291 -0.029361987 0.029872894
0.013450185 -0.030262917 0.029669136
0.014510618 -0.030137436 0.029396027
0.015575286 -0.030038053 0.028957129
0.016568664 -0.029823598 0.02865991
0.017997369 -0.03037056 0.028656751
0.018775122 -0.029819313 0.028571337
0.019978026 -0.029967042 0.028645545
0.020885747 -0.029679745 0.028645545
0.021883901 -0.029543268 0.02858457
0.023405131 -0.03009231 0.028856546
0.024505697 -0.030075174 0.029505789
0.024953859 -0.029293662 0.029587835
0.026881816 -0.030242043 0.029174745
0.027622696 -0.029832512 0.028953642
0.028539965 -0.029637657 0.027710706
0.030104792 -0.030104792 0.02742818
0.030816833 -0.029716233 0.026481211
0.031815022 -0.029620882 0.025809795
0.033894356 -0.030504923 0.024903148
0.035190552 -0.030649835 0.023801178
0.03661751 -0.030896027 0.021612972
0.037616163 -0.030776862 0.019577116
0.038488332 -0.030564265 0.018175393
0.039862204 -0.030750845 0.016436338
-0.03661963 -0.02975345 0.01524353
-0.035497222 -0.029771864 0.016934991
-0.034511544 -0.029910006 0.017218292
-0.032851581 -0.02945314 0.017155081
-0.032567356 -0.030241117 0.017356634
-0.031288292 -0.030129464 0.0176934
-0.0307138 -0.0307138 0.017989486
-0.029143946 -0.030309703 0.018211007
-0.027842497 -0.030162705 0.018628359
-0.025849367 -0.029221023 0.019110352
-0.025124574 -0.029692678 0.020303667
-0.023997234 -0.029710859 0.019860387
-0.022925479 -0.029803123 0.019841611
-0.021675602 -0.029661348 0.019713312
-0.020439761 -0.029524101 0.019527823
-0.019236043 -0.029419828 0.018370777
-0.01821629 -0.02960147 0.017517805
-0.016868729 -0.029239129 0.017118454
-0.015920943 -0.029567463 0.018054038
-0.01507196 -0.03014392 0.017754257
-0.013734848 -0.029758839 0.018029034
-0.012835388 -0.03033819 0.019500673
-0.011588396 -0.030129829 0.020458341
-0.0099845165 -0.028844161 0.021473557
-0.0090211146 -0.029318621 0.023397893
-0.0079223756 -0.029425967 0.024231136
-0.0067689796 -0.029332245 0.026133358
-0.0056349249 -0.02930161 0.027687311
-0.0044260486 -0.028769316 0.028150439
-0.003347354 -0.029010402 0.028728336
-0.0022418266 -0.029143745 0.028985202
-0.001108024 -0.028808625 0.030076414
0 -0.028781824 0.031623662
0.001100479 -0.028612455 0.031774759
0.002181832 -0.028363816 0.031885922
0.0032914979 -0.028526315 0.031806827
0.0044146101 -0.028694965 0.032945633
0.0054429672 -0.028303429 0.032979488
0.006658372 -0.028852945 0.033268809
0.0077013518 -0.02860502 0.032859176
0.0088707292 -0.028829871 0.03156054
0.010028863 -0.028972272 0.030566633
0.011067705 -0.028776035 0.030002415
0.01208871 -0.028573312 0.029316157
0.013437074 -0.02911366 0.029016852
0.014249737 -0.028499475 0.028608054
0.015569338 -0.028914483 0.028297335
0.017052054 -0.029556895 0.027857602
0.017764919 -0.028867994 0.027750611
0.019414833 -0.029693274 0.027389467
0.020685945 -0.029879699 0.027750611
0.020740213 -0.028381344 0.027210444
0.022490356 -0.029237462 0.027333945
0.023512337 -0.029110514 0.027185887
0.024207648 -0.028609039 0.028497219
0.026010042 -0.029402656 0.02870369
0.026689438 -0.028913558 0.028630197
0.027513366 -0.028613901 0.028454453
0.028977217 -0.028977217 0.027909517
0.029890088 -0.028783046 0.027309746
0.031010542 -0.028795503 0.026310951
0.032925501 -0.029519415 0.025668323
0.03387443 -0.029357839 0.025291175
0.034870967 -0.029246617 0.024422914
0.036398366 -0.029573672 0.022857219
0.036573704 -0.028815646 0.021686971
0.0390306 -0.029846929 0.019855142
0.04020394 -0.029865785 0.018152356
0.040379237 -0.029162785 0.015946388
-0.035910994 -0.028960478 0.015319169
-0.034023605 -0.028353006 0.015886039
-0.033724573 -0.029072907 0.015630692
-0.032547005 -0.029059825 0.016001016
-0.030862069 -0.028575988 0.016349047
-0.030028649 -0.028873703 0.016749501
-0.029294329 -0.029294329 0.017154485
-0.027644245 -0.02879609 0.018123746
-0.026661159 -0.028979521 0.0186764
-0.024957435 -0.028360724 0.018796951
-0.023740679 -0.028262714 0.018876106
-0.023068909 -0.028836137 0.018828362
-0.021660555 -0.028500732 0.01883617
-0.020441903 -0.028391534 0.018409014
-0.019495431 -0.028669752 0.017992884
-0.018122857 -0.028316965 0.017539024
-0.017266391 -0.02877732 0.017098546
-0.01608099 -0.028716054 0.017539024
-0.015002394 -0.028850758 0.01763621
-0.014042148 -0.029254477 0.017400235
-0.012850137 -0.02920486 0.017965376
-0.011345056 -0.028362641 0.018688291
-0.010146541 -0.028184837 0.020519972
-0.0089928526 -0.028102664 0.021764994
-0.0078375945 -0.027991408 0.023743242
-0.0067930552 -0.028304398 0.024703681
-0.005588355 -0.027941776 0.027062267
-0.0044615595 -0.027884748 0.027918607
-0.0033840337 -0.028200282 0.028637618
-0.0022247774 -0.027809719 0.029066503
-0.0011110604 -0.02777651 0.029653877
0 -0.027948514 0.029952019
0.0010935945 -0.027339863 0.030570179
0.0022173531 -0.027716914 0.030757785
0.00331831 -0.027652586 0.031252474
0.0043897522 -0.027435951 0.03221482
0.0055980915 -0.027990459 0.032233655
0.0066338717 -0.027641134 0.032164454
0.0077375006 -0.027633931 0.031292051
0.0089397961 -0.027936865 0.030481905
0.0098705627 -0.027418233 0.029368281
0.011109614 -0.027774036 0.028953969
0.012288702 -0.027928868 0.028631002
0.013265476 -0.027636409 0.028522968
0.014434654 -0.02775895 0.028013676
0.015867269 -0.028334409 0.02793929
0.016771972 -0.027953288 0.02764082
0.017982755 -0.028098054 0.02731055
0.019342454 -0.028444786 0.027038842
0.020175984 -0.028022202 0.027233779
0.021473447 -0.028254537 0.02697736
0.022847664 -0.028559582 0.0267151
0.023494365 -0.027969481 0.0267151
0.024526974 -0.027871562 0.026998043
0.025790572 -0.028033232 0.027089566
0.026926933 -0.02804889 0.027359933
0.02795352 -0.02795352 0.027592927
0.028906008 -0.02779424 0.02746287
0.029771855 -0.027566532 0.02703324
0.031420004 -0.028053574 0.026544541
0.032406148 -0.027936332 0.026491731
0.03353386 -0.027944885 0.025815547
0.034929138 -0.02816866 0.025239825
0.035249066 -0.027538333 0.024448127
0.037360054 -0.028303072 0.023485452
0.038768727 -0.028506417 0.022202104
0.03973921 -0.028385149 0.020345896
0.041577008 -0.028872922 0.0176633
0.043022744 -0.02906942 0.01534164
-0.031314384 -0.027835008 0.015368968
-0.030192709 -0.027870193 0.016651511
-0.02841034 -0.027273925 0.01686734
-0.027969247 -0.027969247 0.016906977
-0.026697358 -0.027858112 0.017250657
-0.024973266 -0.027243562 0.017345279
-0.02415658 -0.027607519 0.017719805
-0.022865729 -0.027438875 0.017716914
-0.021476716 -0.027128482 0.018117964
-0.020590583 -0.027454112 0.017510653
-0.019279238 -0.027217746 0.016773611
-0.018417543 -0.027626313 0.01550746
-0.017299131 -0.027678607 0.015148073
-0.014191762 -0.028383523 0.01522544
-0.012773122 -0.02786863 0.016476989
-0.011657107 -0.027977057 0.017748237
-0.010295955 -0.027455881 0.018445671
-0.009021 -0.027063001 0.019521028
-0.0079861851 -0.027381206 0.02154997
-0.006669573 -0.026678292 0.023418069
-0.005608683 -0.02692168 0.024776489
-0.0045245639 -0.027147384 0.025908798
-0.0033500397 -0.026800318 0.027163416
-0.0022533585 -0.027040301 0.028123409
-0.0011162817 -0.02679076 0.02879706
0 -0.026576107 0.029202729
0.0011083691 -0.026600858 0.029654592
0.0022243864 -0.026692638 0.029654592
0.0032837584 -0.026270067 0.029713064
0.0044770907 -0.026862545 0.030303508
0.0055782525 -0.026775612 0.030366331
0.006687101 -0.026748404 0.03036353
0.0078532742 -0.02692551 0.029751599
0.0088788448 -0.026636533 0.029626012
0.010062105 -0.026832283 0.028727531
0.011245172 -0.026988413 0.028389543
0.012277858 -0.026788054 0.027982235
0.013358026 -0.026716052 0.02722469
0.01450724 -0.026782596 0.027318805
0.01568489 -0.026888382 0.027178437
0.016844779 -0.026951645 0.026357293
0.01839808 -0.02759712 0.026402414
0.019111762 -0.026981311 0.026129127
0.020429693 -0.027239591 0.02612403
0.021773594 -0.027503485 0.025996715
0.022448706 -0.026938448 0.026019484
0.023653664 -0.027032757 0.026041389
0.024806136 -0.027061239 0.026621968
0.025445089 -0.026551396 0.027026623
0.026575232 -0.026575232 0.027064413
0.028102044 -0.026977962 0.027537465
0.029120434 -0.0268804 0.027453512
0.030502751 -0.027113555 0.02668941
0.030897742 -0.026483778 0.026598901
0.032423388 -0.026833149 0.026598901
0.033466112 -0.02677289 0.026109874
0.034227096 -0.026498394 0.026129663
0.035900943 -0.026925705 0.025413632
0.037067447 -0.026958145 0.024527639
0.037529126 -0.026491147 0.023660302
0.040316109 -0.027645331 0.022234917
0.041685868 -0.02779058 0.019628555
0.041315973 -0.02679955 0.017994404
0.044053033 -0.027822968 0.015652627
-0.027662689 -0.026510078 0.015487045
-0.026414702 -0.026414702 0.01630336
-0.025249707 -0.026397422 0.016664118
-0.023849888 -0.026121305 0.016612828
-0.022625871 -0.026019752 0.01644513
-0.021766378 -0.026348772 0.016560853
-0.020581549 -0.026298648 0.016209632
-0.019526064 -0.026417617 0.015477508
-0.010203798 -0.026076376 0.016543686
-0.0091016851 -0.026167346 0.018153965
-0.0078868028 -0.025913782 0.019465923
-0.0066928272 -0.02565584 0.021483064
-0.0056505916 -0.025992721 0.023653835
-0.0044614323 -0.025653236 0.024889767
-0.0033644089 -0.025793804 0.025054544
-0.0022366436 -0.025721401 0.026446849
-0.0011201585 -0.025763644 0.027983516
0 -0.025735723 0.028775424
0.0011205846 -0.025773447 0.02884686
0.002205841 -0.025367172 0.028934717
0.003357104 -0.0257378 0.028935641
0.0044524232 -0.025601435 0.02963385
0.0055805906 -0.025670718 0.029344827
0.0067797471 -0.025989031 0.02957207
0.0078863772 -0.025912384 0.029068559
0.0090598119 -0.026046958 0.029140681
0.010196131 -0.02605678 0.028874308
0.011166487 -0.025682921 0.027990311
0.01244499 -0.026021345 0.026517421
0.013777639 -0.026407141 0.025935769
0.014666761 -0.025948886 0.025988102
0.015653111 -0.025715828 0.026005477
0.017069886 -0.026173826 0.025878161
0.01778277 -0.025562733 0.025957286
0.019287223 -0.026094479 0.025783837
0.020478653 -0.026167169 0.025144368
0.021605786 -0.026154373 0.025378793
0.022813132 -0.026235104 0.025853455
0.023724778 -0.025984282 0.02633667
0.02472551 -0.025849398 0.025896341
0.026140727 -0.026140727 0.026697725
0.026917454 -0.025795894 0.026818126
0.028128924 -0.02587861 0.027186096
0.028931987 -0.025593681 0.027107537
0.029905347 -0.025474925 0.026558489
0.031352837 -0.025754116 0.026417106
0.032560166 -0.02582358 0.026896894
0.033206917 -0.025458638 0.02649039
0.034448445 -0.025558524 0.02691555
0.035995487 -0.025871756 0.026338547
0.036618359 -0.025521887 0.02617833
0.038046043 -0.02573703 0.025268734
0.039708551 -0.026094191 0.024102867
0.040353917 -0.025781672 0.022344559
0.042275175 -0.026279164 0.020729035
0.043469876 -0.026310714 0.019088358
0.044336203 -0.026146993 0.016616911
-0.025425762 -0.025425762 0.015441537
-0.024171146 -0.025322152 0.015144467
-0.022969561 -0.025266517 0.015526652
-0.02159494 -0.025004666 0.015376031
-0.0079092151 -0.024857532 0.017929345
-0.0068679941 -0.025182646 0.019583285
-0.0055606738 -0.024466965 0.021199465
-0.0045195292 -0.024857409 0.022925884
-0.0033897208 -0.024857953 0.023884535
-0.0022423146 -0.024665462 0.024502754
-0.001119037 -0.024618814 0.02541101
0 -0.024817126 0.027113318
0.0011076519 -0.024368338 0.028103292
0.0022486467 -0.024735112 0.028617293
0.0033583057 -0.024627576 0.028107405
0.0044223638 -0.024323 0.028705329
0.0056020715 -0.024649115 0.028012931
0.0067839846 -0.024874609 0.02718544
0.0078060939 -0.024533438 0.027162611
0.0091014998 -0.025029125 0.02722618
0.010137299 -0.024780065 0.02714476
0.011368295 -0.025010251 0.026192546
0.012629498 -0.025258996 0.026099592
0.013545151 -0.024832776 0.025033504
0.014550155 -0.024623338 0.024824798
0.015917674 -0.025013488 0.024907529
0.01691987 -0.024815807 0.024521858
0.018076297 -0.024854906 0.024849176
0.019373683 -0.025071826 0.024849176
0.020155268 -0.024634216 0.024635822
0.021616897 -0.02503009 0.024677128
0.023094825 -0.025404308 0.024842292
0.023351438 -0.024463411 0.025006473
0.025132867 -0.025132867 0.025323421
0.026370859 -0.025224298 0.02605021
0.02705832 -0.024803462 0.026827157
0.028157162 -0.024778301 0.027366787
0.029251955 -0.024751656 0.027431995
0.029942323 -0.024397448 0.027093709
0.032093566 -0.025216373 0.026879311
0.032323446 -0.024521235 0.027566582
0.033528473 -0.024587546 0.02710849
0.034961324 -0.02481126 0.027875632
0.035246972 -0.024232291 0.027627081
0.036485299 -0.024323532 0.027526081
0.038519554 -0.024924416 0.026243895
0.038922254 -0.024465417 0.025463492
0.040638957 -0.024834918 0.025138438
0.041897476 -0.024912011 0.022922695
0.042480916 -0.024594214 0.021999419
0.045353845 -0.025584221 0.020411849
0.045693625 -0.025131494 0.017124414
-0.006817406 -0.023860922 0.016307563
-0.0056901947 -0.023898819 0.020073622
-0.004575178 -0.024019687 0.021681219
-0.003410086 -0.023870602 0.021626949
-0.0022629527 -0.023761004 0.022648424
-0.0011382459 -0.023903165 0.02442494
0 -0.023410929 0.025393248
0.0011246062 -0.023616731 0.025457442
0.0022797587 -0.023937466 0.025626034
0.0033655143 -0.023558602 0.025608182
0.0045617823 -0.023949357 0.025581002
0.0056624911 -0.023782464 0.025324196
0.0066661676 -0.023331588 0.024990052
0.0079724956 -0.023917489 0.024608135
0.0089780372 -0.023567349 0.025657177
0.010230702 -0.02387164 0.025387764
0.01142095 -0.023983998 0.025373727
0.012257577 -0.02340083 0.025410652
0.013511176 -0.023644559 0.024231672
0.014741194 -0.0238127 0.023667336
0.015713628 -0.023570444 0.023991197
0.016762406 -0.023467368 0.023862123
0.018201372 -0.023889301 0.024229348
0.018862262 -0.023300443 0.024214983
0.020473307 -0.023885528 0.024282038
0.021553913 -0.023822745 0.024225265
0.022385148 -0.023504406 0.024347275
0.024114357 -0.024114357 0.024485052
0.025356928 -0.024204342 0.024489135
0.025854249 -0.023606053 0.025203466
0.027632318 -0.02417828 0.025849789
0.028075835 -0.023583701 0.026905537
0.029246381 -0.023622079 0.027680308
0.030830471 -0.023979254 0.027528375
0.031354591 -0.023515943 0.027626544
0.032537349 -0.023561528 0.028143108
0.03347829 -0.023434803 0.028356284
0.034849297 -0.023607589 0.028669149
0.03615097 -0.023724075 0.028621644
0.037147019 -0.023639014 0.028669149
0.037352949 -0.023070941 0.028189182
0.038921062 -0.023352638 0.027650476
0.040347435 -0.023536004 0.026210487
0.040599603 -0.023043018 0.025242567
0.043062445 -0.023797667 0.023756057
0.043993708 -0.02368892 0.022520065
0.045837834 -0.024064865 0.019768089
0.0475532 -0.024356516 0.017074883
-0.0058519887 -0.023407955 0.015784204
-0.0045526219 -0.022763109 0.019397318
-0.003440666 -0.022937773 0.020195067
-0.0023016082 -0.02301608 0.021181703
-0.0011402183 -0.022804366 0.021552533
0 -0.022588853 0.022589236
0.0011377824 -0.022755647 0.02258423
0.0022521585 -0.022521583 0.02266562
0.0034191082 -0.022794055 0.022824258
0.0045355707 -0.022677854 0.023174047
0.0055861827 -0.022344731 0.022906065
0.0068328916 -0.022776304 0.023189694
0.0079944003 -0.022841142 0.023314953
0.0090897558 -0.022724388 0.024194658
0.010251187 -0.022780417 0.024433345
0.011423019 -0.022846038 0.024453282
0.012483471 -0.022697221 0.024344385
0.013654611 -0.022757685 0.024199992
0.014595107 -0.02245401 0.023995101
0.015657693 -0.022368133 0.023978382
0.017054832 -0.022739774 0.023903906
0.017710073 -0.022137592 0.024122506
0.019224627 -0.022617206 0.024172962
0.020469349 -0.022743721 0.024079621
0.021191431 -0.022306768 0.023837805
0.022939064 -0.022939064 0.023661643
0.024094442 -0.022947086 0.023625314
0.024929399 -0.022663089 0.023837805
0.026054714 -0.022656271 0.024587214
0.027290061 -0.022741716 0.025484562
0.028121958 -0.022497565 0.026491672
0.029814186 -0.022933988 0.02732113
0.030540731 -0.022622762 0.028043151
0.031450432 -0.022464594 0.027996212
0.032712348 -0.022560237 0.028667927
0.033398736 -0.022265824 0.028838694
0.034898899 -0.022515416 0.029283941
0.035889424 -0.022430889 0.029314935
0.036821257 -0.022315914 0.02943778
0.038001392 -0.022353761 0.02909261
0.039042782 -0.022310162 0.02841267
0.039797917 -0.022109954 0.027231693
0.041686222 -0.022533091 0.026635498
0.042821385 -0.02253757 0.025161117
0.043424848 -0.022269152 0.023644894
0.045923624 -0.022961812 0.022713453
0.046910919 -0.022883374 0.01973173
0.047808755 -0.022766074 0.018157661
-0.0035507139 -0.022487856 0.015631437
-0.0023150439 -0.021992916 0.017297983
-0.0011426714 -0.021710757 0.017565966
0 -0.021744387 0.018765748
0.0011338399 -0.021542959 0.020228684
0.0023152875 -0.02199523 0.02030319
0.003465934 -0.021950915 0.021831632
0.0044852067 -0.021304732 0.022014111
0.0056526368 -0.02148002 0.021850258
0.0068761087 -0.021774344 0.022258699
0.0079084095 -0.021465683 0.022385091
0.0090942709 -0.021598894 0.02338016
0.010209139 -0.021552628 0.023572683
0.011353168 -0.02157102 0.023534626
0.012611566 -0.021783615 0.023530602
0.013620473 -0.02156575 0.023589462
0.014660981 -0.021427589 0.023616403
0.015871787 -0.021540282 0.023557305
0.016857876 -0.021353308 0.023462653
0.01799071 -0.02136397 0.023826897
0.01931903 -0.021591855 0.023566335
0.020047981 -0.021161759 0.024042547
0.021736136 -0.021736136 0.023573428
0.02290413 -0.021758925 0.023573428
0.023740999 -0.021479951 0.02373147
0.024953825 -0.021551032 0.02401793
0.026119409 -0.021576904 0.024177641
0.027321091 -0.021629198 0.025046825
0.028491611 -0.021653624 0.026215643
0.029588656 -0.021622481 0.0270693
0.030473875 -0.021444578 0.027291626
0.031724732 -0.021527499 0.02827695
0.032316402 -0.021172814 0.028632015
0.033699781 -0.021343194 0.029046327
0.03540574 -0.021700291 0.029307544
0.035256512 -0.020933555 0.029573023
0.037142202 -0.021384904 0.029679567
0.037958525 -0.021212118 0.029576451
0.038495347 -0.020897474 0.028838694
0.040272243 -0.021254797 0.027912647
0.041682269 -0.021404408 0.027310848
0.042296603 -0.021148302 0.026252329
0.044226807 -0.021546394 0.024966031
0.045206733 -0.021473199 0.023599446
0.046660691 -0.021623246 0.02181384
0.048183404 -0.021797253 0.019374281
0.049138021 -0.021712149 0.017833143
0.049875699 -0.021537233 0.015321106
0.0023318792 -0.020986913 0.015070945
0.0034199185 -0.02051951 0.01590398
0.0046121753 -0.020754788 0.01821959
0.0057486114 -0.020695001 0.018765748
0.0068677654 -0.020603295 0.019914061
0.0080397809 -0.02067372 0.020950437
0.0091011664 -0.020477625 0.021987706
0.010382964 -0.020765929 0.02211991
0.011445818 -0.020602474 0.022229046
0.012422796 -0.020328213 0.023059815
0.013714103 -0.020571154 0.023434043
0.014733903 -0.020400789 0.023684829
0.015818218 -0.020337708 0.023599058
0.016996779 -0.020396134 0.023555785
0.018204108 -0.02047962 0.023684829
0.019215725 -0.02034606 0.02365008
0.020731596 -0.020731596 0.023322731
0.021666961 -0.020526594 0.02353847
0.022707218 -0.020436496 0.02365008
0.02398389 -0.020557618 0.023653746
0.025212271 -0.020628221 0.023438394
0.025967153 -0.020322118 0.023772717
0.027534375 -0.02065078 0.023769557
0.028525285 -0.020538205 0.024544358
0.029539905 -0.020450702 0.025809735
0.030764543 -0.020509694 0.026445627
0.031864494 -0.020484315 0.027371705
0.032612585 -0.020242292 0.028068602
0.034223001 -0.0205338 0.028763443
0.034837458 -0.020228202 0.029242843
0.03595617 -0.020225344 0.029123545
0.037086356 -0.020228921 0.029321074
0.0378762 -0.020052105 0.029364824
0.039107185 -0.020112267 0.028945625
0.040281221 -0.020140611 0.028187513
0.040688351 -0.019794332 0.028092086
0.042838357 -0.020291852 0.027192146
0.043659661 -0.020150613 0.026135117
0.045204625 -0.020342082 0.024555951
0.046439927 -0.02038826 0.023355335
0.047097344 -0.020184575 0.021351606
0.049297281 -0.020636071 0.01954186
0.050973698 -0.020852877 0.017978847
0.051344294 -0.020537715 0.015250206
0.0069967993 -0.019824266 0.015981734
0.0081012035 -0.019674351 0.017482013
0.009365771 -0.019902265 0.019749403
0.010437268 -0.019714842 0.02053827
0.011448896 -0.019463122 0.021132201
0.012492479 -0.019306559 0.021926582
0.013710486 -0.019423189 0.022197008
0.014741843 -0.019277794 0.022297859
0.015732151 -0.019103326 0.022277206
0.017152958 -0.019440018 0.022234827
0.017881766 -0.018999375 0.022400618
0.019405102 -0.019405102 0.022392094
0.020698801 -0.019548869 0.022196859
0.021361776 -0.019113166 0.02219981
0.022853283 -0.019425292 0.022196859
0.024206245 -0.019595532 0.022223771
0.024715854 -0.019098615 0.022262931
0.02627773 -0.019422671 0.022554457
0.027153529 -0.01923375 0.022996336
0.028238058 -0.019201878 0.023763657
0.029598437 -0.019352825 0.024172097
0.030590644 -0.019260775 0.025562614
0.032060239 -0.019465145 0.026224315
0.03298616 -0.019336715 0.02758345
0.033714596 -0.019104937 0.028210938
0.034378048 -0.018852476 0.028555721
0.036222409 -0.019243155 0.028658777
0.036351055 -0.0187263 0.029102385
0.038094949 -0.019047474 0.029270083
0.039109305 -0.018995948 0.029066533
0.039737318 -0.018764844 0.028379142
0.041170832 -0.018916328 0.028248012
0.042421252 -0.018977927 0.027635485
0.042995173 -0.018741487 0.026990861
0.045258004 -0.019234654 0.026273131
0.046266049 -0.019183483 0.024887294
0.047652088 -0.019287748 0.023993194
0.049302604 -0.019491728 0.021439463
0.050512914 -0.019516354 0.019564331
0.0510883 -0.019300025 0.017700106
0.0081685586 -0.018670991 0.016354591
0.0094768694 -0.018953739 0.017597139
0.010312803 -0.018333873 0.019032449
0.011558489 -0.018493583 0.020320892
0.012634453 -0.018377386 0.021012813
0.0136527 -0.018203601 0.02130729
0.014654695 -0.018036548 0.022094458
0.015987799 -0.01827177 0.022051245
0.016897179 -0.018023659 0.02224189
0.018189456 -0.018189456 0.022510707
0.019434001 -0.018290825 0.022510707
0.020508105 -0.018229427 0.022591412
0.021829961 -0.018383125 0.022529751
0.022931088 -0.018344872 0.022374779
0.023569874 -0.017957998 0.022284597
0.025117228 -0.018267075 0.022529751
0.026046792 -0.018119507 0.02286157
0.027102308 -0.018068206 0.022685796
0.028549558 -0.018271716 0.023663104
0.029201536 -0.017970176 0.024218082
0.030907264 -0.018315416 0.024602354
0.032368142 -0.018496083 0.025727719
0.032744586 -0.018065978 0.026614696
0.033451933 -0.017841032 0.027826011
0.034788311 -0.017955257 0.028316081
0.035522584 -0.017761292 0.029015809
0.037150275 -0.018012255 0.02925393
0.038315572 -0.018030858 0.029317051
0.038941227 -0.017801704 0.02898255
0.040398926 -0.017955078 0.028658777
0.041832741 -0.018089833 0.028570622
0.042061407 -0.017710065 0.028050274
0.044089798 -0.018088123 0.027425617
0.045383871 -0.01815355 0.026671052
0.045679327 -0.017826078 0.026227623
0.047715474 -0.018177323 0.024908245
0.048856977 -0.01817934 0.023627341
0.049652018 -0.018055279 0.021318763
0.051741935 -0.018397132 0.019303143
0.052957673 -0.018420061 0.016775161
0.0084456978 -0.018097924 0.015070319
0.0092847887 -0.017408978 0.015518397
0.010441544 -0.017402574 0.016637087
0.011610165 -0.017415248 0.017113507
0.012558623 -0.017125396 0.017734408
0.013843313 -0.017304141 0.018916875
0.014907875 -0.017201394 0.019203991
0.016103582 -0.017253838 0.020960808
0.017128065 -0.017128065 0.021819204
0.018542878 -0.017383948 0.02163434
0.019410007 -0.017126476 0.021655023
0.020798249 -0.017331876 0.021630228
0.021761525 -0.017180152 0.021635354
0.022419667 -0.016814752 0.021673858
0.023837939 -0.017027099 0.021520555
0.025112953 -0.017122468 0.0216901
0.025769474 -0.016806178 0.022205293
0.027643574 -0.017277233 0.022395164
0.028623765 -0.017174259 0.023489743
0.029141111 -0.016812179 0.023948073
0.0310432 -0.017246222 0.024380296
0.032034274 -0.017161218 0.025089085
0.032682527 -0.016904755 0.02539885
0.034229871 -0.017114935 0.027128071
0.035077918 -0.016973184 0.027704746
0.035800051 -0.016781274 0.028730929
0.03701156 -0.016823437 0.02952373
0.037446059 -0.01652032 0.029503018
0.039051194 -0.016736226 0.029503018
0.040278271 -0.016782613 0.029243678
0.04137205 -0.016772451 0.028901726
0.04323642 -0.017067008 0.028566658
0.044015978 -0.016929222 0.028179258
0.045228153 -0.016960558 0.027272373
0.046523713 -0.01702087 0.02653423
0.048096728 -0.017177403 0.025349796
0.049088296 -0.017123824 0.024157941
0.050581511 -0.017243696 0.022341937
0.051509824 -0.017169939 0.020657927
