ply
format ascii 1.0
comment PCL generated
element vertex 1284
property float x
property float y
property float z
element camera 0
property float view_px
property float view_py
property float view_pz
property float x_axisx
property float x_axisy
property float x_axisz
property float y_axisx
property float y_axisy
property float y_axisz
property float z_axisx
property float z_axisy
property float z_axisz
property float focal
property float scalex
property float scaley
property float centerx
property float centery
property int viewportx
property int viewporty
property float k1
property float k2
end_header
-0.015265441 -0.055609822 0.01613307
-0.014702788 -0.057680167 0.017195016
-0.013286268 -0.056466643 0.017533451
-0.011977751 -0.055533208 0.017939717
-0.010818215 -0.055172902 0.018367141
-0.0098327482 -0.05571891 0.018793225
-0.0086782686 -0.055323966 0.018690079
-0.0077250702 -0.056282654 0.018382579
-0.0065694982 -0.055840738 0.018306047
-0.0054926095 -0.056024618 0.017967641
-0.0043900963 -0.055973731 0.017071664
-0.0033240344 -0.056508586 0.015045792
-0.014559554 -0.055998284 0.016637743
-0.013150327 -0.054793034 0.017956048
-0.01208193 -0.054917868 0.018557459
-0.010846374 -0.054231875 0.019104183
-0.0097388979 -0.054104991 0.019207507
-0.0087888837 -0.054930523 0.019308001
-0.0075868773 -0.054191984 0.019108176
-0.0065265293 -0.054387748 0.019012839
-0.0055185156 -0.055185162 0.018523842
-0.0044127572 -0.055159468 0.017527938
-0.0033012894 -0.055021495 0.015889794
-0.0022225541 -0.055563852 0.01506117
-0.014342223 -0.054059148 0.015490085
-0.013188451 -0.053852838 0.017427742
-0.01209892 -0.053895187 0.018934786
-0.010848467 -0.05315749 0.019677401
-0.0098692942 -0.053732824 0.019805551
-0.0086908694 -0.053231575 0.019793808
-0.0075951195 -0.053165834 0.019285917
-0.0066102147 -0.053983416 0.019453853
-0.0054309326 -0.053223141 0.018899739
-0.0044162804 -0.054099433 0.017899036
-0.003372561 -0.05508516 0.016401023
-0.0022014431 -0.053935356 0.015668541
-0.013286063 -0.053144254 0.016126275
-0.011870201 -0.051797241 0.018064618
-0.010952174 -0.052570436 0.01922524
-0.0098008802 -0.052271366 0.019480646
-0.0087598059 -0.052558836 0.019449174
-0.007708828 -0.052860532 0.019449174
-0.006545722 -0.052365776 0.019252837
-0.0054897619 -0.052701715 0.018476695
-0.004405492 -0.052865904 0.017017096
-0.0033032822 -0.052852515 0.016619861
-0.0022240167 -0.053376399 0.016091228
-0.0011238242 -0.05394356 0.015520185
0 -0.052705776 0.015147686
-0.013008113 -0.050948445 0.01515919
-0.012119391 -0.051782854 0.016810596
-0.011103703 -0.052187406 0.018263429
-0.0097857667 -0.05110345 0.019063085
-0.008903807 -0.052309867 0.019026577
-0.0076644602 -0.051461376 0.019021094
-0.006563988 -0.051417906 0.018831104
-0.0055534369 -0.05220231 0.017545879
-0.004429793 -0.052050065 0.017242283
-0.0033200548 -0.052014194 0.016928673
-0.0022519189 -0.052920096 0.016441762
-0.0011397167 -0.053566687 0.016240209
0 -0.052656043 0.016134441
0.0011386873 -0.053518299 0.016191393
0.0022166742 -0.052091844 0.015977859
0.0033315001 -0.0521935 0.015370488
-0.012219448 -0.051099509 0.015348047
-0.010914312 -0.050205838 0.016996831
-0.0099101188 -0.050651722 0.017970622
-0.0087871691 -0.050526224 0.018301845
-0.0077251662 -0.05076538 0.018301845
-0.006688342 -0.051277291 0.017970622
-0.005461446 -0.050245307 0.018202662
-0.0043777591 -0.050344229 0.017946184
-0.0033295478 -0.05105307 0.017946184
-0.0022388748 -0.051494118 0.017527699
-0.001126717 -0.05182898 0.017403007
0 -0.051316421 0.017879158
0.0011192055 -0.051483452 0.017759532
0.0022342708 -0.05138823 0.017429978
0.0033359083 -0.051150594 0.017414421
0.0043171854 -0.049647633 0.017020136
0.0056228698 -0.051730406 0.016620636
0.0067003346 -0.051369235 0.015527159
-0.01112878 -0.050079513 0.015702248
-0.010093908 -0.050469544 0.016613096
-0.0088662105 -0.049872436 0.017440617
-0.0077396324 -0.049754784 0.017440617
-0.0065742559 -0.049306925 0.017273366
-0.0054811565 -0.04933041 0.017382413
-0.0044424869 -0.049977977 0.017733216
-0.003341571 -0.050123569 0.017844439
-0.002230051 -0.050176147 0.018270969
-0.0011305476 -0.050874647 0.018338054
0 -0.049827747 0.018638432
0.0011092795 -0.049917579 0.018658966
0.0022096918 -0.049718071 0.018464804
0.0032255985 -0.048383981 0.018170744
0.0043811691 -0.049288154 0.018170744
0.0055614361 -0.05005293 0.018077135
0.0065091862 -0.048818897 0.01709336
0.0079631275 -0.051191539 0.015819788
-0.0098801749 -0.048303079 0.016420811
-0.008988387 -0.049436126 0.016729981
-0.0076683708 -0.048201188 0.017280996
-0.0065891524 -0.04832045 0.016893685
-0.0055796304 -0.049100749 0.017554432
-0.0044090399 -0.048499439 0.018145114
-0.0033619443 -0.049308516 0.018075228
-0.0022766055 -0.050085321 0.018734425
-0.0011195242 -0.049259067 0.018879205
0 -0.049509898 0.019436806
0.0011089175 -0.048792366 0.019591272
0.0021723576 -0.047791865 0.019446522
0.0032837593 -0.048161805 0.019409955
0.0044114641 -0.048526105 0.019176036
0.005507207 -0.048463423 0.018844247
0.0066498765 -0.048765764 0.017955244
0.0079254396 -0.049817048 0.016510814
0.0090169897 -0.049593441 0.015908003
-0.0089510391 -0.048111834 0.016884178
-0.0078023942 -0.047928993 0.017511249
-0.0067160418 -0.048131634 0.017513782
-0.005564156 -0.047851741 0.017711848
-0.0044604209 -0.047949526 0.018858641
-0.003387219 -0.04855014 0.018615663
-0.0022477533 -0.048326693 0.020018667
-0.00111837 -0.04808991 0.020370424
0 -0.047560856 0.02061066
0.0010808425 -0.046476226 0.020532221
0.0021813076 -0.046898115 0.020672977
0.0032851878 -0.047087692 0.0203318
0.0043503288 -0.046766035 0.020208061
0.0055071716 -0.047361676 0.019910246
0.0066305683 -0.047519073 0.019092947
0.0078138513 -0.047999371 0.017668635
0.008984983 -0.048294283 0.016530007
-0.0090984162 -0.047766689 0.015473366
-0.0080459453 -0.048275672 0.016657531
-0.0067727412 -0.047409188 0.017642677
-0.0056732488 -0.047655296 0.018186063
-0.0045430912 -0.047702461 0.019184649
-0.0033739188 -0.047234863 0.019934505
-0.002213778 -0.046489339 0.020869732
-0.0011031395 -0.04633186 0.021410376
0 -0.045567911 0.021782905
0.0010947103 -0.045977831 0.022438854
0.002167084 -0.045508765 0.022096783
0.0032582164 -0.045615032 0.02196309
0.0043883398 -0.046077572 0.021273524
0.0054837563 -0.046063557 0.02058363
0.0066082976 -0.046258084 0.019457519
0.0078125084 -0.046875052 0.018104196
0.0088796625 -0.046618231 0.016986907
0.010109137 -0.047175974 0.015622377
-0.0079783844 -0.046730541 0.015724421
-0.0067431834 -0.046078421 0.016800404
-0.0056322473 -0.046184432 0.018054813
-0.0044459966 -0.045571469 0.01891768
-0.0033236514 -0.045423239 0.01948908
-0.0022217464 -0.045545802 0.020400435
-0.001096629 -0.044961788 0.021696568
0 -0.045016639 0.022222161
0.0010928075 -0.04480511 0.022933334
0.0021699453 -0.044483878 0.022363991
0.0032978118 -0.045070097 0.022235334
0.0044433279 -0.04554411 0.021896809
0.0055345958 -0.045383688 0.021323979
0.006689325 -0.045710389 0.020639598
0.007811965 -0.045755796 0.018822521
0.0088174138 -0.045189247 0.017694265
0.010074072 -0.045892995 0.016639918
-0.0068413322 -0.045608882 0.016280919
-0.0055760238 -0.044608191 0.017855793
-0.0044585168 -0.044585165 0.019263446
-0.0033492381 -0.044656508 0.019770503
-0.002176556 -0.04353112 0.020964026
-0.0010826456 -0.043305825 0.022468746
0 -0.04394424 0.023195684
0.0010837984 -0.043351933 0.023695529
0.0021896614 -0.043793224 0.023624748
0.0033230283 -0.044307042 0.023418218
0.0043425155 -0.043425154 0.022916257
0.0055657104 -0.044525683 0.022400022
0.0066589694 -0.04439313 0.02143985
0.0076886513 -0.04393515 0.020184994
0.0088987239 -0.044493619 0.018866777
0.010060216 -0.044712074 0.01783362
0.011076676 -0.044306703 0.015853792
-0.0067898477 -0.04413401 0.015623093
-0.0055992329 -0.043674018 0.017115027
-0.0044605779 -0.04349063 0.018578649
-0.0032810569 -0.042653739 0.020221829
-0.0021592465 -0.042105306 0.020863563
-0.0010999636 -0.04289858 0.022506505
0 -0.042335406 0.023467124
0.0010994175 -0.042877279 0.024077386
0.0022238174 -0.043364439 0.024077386
0.003280693 -0.042649008 0.023691118
0.0044659181 -0.043542698 0.023450255
0.0055230758 -0.043079991 0.022849649
0.0065419045 -0.042522378 0.021979362
0.0077457484 -0.043154884 0.021358043
0.0088441074 -0.04311502 0.019827187
0.010066498 -0.043621492 0.018899858
0.011235302 -0.04381768 0.017499834
0.012299974 -0.043608997 0.015522122
-0.0055438159 -0.042133003 0.016986489
-0.0043698638 -0.041513707 0.018903702
-0.0032758301 -0.041493848 0.020835131
-0.0021914472 -0.041637499 0.021637857
-0.0010945805 -0.041594062 0.022458076
0 -0.04189406 0.023761332
0.0011059926 -0.042027719 0.024687201
0.0021794285 -0.041409142 0.024743795
0.0033809026 -0.042824768 0.02438876
0.0045174845 -0.042916104 0.024007052
0.0054479134 -0.041404143 0.023341447
0.0066301376 -0.041990872 0.022649497
0.0077603403 -0.042127565 0.021751612
0.0088258227 -0.041922659 0.020495474
0.010162294 -0.042907465 0.019351393
0.011141492 -0.042337671 0.018480569
0.012210793 -0.04218274 0.016469598
0.013745129 -0.043526243 0.015375763
-0.0055672633 -0.041197754 0.015954494
-0.0044070641 -0.040765345 0.019304335
-0.0033017269 -0.040721301 0.02138865
-0.0022048284 -0.040789329 0.022089481
-0.0010919812 -0.040403306 0.022981972
0 -0.040798817 0.024076372
0.0010827524 -0.040061839 0.024702907
0.0022262002 -0.041184705 0.024856359
0.0033895203 -0.041804086 0.02505523
0.0044192066 -0.040877663 0.0247899
0.0055205156 -0.040851817 0.02377528
0.0066844951 -0.041221056 0.023243546
0.0078271599 -0.041372135 0.022752732
0.0089390837 -0.041343264 0.021840245
0.009936844 -0.04085147 0.020948619
0.011231485 -0.041556496 0.019903153
0.012546774 -0.042202789 0.017739773
0.013874311 -0.042779129 0.01698494
-0.005615585 -0.040432211 0.015878826
-0.0044816625 -0.040334959 0.019722939
-0.0033609557 -0.040331468 0.022034526
-0.0022624128 -0.040723428 0.022688478
-0.0011413589 -0.04108892 0.023276627
0 -0.040063679 0.024063647
0.0011370471 -0.040933691 0.024745703
0.0022299832 -0.040139697 0.02533254
0.0032804296 -0.039365157 0.025673628
0.0044262791 -0.039836511 0.025687337
0.0055457507 -0.039929405 0.024903804
0.0066557671 -0.039934602 0.02464518
0.0078688851 -0.040468551 0.024173379
0.0089090457 -0.040090706 0.023103535
0.0099811656 -0.039924663 0.022595912
0.011176956 -0.040237039 0.020973176
0.012404704 -0.040597212 0.020143449
0.013524154 -0.040572461 0.017995238
0.01485835 -0.0411462 0.016190916
-0.0056149992 -0.039304994 0.015372723
-0.0045081601 -0.039446399 0.01956445
-0.0034628306 -0.040399689 0.021307647
-0.0023010573 -0.040268503 0.022925079
-0.0011268496 -0.039439734 0.023303121
0 -0.039110322 0.023837507
0.0011140327 -0.038991142 0.024314135
0.0021892907 -0.038312588 0.025376558
0.0033022901 -0.038526718 0.025341809
0.0044014999 -0.038513124 0.025738537
0.0054473598 -0.03813152 0.025262117
0.0066769109 -0.038948648 0.024988055
0.0077116145 -0.038558073 0.024566442
0.0088094631 -0.038541399 0.023863435
0.0099915601 -0.038856067 0.023335159
0.011126584 -0.038943045 0.022622079
0.012301232 -0.039140284 0.021365225
0.013849898 -0.040395536 0.019325435
0.014767698 -0.039759185 0.017932415
0.015999231 -0.039998081 0.016575903
-0.0046636821 -0.039641298 0.017156959
-0.0034052471 -0.0385928 0.020520329
-0.0022259697 -0.037841484 0.02146408
-0.0011119625 -0.037806723 0.022987902
0 -0.037697356 0.023739219
0.0010920344 -0.037129167 0.024184406
0.0022222027 -0.037777446 0.024485946
0.0033420015 -0.037876017 0.025155723
0.0043652607 -0.037104715 0.025934219
0.0055268956 -0.037582893 0.025522709
0.0066313199 -0.03757748 0.025111735
0.0076592606 -0.037202124 0.024670243
0.0089921234 -0.038216524 0.023881823
0.009868511 -0.03728104 0.023615867
0.011095559 -0.037724901 0.022782683
0.012184277 -0.037660494 0.021948099
0.013398848 -0.037963402 0.020149589
0.014568763 -0.038102921 0.018748969
0.016037505 -0.038948227 0.017417163
0.017200623 -0.038988076 0.016390532
0.018197928 -0.038670596 0.015066534
-0.0046459357 -0.038328968 0.016063571
-0.0033603793 -0.036964171 0.020198256
-0.0022182895 -0.036601778 0.020917058
-0.0011142597 -0.036770571 0.02201432
0 -0.03635557 0.02277863
0.0011119505 -0.036694366 0.024194986
0.0022321448 -0.036830388 0.024644434
0.0033111577 -0.036422733 0.024886191
0.0044313096 -0.036558304 0.025900334
0.0056298254 -0.037156846 0.025929719
0.006570356 -0.036136959 0.025823116
0.0077437903 -0.03650644 0.025179416
0.0087927654 -0.036270157 0.024748594
0.0098875118 -0.036254209 0.024541169
0.011168336 -0.036855508 0.023471981
0.012254966 -0.036764901 0.02291885
0.013510968 -0.037155159 0.021282196
0.014708388 -0.037336674 0.020102173
0.015889492 -0.0374538 0.018881083
0.016859874 -0.037091721 0.01816529
0.018335776 -0.037817538 0.017241538
0.019028721 -0.036938105 0.015699208
0.020530518 -0.037639286 0.015117258
-0.0045272615 -0.036218092 0.0153687
-0.0033643397 -0.035886291 0.018444687
-0.0022369714 -0.035791542 0.021221846
-0.0011040303 -0.035328969 0.021648854
0 -0.035513852 0.022367835
0.0011155787 -0.035698518 0.023553014
0.0021989229 -0.035182767 0.024876893
0.0033404531 -0.0356315 0.025705844
0.004483744 -0.035869952 0.026088178
0.0055875056 -0.035760038 0.026091903
0.0066748769 -0.035599343 0.02585277
0.0077483305 -0.035420939 0.025662243
0.0088076647 -0.035230659 0.025339216
0.0099387262 -0.035337694 0.025057405
0.011112255 -0.035559218 0.024336666
0.012216669 -0.035539404 0.023633271
0.013497652 -0.03599374 0.022343844
0.014397824 -0.035440799 0.020910114
0.015739618 -0.035976268 0.019769639
0.016927047 -0.036111034 0.01919952
0.017910939 -0.035821877 0.018905252
0.019398009 -0.036513899 0.017966002
0.020274527 -0.036043607 0.017069817
0.021452654 -0.036130786 0.0160622
-0.0045551378 -0.035302319 0.015994102
-0.0033863359 -0.03499214 0.017821252
-0.0022264668 -0.034510236 0.020295173
-0.0011057662 -0.03427875 0.021673977
0 -0.034870621 0.022564411
0.0011032127 -0.034199595 0.023479819
0.0022742497 -0.035250869 0.024339795
0.0034295588 -0.035438776 0.025944829
0.004605229 -0.035690527 0.02626422
0.0055968054 -0.034700193 0.026194096
0.0067724688 -0.034991093 0.026166737
0.0076643229 -0.033942003 0.025995702
0.0088210581 -0.034181602 0.025696665
0.0099373879 -0.034228783 0.024928987
0.011079787 -0.034347344 0.024792403
0.012225075 -0.034452483 0.024268419
0.013237052 -0.034195717 0.023053348
0.014506485 -0.03459239 0.021305293
0.015713774 -0.034794789 0.020209491
0.016693426 -0.03449975 0.019699305
0.018086467 -0.035042528 0.019262314
0.019379083 -0.035338327 0.018309712
0.02042716 -0.03518011 0.018196225
0.021363387 -0.034856051 0.017199695
0.022624709 -0.035068303 0.015806407
-0.0034546515 -0.034546517 0.016843736
-0.0022295639 -0.033443458 0.019425243
-0.0011230618 -0.033691853 0.021063
0 -0.033323482 0.022344768
0.0011382629 -0.034147888 0.023780435
0.0022876926 -0.034315389 0.02493912
0.0033709258 -0.033709258 0.025705695
0.0045117377 -0.033838034 0.026331276
0.0056878501 -0.034127101 0.02690652
0.0066402392 -0.033201195 0.026718587
0.0077968505 -0.033415075 0.026703447
0.0088864407 -0.033324152 0.025866538
0.0098659582 -0.032886527 0.025786161
0.011067905 -0.033203717 0.025194943
0.01212242 -0.033061147 0.025071502
0.013374484 -0.033436213 0.024053544
0.01464907 -0.033805545 0.022519201
0.015719302 -0.033684216 0.021948546
0.017015589 -0.034031179 0.0215047
0.018477758 -0.034645796 0.020598322
0.019194787 -0.033873152 0.020053387
0.020227654 -0.033712756 0.019400984
0.021327037 -0.03367427 0.018746912
0.022483235 -0.033724852 0.017481208
0.023601849 -0.033716928 0.016134053
-0.003508741 -0.033917829 0.015447557
-0.0023153576 -0.033572685 0.018092364
-0.0011230854 -0.032569475 0.020755172
0 -0.032516666 0.021897912
0.001138046 -0.033003338 0.023678392
0.0022265671 -0.032285225 0.024757117
0.0033987279 -0.032854371 0.025381982
0.0044962666 -0.032597937 0.025660843
0.0055408175 -0.032136742 0.02622062
0.0066885231 -0.032327864 0.026399881
0.0078136036 -0.032370646 0.026263297
0.0088399127 -0.032044683 0.025866508
0.01006695 -0.03243795 0.025426865
0.0110292 -0.031984679 0.02514711
0.012281122 -0.032377504 0.025118083
0.013429456 -0.03245452 0.023933738
0.014546659 -0.03245024 0.02325061
0.015841307 -0.032814138 0.022939146
0.017067021 -0.032996241 0.02254957
0.017753875 -0.032178901 0.021947205
0.019378033 -0.033056647 0.021434307
0.020485068 -0.033003725 0.02106598
0.021120874 -0.032237124 0.020383149
0.022438757 -0.032536197 0.019856274
0.023275841 -0.032142829 0.017852992
0.024442414 -0.032219548 0.016849458
-0.0022368156 -0.03131542 0.018092394
-0.0011187224 -0.031324226 0.019809127
0 -0.031910207 0.022376418
0.0011081994 -0.03102958 0.023574024
0.0022516572 -0.031523202 0.024655193
0.0034073594 -0.031802021 0.025015831
0.0044126404 -0.030888483 0.025437444
0.0056856438 -0.031839605 0.025600374
0.0068239989 -0.031845327 0.026027471
0.0077438923 -0.030975569 0.026208192
0.0089742979 -0.031410042 0.025739133
0.0099291708 -0.030890757 0.025176704
0.011100475 -0.031081328 0.02473104
0.012416397 -0.031605374 0.024437398
0.013396814 -0.031259235 0.02411586
0.014622735 -0.03149512 0.023650199
0.01590794 -0.031815879 0.023451656
0.016912306 -0.031569637 0.023216784
0.018303538 -0.03203119 0.0230003
0.019461013 -0.032053433 0.022880554
0.020233842 -0.031474866 0.022089988
0.021377426 -0.031503573 0.021620482
0.022547215 -0.031566102 0.021275282
0.023364145 -0.031152193 0.020139366
0.024552291 -0.031248372 0.018485039
0.025990162 -0.031640198 0.016086876
-0.0022779587 -0.030752443 0.018297493
-0.0011299861 -0.030509625 0.019772738
0 -0.030299466 0.02188015
0.0011215298 -0.030281305 0.022851855
0.0022463237 -0.030325372 0.02398321
0.0033548325 -0.030193495 0.024687976
0.0045185168 -0.030499987 0.025294632
0.0056069256 -0.030277399 0.025351018
0.0066788085 -0.03005464 0.025405526
0.007915535 -0.030531349 0.025122225
0.0088040633 -0.029713714 0.025061458
0.0099385325 -0.029815599 0.024998784
0.011141296 -0.030081501 0.024873018
0.012243253 -0.030051624 0.024839163
0.013604886 -0.030610994 0.024242342
0.014666339 -0.030460861 0.024055004
0.015874909 -0.030615898 0.024209797
0.01669451 -0.030050121 0.023914248
0.018034328 -0.030432928 0.023623347
0.019185344 -0.030470841 0.023326397
0.020486722 -0.030730084 0.023095906
0.021521937 -0.030583806 0.022534251
0.022006638 -0.029708965 0.022068292
0.023310719 -0.029970925 0.021469861
0.024642011 -0.030242469 0.019470304
0.025561538 -0.030007022 0.016925782
-0.0023401543 -0.030422006 0.017609775
-0.0011314502 -0.029417705 0.019625157
0 -0.029352935 0.021218419
0.0011208019 -0.029140851 0.022612572
0.0022218688 -0.028884295 0.023368657
0.0033763773 -0.029261937 0.023561537
0.004549684 -0.029572947 0.024544477
0.0055987239 -0.029113363 0.024961591
0.0067397766 -0.029205699 0.024934769
0.0077988748 -0.028967248 0.02491191
0.0089855865 -0.029203156 0.024842709
0.010183254 -0.029418292 0.024549037
0.011247757 -0.02924417 0.02404502
0.012470746 -0.029476309 0.02422899
0.013685219 -0.029651308 0.023942441
0.014562024 -0.029124048 0.023996174
0.015840065 -0.029417261 0.02445662
0.017044758 -0.029544247 0.024282724
0.017797021 -0.028920159 0.024050772
0.019206071 -0.02937399 0.024044961
0.020467114 -0.029563611 0.023646295
0.020525422 -0.028087419 0.023136675
0.022688471 -0.029495014 0.022764862
0.023578692 -0.029192666 0.022203505
0.02478507 -0.029291447 0.020505309
0.026303453 -0.029734338 0.017475933
-0.0022794262 -0.028492829 0.016776651
-0.0011293173 -0.028232932 0.019095093
0 -0.028383641 0.020846426
0.0011135555 -0.027838888 0.02137053
0.0022572747 -0.028215934 0.023054987
0.0033982738 -0.028318949 0.02382496
0.0044656978 -0.027910611 0.024167657
0.0056446432 -0.028223217 0.024221689
0.006704336 -0.027934734 0.024129719
0.0078567611 -0.028059863 0.023921192
0.0090571046 -0.028303452 0.023878694
0.010065499 -0.027959721 0.023524106
0.011222772 -0.028056931 0.023511112
0.01250083 -0.028410979 0.024013728
0.013426065 -0.027970972 0.024009615
0.0146268 -0.028128464 0.024029791
0.01587408 -0.028346572 0.024600595
0.016887823 -0.028146373 0.024661541
0.017885461 -0.027946034 0.024665654
0.019032363 -0.027988769 0.024550945
0.019865198 -0.027590554 0.024290055
0.021004524 -0.027637532 0.024012774
0.022599677 -0.028249597 0.023428291
0.02370622 -0.028221691 0.022873044
0.025083099 -0.028503524 0.02069512
0.0264236 -0.028721305 0.017492265
0.027492618 -0.028638145 0.01596579
-0.0023048506 -0.027658205 0.015471727
-0.0011586444 -0.027807465 0.017716497
0 -0.027074235 0.020237237
0.0011286375 -0.027087297 0.021128953
0.0022498283 -0.026997939 0.021716595
0.0032938011 -0.026350409 0.023118049
0.0045233467 -0.027140081 0.023775548
0.0056403312 -0.02707359 0.023777336
0.0066878311 -0.026751325 0.023777336
0.0079235639 -0.027166503 0.023863107
0.0090351179 -0.027105354 0.023777336
0.010118514 -0.026982706 0.023070723
0.011506206 -0.027614895 0.023401737
0.012453208 -0.027170636 0.023478925
0.013565365 -0.02713073 0.0237073
0.014833067 -0.027384123 0.024239987
0.015959106 -0.027358469 0.024976164
0.016943313 -0.027109301 0.024671435
0.018157728 -0.027236592 0.025021285
0.018821266 -0.026571197 0.024873227
0.020005032 -0.026673377 0.024671435
0.021217961 -0.026801635 0.0241898
0.02217515 -0.026610181 0.023978382
0.023691956 -0.02707652 0.023357421
0.02517917 -0.027468186 0.020372361
0.026001344 -0.027131835 0.018199503
0.027865717 -0.027865717 0.016690284
-0.0011448737 -0.026332093 0.016653538
0 -0.026138959 0.018600076
0.0011360468 -0.026129078 0.020576417
0.0022439484 -0.025805408 0.02161628
0.0034138991 -0.026173228 0.021958947
0.0045016077 -0.025884245 0.022523969
0.0056152865 -0.025830321 0.022718489
0.0068272245 -0.026171029 0.023673594
0.0079583814 -0.026148967 0.023974448
0.0091557316 -0.02632273 0.024070829
0.010318823 -0.026370328 0.024067044
0.011308281 -0.026009047 0.023998559
0.012429594 -0.025989152 0.023529351
0.013829482 -0.026506508 0.023908794
0.014778286 -0.0261462 0.024404645
0.015588381 -0.025609484 0.025165677
0.01689925 -0.025912186 0.025165677
0.017467447 -0.025109453 0.025987864
0.018929478 -0.025610471 0.025987864
0.020042984 -0.02561048 0.025518328
0.021201421 -0.025664877 0.025124103
0.022538321 -0.02591907 0.024615586
0.02379244 -0.026058387 0.023389071
0.024856558 -0.025986403 0.02158612
0.02636438 -0.02636438 0.019469321
0.027534349 -0.026387086 0.017544985
0.029029645 -0.026707273 0.01531899
-0.0011312745 -0.024888039 0.015441388
0 -0.025131894 0.017278999
0.0011124007 -0.024472814 0.018581778
0.0022719039 -0.024990942 0.020709187
0.0033758397 -0.024756158 0.021656096
0.004431861 -0.024375236 0.022475123
0.0056489483 -0.024855373 0.022402942
0.0068990416 -0.025296485 0.022907287
0.0079539577 -0.024998151 0.024053454
0.0092578176 -0.025458997 0.024495542
0.010276444 -0.025120197 0.024662077
0.011345776 -0.024960706 0.024253547
0.012529078 -0.025058156 0.02440092
0.013586046 -0.024907751 0.02432248
0.014562021 -0.024643421 0.02473399
0.015784785 -0.024804663 0.02599892
0.016673462 -0.024454411 0.025879085
0.017748274 -0.024403876 0.026407748
0.018970389 -0.024549913 0.02611205
0.0198115 -0.024214057 0.025776803
0.02127487 -0.02463406 0.02532056
0.022945238 -0.025239762 0.024756163
0.023405064 -0.024519591 0.023461998
0.025168978 -0.025168978 0.022446007
0.026642075 -0.025483722 0.020342261
0.027749693 -0.025437219 0.018703878
0.028743546 -0.025294319 0.016622275
0 -0.023669232 0.015918851
0.0011350188 -0.023835393 0.017504483
0.0022785407 -0.023924679 0.018490434
0.0033881655 -0.023717159 0.019567847
0.0045956364 -0.024127092 0.020620584
0.0058046621 -0.024379583 0.022139758
0.0068385936 -0.023935078 0.022705108
0.0081012016 -0.024303606 0.023023069
0.0090993093 -0.023885688 0.023905337
0.01029097 -0.024012264 0.024199098
0.011529305 -0.024211541 0.02472946
0.01243501 -0.023739565 0.024618715
0.013581292 -0.023767261 0.024594605
0.014719833 -0.023778193 0.025093108
0.01564547 -0.023468208 0.026695043
0.016625494 -0.023275692 0.026695043
0.017964814 -0.023578819 0.027134836
0.018470289 -0.022816241 0.026830107
0.020340821 -0.023730958 0.026315212
0.021390967 -0.023642648 0.025565177
0.022462992 -0.023586143 0.024502814
0.024408061 -0.024408061 0.023703277
0.025269985 -0.02412135 0.022712141
0.026377177 -0.02408351 0.020896852
0.028344205 -0.024801182 0.019205034
0.028499732 -0.023939773 0.018029451
0.029522857 -0.023845384 0.015896291
0 -0.022912838 0.015654802
0.0011474045 -0.02294809 0.016580552
0.0022832167 -0.022832166 0.017576158
0.0034636855 -0.023091236 0.018394887
0.0046403129 -0.023201564 0.019479096
0.0057435958 -0.022974383 0.019832999
0.0069351913 -0.023117304 0.022284746
0.0080881706 -0.02310906 0.022880167
0.0092056859 -0.023014214 0.023445785
0.010439136 -0.023198081 0.023516655
0.011517992 -0.023035984 0.024197459
0.012485481 -0.022700874 0.024539918
0.013623201 -0.022705335 0.025095582
0.014396497 -0.022148456 0.025905579
0.015505171 -0.022150245 0.026423365
0.016911514 -0.022548685 0.026945978
0.017189188 -0.021486485 0.027173102
0.018909145 -0.022246053 0.026664197
0.020330273 -0.022589192 0.026155382
0.021035399 -0.022142524 0.025636584
0.022819851 -0.022819851 0.024530739
0.024128925 -0.022979928 0.023675293
0.024913345 -0.022648495 0.022876889
0.026676996 -0.023197386 0.021531284
0.027484104 -0.022903418 0.020098895
0.028644675 -0.02291574 0.018686831
0.029972192 -0.023055531 0.017182499
0.031075554 -0.023018928 0.01545766
0.0011460213 -0.021774404 0.016253531
0.0022989647 -0.021840164 0.016618133
0.0035238548 -0.022317749 0.01764068
0.0046179774 -0.021935392 0.018613756
0.0058496553 -0.02222869 0.019771725
0.0070105763 -0.022200158 0.021479547
0.0080776447 -0.021925036 0.022628665
0.0093646441 -0.02224103 0.023719698
0.010463422 -0.02208945 0.023775667
0.011308719 -0.021486569 0.023653537
0.012461548 -0.021524493 0.024080187
0.013421762 -0.021251123 0.024921685
0.014432275 -0.021093324 0.02564308
0.015713282 -0.021325169 0.026173949
0.016422393 -0.020801697 0.026336044
0.017685931 -0.021002045 0.027021766
0.019192822 -0.021450803 0.026535362
0.019980079 -0.021090085 0.026471466
0.021500325 -0.021500325 0.025339931
0.02272407 -0.021587867 0.025017262
0.02362732 -0.0213771 0.023871392
0.025072902 -0.021653872 0.02380538
0.025957176 -0.021442885 0.022564173
0.027624594 -0.021869471 0.021134973
0.02883203 -0.021912342 0.020040929
0.029964756 -0.021897323 0.018364549
0.030798744 -0.021673189 0.016395062
0.0011848947 -0.021328105 0.015755355
0.0023667216 -0.021300493 0.016313106
0.0034710849 -0.020826509 0.016953558
0.0046445802 -0.020900609 0.017824262
0.0057662749 -0.02075859 0.019139647
0.0068224506 -0.02046735 0.020249933
0.0081352787 -0.020919288 0.021141171
0.0092604859 -0.020836093 0.022710741
0.010379128 -0.020758256 0.023492366
0.01133499 -0.020402981 0.023940802
0.01227678 -0.020089276 0.023914486
0.013457649 -0.020186473 0.024613529
0.01442919 -0.019978877 0.025805831
0.015299182 -0.019670377 0.026231438
0.016680857 -0.020017028 0.026421487
0.018344341 -0.020637384 0.026769251
0.018996388 -0.020113822 0.026114345
0.020385467 -0.020385467 0.025718629
0.021538638 -0.020405024 0.025620639
0.022477249 -0.020229524 0.025307745
0.023925127 -0.020507252 0.024558634
0.025007542 -0.020460717 0.024034321
0.025666429 -0.020086769 0.023346066
0.027645281 -0.02073396 0.02210024
0.028738072 -0.02069141 0.020936042
0.029704271 -0.020564495 0.019945771
0.03122565 -0.020817099 0.017893791
0.032400444 -0.020828856 0.016301364
0.0022663404 -0.019263893 0.015782773
0.0034848049 -0.019747227 0.016383022
0.0047181877 -0.020052297 0.016900837
0.0057720826 -0.019625081 0.017833859
0.0069788913 -0.019773526 0.019412577
0.0081118625 -0.019700238 0.020854414
0.0091976644 -0.019545037 0.021553338
0.010325446 -0.019503621 0.022698104
0.011263754 -0.019148383 0.023587853
0.012283478 -0.018983558 0.024112731
0.01344158 -0.01904224 0.024884552
0.014322321 -0.018729189 0.025872558
0.015549744 -0.018881831 0.02606532
0.017494483 -0.019827081 0.026273519
0.018364847 -0.01951265 0.026281536
0.019327497 -0.019327497 0.026123047
0.020386593 -0.019254005 0.025969297
0.021192972 -0.018962132 0.025728673
0.022738896 -0.019328061 0.025248021
0.024078486 -0.019492108 0.024576664
0.024652958 -0.019050013 0.024097443
0.025937805 -0.01917142 0.023457587
0.027227961 -0.019286472 0.022584409
0.028596791 -0.019445818 0.0215756
0.029759659 -0.019458238 0.021312714
0.03060049 -0.019266974 0.019344479
0.032337606 -0.019633546 0.017157644
0.033990547 -0.019925494 0.016425103
0.003517515 -0.018760081 0.016044021
0.0046146158 -0.018458463 0.017159224
0.0057690213 -0.01846087 0.017973632
0.0068856701 -0.018361788 0.019342571
0.0079694195 -0.018215815 0.021237969
0.009216642 -0.018433284 0.02242437
0.010080913 -0.017921625 0.022863299
0.011300849 -0.018081358 0.024223924
0.012231148 -0.017790761 0.024552613
0.013244186 -0.017658915 0.025318354
0.014498743 -0.017844606 0.026527613
0.016201764 -0.018516302 0.026618689
0.017194904 -0.01834123 0.026887
0.018562518 -0.018562518 0.026729584
0.019868629 -0.018699886 0.026677608
0.020317474 -0.018059978 0.026777208
0.021680798 -0.018257514 0.026585042
0.022927437 -0.018341949 0.026086211
0.023587761 -0.017971627 0.02584359
0.024921825 -0.018124964 0.025574237
0.026056584 -0.018126318 0.025075674
0.027157772 -0.018105183 0.023703068
0.028940253 -0.018521762 0.023754925
0.029326415 -0.018047025 0.022519022
0.030592134 -0.018128671 0.021205604
0.032495778 -0.018569017 0.01863867
0.033726167 -0.01860754 0.017448038
0.034638509 -0.018473871 0.016272217
0.0046087252 -0.017282721 0.01621601
0.0057226648 -0.017167995 0.018756419
0.0068135913 -0.017033977 0.019470185
0.0080162492 -0.017177677 0.021673054
0.0091619734 -0.017178699 0.022926986
0.010192087 -0.016986812 0.023145974
0.011371383 -0.017057076 0.024535984
0.0123067 -0.016781865 0.025179654
0.013732953 -0.017166192 0.025399178
0.01494271 -0.01724159 0.026545733
0.016083974 -0.01723283 0.027246356
0.017117105 -0.017117105 0.027391702
0.018664647 -0.017498108 0.027124763
0.01948452 -0.017192224 0.027138412
0.020972464 -0.017477054 0.026797712
0.021531397 -0.016998472 0.026702434
0.022388022 -0.016791018 0.026357204
0.023923554 -0.017088253 0.026176512
0.025173185 -0.017163536 0.02597338
0.025731696 -0.016781541 0.025526106
0.027758894 -0.01734931 0.024521977
0.028603999 -0.017162399 0.024618298
0.029283395 -0.016894266 0.024067849
0.030887263 -0.01715959 0.022812426
0.031988319 -0.0171366 0.020001799
0.033281755 -0.017214699 0.019025713
0.035212398 -0.017606199 0.017929494
0.035951756 -0.01739601 0.015716493
0.0034636962 -0.016163917 0.015286297
0.0046215733 -0.016175507 0.017299712
0.0056735217 -0.015885862 0.018925369
0.0068317559 -0.015940765 0.020587206
0.0079709115 -0.015941823 0.02187717
0.0089717386 -0.015700541 0.023657322
0.010220425 -0.01589844 0.024293959
0.011308447 -0.015831824 0.024614096
0.012503474 -0.015913513 0.024869889
0.013808019 -0.016109357 0.024812728
0.014765911 -0.01590175 0.026214361
0.015972031 -0.015972031 0.027228415
0.017229175 -0.016080564 0.027454555
0.017999958 -0.015749963 0.027454555
0.019402444 -0.015978483 0.027454555
0.020530565 -0.015968218 0.027468622
0.021424629 -0.01578657 0.027380973
0.022963366 -0.016074358 0.026782036
0.023879707 -0.015919805 0.026622653
0.024847498 -0.015812045 0.026571155
0.026164996 -0.015926518 0.026452065
0.027275253 -0.015910564 0.025664002
0.028234057 -0.015811071 0.025488317
0.029749285 -0.016018845 0.0255422
0.030479645 -0.015804259 0.024528265
0.03175801 -0.015879005 0.022897065
0.033386979 -0.016117852 0.020361036
0.03484549 -0.016261229 0.019330561
0.035373006 -0.015974905 0.017390639
0.0046107494 -0.014984936 0.017136633
0.0057066018 -0.014837165 0.018624872
0.0068443972 -0.014829527 0.021058649
0.0078879818 -0.014649108 0.022331923
0.0091075171 -0.014799714 0.023742348
0.010375371 -0.014986648 0.024505585
0.011452571 -0.014888342 0.024971217
0.012584941 -0.014873112 0.026054323
0.013775557 -0.01492352 0.025149018
0.014726769 -0.014726769 0.025360614
0.015930742 -0.014792832 0.026683658
0.017007731 -0.014740033 0.02697742
0.018100852 -0.014706942 0.027224183
0.019242601 -0.01471493 0.027659088
0.020301064 -0.01466188 0.027745694
0.021654287 -0.01481609 0.027506799
0.022788782 -0.014812708 0.027273923
0.023516191 -0.014557642 0.026910812
0.025067799 -0.01481279 0.027138531
0.026037049 -0.014716592 0.027608484
0.027054159 -0.014654336 0.026538908
0.028376324 -0.014755688 0.026218086
0.02949563 -0.014747815 0.026039004
0.030813834 -0.01483629 0.02503112
0.032116447 -0.014911207 0.024297178
0.033084828 -0.014831129 0.021584153
0.034598634 -0.014992742 0.020590365
0.035803545 -0.01501439 0.019547224
0.037433382 -0.015207312 0.016015828
0.0046508457 -0.013952537 0.016123623
0.0057673813 -0.013841716 0.018926352
0.0067992252 -0.01359845 0.021092564
0.0080135828 -0.01373757 0.022873133
0.0091755018 -0.013763252 0.023670614
0.010269245 -0.013692327 0.024751514
0.011614317 -0.013937181 0.025429249
0.01257989 -0.013723517 0.025345922
0.013685979 -0.013685979 0.025356799
0.014743757 -0.013609622 0.026351243
0.015678717 -0.013438899 0.026501507
0.016914956 -0.013531964 0.02673173
0.018040877 -0.013530658 0.026950896
0.019255487 -0.013592108 0.027447432
0.020702671 -0.013801781 0.028042912
0.021645563 -0.013670881 0.027581215
0.022324273 -0.013394564 0.028208733
0.023935977 -0.013677701 0.027805597
0.024827421 -0.013542229 0.027903378
0.025750777 -0.013435188 0.027607262
0.027316168 -0.013658084 0.026994288
0.028272079 -0.013570597 0.026675344
0.029289186 -0.013518086 0.026417106
0.030755479 -0.013669101 0.025788754
0.031941891 -0.013689382 0.024796158
0.033122651 -0.013705923 0.022999674
0.034395285 -0.013758114 0.021080434
0.035342921 -0.01368113 0.020231217
0.037842613 -0.014190979 0.018131942
0.0057336651 -0.012614063 0.017108113
0.0070421551 -0.012910618 0.019551039
0.008216368 -0.012911434 0.022347957
0.0092843892 -0.012766035 0.023395985
0.010449869 -0.012772062 0.024225086
0.011440882 -0.012584969 0.025277466
0.012592187 -0.012592187 0.025600284
0.013819291 -0.012667684 0.025244564
0.014745606 -0.012477051 0.02547574
0.01577621 -0.012395593 0.02661109
0.016945407 -0.012426631 0.026633233
0.017766399 -0.012214399 0.026930481
0.019191645 -0.012418123 0.027139515
0.020398358 -0.012465664 0.027482897
0.02108838 -0.012209062 0.027656525
0.022508504 -0.012379677 0.028024793
0.023937693 -0.012538791 0.02809152
0.024517225 -0.012258613 0.027469188
0.025983555 -0.012426917 0.027648211
0.026884429 -0.01232203 0.027113259
0.028473333 -0.012528266 0.026934713
0.029308679 -0.012399825 0.026854247
0.030486749 -0.012420527 0.026070714
0.032107614 -0.012613706 0.025538623
0.033050973 -0.012536574 0.024226904
0.034064051 -0.012490151 0.022045344
0.03591061 -0.012742475 0.021342307
0.038609412 -0.013271986 0.019670576
0.038136065 -0.012712022 0.016571283
0.0059513343 -0.011902669 0.015337169
0.0071014944 -0.011835824 0.018395513
0.0081648575 -0.011664082 0.020621419
0.0093049882 -0.011631235 0.022552937
0.010489495 -0.011654994 0.023506582
0.011476974 -0.011476974 0.024788558
0.012743153 -0.011584684 0.025154263
0.013691515 -0.011409596 0.025822341
0.014657074 -0.011274672 0.025962293
0.016007517 -0.011433939 0.026476562
0.016936466 -0.011290977 0.027434617
0.018033607 -0.011271004 0.027756959
0.019393755 -0.011408091 0.028188467
0.020122377 -0.011179099 0.028148651
0.021431038 -0.011279493 0.028342634
0.022787591 -0.011393796 0.028517067
0.023306483 -0.011098325 0.028676033
0.024970079 -0.011350036 0.02817893
0.026072035 -0.011335666 0.028475136
0.027347654 -0.011394856 0.027975291
0.028498007 -0.011399202 0.027681977
0.029184071 -0.011224642 0.02760309
0.030871348 -0.011433832 0.027000993
0.032298703 -0.011535251 0.026356459
0.032961447 -0.011366016 0.025303602
0.03451487 -0.011504957 0.023372591
0.036939736 -0.011916043 0.022176296
0.037828337 -0.011821355 0.021106541
0.038050342 -0.011530406 0.017537594
0.039507065 -0.011619725 0.015289158
0.007021457 -0.010532185 0.016394824
0.0081964871 -0.010538341 0.019239515
0.009267509 -0.010425947 0.02106297
0.01035738 -0.01035738 0.02170369
0.011564191 -0.010407773 0.023646683
0.012632638 -0.010335795 0.024674445
0.013696714 -0.010272535 0.025401652
0.014905858 -0.01031944 0.026151627
0.015965819 -0.010263741 0.026758224
0.01698133 -0.010188797 0.02703318
0.018233491 -0.010256338 0.028278112
0.019104995 -0.010114409 0.028663546
0.020282516 -0.010141258 0.028521627
0.021833766 -0.010342309 0.028799176
0.022463819 -0.010108719 0.028752774
0.023909993 -0.010247139 0.028752774
0.025061276 -0.010252341 0.028564841
0.025677441 -0.010047694 0.028718323
0.027233897 -0.010212711 0.028565824
0.028370401 -0.010213344 0.02830714
0.029834261 -0.010327244 0.027917653
0.030863319 -0.010287772 0.027147263
0.032057121 -0.010304075 0.026288182
0.032848783 -0.010194449 0.025414705
0.034261588 -0.010278476 0.023692369
0.036906116 -0.010714678 0.022889704
0.037696391 -0.01060211 0.021304429
0.038443539 -0.010484601 0.017858624
0.039794393 -0.01053381 0.015679747
0.0072438344 -0.0096584456 0.015671462
0.0083530871 -0.0095463851 0.017628193
0.0094206231 -0.0094206231 0.019182026
0.010647005 -0.0094640059 0.021039218
0.011457544 -0.0091660349 0.021309018
0.012652746 -0.0092019979 0.022511452
0.013813707 -0.0092091383 0.024592578
0.014689612 -0.0090397615 0.025477737
0.015959842 -0.0091199102 0.025935978
0.017170476 -0.0091575868 0.026879698
0.017980078 -0.0089900391 0.027582943
0.019454952 -0.0091552716 0.028848678
0.020787859 -0.0092390487 0.029031575
0.021466995 -0.0090387342 0.029031575
0.022636712 -0.009054685 0.028938234
0.02379236 -0.0090637561 0.028774142
0.02455104 -0.0089276507 0.02869454
0.026235938 -0.0091255438 0.028930008
0.027742131 -0.0092473775 0.028833687
0.028581819 -0.0091461819 0.028375655
0.029883292 -0.0091948593 0.028101891
0.03052007 -0.0090429839 0.027593762
0.031961754 -0.0091319289 0.026312232
0.033305451 -0.0091877105 0.025536239
0.03461539 -0.0092307702 0.024173826
0.037024885 -0.009554809 0.023194581
0.037430022 -0.0093575055 0.02194038
0.037735797 -0.0091480725 0.018788725
0.039625067 -0.0093235457 0.016074151
0.0081648771 -0.0081648771 0.01713416
0.0094395932 -0.0082596438 0.018351316
0.01044344 -0.0081226761 0.01966992
0.011617153 -0.008132007 0.020822495
0.012757248 -0.0081182485 0.021537632
0.013736839 -0.0080131562 0.022846162
0.014866157 -0.0080048535 0.024731368
0.01613972 -0.0080698598 0.025806874
0.017109137 -0.0079842638 0.026309371
0.018376639 -0.008039779 0.027279377
0.019543879 -0.0080474792 0.028294742
0.020523529 -0.007981373 0.029325157
0.021827843 -0.0080418363 0.028942049
0.023331918 -0.0081661716 0.02893123
0.023683518 -0.0078945057 0.028971642
0.025290104 -0.0080468515 0.028897732
0.026517145 -0.0080704354 0.029225111
0.027293572 -0.007960625 0.029021084
0.02884632 -0.0080769695 0.028451145
0.029506639 -0.0079440949 0.02817595
0.030782629 -0.007980681 0.026937395
0.032268062 -0.0080670156 0.026635021
0.033093639 -0.0079881195 0.025519997
0.034741025 -0.0081062391 0.024823934
0.036645982 -0.0082748989 0.02411449
0.036214381 -0.0079218959 0.021990299
0.038357124 -0.00813636 0.01984337
0.039790079 -0.0081920754 0.016919225
0.0083363224 -0.0071454188 0.015117943
0.0094731376 -0.0071048532 0.017487109
0.010615021 -0.0070766811 0.018664002
0.011701125 -0.0070206746 0.020039648
0.012667932 -0.0069097811 0.020350039
0.013896087 -0.0069480436 0.021922886
0.015306416 -0.0070644999 0.022825837
0.016269185 -0.006972508 0.023990244
0.017509202 -0.0070036803 0.025428832
0.018685395 -0.0070070233 0.02600351
0.019528104 -0.0068922718 0.026569873
0.021131726 -0.0070439088 0.027389199
0.022205943 -0.0070124031 0.027530789
0.022776304 -0.0068328916 0.027810425
0.024204861 -0.0069156741 0.027488381
0.02526702 -0.0068910057 0.027740449
0.025982032 -0.0067779212 0.028160691
0.027424673 -0.0068561682 0.02809298
0.028155316 -0.0067572757 0.027919531
0.029813128 -0.0068799527 0.027640224
0.030867638 -0.0068594748 0.027367383
0.03164608 -0.0067813029 0.026569486
0.033128478 -0.0068541677 0.026287675
0.035037905 -0.0070075807 0.026029885
0.036321465 -0.0070299609 0.024979979
0.036896519 -0.0069180974 0.022236407
0.038003758 -0.0069097746 0.019954979
0.03892418 -0.0068689729 0.016756594
0.0095129646 -0.0059456024 0.015754998
0.010733335 -0.0059629641 0.017830253
0.011594253 -0.0057971263 0.018979937
0.012829941 -0.0058317911 0.020060629
0.014031128 -0.005846303 0.021093339
0.014997191 -0.0057681501 0.022072852
0.016318368 -0.0058279885 0.022807747
0.017569205 -0.0058564018 0.023497134
0.018525204 -0.0057891258 0.02512005
0.019759705 -0.0058116778 0.025919706
0.020632507 -0.0057312525 0.026238292
0.021599205 -0.0056840009 0.02612105
0.02334097 -0.0058352426 0.026738495
0.024168609 -0.0057544303 0.027234226
0.024729475 -0.0056203352 0.027647108
0.026356729 -0.0057297233 0.028315604
0.027627185 -0.0057556634 0.028315604
0.028545734 -0.0057091466 0.02799049
0.030003974 -0.005769995 0.027709454
0.030646957 -0.0056753624 0.027229309
0.032078028 -0.0057282192 0.0266653
0.033469971 -0.0057706842 0.026208848
0.034957025 -0.0058261706 0.026030988
0.035740409 -0.0057645817 0.024057299
0.037292581 -0.0058269659 0.021120876
0.037772451 -0.0057230988 0.019222379
0.040191695 -0.0059105433 0.016527802
0.0094849449 -0.0047424724 0.015136242
0.010694685 -0.0047531938 0.016018778
0.011718312 -0.0046873251 0.018422961
0.012908071 -0.0046938444 0.019243956
0.013887447 -0.0046291491 0.021013319
0.01494691 -0.0045990492 0.021316171
0.016323945 -0.0046639843 0.022196323
0.017155681 -0.0045748483 0.02272138
0.018080248 -0.0045200619 0.02402544
0.019302525 -0.0045417701 0.025272638
0.020538798 -0.0045641772 0.026220173
0.02213327 -0.0046596359 0.026093006
0.023185732 -0.0046371464 0.025893271
0.02378569 -0.0045306073 0.02710557
0.025375746 -0.0046137725 0.027095765
0.026587075 -0.0046238392 0.027210504
0.027483348 -0.0045805578 0.027792007
0.029025758 -0.004644121 0.027561158
0.0297786 -0.0045813229 0.027012706
0.031294968 -0.0046362914 0.026486933
0.032244124 -0.0046063033 0.026282489
0.033308659 -0.0045942976 0.02620855
0.034843087 -0.0046457448 0.024562299
0.036127731 -0.0046616425 0.022450686
0.036906589 -0.0046133236 0.021157861
0.038521476 -0.00466927 0.018869996
0.040225867 -0.0047324551 0.015211761
0.0093344562 -0.0035004208 0.015812099
0.010558859 -0.00351962 0.016807377
0.011615556 -0.0034846668 0.01779148
0.012710568 -0.0034665188 0.019384593
0.013876781 -0.0034691952 0.021458954
0.015108854 -0.0034866584 0.021886557
0.016302122 -0.0034933116 0.022692978
0.017504277 -0.0035008553 0.023158401
0.018968686 -0.0035566287 0.02388835
0.019490393 -0.0034394811 0.024341792
0.020933958 -0.003488993 0.024941891
0.022018034 -0.0034765315 0.025108159
0.022624759 -0.0033937139 0.026921928
0.024214569 -0.0034592242 0.027186006
0.025324063 -0.0034532815 0.027534276
0.026155027 -0.0034115249 0.027944177
0.028174881 -0.0035218601 0.027772576
0.028764712 -0.0034517653 0.027567834
0.029502399 -0.003404123 0.027021766
0.03094743 -0.0034386031 0.026789695
0.031841192 -0.0034115561 0.026337117
0.033133022 -0.0034275539 0.0259341
0.035662863 -0.0035662861 0.024178267
0.036126632 -0.0034961256 0.022655636
0.037891537 -0.0035523316 0.020191431
0.038684744 -0.0035167949 0.017961264
0.0082748486 -0.0023642424 0.015226126
0.0093897115 -0.0023474279 0.016804516
0.010674786 -0.0023721748 0.017754138
0.011664501 -0.0023329004 0.018867522
0.012852237 -0.0023367703 0.020809084
0.014122738 -0.0023537898 0.022168994
0.015100375 -0.0023231346 0.022743225
0.016496887 -0.0023566983 0.023040146
0.017712938 -0.0023617251 0.023742855
0.018227147 -0.0022783934 0.024098843
0.019787926 -0.0023279912 0.024737656
0.020900294 -0.0023222549 0.024648041
0.021871408 -0.0023022536 0.025553674
0.02355808 -0.0023558082 0.026346087
0.024544856 -0.0023376052 0.027530402
0.025383392 -0.0023075812 0.028002203
0.027166313 -0.0023622881 0.028396726
0.027614383 -0.0023011987 0.028518766
0.028707348 -0.0022965877 0.028232723
0.030054981 -0.0023119217 0.027352065
0.030389432 -0.0022510688 0.027135432
0.031390358 -0.0022421684 0.026024461
0.033255227 -0.002293464 0.025022537
0.035316832 -0.0023544554 0.023950398
0.036735911 -0.0023700586 0.022367328
0.037260003 -0.0023287502 0.019280434
0.038290285 -0.0023206235 0.015929252
0.0082386518 -0.0011769503 0.015785784
0.0095380619 -0.0011922577 0.017513931
0.01054431 -0.0011715901 0.018386394
0.011963907 -0.0011963907 0.019401461
0.0131239 -0.0011930818 0.021135181
0.013961236 -0.0011634363 0.022627324
0.015129037 -0.0011637722 0.023156226
0.016607096 -0.0011862211 0.02352497
0.017608909 -0.0011739272 0.023950726
0.019019853 -0.0011887408 0.024280757
0.020059451 -0.0011799678 0.024849892
0.021147192 -0.001174844 0.024974436
0.02232293 -0.001174891 0.025034636
0.02357048 -0.0011785241 0.026196539
0.024236912 -0.0011541387 0.0267542
0.025908688 -0.0011776676 0.027442187
0.026875343 -0.0011684932 0.028539389
0.027823534 -0.0011593139 0.028585225
0.029334439 -0.0011733775 0.028383881
0.03020397 -0.0011616912 0.027914792
0.031008976 -0.0011484806 0.027054578
0.032257549 -0.0011520553 0.025519967
0.033341959 -0.0011497227 0.024884582
0.035574365 -0.0011858122 0.023379177
0.036434717 -0.0011753134 0.020553082
0.036884967 -0.0011526552 0.018247485
0.038850147 -0.0011772772 0.015271038
0.0083142146 0 0.016058415
0.0095205354 0 0.01752156
0.010645293 0 0.018523216
0.011934076 0 0.019419283
0.013097791 0 0.020552456
0.014448376 0 0.022264779
0.015904712 0 0.023174524
0.016776921 0 0.024031729
0.017834719 0 0.024418205
0.019078402 0 0.024646342
0.019861704 0 0.025110543
0.021264575 0 0.02526921
0.022221165 0 0.025517076
0.023030983 0 0.026305765
0.024890417 0 0.026925713
0.026021281 0 0.027211875
0.026676606 0 0.027837247
0.028175669 0 0.028365076
0.028620983 0 0.027237087
0.029787993 0 0.02705431
0.030864524 0 0.026614308
0.032036241 0 0.025739402
0.033303261 0 0.024805218
0.036087062 0 0.021830708
0.035837416 0 0.020269662
0.037447188 0 0.016628712
0.0071977037 0.0011996174 0.015801132
0.0083901528 0.0011985932 0.016947567
0.009512702 0.0011890878 0.018258393
0.010923419 0.0012137133 0.018867463
0.01188893 0.001188893 0.020199507
0.012980418 0.001180038 0.02069068
0.014343014 0.0011952512 0.021849692
0.015538637 0.0011952798 0.022477627
0.016530314 0.0011807367 0.023168772
0.017766114 0.0011844076 0.023887783
0.018625049 0.0011640656 0.02456072
0.019777754 0.0011633973 0.024823576
0.021123068 0.0011735038 0.02500248
0.021873927 0.0011512593 0.025206387
0.023351243 0.0011675621 0.025773346
0.02439931 0.0011618719 0.026224673
0.025370236 0.0011531926 0.026561439
0.027160967 0.0011809116 0.026860088
0.027881965 0.0011617485 0.027556568
0.028843023 0.0011537209 0.026827246
0.030253014 0.0011635774 0.026514918
0.0316808 0.001173363 0.025951535
0.032570928 0.0011632474 0.025333673
0.034082696 0.0011752653 0.022400677
0.035990268 0.0011996756 0.021604091
0.036357451 0.0011728209 0.018822789
0.037952773 0.0011860242 0.016340613
0.0071906862 0.0023968956 0.015769213
0.0081715733 0.0023347351 0.017077148
0.0094214128 0.0023553532 0.018047512
0.010515681 0.0023368183 0.0194332
0.011621223 0.0023242447 0.020433217
0.013010467 0.0023655395 0.021150202
0.013994017 0.002332336 0.02188918
0.015165339 0.0023331291 0.022607803
0.01648921 0.0023556014 0.023321778
0.017585896 0.0023447862 0.023777425
0.018330479 0.0022913099 0.024117529
0.019750644 0.0023236051 0.024909347
0.02063386 0.0022926512 0.025326073
0.021893395 0.002304568 0.025389105
0.023442373 0.0023442374 0.026048183
0.024047436 0.0022902319 0.02595672
0.025493225 0.002317566 0.026606977
0.026655274 0.0023178498 0.027420223
0.027427405 0.0022856172 0.026907355
0.029054226 0.0023243381 0.026016831
0.029649988 0.0022807682 0.025543928
0.030816503 0.0022827038 0.024115384
0.032119296 0.0022942354 0.023076862
0.033625592 0.0023190062 0.022372633
0.035942506 0.002396167 0.021110117
0.036613416 0.0023621556 0.017601967
0.008259357 0.0035397243 0.017469406
0.0092881257 0.003483047 0.018079489
0.010477114 0.0034923716 0.018938243
0.011606413 0.0034819238 0.019776046
0.012689113 0.0034606673 0.020646572
0.013911154 0.0034777885 0.021189541
