ply
format ascii 1.0
comment PCL generated
element vertex 1288
property float x
property float y
property float z
element camera 0
property float view_px
property float view_py
property float view_pz
property float x_axisx
property float x_axisy
property float x_axisz
property float y_axisx
property float y_axisy
property float y_axisz
property float z_axisx
property float z_axisy
property float z_axisz
property float focal
property float scalex
property float scaley
property float centerx
property float centery
property int viewportx
property int viewporty
property float k1
property float k2
end_header
-0.0030333621 -0.014155691 0.018085986
-0.0020388479 -0.014271935 0.020426273
-0.0010201648 -0.014282308 0.016355783
0 -0.014231164 0.01828149
0.0010249179 -0.014348852 0.016599506
0.0020222729 -0.01415591 0.015990019
0.0051229876 -0.014344364 0.016257077
0.0092011243 -0.014312861 0.017326444
-0.019435884 -0.013298237 0.019406915
-0.01823863 -0.013172344 0.020212799
-0.017178603 -0.013136578 0.019727886
-0.016184371 -0.013149802 0.021069616
-0.014980652 -0.012983232 0.023166627
-0.014166533 -0.013154638 0.021000445
-0.013191379 -0.013191379 0.018249005
-0.012081116 -0.013087876 0.019151986
-0.011325107 -0.013384217 0.017569453
-0.010070806 -0.013092048 0.022273928
-0.0091234837 -0.013178366 0.016499311
-0.0081228679 -0.01319966 0.019961089
-0.0070971786 -0.013180475 0.016671598
-0.006088296 -0.013191308 0.017184108
-0.0050774105 -0.013201267 0.01854974
-0.0040683802 -0.013222235 0.019647181
-0.003051352 -0.013222526 0.017161191
-0.0020391417 -0.013254421 0.017697781
-0.0010142783 -0.013185618 0.018234223
0 -0.013329059 0.017576098
0.0010173864 -0.013226025 0.017161578
0.0020312192 -0.013202924 0.015284449
0.0030551911 -0.013239162 0.016771168
0.0050713168 -0.013185424 0.015064001
0.0061464296 -0.013317264 0.015356064
0.0081340792 -0.013217879 0.018937469
0.010168285 -0.013218771 0.01749748
-0.020465238 -0.012279143 0.017872065
-0.019343704 -0.012217076 0.016242653
-0.018151278 -0.012100852 0.023745805
-0.017414927 -0.01229289 0.017561615
-0.016151531 -0.012113648 0.019341677
-0.015342683 -0.012274146 0.019026875
-0.01414035 -0.0121203 0.026386619
-0.013017396 -0.012016057 0.024756283
-0.012272861 -0.012272861 0.01893419
-0.01125026 -0.012273011 0.017522067
-0.0099899461 -0.011987936 0.01986292
-0.0091483258 -0.012197768 0.018645436
-0.0080601284 -0.012090192 0.023570091
-0.0071211942 -0.012207761 0.018330425
-0.0061523938 -0.012304788 0.018550545
-0.0050579999 -0.0121392 0.018478036
-0.0040348121 -0.012104437 0.017527848
-0.0030567094 -0.012226838 0.021599412
-0.0020411294 -0.012246776 0.015285581
-0.0010119197 -0.012143036 0.018479437
0 -0.012253512 0.017236143
0.0010045449 -0.012054539 0.019381493
0.0020295493 -0.012177296 0.019844472
0.0030420823 -0.012168329 0.019112796
0.0061582439 -0.012316488 0.016624808
0.0070785368 -0.012134635 0.019110441
0.0082604866 -0.012390729 0.016550213
0.010247677 -0.012297212 0.017303884
0.013232795 -0.012214888 0.015229017
-0.022356186 -0.011178093 0.020010978
-0.021503914 -0.011263954 0.019599766
-0.020443572 -0.011243965 0.0189448
-0.019286094 -0.011165633 0.019531578
-0.018306023 -0.011187014 0.019899189
-0.017122161 -0.011079046 0.021435976
-0.016165357 -0.011113683 0.022631884
-0.015161055 -0.011118107 0.022950768
-0.014246261 -0.011193491 0.019200504
-0.013239288 -0.011202474 0.018641651
-0.012370247 -0.011339393 0.015377522
-0.011204822 -0.011204822 0.016816556
-0.010219774 -0.011241751 0.015550256
-0.0091045592 -0.011127795 0.021425486
-0.0081196968 -0.011164583 0.019695938
-0.0070794718 -0.011124884 0.020501286
-0.0060723871 -0.01113271 0.018551886
-0.0050952369 -0.011209521 0.017504215
-0.0040570437 -0.011156871 0.019357562
-0.0030580261 -0.011212762 0.01791954
-0.0020333522 -0.011183437 0.017407835
0 -0.011041435 0.021479666
0.0010118703 -0.011130574 0.020504385
0.0020188456 -0.011103651 0.019699633
0.0030099358 -0.011036431 0.020869583
0.0040680147 -0.01118704 0.02252695
0.0060939617 -0.011172264 0.015967786
0.0071609528 -0.011252926 0.01684469
0.0081070215 -0.011147154 0.017136455
0.0091297878 -0.011158629 0.0190368
0.010243538 -0.011267891 0.017402649
0.011228951 -0.011228951 0.016109765
0.012332231 -0.011304544 0.015158147
-0.025831783 -0.010332714 0.017302305
-0.024554038 -0.010230849 0.015649885
-0.023531595 -0.010231128 0.016747594
-0.022534398 -0.010242908 0.018235058
-0.02137365 -0.010177929 0.017263532
-0.020282967 -0.010141484 0.021478653
-0.019342886 -0.010180466 0.019752026
-0.018119786 -0.010066548 0.025478452
-0.017104646 -0.010061556 0.02185148
-0.016240478 -0.010150298 0.019831598
-0.015084382 -0.010056255 0.020686328
-0.014271073 -0.010193624 0.017447293
-0.01319105 -0.010146962 0.023175657
-0.012114424 -0.010095353 0.015817255
-0.011149924 -0.010136295 0.022057921
-0.010170475 -0.010170475 0.018330008
-0.0090996716 -0.010110746 0.017551064
-0.0082079889 -0.010259987 0.016601264
-0.007121319 -0.010173313 0.019527495
-0.0060566948 -0.010094491 0.020162135
-0.0050352286 -0.010070457 0.022381485
-0.0040848609 -0.010212152 0.018724889
-0.0030525578 -0.010175193 0.019066691
-0.0020256832 -0.010128415 0.020603091
-0.0010067554 -0.010067554 0.024211884
0 -0.010104161 0.018018752
0.0010059631 -0.01005963 0.019408494
0.0020300718 -0.01015036 0.017604053
0.003045792 -0.01015264 0.018603444
0.0040787654 -0.010196913 0.018090993
0.0050455905 -0.010091181 0.019455791
0.0060800994 -0.010133498 0.018138617
0.0071260124 -0.010180018 0.018089116
0.0081270551 -0.010158819 0.019234031
0.0092850542 -0.010316727 0.015259683
0.010146708 -0.010146708 0.017915636
0.011224994 -0.01020454 0.017743856
0.012308178 -0.010256816 0.017206401
0.014233546 -0.010166819 0.017764062
0.016055318 -0.010034573 0.015933514
0.019286199 -0.010150631 0.015246361
-0.026628301 -0.0092174886 0.016838282
-0.025652306 -0.0092348307 0.016281188
-0.024697149 -0.0092614312 0.016064614
-0.023779348 -0.0093049621 0.015823513
-0.022375042 -0.0091534257 0.018430918
-0.021377474 -0.0091617741 0.016947955
-0.020447336 -0.0092013013 0.019458562
-0.01912537 -0.0090593854 0.020824909
-0.018303921 -0.0091519607 0.018805504
-0.017180208 -0.0090954043 0.022900403
-0.016297968 -0.0091676069 0.017030865
-0.015213203 -0.0091279214 0.019030571
-0.014207097 -0.009133134 0.020640671
-0.013089655 -0.0090620695 0.019399464
-0.012227016 -0.0091702621 0.017914236
-0.010937427 -0.0089488039 0.02673921
-0.010092463 -0.009083217 0.019159913
-0.0090223243 -0.0090223243 0.025353014
-0.0081153484 -0.0091297664 0.01943025
-0.0070295837 -0.0090380358 0.023015022
-0.0061148377 -0.0091722561 0.016823143
-0.0040529184 -0.0091190655 0.02240783
-0.003049996 -0.0091499882 0.018458247
-0.0020166594 -0.0090749674 0.020189762
-0.0010113872 -0.0091024842 0.018507481
0.0010062665 -0.0090563986 0.018970758
0.0020393364 -0.0091770133 0.015069157
0.0030728553 -0.0092185661 0.016068667
0.0040799831 -0.0091799619 0.015897602
0.005083987 -0.0091511765 0.017311364
0.0060735112 -0.0091102663 0.020382792
0.0070257438 -0.0090330988 0.018504679
0.0081460653 -0.009164324 0.017991871
0.0090733347 -0.0090733347 0.019989878
0.010069306 -0.0090623759 0.016673505
0.011171365 -0.0091402074 0.01903677
0.012140004 -0.0091050034 0.017719239
0.016461698 -0.0092597054 0.015032947
0.018094553 -0.0090472763 0.017879844
-0.027946623 -0.0082804812 0.015400887
-0.026855893 -0.0082633523 0.015135765
-0.025609551 -0.0081950566 0.016160339
-0.02465318 -0.0082177268 0.016138494
-0.023462841 -0.0081609879 0.017309427
-0.022295875 -0.0081075905 0.0204041
-0.021604896 -0.0082304366 0.015901744
-0.020359524 -0.0081438096 0.019605726
-0.019242082 -0.008101929 0.016977489
-0.018366281 -0.0081627918 0.018294901
-0.017182155 -0.0080857193 0.020830661
-0.016138017 -0.0080690086 0.023366898
-0.015275234 -0.0081467917 0.021980166
-0.014157526 -0.0080900146 0.016693771
-0.013042031 -0.0080258651 0.02522555
-0.01226057 -0.0081737135 0.017427713
-0.010175274 -0.0081402194 0.019429088
-0.0091264751 -0.0081124222 0.022502035
-0.0081596635 -0.0081596635 0.016505599
-0.0070581171 -0.0080664195 0.022138506
-0.0060829776 -0.0081106368 0.015873075
-0.0050330516 -0.0080528827 0.019799381
-0.0040643495 -0.0081286989 0.018556327
-0.0030366245 -0.0080976654 0.019361436
-0.0020300564 -0.0081202257 0.020312756
-0.0010197929 -0.0081583429 0.016216218
0 -0.0080725318 0.018459767
0.001019549 -0.0081563918 0.019581378
0.0020427366 -0.0081709465 0.017093927
0.00303571 -0.0080952272 0.017435044
0.00408532 -0.0081706401 0.015679002
0.0050726747 -0.0081162788 0.016532004
0.0060544498 -0.0080725998 0.021164089
0.0071357726 -0.008155169 0.020748794
0.0081328452 -0.0081328452 0.015164673
0.009136349 -0.008121199 0.018747628
0.010185635 -0.0081485081 0.018185794
0.01113777 -0.0081001958 0.018525869
0.012172091 -0.0081147272 0.015258372
0.013150549 -0.0080926456 0.0190593
0.014327266 -0.008187009 0.015182793
0.015241424 -0.0081287595 0.017520785
0.016292984 -0.0081464918 0.018542439
0.0202755 -0.0081102001 0.01607427
-0.026513899 -0.007138357 0.016572267
-0.025796331 -0.0072229728 0.015187562
-0.024568159 -0.0071657128 0.015530676
-0.023518533 -0.0071578142 0.016238987
-0.022705384 -0.0072244401 0.015535116
-0.021429466 -0.0071431552 0.016438246
-0.020455465 -0.0071594124 0.020166844
-0.019454723 -0.0071675293 0.016515464
-0.018086491 -0.0070336359 0.026164621
-0.017141538 -0.0070582801 0.023048818
-0.016283996 -0.0071242489 0.019347459
-0.015121509 -0.0070567043 0.017594725
-0.014147952 -0.0070739761 0.021398276
-0.013140867 -0.0070758518 0.023349971
-0.012046882 -0.007027348 0.01884231
-0.011104102 -0.0070662471 0.024157912
-0.010035572 -0.0070249005 0.021575361
-0.0091318395 -0.0071025416 0.015481532
-0.0080995793 -0.0070871315 0.022991866
-0.0070925844 -0.0070925844 0.019262373
-0.0060379086 -0.0070442264 0.024725139
-0.0050677303 -0.0070948228 0.028091043
-0.0040369849 -0.0070647234 0.020191044
-0.0030118932 -0.0070277508 0.019606203
-0.002056123 -0.0071964301 0.015290141
-0.0010108786 -0.0070761503 0.018777549
0.0010157559 -0.0071102912 0.019265294
0.0020256401 -0.0070897406 0.018801749
0.0030267076 -0.0070623178 0.021240056
0.0040460071 -0.0070805126 0.016923368
0.0050652921 -0.0070914086 0.019824654
0.0061095967 -0.0071278629 0.019043714
0.0070789298 -0.0070789298 0.015434295
0.009115383 -0.0070897425 0.016286045
0.010165999 -0.0071161995 0.01801604
0.011124884 -0.0070794718 0.017771035
0.012214343 -0.0071250331 0.020304829
0.013066406 -0.0070357574 0.019450158
0.014240078 -0.0071200388 0.016597033
0.015261329 -0.0071219536 0.01796025
0.016141694 -0.0070619909 0.016983807
0.017225413 -0.0070928168 0.017712981
0.018495405 -0.0071926573 0.017102003
0.019135375 -0.0070498749 0.015760303
0.021421796 -0.0071405987 0.016608745
-0.023679081 -0.006177152 0.017286599
-0.022509426 -0.0061389343 0.017508149
-0.021445677 -0.0061273365 0.018509001
-0.020540325 -0.0061620977 0.016538471
-0.018218784 -0.0060729277 0.020342976
-0.01749742 -0.0061755604 0.015545189
-0.016002964 -0.0060011116 0.027633309
-0.015315868 -0.006126347 0.018472731
-0.014117817 -0.0060504931 0.022447139
-0.013123181 -0.0060568526 0.017574131
-0.012190705 -0.0060953526 0.020378798
-0.011167571 -0.0060914024 0.017698616
-0.010000019 -0.0060000112 0.026208371
-0.0091349529 -0.0060899686 0.019578248
-0.0081042973 -0.0060782228 0.020383894
-0.0070625753 -0.0060536359 0.019677669
-0.0049627735 -0.0059553282 0.024190545
-0.0040727528 -0.0061091287 0.017826408
-0.0020118216 -0.0060354648 0.018973231
-0.0010040912 -0.0060245469 0.020461053
0 -0.0061054109 0.016120136
0.0010053106 -0.0060318634 0.017754018
0.0020236494 -0.0060709482 0.018168449
0.0030507904 -0.0061015808 0.019143671
0.0040661683 -0.0060992525 0.018533587
0.0050667175 -0.0060800607 0.017533243
0.0071039665 -0.0060891141 0.018141538
0.008186223 -0.0061396672 0.015361041
0.0090817409 -0.0060544936 0.018212855
0.010090834 -0.0060545001 0.016017556
0.011145447 -0.0060793348 0.018259346
0.012173154 -0.0060865772 0.016844183
0.0131414 -0.006065262 0.016404152
0.014294396 -0.0061261696 0.018060088
0.01619011 -0.0060712914 0.020859033
0.018104766 -0.0060349214 0.019636482
0.019353688 -0.0061116908 0.016832769
0.023567084 -0.0061479351 0.01563096
0.040195026 -0.0060292538 0.015020967
-0.025761748 -0.0051523498 0.017233342
-0.02481685 -0.0051701772 0.015604824
-0.023496492 -0.0051079327 0.017384589
-0.022397693 -0.0050903852 0.018434137
-0.021478377 -0.0051138992 0.018996775
-0.020511799 -0.0051279496 0.020022184
-0.019422622 -0.0051112166 0.016394854
-0.018114157 -0.0050317105 0.023973852
-0.017372718 -0.0051096226 0.020711362
-0.016256951 -0.0050802971 0.022370607
-0.015367571 -0.0051225238 0.021909714
-0.014064558 -0.0050230566 0.020668656
-0.013240086 -0.0050923405 0.024546087
-0.012020726 -0.0050086356 0.022768468
-0.011074095 -0.0050336798 0.016236514
-0.01028257 -0.0051412848 0.018480629
-0.0091720233 -0.0050955685 0.019237518
-0.0081567559 -0.0050979727 0.020555258
-0.0060083671 -0.0050069727 0.026116967
-0.0051040808 -0.0051040808 0.015509754
-0.0040375316 -0.0050469143 0.022753209
-0.0030629672 -0.0051049455 0.018632203
-0.0020128663 -0.0050321659 0.016681463
0 -0.0050291801 0.015657306
0.001009613 -0.005048065 0.021607995
0.0020127443 -0.0050318609 0.018949538
0.0050400659 -0.0050400659 0.019070208
0.0060061719 -0.0050051436 0.019142717
0.0070961025 -0.0050686449 0.018093377
0.0080879945 -0.0050549968 0.018872797
0.0091111287 -0.0050617382 0.016994357
0.010118609 -0.0050593046 0.020089746
0.01103521 -0.0050160047 0.020892918
0.012203556 -0.005084815 0.020062566
0.013124424 -0.0050478554 0.021133512
0.014271 -0.0050967862 0.017621994
0.015165595 -0.0050551984 0.019107044
0.017240163 -0.0050706365 0.016008705
0.018287381 -0.0050798282 0.018662602
0.020393664 -0.005098416 0.01602751
0.021425953 -0.0051014177 0.01734063
0.02325709 -0.005055889 0.01606974
0.031600278 -0.0050968193 0.015659153
0.039023828 -0.0051347143 0.016436905
0.039328862 -0.0050421618 0.015923262
-0.01949144 -0.0041034613 0.015567064
-0.018018182 -0.0040040403 0.022512674
-0.017230291 -0.0040541859 0.018811345
-0.016055627 -0.0040139067 0.019081324
-0.0151843 -0.0040491465 0.017109066
-0.014099077 -0.0040283077 0.022131681
-0.012096392 -0.0040321308 0.019989997
-0.011237323 -0.0040862993 0.020991027
-0.010132912 -0.0040531647 0.017505854
-0.0090164747 -0.0040073222 0.022310317
-0.0069337133 -0.0039621219 0.027140796
-0.0060871812 -0.0040581208 0.017363042
-0.004997835 -0.0039982684 0.023582339
-0.0040305727 -0.0040305727 0.018485934
-0.0020452379 -0.0040904758 0.015877038
0 -0.0040890635 0.016340643
0.0010161045 -0.0040644179 0.016706437
0.0020102402 -0.0040204804 0.017072082
0.0040174033 -0.0040174033 0.026802212
0.0070813666 -0.0040464951 0.021142036
0.008051645 -0.0040258225 0.015313268
0.010075617 -0.0040302463 0.020065874
0.01110994 -0.0040399781 0.01682207
0.012224376 -0.0040747924 0.018161684
0.013060621 -0.0040186527 0.019671559
0.014251781 -0.0040719374 0.016866893
0.015181557 -0.0040484155 0.015378684
0.016115088 -0.004028772 0.017180532
0.017226148 -0.0040532113 0.016983807
0.018247329 -0.0040549622 0.017225653
0.019000798 -0.0040001683 0.019708514
0.02227778 -0.0040505053 0.015439302
0.02354335 -0.0040944959 0.01536411
0.038360622 -0.00403796 0.015830368
0.039086185 -0.0040088398 0.01830256
-0.017868366 -0.0029780611 0.02434054
-0.017286591 -0.0030505748 0.020127594
-0.016295779 -0.0030554587 0.018033862
-0.015204739 -0.0030409477 0.020814061
-0.014186403 -0.0030399433 0.01818347
-0.013198758 -0.0030458672 0.020354539
-0.01216321 -0.0030408024 0.020404875
-0.011190637 -0.003051992 0.019431144
-0.0090281926 -0.0030093975 0.022700965
-0.007959648 -0.0029848679 0.026237905
-0.0070273243 -0.0030117105 0.023483545
-0.0060745114 -0.0030372557 0.021972507
-0.0040309043 -0.0030231783 0.018583924
-0.0030847045 -0.0030847045 0.017194182
-0.0020163816 -0.0030245723 0.018950433
-0.00099954184 -0.0029986256 0.020706683
0 -0.0030507678 0.018340945
0.0010012492 -0.0030037477 0.018316478
0.0030398897 -0.0030398897 0.018437982
0.0040072477 -0.0030054359 0.016462117
0.0050939708 -0.0030563825 0.016900629
0.0060368343 -0.0030184172 0.023411334
0.0070354324 -0.0030151852 0.016923755
0.0080820592 -0.0030307721 0.019824743
0.0091626067 -0.0030542021 0.016775787
0.010041702 -0.0030125105 0.021699965
0.011085374 -0.003023284 0.0213328
0.012090805 -0.0030227012 0.017723262
0.013082298 -0.003018992 0.01759994
0.014401387 -0.0030860116 0.015112281
0.015148986 -0.0030297972 0.018669307
0.016292853 -0.0030549101 0.021226317
0.017168529 -0.0030297406 0.019323498
0.018172074 -0.0030286792 0.01632449
0.019475665 -0.0030751049 0.016785502
0.020257052 -0.0030385579 0.015492409
0.021189189 -0.0030270268 0.016878724
0.025557647 -0.0030669176 0.015773654
0.026275154 -0.0030317486 0.018010259
0.038490623 -0.0030387335 0.016971886
0.054798689 -0.0030443715 0.015154779
0.064774327 -0.0030362967 0.016183972
-0.017039344 -0.0020046288 0.024270445
-0.016110819 -0.0020138524 0.023346871
-0.015325623 -0.0020434163 0.018572062
-0.014238665 -0.0020340949 0.017233133
-0.013195794 -0.0020301221 0.016332626
-0.012180222 -0.0020300369 0.019844443
-0.0099376244 -0.0019875248 0.027576387
-0.0090804538 -0.0020178787 0.019068092
-0.008109008 -0.002027252 0.020068884
-0.0072181947 -0.0020623414 0.017460525
-0.0049922308 -0.0019968923 0.024534374
-0.0039717029 -0.0019858514 0.025974005
-0.0020348271 -0.0020348271 0.015682518
-0.00101035 -0.0020206999 0.022219181
0 -0.0020258285 0.015463203
0.0020251931 -0.0020251931 0.01977998
0.0040490148 -0.0020245074 0.015950233
0.0050614318 -0.0020245728 0.018193454
0.0060215639 -0.002007188 0.017388076
0.0070961416 -0.002027469 0.018192112
0.0089899292 -0.0019977621 0.023579121
0.010197905 -0.0020395811 0.015019536
0.011082867 -0.0020150668 0.020869881
0.012150967 -0.0020251612 0.019527555
0.013214808 -0.0020330474 0.01901415
0.014293265 -0.0020418949 0.015380621
0.015102611 -0.0020136815 0.019278884
0.016239494 -0.0020299368 0.016133249
0.017164657 -0.0020193714 0.017861694
0.018251302 -0.0020279223 0.017835408
0.019398436 -0.0020419406 0.01527527
0.020331664 -0.0020331664 0.017587572
0.021506637 -0.0020482512 0.015807301
0.024459124 -0.0020382602 0.016677111
0.025442416 -0.0020353934 0.016236395
0.027467277 -0.0020346132 0.016182512
0.029396379 -0.0020273365 0.016541749
0.030725515 -0.0020483676 0.015346974
0.031525075 -0.0020338758 0.015733123
0.03246757 -0.0020292231 0.015122265
0.03411084 -0.0020065198 0.015674949
0.036837768 -0.0019912308 0.019040436
0.038380496 -0.0020200261 0.018841773
0.039236747 -0.0020121408 0.017307997
0.056276806 -0.0020098859 0.016062677
0.060312316 -0.0020104107 0.015485108
0.065072022 -0.0020335007 0.016304612
0.064767919 -0.0019928592 0.018296391
-0.015295603 -0.0010197068 0.019254684
-0.01435653 -0.0010254665 0.015648901
-0.013242661 -0.0010186662 0.015991509
-0.012000417 -0.0010000347 0.025134951
-0.011127892 -0.0010116266 0.022918135
-0.01014253 -0.001014253 0.020603269
-0.0070723095 -0.0010103299 0.01987496
-0.0060205231 -0.0010034206 0.024387419
-0.0050636125 -0.0010127225 0.021973819
-0.003009418 -0.0010031393 0.024267554
-0.0019959444 -0.00099797221 0.025463015
-0.0010079205 -0.0010079205 0.016902328
0 -0.0010068262 0.017438978
0.0010042619 -0.0010042619 0.02290228
0.0030469168 -0.0010156389 0.016438514
0.0040651495 -0.0010162874 0.015901595
0.0049755103 -0.00099510199 0.019852012
0.0060377163 -0.001006286 0.024192333
0.0071393112 -0.0010199016 0.015022039
0.008103719 -0.0010129649 0.018727928
0.0090959007 -0.0010106557 0.02104339
0.0099462513 -0.00099462515 0.024187475
0.011088334 -0.0010080304 0.018553913
0.012251279 -0.0010209399 0.015066355
0.013191164 -0.0010147049 0.016674072
0.014162868 -0.0010116334 0.016867667
0.015196892 -0.0010131261 0.020156503
0.016148986 -0.0010093116 0.018570483
0.017258026 -0.0010151779 0.01925084
0.018341381 -0.0010189656 0.015179724
0.019162541 -0.0010085548 0.015957594
0.020364739 -0.001018237 0.015663296
0.024462273 -0.0010192613 0.016287714
0.026598543 -0.0010230208 0.016014904
0.028384598 -0.0010137357 0.017104447
0.029481309 -0.0010165969 0.01508233
0.030288011 -0.0010096004 0.015395731
0.0313746 -0.0010120838 0.017751604
0.032368679 -0.0010115212 0.01711601
0.033249132 -0.0010075495 0.015921444
0.034396224 -0.0010116537 0.015334934
0.035962097 -0.00099894719 0.019482166
0.03721552 -0.0010058249 0.015446216
0.038138654 -0.0010036487 0.017676473
0.038451329 -0.00098593149 0.019735664
0.061471924 -0.0010077364 0.015214264
0.063292339 -0.0009889428 0.019893289
0.065277092 -0.0010042629 0.015864998
0.066945836 -0.0010143308 0.015810549
-0.013333812 0 0.015357763
-0.012182567 0 0.019552171
-0.0092138872 0 0.01599595
-0.0080422945 0 0.021068931
-0.0070655029 0 0.020265222
-0.0061719888 0 0.016729802
-0.0050831395 0 0.018486381
-0.0039971173 0 0.020950168
-0.003029 0 0.020828694
-0.0020009507 0 0.021853358
-0.001012192 0 0.01673165
0.0010141432 0 0.015999943
0.00304089 0 0.020365268
0.0040322375 0 0.016291857
0.0050407648 0 0.021047115
0.0060819988 0 0.017193168
0.0081037451 0 0.022141933
0.0090904422 0 0.017775983
0.010063929 0 0.016287595
0.011155416 0 0.016627878
0.012133566 0 0.019235224
0.013156345 0 0.018794954
0.014093808 0 0.021815926
0.015003174 0 0.020960867
0.016250418 0 0.018911719
0.017304683 0 0.015985578
0.018106798 0 0.018225461
0.020279543 0 0.019804507
0.021435296 0 0.015442163
0.022372652 0 0.017217875
0.023349907 0 0.01818946
0.024348406 0 0.015289605
0.02637556 0 0.015917599
0.027377276 0 0.016742378
0.028418753 0 0.018661648
0.029155124 0 0.015909463
0.030521594 0 0.016782105
0.031365275 0 0.016657382
0.032349329 0 0.015268296
0.03332945 0 0.015629798
0.034470696 0 0.018299848
0.035175055 0 0.017639935
0.037289772 0 0.016029149
0.037656676 0 0.018162131
0.039421845 0 0.0176723
0.040012628 0 0.01912412
0.051540568 0 0.015919894
0.052260976 0 0.016761392
0.053636461 0 0.015136003
0.055159144 0 0.015783638
0.056930155 0 0.017512143
0.061468434 0 0.016058266
0.065585323 0 0.015702695
0.06588757 0 0.017237306
0.066354401 0 0.017471135
0.074454345 0 0.015140206
-0.013217309 0.0010167161 0.018307358
-0.010141921 0.0010141921 0.017823666
-0.0090904143 0.0010100461 0.0195072
-0.0070479838 0.0010068548 0.026386142
-0.006003696 0.001000616 0.0246557
-0.0050492845 0.0010098569 0.018120497
-0.0040212492 0.0010053123 0.023071975
-0.0020076514 0.0010038257 0.019463122
0 0.0010090212 0.016512156
0.0020372851 0.0010186426 0.015755862
0.0029900284 0.00099667616 0.023438305
0.0041073426 0.0010268356 0.016340584
0.0050867815 0.0010173563 0.016047448
0.0060102805 0.0010017134 0.01690048
0.0070979153 0.0010139879 0.018558085
0.0080232481 0.001002906 0.023580551
0.009151862 0.0010168736 0.018751264
0.010149845 0.0010149846 0.020700783
0.010979047 0.00099809514 0.020431221
0.012051613 0.0010043011 0.019844681
0.013215724 0.0010165942 0.022865891
0.014206378 0.0010147413 0.016404569
0.016320556 0.0010200348 0.01698634
0.016979435 0.00099879038 0.019835681
0.018361118 0.001020062 0.015618294
0.019157911 0.0010083112 0.016737193
0.023131415 0.0010057137 0.018871188
0.024341028 0.0010142095 0.02045095
0.026410282 0.00101578 0.015430778
0.028239833 0.0010085654 0.016544819
0.029276725 0.0010095423 0.017563581
0.031412292 0.0010132998 0.015368521
0.032629311 0.001019666 0.016799927
0.033128809 0.0010039032 0.017501444
0.033925243 0.00099780119 0.019903779
0.035294 0.0010084 0.015793294
0.036292225 0.0010081173 0.017028689
0.037015583 0.0010004211 0.019477755
0.038104054 0.0010027383 0.020128846
0.039078534 0.0010020137 0.020828038
0.040493034 0.0010123259 0.016818523
0.052411739 0.001007918 0.016205043
0.05342165 0.0010079556 0.016272366
0.054173525 0.0010032135 0.015566081
0.055779576 0.0010141741 0.016696543
0.057259008 0.001004544 0.015429437
0.064490758 0.0010076681 0.015823096
0.065175377 0.0010026981 0.019139141
0.066572584 0.0010086756 0.017976403
0.081348017 0.000992049 0.015196115
-0.011198859 0.0020361561 0.016213149
-0.0090299798 0.0020066621 0.018946201
-0.0081982575 0.0020495644 0.017142683
-0.006038391 0.0020127969 0.020729125
-0.0050275931 0.0020110372 0.023705184
-0.0040429179 0.0020214589 0.01887688
-0.0030264014 0.0020176009 0.017755389
-0.0020276322 0.0020276322 0.018828779
-0.0010141304 0.0020282608 0.019438714
0.002016047 0.002016047 0.020072669
0.0030227429 0.002015162 0.018657774
0.0040602335 0.0020301167 0.015828282
0.0061152112 0.0020384036 0.017363667
0.0070359688 0.0020102768 0.019996703
0.0081104711 0.0020276178 0.017362177
0.009179757 0.0020399459 0.017385602
0.0099876076 0.0019975216 0.019042581
0.011027218 0.0020049487 0.022771597
0.012279688 0.0020466147 0.015651315
0.013164104 0.0020252466 0.01599136
0.014190036 0.0020271479 0.019621909
0.015364009 0.0020485346 0.020546287
0.015961671 0.0019952089 0.016839981
0.018339017 0.0020376686 0.017762274
0.019080199 0.0020084421 0.017467916
0.020409614 0.0020409613 0.017076015
0.022221018 0.0020200924 0.018971086
0.023388818 0.0020338104 0.017215252
0.026525524 0.0020404248 0.015333295
0.027362151 0.0020268259 0.018932283
0.028191883 0.0020137059 0.018977702
0.029422833 0.002029161 0.015568703
0.030422712 0.0020281808 0.015371293
0.031074664 0.0020048171 0.017508239
0.032214724 0.0020134202 0.01733464
0.033278901 0.0020169031 0.015653938
0.035172492 0.0020098565 0.016497731
0.035725646 0.0019847581 0.016858459
0.037576862 0.0020311817 0.017413229
0.038276698 0.0020145632 0.018720359
0.038720787 0.0019856812 0.021046311
0.04050722 0.0020253609 0.01567772
0.046475668 0.0020206813 0.018439204
0.051225286 0.0020088349 0.018242359
0.052474141 0.0020182361 0.017341673
0.05311361 0.0020042872 0.01861757
0.055696003 0.0020253093 0.016623884
0.056976803 0.0020348858 0.015990198
0.057784922 0.0020275412 0.017288566
0.059641887 0.0020217588 0.01602158
0.061039537 0.0020346513 0.016425788
0.062022272 0.0020007184 0.017136633
0.06408941 0.0020027941 0.017629236
0.065116093 0.0020035722 0.019138932
0.066524334 0.0020158889 0.015834481
-0.011276456 0.0030753971 0.017943949
-0.010142887 0.0030428662 0.016311526
-0.0081615532 0.0030605826 0.015313566
-0.0071024322 0.0030438995 0.016899377
-0.0061619384 0.0030809692 0.016973197
-0.0050122719 0.0030073633 0.02214399
-0.0040238318 0.003017874 0.018388778
-0.0030731806 0.0030731806 0.016828299
-0.0020047966 0.003007195 0.021145463
-0.0010185047 0.0030555143 0.020413965
0.0020111378 0.0030167066 0.021560103
0.003087997 0.003087997 0.015852749
0.0050086142 0.0030051686 0.023704767
0.0061151162 0.0030575581 0.01887536
0.0070640249 0.0030274394 0.017752856
0.0081103444 0.0030413794 0.022824079
0.01012521 0.0030375631 0.017262429
0.011171864 0.0030468721 0.018529058
0.011962818 0.0029907045 0.024963647
0.014174459 0.003037384 0.020304084
0.015155384 0.0030310769 0.016451389
0.016273359 0.0030512547 0.018350661
0.018208256 0.0030347095 0.016373247
0.019488394 0.0030771149 0.016273856
0.021209646 0.0030299495 0.015003294
0.022492569 0.0030671686 0.018751621
0.023025831 0.0030033691 0.018748969
0.024276149 0.0030345186 0.016141266
0.025554603 0.0030665523 0.016747355
0.026341598 0.0030394152 0.015089691
0.028467346 0.0030500728 0.015571237
0.029138435 0.003014321 0.018584818
0.030250773 0.0030250773 0.017511308
0.03148124 0.0030465717 0.020061225
0.037342645 0.0030277821 0.017655849
0.037678692 0.0029746336 0.018331558
0.038805388 0.0029850299 0.020948887
0.040356126 0.0030267097 0.018104315
0.044753678 0.0030513871 0.015539974
0.049013823 0.003063364 0.015473902
0.052158915 0.0030091682 0.015479088
0.054854158 0.0030474532 0.015517324
0.055352949 0.0030192519 0.017976731
0.056735836 0.0030394197 0.015434414
0.057281688 0.0030148258 0.015115201
0.058350112 0.0030181094 0.016123593
0.059932813 0.0030474311 0.01676932
0.061760895 0.003037421 0.015599698
0.062970206 0.0030469457 0.015376925
0.065086447 0.0030509273 0.015100181
0.065525867 0.003024271 0.017597944
0.066201702 0.0030091682 0.019949228
0.073637865 0.0030262135 0.015283704
-0.011260119 0.004094589 0.015408039
-0.0091986153 0.0040882733 0.016238987
-0.0081228465 0.0040614232 0.019044042
-0.0071389764 0.004079415 0.017240405
-0.006064136 0.0040427577 0.016899705
-0.0050685578 0.0040548462 0.015607744
-0.0040591066 0.0040591066 0.020924747
-0.0030032408 0.0040043211 0.021291018
-0.0020268245 0.004053649 0.015755087
-0.0010132388 0.0040529552 0.021315962
0.0010153118 0.0040612472 0.019803852
0.0020003626 0.0040007252 0.020047516
0.0030473229 0.0040630973 0.017462045
0.0039937468 0.0039937468 0.026314437
0.0050740452 0.004059236 0.019631624
0.0060974234 0.0040649492 0.017972678
0.0070886207 0.0040506404 0.019947171
0.0091097392 0.0040487731 0.015483111
0.010093902 0.0040375609 0.021211833
0.011067702 0.0040246188 0.017748505
0.012179034 0.0040596779 0.017040253
0.013177078 0.0040544858 0.018867165
0.014183534 0.0040524383 0.018134326
0.015093819 0.0040250183 0.018205792
0.016287625 0.0040719062 0.015011638
0.017227186 0.0040534553 0.015253752
0.018310921 0.0040690936 0.016567767
0.019271579 0.0040571745 0.016370952
0.020111676 0.0040223352 0.017976642
0.022059461 0.004010811 0.019968837
0.023215737 0.0040375195 0.017238945
0.026394812 0.0040607406 0.015162349
0.028233407 0.0040333439 0.017054975
0.02927536 0.0040379805 0.017976284
0.030500012 0.0040666685 0.01585713
0.036222763 0.0040247515 0.016930729
0.03698466 0.0039983415 0.018942565
0.037800122 0.0039789602 0.015514761
0.038726449 0.0039719432 0.019661874
0.039789811 0.0039789807 0.019074649
0.051510271 0.004040021 0.017177135
0.052575964 0.0040443051 0.015527099
0.053214163 0.0040161633 0.017601401
0.054203667 0.0040150862 0.017329752
0.05581823 0.0039870166 0.019081265
0.057232291 0.0040163011 0.018277884
0.059241313 0.0040856078 0.018392116
0.05918416 0.0040124855 0.015007615
0.06097218 0.0040648119 0.016159922
0.06502375 0.0040014614 0.01639387
0.06633132 0.00402008 0.019563794
-0.0091786068 0.0050992258 0.015043765
-0.0071025039 0.0050732172 0.016776592
-0.0061126151 0.005093846 0.018313587
-0.0051052994 0.0051052994 0.016485244
-0.0040180217 0.0050225272 0.022314221
-0.0030207154 0.0050345259 0.01868093
-0.0020400591 0.0051001473 0.021022528
0 0.0051282579 0.017340094
0.0010035769 0.0050178845 0.022071362
0.0020337182 0.0050842953 0.016559452
0.0030165087 0.0050275144 0.018290758
0.0061129811 0.005094151 0.017143101
0.0070995167 0.0050710831 0.015581757
0.0080733644 0.0050458526 0.017044038
0.009175864 0.0050977021 0.015628964
0.010125314 0.0050626569 0.017968565
0.011165944 0.0050754291 0.016529053
0.012269375 0.0051122396 0.0162597
0.013191761 0.0050737541 0.01825726
0.014110624 0.0050395085 0.016963899
0.015407784 0.0051359278 0.015987515
0.016069798 0.0050218119 0.01830101
0.017090008 0.0050264727 0.022831261
0.017924486 0.0049790237 0.024436772
0.019120608 0.0050317389 0.016419232
0.020338858 0.0050847144 0.015150607
0.021894103 0.0049759327 0.02079621
0.023236087 0.0050513232 0.017141104
0.025255155 0.0050510308 0.019691765
0.026500057 0.005096165 0.0168899
0.027330799 0.005061259 0.015524447
0.028353531 0.0050631305 0.017808676
0.029461473 0.0050795642 0.01520282
0.030236503 0.0050394172 0.016513318
0.035734251 0.0049630902 0.017561823
0.03725319 0.0050342148 0.016683578
0.037799072 0.004973562 0.023866296
0.03867567 0.0049584191 0.021724582
0.040315304 0.005039413 0.020044804
0.041136272 0.0050166184 0.017298281
0.050174702 0.0051198676 0.016073734
0.049422521 0.0049422523 0.018150032
0.051851228 0.0050834538 0.015047789
0.052623257 0.0049644583 0.018592179
0.054313101 0.005028991 0.018924415
0.055180807 0.0050164368 0.016042918
0.056100737 0.0050089946 0.017776459
0.058011726 0.0050887479 0.016031951
0.058319259 0.0050275223 0.015760779
0.059385385 0.00503266 0.015344977
0.060351864 0.0050293221 0.018498927
0.061000474 0.0050000385 0.018636763
0.064383321 0.005109787 0.015514851
0.063985132 0.0049988385 0.017652154
0.066746391 0.0050565447 0.018721044
0.065848805 0.0049140896 0.020300984
0.067531772 0.0049655712 0.019619435
0.078146286 0.005074434 0.018296808
-0.010138374 0.0060830247 0.016090721
-0.0091618337 0.0061078891 0.018310398
-0.0081759822 0.0061319866 0.016750872
-0.0071317032 0.0061128885 0.015264213
-0.0060849725 0.0060849725 0.020946503
-0.0050597065 0.0060716476 0.019874275
-0.0010150045 0.0060900273 0.016168892
0 0.0059792055 0.021582931
0.0009867152 0.0059202909 0.027606547
0.0020196256 0.0060588769 0.019656092
0.0030306713 0.0060613425 0.019826502
0.0039637461 0.0059456187 0.025654376
0.0050435509 0.0060522612 0.0228737
0.0060696099 0.0060696099 0.016215861
0.0069891801 0.0059907255 0.024066776
0.0081789084 0.0061341813 0.017531097
0.010099366 0.0060596201 0.017163455
0.011210477 0.0061148056 0.016089678
0.013157245 0.0060725743 0.015648514
0.014267953 0.0061148368 0.016500205
0.015026164 0.0060104658 0.018570244
0.016148198 0.0060555744 0.021590024
0.016998293 0.0059993975 0.021758407
0.018160677 0.006053559 0.015957654
0.019302774 0.0060956129 0.017417431
0.02099945 0.0059998431 0.01787582
0.022149157 0.0060406793 0.021672159
0.024360284 0.0060900711 0.01621294
0.025409458 0.00609827 0.016259104
0.026427969 0.0060987622 0.015088409
0.027298659 0.0060663689 0.017348826
0.028161827 0.0060346774 0.021992534
0.030162511 0.0060325023 0.018920362
0.036139637 0.0060232724 0.018095583
0.037040774 0.0060066115 0.019378513
0.037684768 0.0059502264 0.018378586
0.038939405 0.005990678 0.0206801
0.039719403 0.0059579103 0.023611337
0.041110005 0.0060160984 0.020500034
0.049366437 0.0060448698 0.017114073
0.05059452 0.0060713426 0.015681088
0.051426902 0.006050224 0.017418027
0.052261483 0.0060301712 0.015743792
0.053489584 0.0060554249 0.017237693
0.05412529 0.006013921 0.019044638
0.058597263 0.0060617859 0.018101364
0.059070226 0.0060071419 0.019301206
0.060534336 0.0060534333 0.015821218
0.061821979 0.0060808505 0.015357345
0.065596759 0.0059633413 0.018046677
0.068006031 0.0060900925 0.01563412
0.068755686 0.0060666781 0.015194923
0.078225419 0.0060173399 0.017330229
-0.0091866953 0.0071452074 0.017139375
-0.0071228794 0.0071228794 0.016360849
-0.0061041103 0.0071214619 0.015605599
-0.0030351207 0.0070819482 0.019264787
-0.0020247865 0.0070867529 0.017314196
0.0010077694 0.0070543857 0.021069854
0.0020222261 0.0070777913 0.01614365
0.0040350338 0.0070613092 0.022288173
0.0050070737 0.007009903 0.018946826
0.0059899944 0.0069883266 0.023262084
0.0070810635 0.0070810635 0.018799096
0.0081049427 0.0070918254 0.016579479
0.009092343 0.0070718224 0.019479901
0.010170266 0.0071191862 0.020136952
0.012193135 0.0071126623 0.016063511
0.013094923 0.0070511126 0.021936238
0.016053973 0.0070236134 0.020127177
0.017108401 0.0070446362 0.019857079
0.018143497 0.0070558051 0.019611329
0.020998601 0.0069995336 0.022136867
0.022038443 0.0070122322 0.021963447
0.023134956 0.0070410739 0.01570335
0.024460077 0.0071341894 0.018062323
0.02610738 0.0070289099 0.020222515
0.02762931 0.0071631544 0.015231282
0.028031271 0.0070078177 0.020021141
0.029233564 0.0070563774 0.016052991
0.030199597 0.0070465724 0.019867986
0.032496098 0.0071085212 0.018207341
0.032570474 0.0069088885 0.022116601
0.03629557 0.0070574717 0.016783237
0.036673155 0.0069381646 0.019693404
0.037927721 0.0069866856 0.017722368
0.039053801 0.0070096566 0.019708425
0.039700817 0.0069476431 0.021887511
0.041570861 0.0070974641 0.018776804
0.050703123 0.0069592521 0.015095025
0.052831568 0.0071119415 0.018330783
0.053295255 0.0070389961 0.015907347
0.055093698 0.0070119253 0.017394662
0.055582676 0.0069478345 0.020600855
0.060351051 0.0070409561 0.015458882
0.062433489 0.0071644988 0.016562104
0.063321114 0.007149158 0.015808821
0.067096904 0.0070101242 0.015898049
0.067718938 0.0069710668 0.016612798
0.069610678 0.0070619532 0.016581893
-0.007140893 0.0081610205 0.017067134
-0.0040029017 0.0080058035 0.019726753
-0.003053267 0.0081420457 0.016849786
-0.0010187564 0.0081500513 0.01577726
0 0.0080905771 0.020825118
0.0010107703 0.0080861626 0.018410861
0.0030887465 0.0082366578 0.016167045
0.0040207021 0.0080414042 0.016703129
0.0049784938 0.0079655899 0.024505347
0.0060182419 0.0080243219 0.020261943
0.0070470236 0.0080537414 0.02052933
0.0080284961 0.0080284961 0.02160114
0.010949403 0.007963202 0.022109151
0.012169166 0.008112777 0.019328892
0.012955691 0.0079727331 0.022300839
0.015117145 0.0080624772 0.024441361
0.017190436 0.0080896169 0.015860558
0.018248985 0.0081106592 0.015249848
0.02095543 0.0079830214 0.021478355
0.022169992 0.0080618151 0.017263174
0.024153691 0.0080512306 0.019327253
0.027072933 0.0080216099 0.015206277
0.028190028 0.0080542937 0.019801259
0.029348578 0.0080961594 0.016757548
0.029997574 0.0079993531 0.018189162
0.031368464 0.0080950875 0.016872883
0.032165941 0.0080414852 0.016893893
0.03330278 0.0080734007 0.015918344
0.034401894 0.0080945631 0.01708135
0.035828296 0.0079618432 0.01950264
0.037073497 0.0080158906 0.023407608
0.037983615 0.0079965508 0.021168768
0.038387042 0.0078742644 0.020581245
0.040067796 0.0080135595 0.021376908
0.040959746 0.0079921456 0.020886391
0.042801071 0.0081525845 0.015084803
0.049501542 0.0080818841 0.017112583
0.05035121 0.0080561936 0.017712295
0.051329952 0.0080517577 0.02099663
0.05316468 0.0080248574 0.01532644
0.055295121 0.0081918696 0.015297174
0.054536432 0.0079325717 0.02217716
0.056249555 0.0080356514 0.018426418
0.058214318 0.0080295615 0.018244624
0.066308297 0.0079174088 0.017580897
0.068349332 0.0080410978 0.016828418
0.068890378 0.0079872906 0.020041525
-0.0071652597 0.0092124771 0.015579045
-0.0061013061 0.0091519589 0.015994132
-0.0050577763 0.0091039976 0.017335713
-0.0030624315 0.0091872951 0.016239345
-0.0019832538 0.0089246416 0.023164541
-0.0010079124 0.0090712123 0.017361432
0 0.0090438081 0.027017593
0.0010063276 0.0090569481 0.018287957
0.0020381173 0.0091715278 0.016727239
0.0030350003 0.0091050006 0.01616621
0.0040453593 0.0091020586 0.017433733
0.0050586904 0.0091056423 0.017408878
0.0060859458 0.0091289189 0.016262323
0.0071093682 0.0091406163 0.015895963
0.0091561582 0.0091561582 0.015211791
0.010070524 0.009063472 0.018599242
0.011206891 0.0091692749 0.018256754
0.012041292 0.0090309698 0.021448344
0.01301124 0.0090077817 0.018741488
0.014193451 0.009124361 0.018374324
0.015092586 0.0090555521 0.018640727
0.016068939 0.009038779 0.020661175
0.01697313 0.0089857746 0.023168355
0.019302381 0.0091432333 0.017902136
0.020151438 0.0090681473 0.015245378
0.021038696 0.0090165846 0.019529134
0.022057675 0.0090235937 0.020281285
0.024426972 0.0091601145 0.016234964
0.026335698 0.0091162035 0.015378296
0.027255425 0.0090851421 0.016105652
0.028506948 0.0091629475 0.016078562
0.028848035 0.0089528384 0.020210147
0.030247657 0.0090742968 0.01626727
0.031457245 0.0091327485 0.015826583
0.031928957 0.008980019 0.022021651
0.032988265 0.0089967996 0.01978147
0.03421215 0.0090561565 0.020287603
0.034949418 0.0089869928 0.015497863
0.036200169 0.0090500424 0.01719445
0.036844704 0.0089622261 0.022556573
0.037893984 0.0089748912 0.018594533
0.039109088 0.0090251742 0.018468767
0.040072966 0.009016417 0.022588998
0.040883001 0.0089743175 0.018241316
0.052710067 0.009122896 0.016467035
0.053687181 0.0091166915 0.021078795
0.054851834 0.0091419723 0.017882079
0.055503491 0.0090823891 0.016330063
0.057271015 0.0092042703 0.015648335
0.061398085 0.0090587344 0.015186489
0.067071289 0.0087484289 0.019223511
-0.0060555972 0.010092663 0.017114699
-0.0050833803 0.010166761 0.017456621
-0.0040273205 0.010068301 0.020334095
-0.0030225681 0.010075227 0.017067373
-0.0020197094 0.010098548 0.020383626
0.0010265663 0.010265662 0.01594618
0.0020066649 0.010033324 0.020261705
0.0030273227 0.010091076 0.019359231
0.0040024519 0.010006129 0.020846069
0.0050391904 0.010078381 0.018968165
0.005963807 0.0099396789 0.018626243
0.0070906016 0.010129431 0.016870201
0.0080602607 0.010075325 0.022037476
0.009063472 0.010070524 0.018599242
0.010146099 0.010146099 0.019085646
0.012246031 0.010205027 0.015402883
0.013043734 0.010033642 0.024247944
0.014126938 0.01009067 0.017690957
0.015096261 0.010064174 0.017762452
0.017016644 0.01000979 0.018757701
0.019177454 0.010093397 0.016025692
0.019849496 0.009924748 0.023646027
0.021284169 0.010135318 0.015486032
0.022134032 0.010060924 0.018575877
0.023226464 0.010098463 0.015773892
0.025952995 0.0099819209 0.02102226
0.027253816 0.010094006 0.015009969
0.028384378 0.010137278 0.018704534
0.028881598 0.0099591715 0.020160317
0.030176576 0.010058858 0.01942721
0.031148296 0.010047837 0.017016828
0.032352898 0.010110281 0.017548233
0.033258967 0.010078475 0.016378284
0.034189481 0.01005573 0.016156226
0.03505788 0.010016537 0.021180749
0.036775164 0.0099392338 0.02214247
0.038521286 0.010137181 0.01740402
0.03870219 0.0099236388 0.022787303
0.039614495 0.0099036237 0.018560201
0.04098751 0.0099969534 0.020665795
0.050651997 0.0099317636 0.017487168
0.052861013 0.01016558 0.015112042
0.055244513 0.010044456 0.018986225
0.056530707 0.010094769 0.017796516
0.057021506 0.010003773 0.018804222
0.059620827 0.010105224 0.015727431
0.061982661 0.010161093 0.015209705
0.067070968 0.0098633775 0.018629402
-0.0020533444 0.011293394 0.015164822
0 0.011163462 0.016798496
0.0020142132 0.011078173 0.018212408
0.0030620489 0.011227513 0.01635921
0.0040521682 0.011143462 0.01952821
0.0050623254 0.011137116 0.018040538
0.0061224843 0.011224555 0.016016573
0.0070709391 0.011111476 0.015650213
0.0081440732 0.011198101 0.015503228
0.010036364 0.01104 0.018133819
0.011173992 0.011173992 0.015232384
0.012164077 0.011150404 0.017717034
0.014038173 0.011029993 0.017860383
0.015131818 0.011096667 0.020027131
0.018329041 0.011201081 0.015490681
0.019079026 0.011045752 0.015074879
0.019990649 0.010994857 0.019383103
0.021092318 0.011048357 0.019112796
0.022069655 0.011034828 0.01816082
0.025895949 0.010955979 0.026081473
0.027345629 0.011140812 0.015081942
0.029022515 0.01100854 0.021107346
0.030052438 0.011019227 0.018939644
0.030905129 0.010966336 0.021148115
0.03200471 0.011001619 0.020269066
0.032755643 0.010918547 0.020678073
0.034304958 0.011098663 0.02028507
0.03487283 0.010960032 0.016321719
0.036263432 0.011080493 0.017362326
0.037408292 0.011121385 0.016969919
0.037720971 0.010919228 0.02223298
0.038482007 0.010853899 0.020698965
0.040266942 0.011073409 0.020936489
0.0407263 0.010926569 0.018724144
0.05157382 0.011123764 0.015551209
0.053350739 0.011072795 0.016000509
0.054961979 0.010992396 0.015313566
-0.0030726164 0.012290466 0.016821206
-0.0010149671 0.012179605 0.018211246
0 0.012060428 0.019625306
0.0040040957 0.012012287 0.018405437
0.0060291705 0.012058341 0.021183163
0.0080806036 0.012120904 0.019548267
0.009073196 0.012097594 0.017256141
0.010044173 0.012053008 0.017303884
0.011120246 0.012131177 0.018350691
0.012136886 0.012136886 0.015717566
0.014163374 0.012140035 0.018589973
0.015011966 0.012009573 0.017613858
0.018152375 0.012101582 0.015002459
0.019164413 0.01210384 0.017192423
0.019924693 0.011954816 0.025834143
0.021051183 0.012029248 0.016749889
0.022131 0.012071455 0.018938452
0.026093341 0.01204308 0.01851359
0.028307294 0.012131697 0.02222833
0.028715463 0.011882261 0.022370279
0.029765852 0.011906341 0.020785928
0.031844955 0.011941858 0.020729333
0.032911662 0.011967877 0.024175346
0.034362391 0.012127902 0.016591251
0.037365213 0.012118448 0.015317947
0.038096413 0.012030447 0.015241623
0.039198462 0.012061065 0.019411445
0.039839558 0.011951867 0.022317737
0.040835269 0.011951786 0.021972597
0.052879009 0.012202849 0.016802341
0.053340562 0.012077108 0.015080988
0.054629229 0.012139829 0.015341789
0.055130795 0.012028537 0.018887073
0.057127327 0.012026805 0.016363978
0 0.012955903 0.018697441
0.0010104999 0.013136499 0.0194287
0.0020280501 0.013182325 0.017551512
0.00406643 0.013215898 0.018233359
0.0050265267 0.013068969 0.023059189
0.0059859226 0.012969499 0.019792199
0.0070720133 0.013133739 0.018328995
0.0080000302 0.01300005 0.020716608
0.0091492571 0.013215594 0.015037
0.011138143 0.013163259 0.016619086
0.014082117 0.013076251 0.016712666
0.018239727 0.013173136 0.015220463
0.019002151 0.013001472 0.019747823
0.019976705 0.012984858 0.018868923
0.021046991 0.013029089 0.018793464
0.022245748 0.013145215 0.015578002
0.025113069 0.013058796 0.016714692
0.026394904 0.013197452 0.016103894
0.028930053 0.012968644 0.01855126
0.031296082 0.013124163 0.015409082
0.032225449 0.013091587 0.021967024
0.032895081 0.012958668 0.020942211
0.03389312 0.012959135 0.020087719
0.035460494 0.01317104 0.019962043
0.036511336 0.012828307 0.020972639
0.038393177 0.013134508 0.017691523
0.038414788 0.01280493 0.024068326
0.039533276 0.012848314 0.020302683
0.040963858 0.01298854 0.023886681
0.042407893 0.013126252 0.017746776
0.068776958 0.013148536 0.015308976
0.0010135835 0.014190169 0.016502053
0.0020116698 0.014081689 0.018939406
0.003047073 0.014219674 0.0181835
0.0049800985 0.013944275 0.020376176
0.006111912 0.014261128 0.018133193
0.0070454003 0.014090801 0.019911587
0.0079949703 0.013991199 0.019471973
0.010051682 0.014072355 0.017106146
0.011119783 0.014152451 0.017275572
0.012139305 0.014162522 0.021611184
0.017221661 0.014182545 0.016389817
0.018226137 0.014175884 0.017459482
0.018548353 0.013667207 0.023203552
0.021003049 0.014002033 0.019497812
0.023435013 0.01426479 0.015671879
0.025022773 0.014012753 0.019729942
0.026302569 0.014162921 0.015494406
0.028123999 0.014062 0.015805334
0.02933831 0.014163322 0.01779604
0.031056147 0.014025357 0.018251181
0.031907849 0.013959683 0.023860455
0.032950446 0.013978978 0.019142807
0.034251567 0.014103586 0.016855747
0.035100572 0.014040229 0.022267222
0.037309807 0.014117224 0.017936856
0.038011905 0.014004386 0.021281451
0.039338816 0.014121626 0.02033022
0.040046599 0.014016309 0.021635026
0.041136909 0.01404675 0.021144658
0.04202763 0.01400921 0.017842263
0.053668238 0.014176516 0.015948504
0.0553644 0.014092756 0.016106993
0.060801264 0.014186962 0.016584903
0.001002341 0.015035116 0.018718511
0.0020419538 0.015314654 0.015842319
0.0040145386 0.01505452 0.015597999
0.0049452232 0.014835669 0.025931001
0.0060097347 0.015024337 0.022493839
0.0068571195 0.014693827 0.027707994
0.008132658 0.015248735 0.016814053
0.0091142152 0.015190358 0.017251819
0.010064783 0.015097175 0.017323881
0.011061156 0.015083395 0.020441324
0.016254609 0.015238696 0.016755313
0.017121788 0.01510746 0.017338037
0.019322634 0.015254712 0.016506404
0.021132769 0.015094835 0.017305493
0.022223132 0.015152136 0.016159326
0.023309773 0.015202026 0.017982066
0.026232218 0.015133972 0.015566021
0.027189063 0.015105035 0.016147047
0.028107852 0.015057778 0.020788223
0.030071901 0.015035951 0.018107176
0.031100435 0.015048597 0.022064716
0.03193219 0.014968215 0.017517149
0.034434274 0.015191591 0.01631996
0.034927461 0.014968911 0.018671691
0.03664938 0.015270576 0.015657485
0.037360337 0.015146082 0.017328531
0.038289711 0.01511436 0.016912013
0.039899915 0.014962468 0.020396203
0.04100151 0.015000552 0.021845847
0.042347111 0.015123968 0.017549783
0.043310139 0.015108188 0.015339911
0.0050163288 0.016052252 0.020494223
0.005952863 0.0158743 0.021590054
0.0071012224 0.016231366 0.016204059
0.0090305554 0.016054321 0.020807356
0.010051629 0.016082605 0.020123959
0.0111378 0.016200436 0.016322255
0.01532637 0.016348127 0.015001863
0.018273128 0.016242782 0.017602265
0.019072164 0.01606077 0.020472735
0.020043101 0.01603448 0.016064674
0.022133997 0.016097451 0.018712878
0.023357891 0.016248967 0.015279651
0.02445017 0.016300114 0.019777924
0.025189891 0.016121531 0.015056163
0.026457321 0.016281428 0.015248328
0.027286561 0.016169814 0.015270144
0.028057497 0.016032856 0.020543128
0.029225348 0.01612433 0.018643558
0.030311426 0.016166095 0.017959654
0.031176532 0.016091114 0.017713249
0.032265343 0.016132671 0.018584371
0.033323035 0.016156623 0.019649297
0.034160573 0.016075565 0.017483979
0.035555031 0.016253728 0.015198082
0.036322553 0.016143357 0.016165704
0.039333884 0.016136978 0.019841313
0.039973699 0.015989479 0.022188753
0.041047283 0.016018452 0.021722585
0.042185273 0.01607058 0.017523855
