ply
format ascii 1.0
comment PCL generated
element vertex 1265
property float x
property float y
property float z
element camera 0
property float view_px
property float view_py
property float view_pz
property float x_axisx
property float x_axisy
property float x_axisz
property float y_axisx
property float y_axisy
property float y_axisz
property float z_axisx
property float z_axisy
property float z_axisz
property float focal
property float scalex
property float scaley
property float centerx
property float centery
property int viewportx
property int viewporty
property float k1
property float k2
end_header
0.016323481 -0.067334361 0.015461653
0.017351158 -0.067363322 0.016710401
0.018103726 -0.066380329 0.018896401
0.01949328 -0.067713499 0.015817314
0.021157674 -0.066495545 0.018985778
0.023506358 -0.067453027 0.016602129
0.024627216 -0.067724846 0.018833876
0.028990939 -0.068335786 0.016565263
0.0081529114 -0.066242404 0.018028259
0.0091303932 -0.065941729 0.017112702
0.01023214 -0.066508912 0.015403003
0.01113882 -0.065820299 0.016196132
0.01517367 -0.065752566 0.016527832
0.016369432 -0.06650082 0.015660256
0.017024808 -0.065094851 0.0168854
0.018491896 -0.066776291 0.016065896
0.019119514 -0.065408863 0.017603159
0.020172713 -0.065561317 0.015917957
0.022414377 -0.066224299 0.015409052
0.024423596 -0.066147238 0.017856032
0.024994431 -0.064985521 0.015258282
0.026241612 -0.065604031 0.018042833
0.0081228856 -0.064983085 0.015338451
0.010138649 -0.064887345 0.016251713
0.016011028 -0.06404411 0.020262867
0.017373055 -0.065404445 0.015568614
0.018381134 -0.065355144 0.017924815
0.020362234 -0.065159149 0.015370905
0.021462282 -0.065408863 0.015825957
0.023393566 -0.065095142 0.015461057
0.025349766 -0.064895399 0.01557675
0.026536211 -0.065319903 0.019660175
0.02749401 -0.065170988 0.015379548
0.0051236395 -0.064557858 0.017249435
0.0091927955 -0.064349569 0.016186684
0.010231088 -0.064455852 0.015896708
0.011193206 -0.064106539 0.020351291
0.012183182 -0.063961707 0.015533328
0.014359785 -0.064619035 0.017312706
0.016430333 -0.064694442 0.015046567
0.017427854 -0.064585574 0.015815347
0.017985312 -0.062948592 0.016872704
0.021123193 -0.06336958 0.016289204
0.022278329 -0.063797034 0.015396953
0.023352802 -0.063966371 0.018954933
0.0050668484 -0.062828921 0.016364306
0.0071888012 -0.063672237 0.018435627
0.008128644 -0.062996991 0.015639424
0.011266379 -0.06350141 0.017805129
0.012115548 -0.062596999 0.018695265
0.013181332 -0.06286481 0.018958807
0.017280972 -0.063024722 0.01512298
0.018276045 -0.062950827 0.016397536
0.020321278 -0.062995963 0.017717779
0.02469296 -0.06379015 0.016553402
0.0041394983 -0.063127346 0.015020728
0.0050868336 -0.062059369 0.015647173
0.0061000171 -0.062016841 0.019600481
0.0071729366 -0.062507018 0.015887082
0.0081707491 -0.062301964 0.016657799
0.0092149386 -0.062456805 0.01769343
0.010208096 -0.062269386 0.016752332
0.011227523 -0.062261719 0.016100556
0.01222638 -0.062150765 0.016918808
0.013206639 -0.061969616 0.016869366
0.014160641 -0.061699934 0.019639105
0.015308113 -0.062252991 0.019613296
0.018181005 -0.061613407 0.01589787
0.018882295 -0.060622107 0.01567933
0.020443281 -0.062352005 0.018543184
0.022174647 -0.061484247 0.015167803
0.023643108 -0.062705636 0.016802698
0.024266066 -0.061676253 0.016343027
0.0010184807 -0.061108846 0.016160607
0.0030468653 -0.060937304 0.01616022
0.0040187445 -0.060281169 0.017389953
0.0051167519 -0.061401024 0.016786486
0.0060780337 -0.060780335 0.019728333
0.0071173459 -0.061005823 0.015531212
0.0082866298 -0.062149726 0.018376172
0.0091733094 -0.061155397 0.015698493
0.010167259 -0.061003555 0.015191227
0.011383514 -0.062091894 0.016034126
0.012244639 -0.061223194 0.016346425
0.013184095 -0.06084967 0.016538024
0.016209738 -0.060786519 0.01781106
0.017260032 -0.060917757 0.019351602
0.018224582 -0.060748607 0.015229046
0.022588169 -0.061604097 0.015438348
0.023325035 -0.060847919 0.015990078
0.024536494 -0.061341237 0.015000641
0.0030108762 -0.059213899 0.017637938
0.0050616125 -0.059727028 0.015079588
0.0060165506 -0.059162747 0.019011706
0.0071765096 -0.060487725 0.016115874
0.0090594077 -0.059389453 0.019925743
0.010194476 -0.060147408 0.018356681
0.011103094 -0.05955296 0.018307298
0.012245473 -0.060206912 0.015942335
0.015391668 -0.060540561 0.01909712
0.016352573 -0.060300112 0.01557526
0.018363537 -0.060191594 0.015523821
0.019521222 -0.060618531 0.017112821
0.0030724178 -0.059400078 0.015447766
0.004078608 -0.059139814 0.021602303
0.0050350646 -0.058406752 0.021167248
0.0061142794 -0.0591047 0.01921162
0.0071465569 -0.059214331 0.017231822
0.0081328508 -0.058963168 0.020151109
0.011147543 -0.058777951 0.015345931
0.012307759 -0.059487503 0.016334087
0.013156753 -0.058699358 0.019179642
0.014326374 -0.059352119 0.016042024
0.015295861 -0.059143998 0.016643643
0.016013036 -0.058047254 0.019415736
0.018275693 -0.058888346 0.015360594
0.024474634 -0.059147034 0.015637904
0.026636058 -0.059418902 0.017198861
0.0040351343 -0.05750066 0.016008228
0.0061265724 -0.058202438 0.016610861
0.0070388019 -0.057315957 0.017093003
0.0082095861 -0.058493305 0.016199023
0.010164297 -0.057936493 0.017814547
0.011184655 -0.057956848 0.018465072
0.013130008 -0.057570037 0.017424583
0.014186984 -0.057761293 0.019498557
0.015316623 -0.058203168 0.015660167
0.017444646 -0.058490872 0.016911596
0.025612514 -0.058396533 0.017930567
0 -0.056544647 0.017995238
0.0020602478 -0.05768694 0.015072316
0.0060587735 -0.056548554 0.017727584
0.0071942359 -0.057553887 0.015915513
0.008152537 -0.057067756 0.017919272
0.009134178 -0.056834888 0.019174099
0.010333827 -0.057869431 0.015671581
0.011107516 -0.056547355 0.015477419
0.012218566 -0.057019975 0.018808186
0.013362874 -0.057563152 0.016561508
0.015314679 -0.057174802 0.016172469
0.016255908 -0.056895677 0.016967446
0.018626144 -0.057948004 0.015974581
0.020450862 -0.057262413 0.015078187
0.025425466 -0.056953046 0.016851842
-0.0030609318 -0.056117084 0.019474775
0 -0.056487419 0.017977178
0.0030707174 -0.056296486 0.018387437
0.005035162 -0.055386782 0.020295262
0.0061032367 -0.055946339 0.020681173
0.0070783026 -0.055615235 0.019061655
0.0080939485 -0.055645894 0.01807031
0.0091987047 -0.056214307 0.018480033
0.010221396 -0.056217674 0.016522378
0.011198308 -0.055991542 0.016255558
0.01224156 -0.056107149 0.020191252
0.01314137 -0.055598103 0.016470551
0.014279544 -0.056098212 0.018642545
0.01528457 -0.056043424 0.016322881
0.016230529 -0.055792443 0.015621156
0.018445637 -0.056361672 0.01501438
-0.0040762359 -0.055029184 0.016604662
-0.003069388 -0.055248983 0.018683612
-0.0020345671 -0.054933313 0.017717123
-0.0010284117 -0.055534229 0.016798764
0 -0.05552787 0.016436279
0.0010107668 -0.054581411 0.021657109
0.0020374677 -0.05501163 0.01873228
0.0030382082 -0.054687746 0.015275627
0.0040409476 -0.054552797 0.018538237
0.0051552746 -0.055676967 0.017135888
0.0060976646 -0.05487898 0.017546207
0.0071309982 -0.055010557 0.017811328
0.0081517538 -0.055024337 0.018608004
0.0092110233 -0.055266142 0.016311347
0.01012997 -0.054701842 0.018050194
0.011285772 -0.055402879 0.01995784
0.012270294 -0.055216324 0.01616323
0.013198366 -0.054823983 0.01601705
0.01444242 -0.055706475 0.019856602
0.015240763 -0.05486675 0.015965998
0.016205033 -0.054691989 0.018452138
0.017333113 -0.055058118 0.016276807
-0.00413536 -0.054793518 0.015352845
-0.0030678578 -0.05419882 0.015159756
-0.0020252017 -0.053667843 0.018303216
-0.0010221608 -0.05417452 0.015498638
0 -0.053325705 0.016901046
0.0010217376 -0.05415209 0.020334423
0.0020267733 -0.053709492 0.019512147
0.0030310464 -0.053548485 0.020285547
0.0040930486 -0.054232895 0.017480522
0.0050907834 -0.053962305 0.017069012
0.0060249628 -0.053220507 0.020888299
0.0072378376 -0.054800771 0.017382056
0.0082047135 -0.054356229 0.017163664
0.0092662619 -0.054567985 0.015470654
0.010178618 -0.053946678 0.017766088
0.011181801 -0.053875949 0.016097158
0.012184416 -0.053814504 0.020881355
0.013253749 -0.054034516 0.018197328
0.015265697 -0.053938795 0.016696125
0.017097525 -0.053304046 0.015291661
0.019500574 -0.054396339 0.016761631
-0.0030811823 -0.053407159 0.015527427
-0.0020586275 -0.053524315 0.015068144
0.0010266022 -0.053383317 0.015455246
0.0020267016 -0.052694239 0.017680258
0.0030541543 -0.052938674 0.022589773
0.0040600253 -0.05278033 0.019880503
0.0050751935 -0.052782014 0.019783229
0.0061919624 -0.053663675 0.017581761
0.007150453 -0.053117651 0.018693537
0.0081826942 -0.053187512 0.016201913
0.0091332337 -0.052769791 0.019199461
0.010186131 -0.052967884 0.017868489
0.011208012 -0.052983329 0.018036574
0.012269574 -0.053168155 0.016342998
0.01318417 -0.052736681 0.01745376
0.014187853 -0.052697737 0.018926799
0.01543739 -0.053516284 0.016435593
0.016151767 -0.052493248 0.015056491
0.0174553 -0.053392682 0.018341422
-0.003087783 -0.052492309 0.017153352
-0.002052505 -0.05233888 0.016306818
-0.0010181569 -0.051926002 0.017589271
0 -0.052024875 0.019016802
0.0010151931 -0.051774848 0.015677929
0.0020577069 -0.052471526 0.016451985
0.0040407469 -0.051519521 0.01891911
0.0051197424 -0.052221373 0.018216997
0.0060868743 -0.05173843 0.018434078
0.0070989532 -0.051720943 0.017199606
0.0081867361 -0.052190442 0.018771142
0.010089585 -0.05145688 0.018140197
0.011252794 -0.052172046 0.017389297
0.013188341 -0.051738877 0.017241597
0.014296435 -0.052079868 0.017506182
0.016274851 -0.051876083 0.015520573
0.017301578 -0.051904734 0.015349776
0 -0.050932895 0.016796112
0.0010180498 -0.05090249 0.020619959
0.0020318455 -0.050796136 0.020450354
0.0030117824 -0.050196372 0.021490723
0.004105892 -0.051323652 0.017860115
0.005067185 -0.050671849 0.017835438
0.0060923952 -0.050769962 0.017278254
0.0071396939 -0.050997812 0.018439084
0.0080881342 -0.050550841 0.017784864
0.0090600224 -0.050333455 0.018461466
0.012274365 -0.051143188 0.019764185
0.0133363 -0.051293463 0.016472936
0.016390173 -0.051219288 0.015259385
0.017084967 -0.050249908 0.016926289
-0.0010291936 -0.050430488 0.015130728
0 -0.050240841 0.016026527
0.0010191468 -0.049938191 0.018350601
0.0020291964 -0.04971531 0.016462088
0.0030971277 -0.050586417 0.018277496
0.0040575168 -0.049704578 0.021230489
0.00509445 -0.04992561 0.019874275
0.0061283829 -0.050048459 0.017428756
0.0071105231 -0.04977366 0.019533932
0.0081017315 -0.049623106 0.016217023
0.0092506604 -0.050364707 0.01706329
0.010116362 -0.049570177 0.018320769
0.012358682 -0.050464619 0.015946835
0.013143762 -0.049541872 0.016308576
0.014443256 -0.050551396 0.016016871
0.019217158 -0.04956004 0.015984595
0 -0.049183726 0.016370386
0.0030432043 -0.048691269 0.018621981
0.0051235161 -0.049185753 0.019589633
0.0061280341 -0.049024273 0.016828567
0.0071287481 -0.048882846 0.015544653
0.0081457961 -0.048874781 0.020870507
0.0090861879 -0.048459671 0.016293645
0.010207746 -0.048997179 0.015832722
0.011228462 -0.048996922 0.0187608
0.012214232 -0.048856929 0.017137706
0.013151619 -0.048559822 0.018637002
0.014323894 -0.049110495 0.015416592
0.015295749 -0.048946396 0.016334832
0.016277129 -0.048831388 0.016018689
0 -0.04783446 0.015672684
0.0041013374 -0.048190713 0.015841424
0.0071605039 -0.048077669 0.015815645
0.0081137894 -0.047668513 0.016347677
0.0090932064 -0.047486741 0.016589046
0.010349977 -0.048644889 0.015982628
0.012331849 -0.048299741 0.016343683
0.013267985 -0.047968868 0.016318202
0.014300121 -0.048007552 0.015421122
0.017345063 -0.047954001 0.015440911
0.0091628544 -0.046832364 0.015842825
0.010066505 -0.046305921 0.023423702
0.011163693 -0.046684533 0.018626332
0.01116949 -0.045693371 0.01751706
0.012178219 -0.045668323 0.018291086
0.0010223667 -0.044984132 0.015419126
0.0020551393 -0.045213062 0.016752392
0.011209879 -0.044839516 0.015631557
0.012289159 -0.045060247 0.017060161
0.013212213 -0.044718262 0.018391609
0.01425449 -0.044799827 0.01872927
-0.0030649386 -0.043930784 0.017314404
-0.0020559339 -0.044202581 0.016102135
-0.0010136081 -0.043585148 0.018090844
0 -0.044007611 0.017872602
0.0020161637 -0.043347519 0.01680541
0.0030718499 -0.044029847 0.015180409
0.0040644296 -0.043692615 0.017411023
0.0050719082 -0.043618411 0.015325159
0.012323 -0.044157419 0.016410291
0.013149591 -0.043494802 0.017572433
0.015258134 -0.043739986 0.015848815
-0.011268511 -0.043025225 0.015542835
-0.010249615 -0.043048382 0.015665114
-0.0092148269 -0.043002527 0.016320795
-0.008072068 -0.042378355 0.01966843
-0.0050944635 -0.042793494 0.017196834
-0.0040720459 -0.042756483 0.01530534
-0.0030635607 -0.042889848 0.015111625
-0.0020346432 -0.042727504 0.015524209
-0.0010126616 -0.042531788 0.01654312
0 -0.043061685 0.017101109
0.0020273661 -0.042574685 0.017003894
0.0030584666 -0.042818531 0.018434733
0.0040473053 -0.042496704 0.016881973
0.0050908253 -0.042762935 0.017439365
0.006163355 -0.043143485 0.015425652
0.0070587182 -0.042352311 0.016346693
0.011285181 -0.043088872 0.015664101
0.012188032 -0.042658113 0.016317636
0.013213714 -0.04269046 0.018255919
0.01431636 -0.042949077 0.016460478
0.018257719 -0.04260134 0.015096962
-0.010221317 -0.041907404 0.01642105
-0.0091069434 -0.041487187 0.019308597
-0.00811926 -0.041611206 0.020668089
-0.007148833 -0.041871734 0.018776804
-0.0060612229 -0.041418355 0.019238532
-0.001033545 -0.042375345 0.015431285
0 -0.041579645 0.018585563
0.0010172888 -0.041708838 0.016231984
0.003026861 -0.041367102 0.018124044
0.004106815 -0.042094853 0.01960361
0.011068637 -0.041255828 0.017220378
0.012184608 -0.041630745 0.016127795
0.013296702 -0.041935753 0.016441792
0.015293324 -0.041801754 0.016948134
0.01618137 -0.041464765 0.017843515
0.017278528 -0.041671742 0.015053958
-0.011341605 -0.041242201 0.017127663
-0.010228124 -0.040912494 0.015576005
-0.0090617295 -0.040274352 0.022394866
-0.0081271166 -0.040635582 0.02106151
-0.0071098581 -0.040627759 0.020407289
-0.0060489099 -0.040326066 0.022859037
-0.0041049318 -0.04104932 0.015385896
-0.0030942368 -0.041256491 0.016259909
-0.0010166336 -0.040665343 0.01715827
0.0020277877 -0.040555753 0.015629202
0.0030889583 -0.041186109 0.016987979
0.0040571238 -0.040571239 0.018880516
0.0050815772 -0.040652618 0.020069093
0.006122801 -0.040818673 0.01822412
0.012340487 -0.041134957 0.01581648
0.01321962 -0.040675756 0.015039027
0.016171841 -0.0404296 0.016053498
0.017464221 -0.041092284 0.017821938
-0.011148852 -0.039527752 0.019582748
-0.010184515 -0.039719608 0.017496943
-0.0091376612 -0.039596532 0.02213341
-0.0082033705 -0.039991431 0.019197792
-0.0071031014 -0.039574422 0.018276393
-0.0061108265 -0.039720371 0.020874292
-0.0050376109 -0.039293364 0.018981665
-0.0040690391 -0.039673131 0.017598599
-0.0030886212 -0.040152077 0.017671794
-0.0020338669 -0.039660405 0.015438795
-0.0010223441 -0.039871421 0.020488143
0 -0.03996148 0.015657455
0.0010186422 -0.039727043 0.015366077
0.0020604478 -0.040178731 0.016676813
0.0051119472 -0.03987319 0.017355382
0.007091633 -0.039510526 0.018907458
0.014446837 -0.040244758 0.015138507
0.018223401 -0.039484039 0.019182354
-0.012192814 -0.038610578 0.018105507
-0.010165095 -0.03862736 0.019491524
-0.0090950513 -0.038401328 0.020536542
-0.0080650095 -0.038308792 0.019979268
-0.0071430309 -0.038776454 0.019883037
-0.0060612992 -0.03838823 0.019495428
-0.0050794794 -0.038604043 0.021147043
-0.0040928321 -0.038881905 0.021390468
-0.00306095 -0.038772032 0.017311811
-0.0020328949 -0.038625006 0.0184533
-0.0010310254 -0.039178967 0.017603636
0 -0.03878234 0.015612632
0.001031511 -0.039197419 0.017482221
0.0020507411 -0.038964082 0.016777933
0.0030554868 -0.038702831 0.016971886
0.0050937431 -0.038712446 0.016946793
0.0060918899 -0.038581967 0.01638779
0.0071710711 -0.038928673 0.015343219
0.019234736 -0.038469471 0.017098963
-0.013314271 -0.037894465 0.017088801
-0.012133741 -0.037412368 0.020440161
-0.011218858 -0.037736159 0.018183798
-0.010225119 -0.037832942 0.017432362
-0.0091354065 -0.037556671 0.017676145
-0.0082378266 -0.038099948 0.019838184
-0.0070312284 -0.037165064 0.023068726
-0.0060291956 -0.03718004 0.021345526
-0.0050818739 -0.037605863 0.017460704
-0.0040430264 -0.037397996 0.019549727
-0.0030399859 -0.037493158 0.022294432
-0.0020569251 -0.038053114 0.015543222
-0.001012868 -0.037476115 0.018870592
0 -0.03805583 0.017170578
0.0010193039 -0.037714243 0.016781956
0.0020179455 -0.037331995 0.015931785
0.0040432699 -0.037400246 0.016319752
0.0061304593 -0.037804499 0.018504322
0.0071455403 -0.037769284 0.016779482
-0.012322962 -0.036968887 0.016001344
-0.011273482 -0.036895033 0.016900957
-0.010127865 -0.036460314 0.017242044
-0.0092090545 -0.036836218 0.020011634
-0.0080633638 -0.03628514 0.020255536
-0.0071195285 -0.036614716 0.017633319
-0.006115451 -0.036692705 0.018557042
-0.0050465879 -0.036335435 0.021569639
-0.0040152781 -0.036137503 0.024023652
-0.003055613 -0.036667358 0.020429015
-0.0020203453 -0.036366217 0.018486023
-0.0010194131 -0.036698874 0.018194675
0 -0.036419142 0.021644235
0.0010195345 -0.036703244 0.018607676
0.0020575118 -0.037035216 0.01595968
0.0040504998 -0.036454499 0.016590655
0.0061336672 -0.036802005 0.015885264
0.0071144276 -0.036588486 0.016346097
0.0082212314 -0.036995541 0.016223907
-0.012260828 -0.035760749 0.01624772
-0.01118312 -0.035582654 0.02003783
-0.010164705 -0.035576466 0.018265963
-0.0091050491 -0.035408527 0.018995821
-0.0081137242 -0.035497542 0.019725561
-0.0071147182 -0.035573591 0.021159828
-0.0060818125 -0.03547724 0.017735153
-0.0050483062 -0.035338145 0.023396581
-0.0040574656 -0.035502825 0.020530283
-0.0030289521 -0.035337772 0.022717446
-0.0020268646 -0.035470128 0.023398131
-0.0010123483 -0.03543219 0.022960991
0 -0.035000719 0.021284521
0.0010182405 -0.035638418 0.01985091
0.0020398635 -0.035697613 0.019073218
0.0030194761 -0.035227221 0.019315898
0.0040839487 -0.035734549 0.018805265
0.0050923419 -0.035646394 0.016812503
0.0061477725 -0.035862006 0.016083062
0.0071585071 -0.035792537 0.02004233
-0.01333332 -0.034871761 0.015181184
-0.010287141 -0.034976281 0.017662525
-0.0091911852 -0.034722254 0.016351521
-0.0081232348 -0.034523748 0.019486815
-0.0071200682 -0.034583189 0.018394262
-0.0061068069 -0.034605239 0.017277211
-0.0050858376 -0.034583695 0.019707888
-0.0040746164 -0.034634236 0.021506727
-0.0030133787 -0.034151625 0.02301392
-0.0020129599 -0.034220319 0.02274698
-0.0010083121 -0.03428261 0.020462751
0 -0.034512009 0.023087472
0.001007583 -0.034257822 0.022236824
0.0020074921 -0.034127366 0.021629065
0.003055664 -0.034630857 0.020510823
0.0040546888 -0.034464855 0.021458119
0.0050041266 -0.034028061 0.021870673
0.0061961086 -0.035111282 0.017836154
0.007159614 -0.034775268 0.018151283
0.0082189683 -0.034930613 0.017980337
-0.013171855 -0.03343625 0.01885286
-0.012268187 -0.03373751 0.017080665
-0.011306777 -0.033920333 0.01783514
-0.0091799721 -0.033659898 0.018323392
-0.0081944298 -0.033802021 0.018543035
-0.0071126162 -0.033530906 0.021776348
-0.0060555772 -0.033305675 0.021655709
-0.005061374 -0.033405069 0.022507131
-0.0040270933 -0.033223521 0.024379373
-0.0030697894 -0.033767682 0.02139017
-0.0020045063 -0.033074353 0.022824645
-0.0010099194 -0.033327341 0.022362977
0 -0.033544026 0.019154459
0.0009998926 -0.032996453 0.023991585
0.0020533642 -0.033880509 0.020515412
0.0030442672 -0.03348694 0.019518495
0.0040249056 -0.033205472 0.020393103
0.0051321648 -0.033872288 0.019468933
0.0061273985 -0.03370069 0.015749633
0.0071053854 -0.033496819 0.015287191
0.0081234649 -0.033509295 0.021945477
0.0091438852 -0.033527579 0.018080354
-0.014249678 -0.03257069 0.017348647
-0.013353783 -0.032870851 0.015308887
-0.011244897 -0.032712426 0.018300533
-0.0090445532 -0.032158408 0.026007921
-0.0081129503 -0.032451801 0.020807445
-0.0070396052 -0.032181054 0.024770766
-0.0061235297 -0.032658823 0.017600328
-0.0050268406 -0.032171782 0.024432242
-0.0040801754 -0.032641403 0.020737588
-0.0030182602 -0.032194775 0.023436636
-0.0020280075 -0.03244812 0.018598884
-0.0010177817 -0.032569014 0.019863307
0 -0.032137323 0.022562087
0.0010153505 -0.032491215 0.02251336
0.0020103811 -0.032166097 0.0200333
0.0029912738 -0.031906921 0.023679793
0.0040480844 -0.032384675 0.021612793
0.0050468971 -0.032300144 0.022608936
0.0060987333 -0.032526579 0.01813516
0.0070987372 -0.032451369 0.022412777
0.0081343409 -0.032537363 0.019956648
0.0089554098 -0.031841457 0.026153743
0.010310191 -0.032992609 0.017985702
-0.013357184 -0.031851746 0.017839551
-0.010152977 -0.031474229 0.018767148
-0.0090550743 -0.031189701 0.023581862
-0.0081417682 -0.031549349 0.018939435
-0.0070762984 -0.031337891 0.018454015
-0.0060769501 -0.031397574 0.023244739
-0.0050864853 -0.03153621 0.02292946
-0.0040238309 -0.031184688 0.021252275
-0.0030454777 -0.031469934 0.020280093
-0.0020374018 -0.031579725 0.021909654
-0.001013239 -0.031410407 0.020183295
0 -0.031985309 0.016876221
0.0010049711 -0.031154104 0.023077071
0.0020198936 -0.031308349 0.019939959
0.0030755694 -0.031780884 0.019501954
0.0040427977 -0.031331681 0.022735566
0.0050156661 -0.031097131 0.021178782
0.0061068572 -0.031552095 0.018722266
0.0070550237 -0.031243676 0.022222638
0.0080644535 -0.03124976 0.022027075
0.0092465254 -0.031849142 0.016726106
0.011071956 -0.031202784 0.021293968
0.012332852 -0.031859867 0.015799165
-0.013248315 -0.030573037 0.015922517
-0.010102017 -0.030306051 0.019111127
-0.00919466 -0.030648867 0.020741373
-0.0081292056 -0.030484522 0.019259125
-0.0070338054 -0.03014488 0.026093483
-0.0060795597 -0.030397799 0.022641212
-0.0050217854 -0.03013071 0.024101198
-0.0040386994 -0.030290246 0.021912992
-0.0030489732 -0.03048973 0.019602925
-0.0020155336 -0.030233003 0.023446053
-0.0010171401 -0.030514203 0.017049611
0 -0.030434035 0.020795256
0.0020284241 -0.030426359 0.022667766
0.0040528057 -0.030396042 0.018143266
0.0051169377 -0.030701624 0.022423059
0.0061295354 -0.030647678 0.021352291
0.0070938105 -0.030402044 0.020475954
0.0081948619 -0.030730734 0.019064605
0.0091268187 -0.03042273 0.020060539
0.010067977 -0.030203931 0.020594299
0.011193732 -0.030528361 0.018185943
0.01224548 -0.0306137 0.016191155
-0.014290106 -0.029600935 0.015510827
-0.010156762 -0.029454609 0.024707943
-0.0089807464 -0.02893796 0.023225844
-0.008117076 -0.029424401 0.020430088
-0.0071185217 -0.029491019 0.02101481
-0.0060682697 -0.02932997 0.020115674
-0.0050068949 -0.029039992 0.023813695
-0.0040209531 -0.029151909 0.023425132
-0.003047708 -0.029461177 0.021187693
-0.001994618 -0.02892196 0.027196556
-0.0010226177 -0.029655911 0.022988379
0 -0.029093394 0.022137016
0.0010216447 -0.029627694 0.018901557
0.0020157816 -0.029228833 0.023912549
0.003025085 -0.029242489 0.020190328
0.0040542786 -0.029393518 0.01967907
0.0051145307 -0.029664278 0.017902851
0.0060719182 -0.029347604 0.017245501
0.0071057528 -0.029438119 0.023957849
0.0081117256 -0.029405005 0.021427304
0.0091657024 -0.029533928 0.01996693
0.010233367 -0.029676763 0.021303296
0.011211832 -0.029558467 0.016316891
0.012228757 -0.029552829 0.017871886
0.013367691 -0.029820234 0.016606212
-0.011375678 -0.02895627 0.016514391
-0.010230922 -0.028646583 0.016247869
-0.0091487179 -0.028462676 0.019556969
-0.008161814 -0.028566349 0.018803895
-0.0070193126 -0.02807725 0.024594605
-0.0060653309 -0.028304879 0.020873398
-0.0050917165 -0.028513614 0.021482348
-0.0040323706 -0.028226594 0.023526609
-0.0030126655 -0.02811821 0.021580756
-0.002051783 -0.028724961 0.016496032
-0.0010170811 -0.02847827 0.018783271
0 -0.02821267 0.025693208
0.0009977991 -0.027938375 0.027274609
0.0020425376 -0.028595524 0.017907172
0.003071605 -0.028668312 0.022091657
0.004062539 -0.028437773 0.021774918
0.0050622183 -0.028348422 0.020144254
0.0061748065 -0.028815763 0.018659562
0.0070989225 -0.02839569 0.020434678
0.008138461 -0.028484615 0.020920277
0.009061696 -0.028191945 0.023984075
0.010132414 -0.028370759 0.017999113
0.011185057 -0.028471056 0.01855731
0.012284912 -0.028664796 0.019528806
0.013238863 -0.028514473 0.017727762
0.01427987 -0.028559741 0.017507434
-0.018742938 -0.028114406 0.015145361
-0.012408876 -0.02791997 0.016248405
-0.011194998 -0.027478632 0.019484878
-0.010156649 -0.027422952 0.023524493
-0.0092230858 -0.027669258 0.018903434
-0.0081072515 -0.027361972 0.020169586
-0.0071286648 -0.027496278 0.023357928
-0.0060926471 -0.027416911 0.021996289
-0.0049724439 -0.026851196 0.0253793
-0.0040240567 -0.027162382 0.023700982
-0.0030566172 -0.027509555 0.02472353
-0.0020206205 -0.027278377 0.024480581
-0.0010265632 -0.027717207 0.016085297
0 -0.027377276 0.023239762
0.0010150042 -0.027405113 0.019175828
0.0020161187 -0.027217602 0.025332302
0.0030414693 -0.027373223 0.022752464
0.0040379269 -0.027256008 0.019369572
0.0050600423 -0.027324229 0.022118658
0.0060754931 -0.027339719 0.020463347
0.0071563413 -0.027603032 0.020389497
0.0081369337 -0.027462153 0.02204302
0.0091004688 -0.027301406 0.017492384
0.010084883 -0.027229186 0.02143234
0.012311094 -0.027699959 0.015932202
0.01319765 -0.027410503 0.020965636
0.014432123 -0.02783338 0.018264353
0.015271916 -0.027489448 0.017435938
-0.01758145 -0.026889278 0.015100867
-0.013440956 -0.026881913 0.017174214
-0.012280279 -0.026607271 0.018075675
-0.011295864 -0.026699316 0.015327722
-0.0091660246 -0.026479626 0.017762899
-0.0082064103 -0.026670834 0.015987486
-0.007060424 -0.026224433 0.023970157
-0.0060983971 -0.026426388 0.022072881
-0.0050587468 -0.026305484 0.022706389
-0.0040707188 -0.026459673 0.021027744
-0.0030448914 -0.026389059 0.01951924
-0.0019995361 -0.025993967 0.022902608
-0.0010200393 -0.026521023 0.018862575
0 -0.026152495 0.022878557
0.0010179705 -0.026467232 0.016891152
0.0020522291 -0.026678978 0.015041262
0.0030434309 -0.026376402 0.020979524
0.0040904321 -0.026587809 0.01973784
0.0050718281 -0.026373507 0.022219628
0.0060881758 -0.026382096 0.017546386
0.0071996818 -0.026741676 0.015574515
0.0082200374 -0.026715122 0.017204165
0.0091512417 -0.026436921 0.019222885
0.010253215 -0.02665836 0.016910255
0.012298524 -0.026646804 0.015642881
0.013346085 -0.026692171 0.016687661
0.01430169 -0.026560282 0.015664697
-0.016406601 -0.025635313 0.018072248
-0.01222894 -0.025476957 0.020730764
-0.011347175 -0.025789034 0.017544538
-0.010184878 -0.025462193 0.019638479
-0.0090732956 -0.025203601 0.020807803
-0.0080354 -0.025110625 0.02752617
-0.0070410999 -0.025146784 0.022708327
-0.0061000953 -0.025417063 0.018936485
-0.0050668526 -0.025334263 0.020543694
-0.0040348526 -0.025217829 0.018110096
-0.0030543203 -0.02545267 0.019303292
-0.0020478079 -0.025597598 0.016285092
-0.0010105859 -0.025264649 0.021567613
0 -0.02538492 0.02261439
0.0010014575 -0.025036436 0.022419602
0.0020280906 -0.025351133 0.017721295
0.0030541378 -0.025451148 0.020690769
0.0040944889 -0.025590558 0.018061429
0.0050960616 -0.025480308 0.017549723
0.0061048414 -0.025436839 0.018571436
0.0071906024 -0.025680723 0.017694473
0.0081454068 -0.025454396 0.015332907
0.0092288069 -0.025635576 0.016451538
0.010154459 -0.025386147 0.015793502
0.013285733 -0.025549486 0.01639837
0.014383145 -0.025684187 0.015934795
-0.018511059 -0.024681412 0.016003817
-0.017496975 -0.02470161 0.015616387
-0.016348768 -0.024523152 0.016664028
-0.015268233 -0.024429172 0.020388037
-0.011237135 -0.024517387 0.018009573
-0.010132276 -0.024317464 0.015236139
-0.0092241904 -0.02459784 0.016843498
-0.0081305839 -0.024391752 0.01621148
-0.0071120374 -0.024384128 0.019863695
-0.0060699875 -0.02427995 0.02200672
-0.005082841 -0.024397636 0.020911992
-0.0040790462 -0.024474276 0.020109177
-0.0030609947 -0.024487957 0.020596534
-0.0020313214 -0.024375858 0.021497667
-0.00100581 -0.024139438 0.020183146
0 -0.024292896 0.020791888
0.0020210962 -0.024253154 0.021035075
0.0030215543 -0.024172435 0.019939214
0.0040805065 -0.02448304 0.018794566
0.0050968388 -0.024464827 0.020327717
0.0061360807 -0.024544323 0.018793344
0.0071542109 -0.024528723 0.015944511
0.0082104243 -0.024631273 0.01803714
0.0092077609 -0.024554029 0.016015917
0.010239368 -0.024574483 0.016014963
-0.017454037 -0.023614286 0.016932368
-0.014305674 -0.023502178 0.018738091
-0.012258878 -0.023496183 0.019617319
-0.011187907 -0.023392897 0.020835787
-0.010201918 -0.02346441 0.021250963
-0.0092228018 -0.023569381 0.015823543
-0.0081337215 -0.02338445 0.019889981
-0.0071705957 -0.023560528 0.021035194
-0.0061008232 -0.023386488 0.019526541
-0.0050172363 -0.023079287 0.023617685
-0.0040479894 -0.02327594 0.021134794
-0.0010252545 -0.023580855 0.019187748
0 -0.022999875 0.021598488
0.001017219 -0.023396038 0.021281868
0.0020444025 -0.023510627 0.018968433
0.0030234572 -0.02317984 0.019674271
0.004046042 -0.02326474 0.01828593
0.0050771935 -0.023355089 0.019868076
0.0060927882 -0.023355689 0.019672602
0.0071761347 -0.023578728 0.018089294
0.0081960447 -0.023563629 0.019110948
0.0092217065 -0.023566583 0.017065048
0.010243299 -0.023559589 0.017258763
0.011230747 -0.023482472 0.017354995
0.012376437 -0.023721503 0.016672254
-0.01649945 -0.022686744 0.015671104
-0.013501988 -0.022849517 0.015066862
-0.012237958 -0.022436256 0.016212106
-0.011191484 -0.022382967 0.01881811
-0.010267863 -0.0225893 0.018795013
-0.009141922 -0.022346919 0.020719558
-0.0071456078 -0.022457624 0.020599872
-0.0049634525 -0.02183919 0.02910012
-0.004059759 -0.022328675 0.021137744
-0.0029972154 -0.021979578 0.025083363
-0.0020245977 -0.022270575 0.021771699
-0.001015109 -0.022332398 0.015488744
0 -0.022570888 0.016121984
0.0010191882 -0.02242214 0.018703371
0.0020208231 -0.022229053 0.021382064
0.0030516437 -0.022378722 0.018556774
0.0040753447 -0.022414396 0.015755892
0.0050115469 -0.022050805 0.01982215
0.0061670593 -0.022612551 0.016436726
0.0071537038 -0.022483069 0.017336994
0.0092394324 -0.022585278 0.016604841
0.010241692 -0.022531722 0.015483946
0.011324706 -0.022649413 0.016164571
0.01438264 -0.022601292 0.015041262
-0.018605331 -0.02170622 0.015304923
-0.015511043 -0.02171546 0.015528679
-0.014255918 -0.021383876 0.01718533
-0.013176248 -0.021284709 0.016213
-0.012323589 -0.021566281 0.019379258
-0.011231146 -0.021441279 0.019624084
-0.010179755 -0.021377487 0.016654789
-0.0091376668 -0.021321224 0.019845724
-0.0081734527 -0.021455314 0.017655104
-0.0070268088 -0.021080427 0.025400162
-0.0061536385 -0.021537736 0.017948836
-0.0030107691 -0.021075383 0.025330245
-0.002036073 -0.021378767 0.017609686
-0.001010739 -0.021225519 0.0190956
0 -0.020812556 0.027401298
0.0010003875 -0.021008136 0.022627294
0.0020140305 -0.021147318 0.022627115
0.0030319588 -0.021223711 0.020507783
0.004018168 -0.021095384 0.024940014
0.0050657988 -0.021276355 0.021115601
0.0060988422 -0.021345947 0.020286858
0.0071806596 -0.021541977 0.016486943
0.0081895245 -0.021497503 0.01629138
0.0092373826 -0.021553893 0.016047031
0.01020654 -0.021433733 0.018675774
0.011188964 -0.021360749 0.017238051
0.012194313 -0.021340048 0.018673211
-0.016520316 -0.020650394 0.01613766
-0.014132483 -0.020189261 0.020011544
-0.013253102 -0.020389387 0.019307137
-0.012279873 -0.020466454 0.018480808
-0.011148205 -0.020269463 0.020478874
-0.010272985 -0.020545971 0.0162673
-0.0091355462 -0.020301213 0.019141972
-0.0071534454 -0.020438416 0.0243074
-0.0060780658 -0.02026022 0.022773862
-0.005050309 -0.020201236 0.021191388
-0.004073245 -0.020366224 0.020826578
-0.0030767408 -0.020511605 0.01563856
-0.0020011337 -0.020011337 0.023092806
-0.0010120862 -0.020241722 0.022118628
0 -0.020240568 0.01559025
0.0020135569 -0.02013557 0.022094071
0.0030367309 -0.020244874 0.019121885
0.0040483987 -0.020241994 0.019730479
0.0051191202 -0.020476481 0.015954405
0.0060678362 -0.020226121 0.020703495
0.0071619698 -0.02046277 0.020045072
0.0081783943 -0.020445984 0.022503972
0.0091212997 -0.020269554 0.015561968
0.011274768 -0.020499578 0.016509742
-0.019516746 -0.019516746 0.015039295
-0.017400058 -0.019447124 0.017306328
-0.016364574 -0.019432932 0.016991675
-0.015190803 -0.019241683 0.017236769
-0.01432679 -0.019443503 0.01770094
-0.013192193 -0.019280897 0.01867643
-0.012154249 -0.019244226 0.016486198
-0.011284844 -0.019492004 0.019141883
-0.010218825 -0.019415768 0.016878128
-0.0091481656 -0.019312793 0.016708672
-0.0081560034 -0.019370509 0.019583791
-0.0070323972 -0.019087935 0.022970587
-0.0061274027 -0.019403443 0.015590429
-0.005046051 -0.019174995 0.023532599
-0.0040403651 -0.019191733 0.018904567
-0.0029943446 -0.018964183 0.027285546
-0.0020395042 -0.019375291 0.022510946
-0.0010059967 -0.019113937 0.022389293
0 -0.019225093 0.019417137
0.0010004542 -0.019008629 0.022145689
0.0019926066 -0.018929763 0.025629342
0.0030740087 -0.019468723 0.016078979
0.0040354924 -0.019168589 0.021876663
0.0050082915 -0.019031508 0.021973521
0.0061193639 -0.019377986 0.01758796
0.0070929294 -0.019252237 0.020924449
0.0081184926 -0.019281419 0.016880006
0.009269827 -0.019569634 0.016465068
0.010238918 -0.019453945 0.01527071
-0.017632779 -0.01867 0.015701652
-0.016223304 -0.018251218 0.017066687
-0.015496607 -0.018595928 0.02008751
-0.014244919 -0.018314896 0.019066632
-0.012980809 -0.017973429 0.020699859
-0.012305431 -0.018458147 0.01719439
-0.011205099 -0.018335616 0.017707109
-0.010131096 -0.018235974 0.015272468
-0.0092281448 -0.01845629 0.022386312
-0.0080453735 -0.018102089 0.018806458
-0.0070805321 -0.018207083 0.019318968
-0.006042596 -0.018127788 0.024825722
-0.0050582057 -0.018209541 0.023754597
-0.0040420489 -0.018189222 0.020490408
-0.0020285314 -0.018256783 0.020491213
-0.0010007523 -0.018013543 0.023390919
0 -0.018284423 0.018688411
0.0010117169 -0.018210905 0.017275155
0.0020231712 -0.018208539 0.023073912
0.0030513385 -0.01830803 0.017445296
0.004035227 -0.018158522 0.018370718
0.0051401285 -0.018504463 0.015836418
0.0060696388 -0.018208915 0.022267669
0.0070869271 -0.018223528 0.016273737
0.0081764339 -0.018396975 0.019829631
0.0092286933 -0.018457387 0.015857995
0.010213913 -0.018385045 0.016465992
-0.018505681 -0.017477587 0.017527431
-0.01536954 -0.017418811 0.018872142
-0.014198741 -0.017241329 0.01777795
-0.013277474 -0.01736285 0.020068854
-0.012219088 -0.017310373 0.019558907
-0.011094453 -0.017145973 0.019803911
-0.010232081 -0.017394537 0.018197417
-0.0092214784 -0.017418347 0.017930508
-0.0080559961 -0.01711899 0.026263744
-0.0070625436 -0.017151892 0.021026582
-0.0060995398 -0.01728203 0.020101547
-0.0050974395 -0.017331295 0.015886873
-0.0039762119 -0.0168989 0.029581547
-0.0029842341 -0.016910659 0.025391012
-0.0020012171 -0.017010346 0.025586367
-0.0010093905 -0.017159639 0.022223771
0.0010223057 -0.017379196 0.016375393
0.0020328956 -0.017279612 0.015497983
0.0030326648 -0.017185101 0.019932657
0.0040675881 -0.017287249 0.020638853
0.0050901296 -0.01730644 0.01683715
0.0071572 -0.017381772 0.020319998
0.0081388317 -0.017295018 0.017297983
0.0091825593 -0.017344834 0.016493142
0.011227757 -0.017351989 0.01595518
-0.017388154 -0.016365321 0.015924126
-0.01628908 -0.01628908 0.019237518
-0.015189379 -0.016202005 0.016049087
-0.014381772 -0.01643631 0.018218219
-0.013183842 -0.016226267 0.018317133
-0.012180881 -0.016241174 0.019439131
-0.011178668 -0.016259881 0.019391805
-0.010127154 -0.016203446 0.023218095
-0.0091840522 -0.016327204 0.01634866
-0.0080831405 -0.016166281 0.023439974
-0.007047493 -0.016108556 0.025000572
-0.0059912424 -0.015976647 0.026073784
-0.0050537959 -0.016172146 0.025562942
-0.0040139067 -0.016055627 0.022541821
-0.0019860701 -0.015888561 0.030194998
-0.0010065091 -0.016104145 0.021007538
0 -0.016176334 0.020495772
0.0010247262 -0.016395619 0.016279638
0.0020179951 -0.016143961 0.017790437
0.0030430297 -0.016229492 0.020714551
0.0040375451 -0.01615018 0.021591425
0.0050215074 -0.016068824 0.023126036
0.0061429334 -0.016381156 0.015327483
0.0071349097 -0.016308365 0.019371778
0.0080724191 -0.016144838 0.018713027
0.0091500646 -0.01626678 0.015081704
0.012356272 -0.016475029 0.015419751
-0.016251687 -0.015235956 0.016414374
-0.01530045 -0.01530045 0.018973351
-0.014292792 -0.015313706 0.018780172
-0.013152657 -0.015176143 0.018562526
-0.012262452 -0.015328065 0.0172728
-0.011265509 -0.015362057 0.017127842
-0.010124478 -0.015186719 0.019492388
-0.0090073049 -0.015012175 0.026657462
-0.0080156904 -0.015029419 0.023125499
-0.0071117184 -0.015239397 0.018325776
-0.0060755345 -0.015188836 0.025978833
-0.0030122492 -0.015061245 0.025420427
-0.0020290364 -0.015217773 0.01654914
-0.0010190366 -0.015285549 0.015306264
0 -0.01525635 0.017304897
0.0009838175 -0.014757263 0.026103526
0.0020170936 -0.015128202 0.022983551
0.0030500875 -0.015250437 0.016890079
0.0040008905 -0.015003339 0.022617102
0.0050670793 -0.015201237 0.018302798
0.006079556 -0.01519889 0.020056784
0.0071377326 -0.015295141 0.016473681
0.010231078 -0.015346617 0.016860932
0.011356629 -0.015486313 0.016567439
0.013256371 -0.015295813 0.015663654
-0.017368635 -0.014303582 0.016730726
-0.015110924 -0.014103529 0.02253136
-0.014275327 -0.014275327 0.015322685
-0.013166514 -0.014179324 0.019221991
-0.012219707 -0.014256325 0.017810345
-0.011302711 -0.01438527 0.016349673
-0.0091638397 -0.014254862 0.018520564
-0.0080831908 -0.014145585 0.020227492
-0.0071370983 -0.014274197 0.01840055
-0.0051104962 -0.014309389 0.018450648
-0.0040658438 -0.014230454 0.019548029
-0.0020371417 -0.014259992 0.02076751
-0.00099146296 -0.013880481 0.027836561
0 -0.014125374 0.021304041
0.0010076116 -0.014106562 0.023522079
0.0019998481 -0.013998936 0.020475
0.0029863801 -0.01393644 0.024106503
0.0041028927 -0.014360124 0.017110616
0.0051074494 -0.014300859 0.017500103
0.006089611 -0.014209092 0.015866548
0.0071874256 -0.014374851 0.017084479
0.0091687739 -0.014262537 0.018764228
-0.015219991 -0.013190659 0.016784251
-0.014127309 -0.013118217 0.022121102
-0.011945882 -0.012941373 0.023659796
-0.011154225 -0.013182267 0.023783326
-0.010155491 -0.013202138 0.018886566
-0.0081379786 -0.013224215 0.01920554
-0.0070340512 -0.013063238 0.020278871
-0.00406643 -0.013215898 0.019842207
-0.0030398341 -0.013172614 0.018696934
0 -0.013225272 0.020769536
0.001015741 -0.013204633 0.017819792
0.0020174461 -0.013113399 0.018039048
0.0030663437 -0.013287489 0.015284151
0.0040674051 -0.013219067 0.018672138
0.0050512068 -0.013133137 0.01667282
0.0061018239 -0.013220618 0.018329769
0.0071052834 -0.013195526 0.018158346
0.0081101935 -0.013179065 0.020131707
0.010223117 -0.013290051 0.015304238
-0.017474968 -0.012335273 0.016148865
-0.016289894 -0.01221742 0.015882581
-0.015445004 -0.012356003 0.016298294
-0.014323692 -0.012277449 0.021148294
-0.013146477 -0.01213521 0.020784557
-0.01222315 -0.01222315 0.020591229
-0.011255622 -0.01227886 0.0173271
-0.010022848 -0.012027417 0.018546849
-0.009104454 -0.012139272 0.020595312
-0.0081454385 -0.012218159 0.019304544
-0.0071092495 -0.012187285 0.019012958
-0.0061725047 -0.012345009 0.017209858
-0.0030579893 -0.012231957 0.021428764
-0.0010141138 -0.012169365 0.017601818
0 -0.012192075 0.01928401
0.00099369616 -0.011924354 0.02372098
0.0020189446 -0.012113667 0.021965444
0.0030210558 -0.012084223 0.02191633
0.0040221359 -0.012066407 0.016430825
0.0050881668 -0.0122116 0.016917914
0.0060986434 -0.012197287 0.020598173
0.0070742709 -0.012127321 0.019354224
0.0082292873 -0.012343931 0.018110186
0.010244021 -0.012292826 0.017450094
0.011320628 -0.012349777 0.015669942
-0.016369019 -0.011253701 0.017540306
-0.015371193 -0.011272209 0.017347097
-0.014349451 -0.01127457 0.01625219
-0.013292349 -0.011247372 0.01700902
-0.012025898 -0.01102374 0.026855826
-0.011073458 -0.011073458 0.021593422
-0.010214899 -0.011236389 0.015745223
-0.0091988901 -0.011243088 0.017233014
-0.0080675315 -0.011092856 0.022304207
-0.0070112152 -0.011017624 0.024401665
-0.0060069314 -0.011012708 0.022915572
-0.0049971109 -0.010993645 0.025354296
-0.0040068217 -0.01101876 0.02437979
-0.0030289525 -0.01110616 0.021796018
-0.0020086057 -0.011047332 0.022357106
-0.0010116876 -0.011128563 0.016944766
0 -0.010965001 0.02425912
0.0010071771 -0.011078947 0.022381723
0.0020055582 -0.01103057 0.022357136
0.0030082902 -0.011030397 0.021089017
0.0040648454 -0.011178325 0.022843897
0.0060935961 -0.011171593 0.015992165
0.0091358209 -0.011166003 0.018768668
0.010284972 -0.011313469 0.015745252
0.011250398 -0.011250398 0.015329868
0.012328575 -0.011301193 0.015280008
-0.016307721 -0.010192325 0.018150538
-0.015264383 -0.010176255 0.015886307
-0.014232694 -0.01016621 0.018543839
-0.01335975 -0.01027673 0.017984867
-0.01111574 -0.010105218 0.023300976
-0.010154022 -0.010154022 0.018988132
-0.0091100922 -0.010122325 0.017087907
-0.0081099905 -0.010137488 0.021501184
-0.0071076672 -0.01015381 0.02030763
-0.0060548657 -0.010091443 0.020284057
-0.0051156851 -0.01023137 0.015944958
-0.0020421413 -0.010210706 0.017311454
-0.0010158989 -0.010158989 0.020554483
0 -0.010134639 0.016799629
0.001003098 -0.01003098 0.020554483
0.0020058115 -0.010029058 0.02245611
0.0030445121 -0.010148373 0.018774122
0.0040836418 -0.010209104 0.017603368
0.005063571 -0.010127142 0.018017322
0.0061075264 -0.01017921 0.016310126
0.0071260124 -0.010180018 0.018089116
0.0081460699 -0.010182587 0.018283308
0.0092702452 -0.010300273 0.015917838
0.010215568 -0.010215568 0.015161246
0.011236389 -0.010214899 0.017329484
-0.015301838 -0.0091811027 0.016666979
-0.01419004 -0.0091221677 0.021128058
-0.01307619 -0.0090527469 0.019813776
-0.012221166 -0.0091658747 0.018109232
-0.011070819 -0.0090579428 0.021888644
-0.0099803321 -0.0089822989 0.023645163
-0.0091237966 -0.0091237966 0.020843118
-0.0080909692 -0.0091023399 0.020649195
-0.0070581692 -0.0090747895 0.021381557
-0.0060910657 -0.0091365986 0.018407911
-0.0050571663 -0.0091028996 0.019310683
-0.0040173191 -0.009038968 0.025967717
-0.003049996 -0.0091499882 0.018458247
-0.0020131238 -0.0090590576 0.020896882
-0.0010160202 -0.0091441814 0.016654283
0 -0.0091365287 0.015581399
0.00099876837 -0.0089889159 0.021970004
0.0020222678 -0.0091002043 0.018482894
0.0030642604 -0.0091927806 0.017214656
0.0040746187 -0.0091678919 0.016434044
0.005076672 -0.0091380095 0.017896563
0.0060874089 -0.0091311131 0.019456297
0.0070189172 -0.009024322 0.018894762
0.0081494786 -0.0091681639 0.017821193
0.0090683978 -0.0090683978 0.020209283
0.011212924 -0.009174211 0.017525524
-0.015344684 -0.0081838313 0.020128161
-0.013969021 -0.0079822978 0.022079647
-0.013146589 -0.0080902083 0.022008359
-0.012306637 -0.0082044248 0.015892148
-0.011188716 -0.0081372475 0.016746402
-0.010216108 -0.0081728855 0.017795771
-0.0092416666 -0.0082148146 0.017382383
-0.006062862 -0.0080838157 0.017214119
-0.005069322 -0.0081109153 0.016897738
-0.004051426 -0.0081028519 0.019848704
-0.0030342469 -0.0080913249 0.019678444
-0.0020483453 -0.0081933811 0.016654998
-0.0010210121 -0.0081680967 0.015728533
0 -0.008131545 0.015509129
0.0010293031 -0.0082344245 0.015679747
0.0020300564 -0.0081202257 0.019629985
0.0030212619 -0.0080566984 0.019361436
0.0060709082 -0.0080945445 0.020066887
0.007117426 -0.0081342012 0.02179718
0.0080909105 -0.0080909105 0.017261416
0.00915829 -0.0081407027 0.017772436
0.010181977 -0.0081455819 0.018332094
0.011227596 -0.0081655243 0.015259445
-0.016446769 -0.0071954615 0.015278161
-0.014194868 -0.0070974338 0.020057827
-0.013316724 -0.0071705435 0.017939031
-0.012092952 -0.0070542218 0.017306656
-0.011175832 -0.007111893 0.021549582
-0.010028868 -0.0070202076 0.021843523
-0.008191742 -0.0071677738 0.018383741
-0.0067294636 -0.0067294636 0.040012121
-0.0060613169 -0.0070715365 0.02316457
-0.0050268862 -0.0070376405 0.0313586
-0.003022684 -0.0070529291 0.018167436
-0.0020173488 -0.0070607206 0.023044944
-0.001008257 -0.0070577995 0.019826204
0 -0.0070151449 0.021338195
0.0010092935 -0.0070650545 0.021850258
0.0020123497 -0.0070432238 0.021459848
0.0030058578 -0.0070136683 0.024020046
0.0040245485 -0.0070429593 0.019069254
0.0050085979 -0.0070120366 0.02436021
0.0060997214 -0.0071163415 0.019702077
0.0070059644 -0.0070059644 0.019603759
0.0081137195 -0.007099505 0.017213434
0.010231823 -0.0071622757 0.015383095
0.012343045 -0.0072001098 0.016014755
-0.016383106 -0.0061436645 0.018129766
-0.014222741 -0.0060954606 0.019449294
-0.012286505 -0.0061432524 0.01718545
-0.011237963 -0.006129798 0.015138894
-0.0098878713 -0.0059327227 0.030694306
-0.0091393413 -0.0060928944 0.019383192
-0.0081423344 -0.0061067506 0.018482059
-0.004040075 -0.0060601127 0.021094143
-0.0030337807 -0.0060675615 0.021923721
-0.0020008474 -0.0060025421 0.021168083
-0.0010106148 -0.006063689 0.017851591
0.00099610433 -0.0059766257 0.021436542
0.0020123094 -0.0060369284 0.020436466
0.0030235383 -0.0060470765 0.022777289
0.0040654368 -0.0060981549 0.018606752
0.0050441604 -0.0060529923 0.019337803
0.0060681468 -0.0060681468 0.015898854
0.0070540411 -0.0060463208 0.020994425
0.0081359949 -0.0061019957 0.017872453
0.0090822894 -0.0060548596 0.018188477
-0.019457337 -0.0051203514 0.015664041
-0.018456222 -0.0051267287 0.016372412
-0.017440028 -0.0051294202 0.019127578
-0.016395366 -0.0051235515 0.018910229
-0.015389505 -0.0051298351 0.021324813
-0.014124272 -0.005044383 0.018962532
-0.013210774 -0.0050810669 0.025447965
-0.012023651 -0.0050098547 0.022670954
-0.010150914 -0.005075457 0.023746848
-0.0091533717 -0.0050852061 0.0200665
-0.0081279837 -0.0050799898 0.021993905
-0.0070897015 -0.0050640726 0.021507233
-0.0059600836 -0.0049667363 0.029335856
-0.0050303112 -0.0050303112 0.02141127
-0.0040838672 -0.0051048337 0.018119633
-0.0030768681 -0.0051281136 0.016778708
-0.0010177831 -0.0050889151 0.018925309
0 -0.0050035724 0.017705917
0.0010187586 -0.0050937929 0.01794976
0.0020201828 -0.0050504571 0.017461836
0.0050303112 -0.0050303112 0.019850552
0.0059783729 -0.0049819774 0.020996004
0.0070854346 -0.0050610248 0.018702984
0.0080597103 -0.0050373189 0.020287037
0.0091369133 -0.0050760629 0.015848398
0.010208208 -0.0051041041 0.016505778
-0.018297764 -0.0040661697 0.016299754
-0.017344207 -0.0040809899 0.016130984
-0.014336238 -0.004096068 0.015355676
-0.012236078 -0.0040786928 0.015333802
-0.011255425 -0.0040928819 0.020332754
-0.010073178 -0.0040292712 0.019895226
-0.0089457035 -0.0039758682 0.025455743
-0.0070813666 -0.0040464951 0.01870349
-0.0060655996 -0.0040437328 0.018801808
-0.0050847144 -0.0040677711 0.01663202
-0.0040376447 -0.0040376447 0.017778695
-0.0020374334 -0.0040748669 0.017437935
0 -0.0040873569 0.016511351
0.0010092146 -0.0040368582 0.019462407
0.00201463 -0.00402926 0.016194075
0.0030240929 -0.0040321238 0.0182181
0.0040513026 -0.0040513026 0.023412287
0.0071291612 -0.0040738066 0.018410891
0.010148151 -0.0040592602 0.017164499
0.011150837 -0.0040548495 0.015334904
-0.018226895 -0.0030378159 0.016373217
-0.017371511 -0.0030655609 0.018129438
-0.016219743 -0.003041202 0.019934744
-0.015371995 -0.003074399 0.016353905
-0.013010204 -0.0030023549 0.026156187
-0.012113478 -0.0030283695 0.0220626
-0.011081352 -0.0030221869 0.023405135
-0.010056941 -0.0030170823 0.019578695
-0.0091335289 -0.0030445096 0.018019348
-0.0080406051 -0.0030152269 0.022190064
-0.0060891439 -0.003044572 0.020997047
-0.0050665345 -0.0030399207 0.019193083
-0.0040311483 -0.0030233613 0.018559545
-0.0030764733 -0.0030764733 0.018291682
-0.0020186985 -0.0030280477 0.018487036
0 -0.003024793 0.021804243
0.0010081392 -0.0030244177 0.015560508
0.0030356827 -0.0030356827 0.018998921
0.0061410875 -0.0030705438 0.016461104
0.0070435405 -0.0030186602 0.016460419
0.0081259515 -0.0030472318 0.0176301
0.0091499882 -0.003049996 0.017336607
0.010085589 -0.0030256768 0.019944459
0.011173875 -0.0030474206 0.018114597
-0.01633795 -0.0020422437 0.017668545
-0.015383204 -0.0020510938 0.017036557
-0.013896561 -0.001985223 0.02700749
-0.013179949 -0.0020276846 0.016820163
-0.01213122 -0.0020218699 0.021477848
-0.01108756 -0.0020159199 0.015896231
-0.01010769 -0.0020215381 0.020773739
-0.0081177866 -0.0020294467 0.019629955
-0.0070923008 -0.0020263717 0.024654478
-0.0050538103 -0.0020215241 0.019607991
-0.0040399912 -0.0020199956 0.019145161
-0.0030333523 -0.002022235 0.016487151
-0.0020338516 -0.0020338516 0.015877634
-0.001007789 -0.0020155781 0.023243546
0 -0.0020208284 0.01646319
0.0020223884 -0.0020223884 0.020340949
0.0030130483 -0.0020086989 0.016413987
0.0040241387 -0.0020120693 0.018437892
0.0050434456 -0.0020173781 0.019632369
0.0060475366 -0.0020158456 0.015656561
