ply
format ascii 1.0
comment PCL generated
element vertex 1290
property float x
property float y
property float z
element camera 0
property float view_px
property float view_py
property float view_pz
property float x_axisx
property float x_axisy
property float x_axisz
property float y_axisx
property float y_axisy
property float y_axisz
property float z_axisx
property float z_axisy
property float z_axisz
property float focal
property float scalex
property float scaley
property float centerx
property float centery
property int viewportx
property int viewporty
property float k1
property float k2
end_header
0.0020521765 -0.063617475 0.015160233
0.0050755846 -0.062937245 0.015665382
0.0071888012 -0.063672237 0.018435627
0.010224747 -0.063393429 0.015493125
0.011255115 -0.063437924 0.018214732
0.012205892 -0.063063778 0.0156838
0.013289375 -0.0633801 0.015634388
0.029454259 -0.062971175 0.017189145
0.0041129771 -0.062722899 0.017672867
0.0050786962 -0.061960097 0.016298145
0.0071556391 -0.062356282 0.016875505
0.0081505002 -0.062147561 0.017670274
0.00926104 -0.062769271 0.015644491
0.01022316 -0.062361281 0.016149759
0.012267592 -0.062360261 0.01554507
0.024104323 -0.061265156 0.019038737
0.026977794 -0.063294053 0.015784562
0.029538495 -0.062132698 0.016161442
0.0040421402 -0.060632102 0.015050381
0.0051306202 -0.061567441 0.015677035
0.0081650876 -0.061238155 0.024453312
0.010156408 -0.060938448 0.015625268
0.01139147 -0.06213529 0.015744805
0.023362422 -0.060945451 0.015339881
0.024133429 -0.060333572 0.021718413
0.026178831 -0.06041269 0.018558532
0.027249556 -0.060554568 0.018531471
0.028127741 -0.060273733 0.023052156
0.0060581695 -0.059571996 0.01623711
0.0071955086 -0.060647856 0.015030235
0.0081883213 -0.060388871 0.016477019
0.0091462517 -0.05995876 0.016066045
0.022143165 -0.05938394 0.019660324
0.023232378 -0.059596099 0.019248068
0.024282364 -0.059694145 0.018811792
0.025206061 -0.059486303 0.017701119
0.026299445 -0.059679508 0.016301811
0.027231801 -0.059506528 0.020969838
0.028587824 -0.06023863 0.018559128
0.0041213296 -0.059759282 0.01733011
0.005089974 -0.059043698 0.016774505
0.0071655628 -0.059371807 0.016145766
0.0082071805 -0.059502061 0.01643461
0.02134693 -0.058958188 0.01737991
0.022030439 -0.058080249 0.019595057
0.022963533 -0.05790804 0.021616668
0.024191273 -0.058462244 0.020360619
0.026621968 -0.059387464 0.017415673
0.027256139 -0.058550224 0.017774105
0.020291865 -0.057831813 0.016278803
0.020917667 -0.056776524 0.020279706
0.022132326 -0.057342846 0.021000326
0.0233819 -0.057946447 0.017863482
0.024289429 -0.057687394 0.016655743
0.025511594 -0.058166433 0.019545287
0.026368171 -0.057807144 0.016120553
0.030707454 -0.058344163 0.016326249
0.018474123 -0.057475045 0.019352853
0.019089105 -0.056262624 0.020484716
0.020215642 -0.056603797 0.019782573
0.021330142 -0.056880377 0.023205459
0.022052415 -0.056133419 0.021152318
0.02341493 -0.057010267 0.019774795
0.024785085 -0.055518586 0.02709797
0.026367862 -0.056792319 0.018898129
0.027641127 -0.057329744 0.016292185
0.028481264 -0.056962527 0.015494287
0.017546894 -0.05676936 0.01682663
0.018163212 -0.055498701 0.021290541
0.018953426 -0.054865178 0.021384656
0.020179065 -0.055492431 0.023723036
0.020948464 -0.054865025 0.022489399
0.02192322 -0.05480805 0.023620397
0.023393745 -0.055941563 0.01903367
0.02419751 -0.055452626 0.020622909
0.0252095 -0.0554609 0.019052207
0.026561748 -0.056188311 0.017071962
0.02757889 -0.056179222 0.017165631
0.029637855 -0.056209724 0.017810524
0.030417586 -0.055765573 0.015494019
0.031309895 -0.055549812 0.01693666
0.016258167 -0.054871317 0.017123789
0.017170947 -0.054543007 0.020092458
0.017968252 -0.053904757 0.022118628
0.019140953 -0.054400604 0.022768021
0.020026466 -0.05407146 0.024044812
0.020906027 -0.053758357 0.0222314
0.022312829 -0.054767855 0.020780355
0.023293313 -0.054688647 0.01824367
0.024008686 -0.054019544 0.020460874
0.025356619 -0.054770298 0.022122383
0.026399698 -0.054830141 0.019152045
0.012312749 -0.054381311 0.016603589
0.014184975 -0.053700261 0.015634358
0.015177807 -0.053628251 0.01903984
0.015867278 -0.052560359 0.022347927
0.016772063 -0.05228937 0.022949606
0.018117623 -0.053346336 0.02321285
0.019104782 -0.053292286 0.025094092
0.02001009 -0.053026736 0.021178901
0.021289377 -0.053730331 0.018761665
0.022340057 -0.053819228 0.018131435
0.023012228 -0.053028177 0.019432485
0.024213498 -0.053471476 0.018922836
0.025346817 -0.053735252 0.018654555
0.026508711 -0.054036986 0.015225321
0.032811258 -0.054343645 0.015185058
0.013058465 -0.05223386 0.021321625
0.014074486 -0.05227666 0.022165865
0.015147349 -0.052510809 0.024170011
0.015940059 -0.051805191 0.020349205
0.01712049 -0.052368555 0.026219308
0.018177822 -0.052513707 0.020924866
0.019122407 -0.052335009 0.019038022
0.020262931 -0.052683618 0.019929558
0.021265794 -0.052658156 0.015700132
0.022418972 -0.052990295 0.01647085
0.023534756 -0.053209014 0.016492724
0.024277782 -0.052601859 0.019339383
0.025655214 -0.053362843 0.018346667
0.029698407 -0.053252317 0.016742378
0.011152364 -0.051706418 0.021041304
0.012218318 -0.051927853 0.015598446
0.013026443 -0.051103737 0.022223085
0.014128023 -0.051466368 0.022317946
0.015079606 -0.051270664 0.022872061
0.016058238 -0.051185638 0.020935833
0.016912213 -0.05073664 0.024511307
0.018003015 -0.051008541 0.019626319
0.019336227 -0.051902507 0.020373285
0.020193212 -0.051492691 0.01788184
0.021204012 -0.051495455 0.018604457
0.022392832 -0.051910654 0.017297477
0.023332458 -0.051737189 0.019058406
0.024362242 -0.051769763 0.017799765
0.029384097 -0.05167548 0.016578704
0.01021369 -0.051068448 0.018266797
0.011150504 -0.050684113 0.020104289
0.012075513 -0.050314635 0.026392609
0.012980959 -0.049926765 0.027406484
0.014271243 -0.050968725 0.018551677
0.015052542 -0.050175138 0.023120999
0.015969392 -0.04990435 0.025778919
0.016839357 -0.049527518 0.022705406
0.018330647 -0.050918464 0.020430267
0.019114858 -0.050302256 0.018252194
0.020263527 -0.050658815 0.017524809
0.021539222 -0.051283862 0.019141942
0.022232302 -0.050527956 0.020275235
0.023135448 -0.050294451 0.020248264
0.02454808 -0.051141832 0.019641399
0.025263622 -0.050527245 0.020266473
0.026488272 -0.050938986 0.016350716
0.027884001 -0.051637039 0.015068203
0.028607661 -0.051085111 0.016948909
0.029482434 -0.05083178 0.015738934
0.030252814 -0.050421357 0.017280757
0.0092179859 -0.050186813 0.018515497
0.010103052 -0.049504951 0.018853217
0.011032777 -0.049146008 0.022675633
0.012153237 -0.049625717 0.022795022
0.013185441 -0.049698971 0.015026122
0.014112998 -0.049395494 0.025452793
0.015111556 -0.049364418 0.022402287
0.016169708 -0.049519733 0.018940926
0.017165208 -0.049476188 0.019350201
0.0182916 -0.049793798 0.017219841
0.020415973 -0.050019138 0.017820328
0.021286838 -0.049669288 0.018833458
0.021959854 -0.048910584 0.022263587
0.023287015 -0.049611464 0.017789096
0.024284387 -0.049580622 0.021991491
0.025283374 -0.049555413 0.018073767
0.026502594 -0.049947198 0.015920788
0.027413102 -0.049749706 0.017947257
0.028383037 -0.049670316 0.017630279
0.030502804 -0.049821246 0.016368598
0.031292938 -0.04946303 0.018586248
0.032753725 -0.050154142 0.015807301
0.033376429 -0.049558938 0.015900671
0.0082479697 -0.049487818 0.015761822
0.0090796519 -0.04842481 0.016584158
0.010139961 -0.048671812 0.018544108
0.011149908 -0.048654143 0.021617293
0.012194626 -0.048778504 0.017791271
0.013095767 -0.048353601 0.020355493
0.014057068 -0.048195664 0.023040205
0.015120603 -0.048385929 0.021005362
0.016281968 -0.048845906 0.015897721
0.017383184 -0.049081929 0.016767114
0.018249154 -0.04866441 0.017176598
0.019448092 -0.049132023 0.017513275
0.020286612 -0.048687872 0.018091679
0.021298259 -0.048681736 0.017944306
0.022387981 -0.048846506 0.019973099
0.023366239 -0.048764326 0.018906504
0.024459867 -0.048919734 0.017840147
0.025283348 -0.048544027 0.016701519
0.026370676 -0.048684325 0.016698867
0.027135838 -0.048241489 0.020465493
0.02844559 -0.048763867 0.018577695
0.029428339 -0.048708975 0.020748287
0.031416375 -0.04864471 0.018712521
0.010293068 -0.048377421 0.018258959
0.012268653 -0.048052225 0.018450201
0.013101958 -0.047368616 0.021426708
0.013986615 -0.046955064 0.024378479
0.015213076 -0.047667641 0.016533256
0.016202496 -0.04759483 0.021130502
0.016992258 -0.046978593 0.023742229
0.018282799 -0.047738422 0.021247119
0.019045757 -0.047113191 0.02344656
0.019992536 -0.04698246 0.018677592
0.021563562 -0.048261307 0.017804384
0.022097858 -0.047209058 0.020922214
0.022901647 -0.046799015 0.020242184
0.024435084 -0.047852043 0.020771235
0.025166815 -0.047313612 0.01919657
0.026043687 -0.047078971 0.018951893
0.027176378 -0.047307029 0.019093752
0.028149398 -0.047250777 0.018873066
0.029212696 -0.047344714 0.018773109
0.03048452 -0.047759078 0.018576473
0.031238342 -0.047361359 0.017945081
0.03347173 -0.047671858 0.015668571
0.034286089 -0.047395479 0.019141227
0.010188226 -0.046865836 0.018554866
0.01119833 -0.046829376 0.017366827
0.012287427 -0.047101803 0.018576622
0.013237942 -0.046841949 0.018405616
0.014226243 -0.046743371 0.017048001
0.016080268 -0.046230771 0.016633272
0.01711853 -0.046320729 0.023046941
0.018318532 -0.046814028 0.020623833
0.01939841 -0.046964571 0.017450809
0.020350376 -0.046805862 0.015948266
0.020977734 -0.045951225 0.02359271
0.022066915 -0.046139915 0.021025002
0.023495192 -0.046990383 0.018627137
0.024285331 -0.046546884 0.021478593
0.025279807 -0.046514846 0.021088421
0.026329318 -0.046582639 0.02004537
0.027193928 -0.046330396 0.016512394
0.028541528 -0.046889652 0.018419176
0.029182483 -0.046289455 0.018633485
0.030002087 -0.0460032 0.019451678
0.031275336 -0.04640856 0.020172805
0.031879917 -0.045827381 0.01685974
0.034542132 -0.046733472 0.01769799
0.035565346 -0.046743028 0.015907973
0.016129337 -0.045363761 0.019156635
0.017104805 -0.04527742 0.021285653
0.017882381 -0.044705953 0.027748257
0.018832296 -0.044602808 0.027285099
0.020120053 -0.045270119 0.02047953
0.021176757 -0.045378767 0.017814457
0.022178249 -0.0453646 0.020135403
0.023053741 -0.045105148 0.023423582
0.02399889 -0.044997919 0.021944284
0.025363989 -0.04565518 0.018844575
0.026107145 -0.045185447 0.020026803
0.027309263 -0.045515437 0.021716386
0.028546117 -0.045877688 0.017989129
0.029064443 -0.045099996 0.018977135
0.030055784 -0.045083676 0.019360393
0.031287812 -0.045417789 0.020275116
0.03227539 -0.045387264 0.019570529
0.0332953 -0.04540268 0.016812772
0.034917172 -0.046213903 0.018113494
0.009251928 -0.045231644 0.015560746
0.012340048 -0.045246843 0.015363842
0.014342685 -0.045077011 0.016209394
0.015151378 -0.044444039 0.019866318
0.016333375 -0.044916783 0.016836286
0.016862426 -0.043643925 0.023568392
0.018374465 -0.044915363 0.017341375
0.019019207 -0.04404448 0.019422054
0.02132111 -0.044672802 0.019756198
0.022467919 -0.044935837 0.021327138
0.023182528 -0.044349186 0.017015785
0.024499163 -0.044915132 0.017763525
0.025286239 -0.044503778 0.020591944
0.026246388 -0.044416964 0.020564497
0.027391845 -0.044638563 0.017440706
0.028428642 -0.044673581 0.01722011
0.029135503 -0.044205591 0.017845809
0.030537261 -0.044787981 0.018156886
0.031204559 -0.044290341 0.020063102
0.032591615 -0.044813469 0.01752159
0.033491768 -0.044655692 0.018363804
0.035240483 -0.044302322 0.015723497
0.015082742 -0.043237194 0.020525932
0.015955871 -0.042881403 0.019191206
0.017212939 -0.043538608 0.020958006
0.01830635 -0.043731838 0.020931512
0.019157778 -0.043357078 0.016956478
0.020208469 -0.043448206 0.022888482
0.020928867 -0.04285435 0.02443552
0.022174288 -0.043340653 0.019492567
0.023570186 -0.044065997 0.01803717
0.024446173 -0.043799393 0.019777507
0.025116019 -0.043199554 0.021275192
0.026228242 -0.043377474 0.022239834
0.027366506 -0.043583695 0.020106971
0.028019657 -0.043030187 0.020514816
0.029297609 -0.043441281 0.017657101
0.030244336 -0.043350212 0.017436236
0.03122976 -0.0433187 0.01924637
0.032497823 -0.043668948 0.017502099
0.033391044 -0.043509539 0.017208576
0.035030499 -0.044303276 0.015368551
0.035497211 -0.04361086 0.016887307
0.01325311 -0.042817742 0.01704371
0.016271269 -0.042712081 0.016311973
0.017111363 -0.042275131 0.022126794
0.018210828 -0.042491931 0.016138941
0.019346947 -0.042766936 0.019359648
0.020316729 -0.042665131 0.01739493
0.021161998 -0.042323995 0.022818893
0.02232663 -0.042623565 0.021919727
0.023425967 -0.042777851 0.017388016
0.024375571 -0.042657249 0.019225776
0.025236076 -0.042396605 0.022079676
0.026258703 -0.042417906 0.016121447
0.027336089 -0.042522803 0.017885566
0.028630005 -0.042945009 0.016648442
0.029278954 -0.042404003 0.018266529
0.030230468 -0.042322654 0.018142253
0.031410359 -0.042555969 0.023435384
0.032457944 -0.042601049 0.018425524
0.033589233 -0.04274993 0.018204242
0.035565674 -0.042678807 0.016166776
0.016090212 -0.04123117 0.020122468
0.017018901 -0.041045588 0.021162808
0.01827221 -0.041620031 0.019633472
0.019064099 -0.041138317 0.022515327
0.01986271 -0.040718555 0.025347888
0.021549037 -0.042071927 0.016306847
0.022156455 -0.041291576 0.021416575
0.023323316 -0.041576348 0.01833722
0.025392367 -0.041643482 0.015958577
0.026407059 -0.041641902 0.015157074
0.027602892 -0.041915502 0.015420884
0.028593265 -0.041868709 0.016168594
0.029117994 -0.04116682 0.020860612
0.030582974 -0.041796729 0.018340468
0.03118589 -0.041245855 0.018482178
0.032344319 -0.041441157 0.01862371
0.03345615 -0.041566733 0.016975611
0.0340827 -0.041099727 0.016778708
0.011212844 -0.040773977 0.015235364
0.012335394 -0.041117977 0.015986264
0.014274377 -0.040783934 0.015159041
0.015198019 -0.040528052 0.018310517
0.016113641 -0.040284101 0.017508477
0.018343333 -0.040762961 0.015904665
0.020187633 -0.040375266 0.022009224
0.021089995 -0.040171422 0.020212948
0.022169987 -0.040309068 0.017205387
0.023383476 -0.040666915 0.017736048
0.024313761 -0.040522933 0.019623101
0.025542524 -0.04086804 0.017561227
0.026536437 -0.040825289 0.016420215
0.027385853 -0.040571634 0.015594214
0.028519049 -0.0407415 0.015349478
0.029776342 -0.041070815 0.017912686
0.030231196 -0.040308263 0.018756479
0.031424321 -0.040547512 0.018414199
0.033037439 -0.040045384 0.015189976
0.034847621 -0.0409972 0.017024726
0.035568774 -0.040650025 0.016150713
0.038848653 -0.04089332 0.016043246
0.013263853 -0.039791558 0.015236795
0.014274466 -0.039764583 0.0200634
0.016243704 -0.039594028 0.019841373
0.017139668 -0.039320413 0.019839317
0.018210307 -0.039455663 0.019473374
0.019102313 -0.03921001 0.020780593
0.02003254 -0.039063454 0.021456957
0.021041686 -0.039077416 0.019975483
0.022220718 -0.039391272 0.020918101
0.023443524 -0.039752062 0.017885774
0.024342947 -0.039557289 0.018876702
0.02560023 -0.03993636 0.015675694
0.029601028 -0.039808281 0.016270578
0.030610744 -0.039793964 0.015856117
0.031655174 -0.039824251 0.015199631
0.032385401 -0.039469708 0.016213
0.033602342 -0.039711859 0.016379178
0.034900259 -0.03888886 0.017001092
0.038235884 -0.039242093 0.016578764
0.01027918 -0.039060883 0.016724408
0.011202905 -0.038700946 0.015218437
0.012283098 -0.038896479 0.015581399
0.013308026 -0.038900383 0.016575187
0.01419718 -0.038535204 0.016598076
0.015229918 -0.038582459 0.018295079
0.018549744 -0.039160572 0.017949879
0.019294642 -0.038589284 0.015837759
0.020180384 -0.038342729 0.017654657
0.021611907 -0.039107259 0.01627031
0.025406381 -0.0386177 0.02021122
0.027677016 -0.038952839 0.020858824
0.028488673 -0.038663197 0.019135535
0.029544841 -0.038713928 0.017558008
0.030398263 -0.038504466 0.018135965
0.031411268 -0.038504135 0.019367218
0.032660291 -0.038784094 0.020162135
0.033915762 -0.039054513 0.018101156
0.034239147 -0.038267285 0.01562959
0.035486344 -0.038528029 0.015094161
0.036931943 -0.038983718 0.015477777
0.010223905 -0.037828445 0.016922474
0.012356592 -0.03809949 0.018449575
0.014381423 -0.038008045 0.016213596
0.016125152 -0.037289411 0.01536119
0.017003348 -0.037007287 0.02535677
0.018126061 -0.037259124 0.021011084
0.023333231 -0.037536066 0.017894179
0.025403172 -0.037596691 0.016022414
0.026664043 -0.037944984 0.015656352
0.027290864 -0.037398592 0.015896112
0.028468128 -0.0376186 0.018824965
0.029597329 -0.037762109 0.018555224
0.0303072 -0.037378881 0.019084662
0.031465441 -0.037555527 0.018717855
0.032861508 -0.037996121 0.016656369
0.032965068 -0.036960836 0.019678682
0.034633759 -0.037689682 0.018440425
0.038605161 -0.037589237 0.015691936
0.009182279 -0.036729116 0.015494436
0.011342932 -0.03712232 0.015055418
0.013279404 -0.036773734 0.01650995
0.015351594 -0.036843825 0.016919792
0.016177339 -0.036399014 0.02160278
0.017152628 -0.036323212 0.020605534
0.019591618 -0.037120961 0.015238374
0.020467417 -0.036841352 0.018075168
0.021393819 -0.036675118 0.01710254
0.022146782 -0.03624019 0.023673564
0.023515597 -0.036807019 0.015278965
0.024214366 -0.036321551 0.022308916
0.025296764 -0.036427341 0.022644937
0.027082693 -0.036110256 0.019607991
0.028555959 -0.036714803 0.01805377
0.029192949 -0.036239523 0.019649684
0.030512054 -0.036614466 0.017126799
0.03164145 -0.036744911 0.017995477
0.032212179 -0.0362387 0.017120242
0.033495788 -0.036540858 0.016172588
0.034501635 -0.036531143 0.01793626
0.035265334 -0.036272913 0.01863423
0.036310721 -0.036310721 0.023275644
0.037107363 -0.036104459 0.016981095
0.03877924 -0.036738224 0.016904652
0.011253921 -0.03580793 0.015131563
0.014283299 -0.035708249 0.016075104
0.015374091 -0.03587288 0.015199602
0.020246228 -0.035430897 0.017035633
0.021342466 -0.035570778 0.016159981
0.022214359 -0.035341024 0.024819046
0.023132998 -0.035202391 0.020279378
0.024186209 -0.035271555 0.022047013
0.024726363 -0.03461691 0.025681257
0.026026573 -0.03503577 0.021943182
0.027497722 -0.035645194 0.015636504
0.028453628 -0.035567034 0.019172698
0.02914663 -0.03517697 0.019557089
0.030649576 -0.03575784 0.018826604
0.03133484 -0.035378046 0.018532366
0.032190163 -0.035207991 0.020030439
0.033307329 -0.035325956 0.016515136
0.034196377 -0.035202149 0.017528594
0.035825834 -0.035825834 0.015128493
0.036865335 -0.035841297 0.015706033
0.038698081 -0.03564297 0.016884148
0.042062242 -0.035906792 0.015300721
0.043403089 -0.035328094 0.018264413
0.016019227 -0.034040857 0.017556846
0.017206501 -0.034413002 0.021682799
0.01815003 -0.034283388 0.025637805
0.018750284 -0.033553138 0.02646023
0.020388903 -0.034661133 0.019272357
0.020830993 -0.033726368 0.028710723
0.022105657 -0.034163285 0.016258329
0.023270469 -0.034399826 0.020041108
0.024195734 -0.03427729 0.017709285
0.025268292 -0.034364875 0.022581965
0.026639024 -0.034835648 0.015642405
0.027251527 -0.034316737 0.021871537
0.028473265 -0.03457468 0.018813103
0.029513096 -0.034601562 0.019391567
0.030476158 -0.034539647 0.016261697
0.031767782 -0.034842085 0.01751864
0.034592673 -0.034592673 0.01554662
0.034916159 -0.033918556 0.02384761
0.036339436 -0.034320578 0.017234296
0.037181541 -0.03416682 0.021078229
0.038880974 -0.03478824 0.016839355
0.03936879 -0.034321509 0.017174006
0.042520341 -0.034421228 0.017161191
0.043534365 -0.034422521 0.019065678
0.012346908 -0.033953995 0.01654616
0.013322666 -0.033819076 0.015500158
0.014332682 -0.033784177 0.018656939
0.015130983 -0.033288162 0.019626915
0.016334414 -0.03368973 0.019212067
0.017150206 -0.033291578 0.019550145
0.01821827 -0.033400159 0.017799646
0.019278938 -0.03348447 0.023503512
0.019805618 -0.032679267 0.025952667
0.021124603 -0.033195805 0.020948827
0.022233052 -0.033349577 0.019247085
0.023393901 -0.03356516 0.020482033
0.02446717 -0.033642359 0.01797989
0.025432736 -0.03357121 0.017710268
0.02631028 -0.033393819 0.017925769
0.02749618 -0.03360644 0.016977012
0.028638715 -0.033752773 0.018210769
0.029431319 -0.033490811 0.018377274
0.030417012 -0.033458713 0.015028805
0.031759322 -0.03380831 0.016286224
0.036852449 -0.033781409 0.018787295
0.037086219 -0.033076897 0.020041794
0.038084354 -0.033073258 0.018899769
0.043123081 -0.033882421 0.01694712
0.014296451 -0.032677602 0.016814053
0.015288917 -0.032616358 0.015889317
0.016274543 -0.032549087 0.017612636
0.017174309 -0.03232811 0.020088464
0.01840337 -0.032717101 0.015738696
0.021589009 -0.032897539 0.015975803
0.022337662 -0.032491144 0.018158555
0.023069225 -0.032096315 0.017937571
0.024469178 -0.032625571 0.017449558
0.025260407 -0.032333322 0.021329403
0.026545811 -0.032671768 0.016789079
0.02745422 -0.032538336 0.019697249
0.028501855 -0.032573547 0.016468197
0.029080337 -0.032088649 0.019957215
0.030532217 -0.032567699 0.017698765
0.031243436 -0.032251287 0.02038613
0.032349717 -0.032349717 0.018443316
0.033627827 -0.0326088 0.016210347
0.034755006 -0.032710597 0.017418355
0.0370102 -0.032897957 0.016006321
0.037344456 -0.032297906 0.015833229
0.038873769 -0.032735806 0.015611798
0.039674971 -0.032553822 0.016479224
0.041917156 -0.032715827 0.016979039
0.012330664 -0.031854216 0.015872091
0.013256866 -0.031612527 0.015895218
0.015390321 -0.031806663 0.01766637
0.016288415 -0.0315588 0.016838521
0.018216752 -0.031373292 0.021159112
0.019054674 -0.031089203 0.019966483
0.020560302 -0.031868469 0.015470892
0.021393061 -0.031580232 0.017193168
0.025356345 -0.031441867 0.018688083
0.026527323 -0.031628732 0.016112924
0.02749232 -0.031565256 0.015649289
0.028368162 -0.03140761 0.016228795
0.03042176 -0.031435817 0.016392738
0.031264547 -0.031264547 0.016607881
0.032425817 -0.031412512 0.020119518
0.033062525 -0.031058736 0.02413851
0.034246862 -0.031225082 0.020353585
0.034648862 -0.030688992 0.025267005
0.035386898 -0.030472049 0.027756125
0.037822068 -0.031688761 0.019177943
0.038483433 -0.031394381 0.021715432
0.03939477 -0.031313792 0.016893864
0.043838546 -0.031604532 0.016393244
0.016517024 -0.030969422 0.016355634
0.018148031 -0.03024672 0.017518491
0.019132134 -0.03020863 0.019800186
0.020366209 -0.030549314 0.021813989
0.021133147 -0.030190211 0.018775165
0.022075096 -0.030102404 0.024261147
0.02314231 -0.030185621 0.021392494
0.024216363 -0.030270454 0.016849309
0.025535608 -0.030642729 0.017744869
0.026612788 -0.030707065 0.015921801
0.027250169 -0.030277966 0.01892826
0.0294872 -0.030504001 0.016932547
0.030232854 -0.030232854 0.016226053
0.03166322 -0.030641824 0.020296961
0.032391194 -0.030366745 0.018523127
0.033448715 -0.030407922 0.016968012
0.034319226 -0.03028167 0.017594635
0.035270214 -0.030231612 0.016379356
0.036420427 -0.030350357 0.020808905
0.037495375 -0.030401655 0.020416707
0.038141023 -0.030111333 0.017312676
0.043638784 -0.030445663 0.016396314
0.013398509 -0.029888982 0.015657961
0.014268834 -0.02955687 0.018598348
0.016287673 -0.029521408 0.017185092
0.017202653 -0.029345702 0.017790914
0.018435689 -0.029701943 0.017667472
0.019152949 -0.029233446 0.019269198
0.020263031 -0.029381394 0.018222183
0.021139564 -0.029192731 0.021086425
0.022294218 -0.029387834 0.018144548
0.023273619 -0.029344998 0.01736486
0.024541322 -0.029654097 0.031907827
0.025025854 -0.029029991 0.025444657
0.026362028 -0.029403802 0.020172924
0.02747304 -0.029508078 0.019174427
0.028349813 -0.029362306 0.021840602
0.030474892 -0.029459061 0.016495854
0.03161636 -0.029576596 0.016783804
0.032529015 -0.02947942 0.01835674
0.033540811 -0.029475261 0.02000168
0.034160648 -0.029137023 0.019100666
0.035728302 -0.02960345 0.01594615
0.036723617 -0.029582916 0.01536116
0.037300531 -0.029235551 0.015866399
0.038730033 -0.029557131 0.017315835
0.017410256 -0.028675715 0.015727848
0.019250996 -0.028369891 0.016988099
0.020383257 -0.02853656 0.018614173
0.021370359 -0.028493812 0.017810017
0.022028251 -0.028035954 0.029493093
0.023256781 -0.028312603 0.024266481
0.024264412 -0.028308479 0.018482566
0.025227576 -0.028254887 0.016245693
0.026354058 -0.028381294 0.017845601
0.027553264 -0.028573755 0.019420594
0.028410882 -0.028410882 0.017014384
0.029416848 -0.028402474 0.019802123
0.030403834 -0.028376913 0.015212834
0.031554248 -0.028500613 0.017684311
0.032426085 -0.028372824 0.016419709
0.034737475 -0.028607333 0.015394777
0.035410091 -0.028328072 0.01565811
0.0363026 -0.028235355 0.018659592
0.037264507 -0.028200168 0.020448238
0.038244396 -0.028180081 0.019159764
0.010208345 -0.027562531 0.016493887
0.013353372 -0.027733928 0.016174197
0.014420206 -0.027810397 0.018604815
0.015182548 -0.027328586 0.019819051
0.016234981 -0.027396528 0.016048223
0.017422527 -0.027671073 0.020884901
0.018144539 -0.027216807 0.020590872
0.019686107 -0.027974993 0.01993221
0.021177528 -0.027228251 0.016646564
0.022244496 -0.027300065 0.016449928
0.023160165 -0.02718802 0.020675004
0.024641663 -0.027721871 0.017854184
0.025131689 -0.027142225 0.025574923
0.026079161 -0.027082207 0.022486836
0.027299009 -0.027299009 0.019715279
0.029346189 -0.027322315 0.016504586
0.030390805 -0.027351726 0.018709898
0.031781495 -0.027680658 0.01562503
0.033378344 -0.027309554 0.016831458
0.034553759 -0.027439751 0.019858986
0.035343982 -0.027265357 0.016994089
0.036535621 -0.027401717 0.020044267
0.037454627 -0.027331755 0.016211152
0.038398176 -0.027282916 0.019041896
0.013330272 -0.026660545 0.017174214
0.01430169 -0.026560282 0.015664697
0.015318211 -0.026551565 0.015006572
0.016046988 -0.026076356 0.022665799
0.017103987 -0.026159037 0.017800063
0.018512968 -0.026740955 0.019573092
0.018865973 -0.025816593 0.022147834
0.020213852 -0.026278008 0.021950692
0.021202702 -0.026250964 0.023114592
0.022502111 -0.026593406 0.019223124
0.022954393 -0.025948444 0.024055958
0.024153002 -0.026165752 0.023177803
0.026351824 -0.026351824 0.017414391
0.027370697 -0.026356967 0.019645661
0.028379591 -0.026352478 0.016728759
0.029417882 -0.026374653 0.020391375
0.030251984 -0.026218385 0.019853711
0.031348515 -0.026292304 0.016185701
0.032584425 -0.026474845 0.018730044
0.033333782 -0.026262978 0.01790151
0.034792356 -0.026605919 0.015933424
0.036609229 -0.02644 0.016484112
0.037202943 -0.02614261 0.016116858
0.038363021 -0.026248382 0.01955384
0.012309965 -0.025645761 0.015961707
0.013211406 -0.025406551 0.018685371
0.014244354 -0.025436345 0.019900233
0.015275029 -0.025458381 0.018098325
0.016032994 -0.025051551 0.015056163
0.01748604 -0.025714764 0.016927361
0.018457903 -0.025635976 0.015928417
0.019295149 -0.025388354 0.015026957
0.02034591 -0.025432387 0.024336815
0.021333683 -0.025397243 0.020760238
0.022115318 -0.025131043 0.020903319
0.024220973 -0.02523018 0.024688005
0.025443487 -0.025443487 0.016205132
0.026528096 -0.025507784 0.017587185
0.027168456 -0.025155978 0.019794494
0.02841467 -0.025370242 0.016901374
0.029267626 -0.025230711 0.019132048
0.030245837 -0.025204863 0.017089486
0.033242963 -0.025184063 0.020354658
0.034540121 -0.025397148 0.020301938
0.035368066 -0.025262905 0.01651454
0.036139309 -0.025096742 0.020584106
0.037639294 -0.025431955 0.019100875
0.038514096 -0.025338223 0.018805653
0.015231738 -0.02437078 0.018320024
0.016125932 -0.024188899 0.025105536
0.017058646 -0.024082793 0.022597522
0.017985705 -0.02398094 0.02145195
0.019374328 -0.024472835 0.018433899
0.020186087 -0.024223303 0.019185454
0.021045901 -0.024052458 0.020155549
0.022384753 -0.024419731 0.017819136
0.02334726 -0.024362359 0.0222404
0.025391161 -0.024375515 0.019730955
0.026225761 -0.024208395 0.020748258
0.027467722 -0.024415754 0.021230698
0.028444489 -0.024380991 0.020935595
0.029543187 -0.024449535 0.018795013
0.030192157 -0.024153726 0.020248264
0.031403366 -0.024312284 0.018957943
0.033484217 -0.024352157 0.01953274
0.034357712 -0.0242525 0.019844085
0.035137851 -0.024094528 0.018142104
0.036662005 -0.024441337 0.020296246
0.036907203 -0.023939807 0.019370407
0.038340323 -0.02421494 0.019050866
0.011240788 -0.023503466 0.016989887
0.012378627 -0.023725701 0.016599268
0.014249459 -0.023409825 0.015452862
0.015212064 -0.023325164 0.017179072
0.016253835 -0.023364887 0.016033918
0.017217264 -0.023293944 0.020386964
0.018156908 -0.023200493 0.023766011
0.018903475 -0.022883153 0.026998192
0.019859502 -0.022838427 0.024927735
0.020973653 -0.022971144 0.021593183
0.022297088 -0.023310591 0.0210554
0.023100458 -0.023100458 0.019472301
0.024339024 -0.023324898 0.017160356
0.02549815 -0.023458298 0.019976854
0.02660233 -0.02353283 0.015745699
0.027437286 -0.023372503 0.017419428
0.028710485 -0.023583611 0.017465085
0.029538685 -0.023427233 0.016903371
0.030515252 -0.023395026 0.018357247
0.031439919 -0.023326393 0.017698288
0.032321569 -0.023231126 0.021262914
0.033310894 -0.023216683 0.020773292
0.034160595 -0.023108637 0.017323673
0.035350967 -0.023230636 0.018241733
0.035868455 -0.022915956 0.020929784
0.03685873 -0.022912184 0.018936813
0.038566962 -0.023343161 0.017841548
0.039808773 -0.023476968 0.020115435
0.014383491 -0.022602629 0.015016913
0.015361124 -0.022529649 0.017181486
0.017283786 -0.022367254 0.021557748
0.018381692 -0.022466514 0.017395169
0.019257385 -0.022298025 0.017052591
0.021403039 -0.02242223 0.015905291
0.022257406 -0.022257406 0.018748224
0.023402862 -0.022385346 0.017602891
0.024354093 -0.022324586 0.017211378
0.024991283 -0.02199233 0.024622142
0.026609203 -0.022515479 0.017959416
0.027424714 -0.022346063 0.015769631
0.028285941 -0.022224668 0.021500319
0.029521672 -0.022395751 0.01744014
0.030178903 -0.022131195 0.021006912
0.031340808 -0.022241862 0.019278973
0.032098845 -0.022067955 0.02136299
0.034185976 -0.022120336 0.0261347
0.035563923 -0.022354465 0.019651413
0.036399551 -0.022244168 0.015135556
0.037599608 -0.022356523 0.016684145
0.038834888 -0.022483358 0.015589267
0.011239181 -0.021456618 0.015411973
0.012225718 -0.021395007 0.017626345
0.013256948 -0.02141507 0.019207299
0.014303627 -0.021455441 0.019546539
0.015229921 -0.021321889 0.016550928
0.016333243 -0.02143738 0.021319449
0.017225079 -0.021278039 0.016669303
0.018159688 -0.021186303 0.022458553
0.019029986 -0.021033144 0.023915738
0.02000846 -0.021008883 0.028194278
0.021218183 -0.021218183 0.021258563
0.022420892 -0.021401759 0.019261479
0.023482889 -0.021440899 0.017969996
0.024233349 -0.021204181 0.019134402
0.026013985 -0.021011295 0.023041666
0.02741033 -0.021319145 0.017302692
0.028485307 -0.021363981 0.019073486
0.029402321 -0.021291336 0.018171221
0.030430669 -0.021301469 0.016054809
0.031646106 -0.021437684 0.020350069
0.032250736 -0.021164546 0.016728461
0.032759231 -0.020846782 0.026556253
0.03431017 -0.021191576 0.016284794
0.034959316 -0.02097559 0.018149674
0.036594335 -0.021346696 0.016762912
0.037218731 -0.021124145 0.017996073
0.038296409 -0.021163806 0.018670827
0.0083269589 -0.020817397 0.015075684
0.011300214 -0.020545844 0.015584439
0.012214131 -0.020356884 0.01714164
0.013196129 -0.020301739 0.01940456
0.014253478 -0.020362111 0.016578883
0.015342319 -0.020456426 0.015311599
0.016133789 -0.020167237 0.017232984
0.016943861 -0.019933954 0.02531141
0.019064775 -0.020068184 0.024162114
0.020097381 -0.020097381 0.015765518
0.021338385 -0.020322271 0.018998921
0.02231539 -0.020286718 0.020163894
0.023031402 -0.020027308 0.02113384
0.024427559 -0.020356299 0.019550234
0.025321461 -0.020257169 0.015438437
0.025799248 -0.019845575 0.027857721
0.027011877 -0.020008799 0.027318448
0.02848723 -0.020348022 0.017520666
0.029215818 -0.02014884 0.020967603
0.030547492 -0.020364996 0.015668184
0.031288732 -0.020186279 0.023145676
0.032173242 -0.020108277 0.019960135
0.033572558 -0.020347005 0.017188519
0.034623995 -0.020367058 0.015461594
0.035498846 -0.020285055 0.016938597
0.036424287 -0.020235715 0.016813576
0.037183061 -0.020098951 0.017634481
0.038785063 -0.020413192 0.015156835
0.012290131 -0.019459376 0.017801195
0.01319061 -0.019278584 0.016947567
0.014259469 -0.019352136 0.017360061
0.015132373 -0.019167673 0.0224711
0.016115298 -0.019136917 0.016602159
0.017365919 -0.019408969 0.018766761
0.018286871 -0.019302808 0.019032508
0.019108703 -0.019108703 0.019662976
0.020159431 -0.019151459 0.022045195
0.0212324 -0.019210268 0.01963377
0.021853833 -0.018873764 0.022063762
0.02305937 -0.019049045 0.023665994
0.024395499 -0.019313103 0.019795805
0.025380755 -0.019289374 0.018066347
0.026456596 -0.019333666 0.021588683
0.027015146 -0.019010659 0.022751927
0.028494081 -0.019335268 0.017644286
0.029640395 -0.01941957 0.019390702
0.030427285 -0.019270614 0.018220991
0.031273689 -0.019167745 0.017124534
0.032416098 -0.019247059 0.016684026
0.034688018 -0.019384481 0.015997529
0.037584729 -0.019300267 0.016666234
0.0092467796 -0.018493559 0.015054137
0.010217567 -0.01839162 0.016319841
0.01233831 -0.018507464 0.016682923
0.013126439 -0.018175071 0.017412215
0.014299464 -0.018385027 0.018214315
0.01637912 -0.01842651 0.016336262
0.017089611 -0.018094882 0.021446764
0.017993234 -0.017993234 0.021809548
0.019139802 -0.018132444 0.021928728
0.021078996 -0.018067712 0.021558285
0.022368833 -0.018301774 0.019706398
0.023283018 -0.018221492 0.020019889
0.025923871 -0.017947296 0.023876697
0.027243061 -0.018162042 0.019180894
0.028473532 -0.018304413 0.019639432
0.029462324 -0.01828696 0.016962737
0.030071778 -0.018043067 0.023957342
0.031618044 -0.018358864 0.018486917
0.034927245 -0.018490896 0.018135846
0.035042062 -0.018021632 0.021845698
0.036526769 -0.018263385 0.017399967
0.037440911 -0.018214498 0.015794694
0.011199622 -0.017308507 0.016978234
0.013219691 -0.017287288 0.02138406
0.014051281 -0.017062271 0.020749062
0.016911432 -0.016911432 0.021643847
0.0184772 -0.017450688 0.01655367
0.019223979 -0.017200403 0.016503096
0.021541219 -0.01743813 0.016182631
0.022282945 -0.017218638 0.019708544
0.022849105 -0.016888469 0.023403674
0.024327986 -0.017232323 0.019313693
0.025378833 -0.017257607 0.018410891
0.025942495 -0.0169624 0.025605798
0.027671073 -0.017422527 0.016532868
0.029481383 -0.01728219 0.016794443
0.030716568 -0.017406056 0.017228752
0.032800324 -0.017425172 0.018849641
0.034121994 -0.017060997 0.017263681
0.035511043 -0.017248221 0.015148014
0.036707655 -0.017334171 0.015654325
0.01229123 -0.016388306 0.017587781
0.013155344 -0.016191192 0.016563386
0.014201905 -0.016230749 0.01963082
0.015159243 -0.016169859 0.020700604
0.016117645 -0.016117645 0.019383639
0.017235 -0.016221177 0.020672113
0.018177813 -0.016158056 0.020256013
0.019021286 -0.016017925 0.022468925
0.019934786 -0.01594783 0.028332204
0.021066844 -0.016050929 0.02061367
0.022222329 -0.016161693 0.018031508
0.024003526 -0.01600235 0.024667621
0.025068276 -0.016043697 0.019920856
0.026109554 -0.016067417 0.022325307
0.027476953 -0.016282639 0.016704768
0.029715257 -0.016394624 0.016601712
0.030245813 -0.016131099 0.01927197
0.031481594 -0.016248565 0.017664611
0.032484952 -0.016242476 0.015863508
0.03289222 -0.015947742 0.022345304
0.03414819 -0.016069736 0.019596636
0.035831198 -0.016379977 0.017213196
0.036326919 -0.016145298 0.015000612
0.014421525 -0.015451635 0.017123848
0.016343256 -0.015321803 0.017218024
0.017051414 -0.015045365 0.024789482
0.01815656 -0.015130467 0.020428389
0.019187333 -0.015147895 0.020353019
0.019945228 -0.014958921 0.022297978
0.02083887 -0.014884907 0.024315298
0.022407845 -0.015278076 0.020320892
0.024620399 -0.01538775 0.015984446
0.025525276 -0.015315165 0.019606531
0.025780076 -0.014873121 0.024540722
0.02717429 -0.015096827 0.020986289
0.028128278 -0.015068719 0.025261939
0.028933836 -0.014965777 0.022145867
0.030513037 -0.015256518 0.0166246
0.031763349 -0.015369361 0.02012071
0.032243174 -0.015113988 0.018416077
0.033316217 -0.015143735 0.021861643
0.03441776 -0.015184306 0.016732812
0.036841642 -0.015350685 0.015317589
0.014167898 -0.014167898 0.016077876
0.015283563 -0.014264659 0.018098176
0.016087536 -0.014076594 0.023162425
0.017173016 -0.014142484 0.018922597
0.01844091 -0.01434293 0.015121758
0.020319507 -0.014223654 0.020814925
0.021225411 -0.014150275 0.020422786
0.022006944 -0.014004419 0.025725901
0.022638826 -0.013780155 0.028958887
0.024275165 -0.014160514 0.020341247
0.025918368 -0.013956045 0.024615973
0.027354032 -0.014183572 0.020209938
0.028311232 -0.014155616 0.019306809
0.030606933 -0.014283236 0.02078259
0.031336781 -0.014152094 0.016088307
0.033377334 -0.014160082 0.01778236
0.034519944 -0.014214096 0.019673169
0.035774115 -0.014309646 0.017070681
0.010217633 -0.013282923 0.015523553
0.011148194 -0.013175138 0.015181363
0.012244128 -0.013264472 0.02058962
0.013204047 -0.013204047 0.015081644
0.014235601 -0.013218773 0.019636154
0.015327785 -0.013284081 0.019317716
0.015990485 -0.012992267 0.018804312
0.017074056 -0.013056631 0.020580292
0.018252878 -0.013182634 0.020919025
0.01903338 -0.013022839 0.017629355
0.020357735 -0.013232528 0.017164618
0.024551686 -0.01329883 0.016230553
0.025374616 -0.0131948 0.019585609
0.026682682 -0.013341341 0.01544711
0.027410503 -0.01319765 0.019506305
0.028197853 -0.01309186 0.022421151
0.029131006 -0.013058727 0.022465765
0.030339668 -0.013147189 0.016214192
0.030815763 -0.01292274 0.024571925
0.031587821 -0.012832552 0.026268095
0.033518426 -0.013204229 0.016156107
0.034248237 -0.013094914 0.018338859
0.035224631 -0.013083434 0.016586453
0.036094155 -0.013034001 0.018622249
0.010266565 -0.012319878 0.016548365
0.012256047 -0.012256047 0.015985608
0.01320191 -0.012186378 0.016179323
0.01428617 -0.012245288 0.017371804
0.019396912 -0.012250681 0.019578874
0.020130441 -0.012078265 0.019284278
0.021467863 -0.01226735 0.015289158
0.022287644 -0.012156896 0.018743724
0.023382826 -0.012199735 0.017816216
0.024540454 -0.012270227 0.015209734
0.026360584 -0.012166424 0.016397089
0.027527563 -0.012234473 0.016053826
0.029001048 -0.012000434 0.022807956
0.03030738 -0.012122952 0.018379152
0.031603675 -0.012233681 0.018424302
0.032035477 -0.012013304 0.018493623
0.033318575 -0.012115845 0.024758428
0.034599841 -0.012211709 0.016615599
0.035233732 -0.012080137 0.016344815
0.036634535 -0.012211512 0.017846704
0.009202729 -0.01124778 0.015794933
0.012221103 -0.011202677 0.018862426
0.013318485 -0.011269487 0.017057687
0.013988711 -0.01099113 0.019639075
0.01488422 -0.010915094 0.027921081
0.016101042 -0.011069466 0.020268828
0.016910968 -0.010942391 0.021582097
0.018210668 -0.011128741 0.020776004
0.019259488 -0.01115023 0.018508703
0.020100227 -0.011055125 0.018384755
0.021377366 -0.011197669 0.01952672
0.024622522 -0.011285323 0.016086966
0.025535053 -0.011235423 0.016254812
0.026261259 -0.011110533 0.020777613
0.027324283 -0.011132115 0.02106604
0.02843871 -0.01117235 0.018727601
0.030030556 -0.011011204 0.022708148
0.031142499 -0.011050564 0.018012345
0.032996289 -0.011342475 0.015019536
0.032575227 -0.010858408 0.024735928
0.035569903 -0.011179113 0.015131623
0.010193021 -0.010193021 0.016063124
0.011229686 -0.010208806 0.017573237
0.012333769 -0.010278141 0.016353369
0.013178377 -0.010137213 0.015645415
0.014283866 -0.010202761 0.016326368
0.015020424 -0.010013616 0.022757381
0.017274441 -0.010161435 0.019756496
0.018371891 -0.010206606 0.016051918
0.019279258 -0.010146977 0.015392482
0.02010276 -0.01005138 0.023865193
0.021216417 -0.010103055 0.016752183
0.022184914 -0.010084053 0.018600255
0.02328245 -0.010122804 0.020325959
0.024400704 -0.01016696 0.018570542
0.025422649 -0.01016906 0.018957108
0.026234508 -0.010090196 0.021241248
0.026879419 -0.0099553401 0.023329884
0.028336706 -0.010120252 0.01748836
0.029352348 -0.010121499 0.021692395
0.032426789 -0.010133372 0.020756483
0.032926176 -0.0099776294 0.016912907
0.034042865 -0.010012607 0.020407856
0.035247035 -0.010070582 0.017367274
0.036368519 -0.010102366 0.015007824
0.0091676777 -0.0091676777 0.01579687
0.011112378 -0.0090919454 0.021181762
0.012123187 -0.0090923896 0.018279821
0.013166485 -0.0091152592 0.016279966
0.014169569 -0.0091090091 0.020738155
0.015147412 -0.0090884473 0.019054979
0.016154705 -0.0090870205 0.02270779
0.017108766 -0.0090575824 0.021511734
0.018181151 -0.0090905754 0.015955418
0.019387996 -0.0091837868 0.020094186
0.020006536 -0.0090029407 0.024231881
0.021307161 -0.0091316411 0.015365183
0.02255716 -0.0092279287 0.015655309
0.023495195 -0.0091937715 0.015458345
0.024475167 -0.0091781877 0.015894234
0.025594508 -0.0092140231 0.017132968
0.026256617 -0.0090888292 0.017860234
0.02850865 -0.0091634952 0.020140767
0.029257102 -0.0090797897 0.019577831
0.029828208 -0.0089484621 0.020814359
0.031493042 -0.0091431411 0.015316039
0.033425331 -0.0091159986 0.017594337
0.034542583 -0.0091436245 0.018270969
0.03666136 -0.0091653401 0.016951591
0.011131736 -0.0080958083 0.018745273
0.012120172 -0.0080801155 0.016988963
0.013190947 -0.0081175063 0.017816275
0.014093554 -0.0080534592 0.021860301
0.015281632 -0.0081502032 0.016448557
0.016253024 -0.0081265122 0.019541442
0.017215287 -0.0081013124 0.016152889
0.018345453 -0.0081535345 0.018246174
0.019319599 -0.008134569 0.019120961
0.021298062 -0.0081135472 0.0169245
0.022273108 -0.008099312 0.01991713
0.022918301 -0.0079715829 0.022494942
0.024155153 -0.0080517177 0.023586988
0.026352908 -0.0081085879 0.017179817
0.027130412 -0.00803864 0.022407979
0.029195169 -0.0080538392 0.019578874
0.030376919 -0.0081005115 0.019088924
0.031394843 -0.0081018955 0.016678363
0.032585979 -0.0081464946 0.020369887
0.033382978 -0.0080928439 0.018397242
0.034569185 -0.0081339255 0.015501976
0.011149688 -0.0070952559 0.016869098
0.012258219 -0.0071506277 0.01884228
0.013169385 -0.007091207 0.016281605
0.014261402 -0.0071307011 0.015987754
0.015332609 -0.0071552177 0.016059428
0.016106606 -0.0070466399 0.017861038
0.017211951 -0.007087274 0.01802972
0.018412089 -0.0071602566 0.018953502
0.018794045 -0.0069241216 0.022946179
0.020210685 -0.00707374 0.024185598
0.021270929 -0.0070903096 0.019482404
0.024179649 -0.0070523978 0.020666987
0.025326286 -0.0070913602 0.019933641
0.026115289 -0.0070310393 0.024529845
0.027312335 -0.0070809755 0.018540382
0.028353119 -0.0070882798 0.018950731
0.02960035 -0.0071449121 0.017001569
0.030212361 -0.0070495512 0.01979506
0.031347312 -0.0070784255 0.017116785
0.032498043 -0.0071089468 0.016846031
0.03341461 -0.0070879473 0.015870512
0.013186555 -0.0060861022 0.015014768
0.014229566 -0.0060983854 0.019912392
0.015179697 -0.0060718791 0.017619789
0.016256392 -0.006096147 0.019201994
0.017231289 -0.0060816314 0.01839596
0.019294674 -0.006093055 0.018075168
0.020051965 -0.0060155899 0.021409869
0.020912508 -0.005975002 0.021407127
0.02214648 -0.0060399491 0.022816628
0.022735503 -0.0059310007 0.030093253
0.024240512 -0.0060601281 0.017430097
0.025243642 -0.0060584741 0.016453832
0.026399495 -0.0060921912 0.019322932
0.027090071 -0.006020016 0.022044927
0.028551806 -0.006118244 0.017783791
0.029333496 -0.0060689994 0.015932024
0.030425159 -0.0060850317 0.016780257
0.031488024 -0.0060944562 0.020399958
0.032406002 -0.0060761254 0.017211378
0.033520229 -0.006094587 0.015968323
0.034735363 -0.0061297701 0.015284628
0.012320567 -0.0051335697 0.016162187
0.013247215 -0.0050950828 0.017355323
0.014288915 -0.0051031839 0.017110139
0.015257901 -0.005085967 0.016645551
0.016131207 -0.0050410023 0.019007713
0.01700509 -0.005001497 0.021539837
0.018116349 -0.0050323191 0.022463351
0.019312695 -0.0050822878 0.01629743
0.020249952 -0.0050624879 0.018901736
0.021188131 -0.0050447928 0.021870613
0.023089087 -0.0050193663 0.01899153
0.024511568 -0.0051065767 0.019232184
0.025185175 -0.0050370349 0.020275921
0.026340285 -0.0050654397 0.017668635
0.027150126 -0.0050278013 0.018858075
0.028351827 -0.005062826 0.017516732
0.029320393 -0.0050552399 0.016856879
0.03084025 -0.0051400415 0.016026914
0.031351533 -0.0050566988 0.018868774
0.032716341 -0.0051119286 0.020809919
0.033463221 -0.0050701848 0.016382098
0.035790954 -0.0051129931 0.016448051
0.013191339 -0.0040588733 0.015649498
0.014201448 -0.0040575569 0.018304974
0.016137509 -0.0040343772 0.01662004
0.017091522 -0.0040215342 0.020151496
0.01803463 -0.0040076952 0.021952331
0.018930212 -0.0039853076 0.021194547
0.020087317 -0.0040174634 0.023408592
0.022015262 -0.0040027751 0.020212352
0.024331124 -0.0040551876 0.015361845
0.025261948 -0.0040419116 0.019254148
0.02661154 -0.0040940829 0.01530841
0.027310211 -0.0040459572 0.017860889
0.028349215 -0.0040498879 0.015741169
0.029712725 -0.0040983069 0.019654781
0.031480554 -0.0040620072 0.015197545
0.032197963 -0.0040247454 0.018014729
0.033492226 -0.004059664 0.015556127
0.034617711 -0.0040726718 0.016840845
0.010207499 -0.0030622499 0.015068054
0.013165484 -0.0030381887 0.015040398
0.014287923 -0.0030616976 0.018354118
0.015178233 -0.0030356466 0.01788938
0.016471243 -0.0030883581 0.016766608
0.017272092 -0.0030480162 0.016886741
0.017946212 -0.0029910353 0.021343648
0.019518483 -0.0030818656 0.015884072
0.020107243 -0.0030160865 0.018488586
0.021118859 -0.0030169797 0.018218338
0.022321125 -0.0030437899 0.017046928
0.022971228 -0.002996247 0.02308318
0.02449234 -0.0030615425 0.015264779
0.025550038 -0.0030660045 0.015895396
0.026218204 -0.0030251774 0.018886447
0.028630843 -0.0030675905 0.017250001
0.029429432 -0.0030444239 0.016809076
0.03142282 -0.0030409181 0.015781522
0.013130037 -0.0020200056 0.021622479
0.014277908 -0.0020397012 0.015819371
0.015033149 -0.0020044199 0.021131217
0.017190548 -0.0020224173 0.017252505
0.018244723 -0.0020271915 0.017981589
0.019153105 -0.0020161162 0.020440102
0.020369422 -0.0020369422 0.016832441
0.02216878 -0.0020153436 0.020578414
0.023246009 -0.0020213921 0.019577146
0.024034038 -0.0020028364 0.023761839
0.025183778 -0.0020147022 0.020374596
0.026321443 -0.0020247265 0.01676929
0.027539549 -0.0020399666 0.015111804
0.029308198 -0.002021255 0.017758042
0.030639783 -0.0020426521 0.016490072
0.013241869 -0.0010186053 0.01511392
0.01412533 -0.0010089522 0.017940193
0.015185011 -0.001012334 0.020473361
0.016171407 -0.0010107129 0.018009961
0.017087143 -0.0010051262 0.023271561
0.017994905 -0.00099971693 0.022879213
0.019130139 -0.0010068493 0.016639739
0.0201589 -0.001007945 0.019780099
0.022085942 -0.0010039065 0.017412633
0.023380637 -0.0010165494 0.01738584
0.024412604 -0.0010171919 0.017115533
0.026324851 -0.0010124943 0.020225525
0.028474865 -0.0010169595 0.0158149
0.029451329 -0.001015563 0.015495837
0.030262472 -0.0010087491 0.015736252
0.031564943 -0.0010182241 0.015295535
0.012233033 0 0.015919656
0.013222103 0 0.016771644
0.016399568 0 0.015182972
0.017252902 0 0.017203987
0.019235507 0 0.01936838
0.020194285 0 0.021509677
0.021239651 0 0.019168735
0.022448998 0 0.015829742
0.023207093 0 0.020673186
0.025155183 0 0.018476158
0.026366068 0 0.01606366
0.026868068 0 0.024286211
0.028563518 0 0.016593575
0.030627396 0 0.015371442
0.013241077 0.0010185444 0.022085816
0.015184096 0.0010122731 0.015233129
0.016349802 0.0010218626 0.01625523
0.01701672 0.0010009835 0.01895842
0.01814731 0.0010081838 0.020369589
0.019080376 0.0010042303 0.018369496
0.019665616 0.00098328071 0.02362895
0.022353828 0.0010160831 0.015172154
0.023082411 0.0010035831 0.019723445
0.024218321 0.0010090967 0.022496074
0.024937544 0.00099750177 0.019230694
0.026391298 0.0010150499 0.015722871
0.028316474 0.0010113027 0.015449941
0.029458383 0.0010158063 0.015057951
0.034255758 0.0010075222 0.016015381
0.0081411963 0.0020352991 0.015825927
0.011159971 0.0020290855 0.017944217
0.01399211 0.001998873 0.025276899
0.015288149 0.0020384199 0.022569209
0.01596947 0.0019961838 0.016645014
0.017361427 0.0020425208 0.015449256
0.020452244 0.0020452244 0.016223401
0.021079548 0.0020075759 0.01863265
0.022152707 0.0020138824 0.020213097
0.023173202 0.002015061 0.020965099
0.02416697 0.0020139141 0.016677111
0.02529484 0.0020235872 0.01565218
0.026421109 0.0020323931 0.01693967
0.027191322 0.002014172 0.021463066
0.028401367 0.0020286692 0.015985042
0.0082449485 0.0030918557 0.01609391
0.011162478 0.0030443121 0.018870384
0.012135418 0.0030338545 0.019210339
0.014178724 0.0030382981 0.020182192
0.015134363 0.0030268726 0.01701194
0.017290734 0.0030513059 0.018568069
0.017861787 0.0029769647 0.024072528
0.019343745 0.0030542754 0.019319147
0.020120641 0.0030180961 0.017489851
0.020870794 0.0029815419 0.021457642
0.022464443 0.0030633332 0.019262999
0.023108436 0.0030141438 0.017312378
0.024169514 0.0030211892 0.017918497
0.025414636 0.0030497564 0.018986821
0.02619922 0.0030229867 0.017280132
0.027312448 0.0030347165 0.015330523
0.029323615 0.0030334773 0.016030639
0.0061361976 0.0040907986 0.015387744
