ply
format ascii 1.0
comment PCL generated
element vertex 1263
property float x
property float y
property float z
element camera 0
property float view_px
property float view_py
property float view_pz
property float x_axisx
property float x_axisy
property float x_axisz
property float y_axisx
property float y_axisy
property float y_axisz
property float z_axisx
property float z_axisy
property float z_axisz
property float focal
property float scalex
property float scaley
property float centerx
property float centery
property int viewportx
property int viewporty
property float k1
property float k2
end_header
0.027142612 -0.022116203 0.0199489
0.02828254 -0.022221996 0.021548897
0.02934733 -0.022263492 0.01984486
0.030151581 -0.022111161 0.021371186
0.031214727 -0.022152387 0.020905793
0.032052234 -0.022035912 0.021945596
0.032454517 -0.021636344 0.023009151
0.034491245 -0.022317864 0.022543281
0.035474762 -0.022298424 0.020670384
-0.030025803 -0.021742823 0.016592205
-0.028925819 -0.021694366 0.016959578
-0.027489068 -0.021380385 0.017642915
-0.025729977 -0.021613181 0.018791169
-0.023745751 -0.021680903 0.016656905
-0.022481084 -0.021459216 0.020234287
-0.021431437 -0.021431437 0.01546964
-0.019483 -0.021533841 0.01875791
-0.018378677 -0.021441789 0.020341665
-0.0175188 -0.021640871 0.017156035
-0.015521084 -0.021729518 0.015260935
-0.014298516 -0.021447774 0.015968233
-0.013020387 -0.021032933 0.02100873
-0.012248361 -0.021434631 0.021886885
-0.011290737 -0.021555044 0.017457157
-0.010168798 -0.021354476 0.017093092
-0.0091601303 -0.021373639 0.018847346
-0.007095424 -0.021286272 0.021479338
-0.006154004 -0.021539014 0.017924488
-0.005061232 -0.021257175 0.019459486
-0.0040690708 -0.021362621 0.018217921
-0.0030471205 -0.021329844 0.020483375
-0.0020131781 -0.021138368 0.022188663
-0.0010075117 -0.021157747 0.020386517
0 -0.021295916 0.018194467
0.0010116524 -0.021244701 0.018121302
0.0020408225 -0.021428635 0.017268687
0.003026844 -0.021187907 0.021189749
0.0040391139 -0.021205347 0.022845447
0.0050243954 -0.021102462 0.024427861
0.0060027656 -0.02100968 0.026691943
0.0071354844 -0.021406453 0.01906839
0.0080648437 -0.021170214 0.02252546
0.0092110839 -0.02149253 0.017215878
0.010106709 -0.021224087 0.022669017
0.011115313 -0.021220142 0.019916296
0.012168749 -0.021295311 0.019525319
0.013174665 -0.021282151 0.021739066
0.014294256 -0.021441385 0.019814283
0.015156901 -0.021219661 0.018498123
0.016241733 -0.021317275 0.023607165
0.01712269 -0.021151558 0.019078463
0.018236334 -0.021275723 0.020755321
0.019256493 -0.021283492 0.019147187
0.02031254 -0.021328166 0.022112668
0.02136248 -0.02136248 0.018510014
0.022344649 -0.021328984 0.020647705
0.023232609 -0.021212382 0.022322714
0.024331087 -0.021289701 0.017505437
0.025404839 -0.021340065 0.017308325
0.026165653 -0.021133797 0.020708323
0.027105223 -0.021081841 0.02182278
0.028645186 -0.021483889 0.016789526
0.029115237 -0.021083448 0.022131026
0.029798558 -0.02085899 0.024482965
0.031369448 -0.021250272 0.023919821
0.031782631 -0.020857351 0.022579789
0.033011563 -0.021007357 0.023497701
0.033808887 -0.020881958 0.022182256
0.034530446 -0.020718267 0.023051053
0.036225356 -0.02113146 0.020862669
0.037416153 -0.021236196 0.015861779
-0.028755995 -0.020539995 0.015698135
-0.027822318 -0.020609124 0.017888218
-0.026661962 -0.020509202 0.018960714
-0.025392879 -0.020314302 0.015414119
-0.024595341 -0.020496119 0.017531961
-0.023499863 -0.020434663 0.018920749
-0.021532508 -0.020507151 0.015058041
-0.02047327 -0.02047327 0.017152309
-0.019330606 -0.020348007 0.015548468
-0.018430298 -0.020478109 0.019930571
-0.01726865 -0.020316059 0.01766929
-0.014263703 -0.020376718 0.016262412
-0.013253893 -0.020390604 0.019282818
-0.012296674 -0.020494455 0.017920792
-0.011201777 -0.020366866 0.018530816
-0.010271768 -0.020543536 0.016315997
-0.0091136275 -0.020252507 0.020116121
-0.0071334126 -0.020381179 0.025452107
-0.0061672125 -0.020557376 0.016830772
-0.0050627925 -0.02025117 0.020192713
-0.0040683728 -0.020341866 0.021313757
-0.0030341733 -0.020227822 0.021314234
-0.0020228135 -0.020228136 0.018756807
-0.0010124515 -0.020249031 0.021972477
0 -0.019895878 0.022484094
0.0010078842 -0.020157682 0.024140477
0.0020073454 -0.020073453 0.023336411
0.0030431252 -0.020287501 0.01826936
0.0040491298 -0.020245649 0.019657403
0.0051212511 -0.020485004 0.015783906
0.006120082 -0.020400273 0.017220438
0.0070873792 -0.020249655 0.02430737
0.0082120039 -0.02053001 0.020823479
0.0090999287 -0.020222064 0.016511798
0.010172533 -0.020345066 0.019993156
0.011183696 -0.020333992 0.019821435
0.012165921 -0.020276533 0.018748641
0.013118584 -0.020182436 0.021790594
0.014188719 -0.020269599 0.018429101
0.015261075 -0.020348102 0.017478079
0.016122106 -0.020152632 0.017525077
0.017060744 -0.020071464 0.022561222
0.018313125 -0.020347916 0.016036928
0.019053217 -0.020056019 0.02440545
0.019963566 -0.019963566 0.018441796
0.02127325 -0.020260237 0.020239592
0.022241814 -0.020219831 0.02150166
0.023036998 -0.020032171 0.021036565
0.024145978 -0.020121649 0.024243236
0.024745559 -0.019796448 0.024652869
0.025529059 -0.019637737 0.032014489
0.027530298 -0.020392813 0.019638151
0.028175941 -0.020125672 0.021967649
0.029071378 -0.020049226 0.022959888
0.030051941 -0.020034626 0.022275537
0.031187089 -0.020120703 0.024457186
0.031940132 -0.019962583 0.022874057
0.033129919 -0.020078739 0.022553831
0.034077261 -0.020045446 0.021893799
0.035099652 -0.020056942 0.021500826
0.036157891 -0.020087717 0.019773543
0.036837526 -0.019912176 0.021369994
-0.029460704 -0.019301841 0.017398179
-0.027707549 -0.019497905 0.017282665
-0.026557732 -0.019407574 0.018209398
-0.025795639 -0.019604685 0.017580062
-0.024583729 -0.019462118 0.018531203
-0.023599213 -0.019495001 0.016174585
-0.02276095 -0.019657185 0.01671204
-0.021524899 -0.019474909 0.016373664
-0.020424655 -0.01940342 0.019563287
-0.017327644 -0.01936619 0.019010186
-0.014294408 -0.019399554 0.018626153
-0.013072696 -0.019106247 0.022353262
-0.011309624 -0.019534804 0.018240809
-0.01019447 -0.019369494 0.017852336
-0.0091558378 -0.019328991 0.016367674
-0.0081935152 -0.019459598 0.017708242
-0.0071082758 -0.019293891 0.018634677
-0.006119729 -0.019379143 0.016101986
-0.0050332611 -0.019126393 0.024555802
-0.004077638 -0.019368781 0.01517725
-0.0030385619 -0.019244226 0.021389931
-0.0020307337 -0.019291971 0.024265021
-0.0010027078 -0.019051448 0.023704886
0 -0.019302625 0.017784834
0.0010124528 -0.019236604 0.017346233
0.0020113657 -0.019107973 0.021877497
0.0040432881 -0.019205619 0.021097094
0.0050439192 -0.019166894 0.019123286
0.0060313023 -0.019099124 0.023458749
0.0071585774 -0.019430423 0.017173141
0.0080941347 -0.019223569 0.018097907
0.0092413295 -0.019509474 0.017731607
0.010090961 -0.019172825 0.021189004
0.011070533 -0.019121829 0.019872546
0.012304743 -0.019482508 0.017314166
0.013096437 -0.019140946 0.019845217
0.014167434 -0.019227231 0.01998964
0.015242843 -0.0193076 0.01952526
0.016072454 -0.019086039 0.017673284
0.017385574 -0.019430937 0.018304318
0.01820692 -0.019218415 0.020809174
0.019157251 -0.019157251 0.018640906
0.020116849 -0.019111007 0.022896826
0.021220904 -0.019199867 0.019852757
0.021958191 -0.018963892 0.020166337
0.023104124 -0.019086014 0.022887677
0.024340052 -0.019269207 0.020719916
0.025072254 -0.019054914 0.023002386
0.026361782 -0.01926438 0.023047358
0.026910137 -0.018936764 0.024307609
0.02813682 -0.019092843 0.022747993
0.029349716 -0.019229125 0.023400068
0.030097483 -0.01906174 0.022618324
0.031028965 -0.019017752 0.020282239
0.03206639 -0.019039419 0.0210554
0.032777362 -0.018871814 0.022240907
0.034201052 -0.019112352 0.021726519
0.034976464 -0.018987224 0.019052148
0.035806287 -0.018897763 0.01997003
-0.030556515 -0.018333908 0.018806279
-0.028687911 -0.018442228 0.017913699
-0.027179066 -0.018119378 0.019740015
-0.026483344 -0.018334622 0.021834314
-0.025455108 -0.018327678 0.020719141
-0.024188163 -0.018141121 0.019360274
-0.023499819 -0.018391162 0.019800961
-0.022387566 -0.0183171 0.021604061
-0.021463506 -0.01839729 0.017300159
-0.020597354 -0.018537618 0.015623212
-0.019092403 -0.018087542 0.023778439
-0.018142201 -0.018142201 0.021127969
-0.016305108 -0.018343246 0.015021622
-0.015513043 -0.018615652 0.019649237
-0.014250033 -0.018321469 0.018920511
-0.013093198 -0.018129043 0.017241776
-0.012310546 -0.018465819 0.017023891
-0.010135968 -0.018244743 0.015077591
-0.0092308857 -0.018461771 0.02226454
-0.0080984794 -0.018221579 0.01615116
-0.0071137864 -0.018292593 0.017418742
-0.0059969155 -0.017990746 0.027871102
-0.0050993194 -0.018357551 0.020465493
-0.0040466785 -0.018210052 0.020027488
-0.0030453082 -0.018271849 0.01678741
-0.0020353538 -0.018318184 0.019126773
-0.001008062 -0.018145118 0.020467043
0 -0.018326087 0.017762512
0.0010126914 -0.018228447 0.01688534
0.0020589882 -0.018530892 0.015910506
0.0030657749 -0.018394649 0.015520424
0.0039918581 -0.017963363 0.022707611
0.0050317105 -0.018114157 0.024509877
0.0060853525 -0.018256057 0.021220058
0.0080634002 -0.01814265 0.025481313
0.0090045249 -0.01800905 0.025821
0.0099277077 -0.017869873 0.027914226
0.011137449 -0.018224917 0.018827528
0.012147613 -0.018221419 0.02303946
0.013025924 -0.018035894 0.020505011
0.014215089 -0.018276542 0.020625055
0.015294818 -0.018353783 0.016191781
0.016158056 -0.018177813 0.021862864
0.017141342 -0.018149655 0.020229578
0.018114816 -0.018114816 0.019107699
0.019039225 -0.018037161 0.024046153
0.020096045 -0.018086441 0.022437125
0.021236122 -0.018202391 0.018565446
0.022332706 -0.018272214 0.020363271
0.023151537 -0.018118596 0.022306502
0.024153139 -0.018114854 0.023908466
0.025205847 -0.01814821 0.020013899
0.025928611 -0.017950578 0.023803771
0.026822979 -0.017881986 0.025404364
0.028529679 -0.018340508 0.018837333
0.029233279 -0.018144794 0.020121992
0.030059023 -0.018035414 0.024127394
0.031442951 -0.018257199 0.020746142
0.031749465 -0.017859073 0.023340911
0.033454251 -0.018247774 0.021757782
0.034739453 -0.018391475 0.020345151
0.034969848 -0.017984493 0.022670984
0.036644712 -0.018322356 0.016089499
-0.031510387 -0.017279889 0.015937865
-0.030576235 -0.017326532 0.021165401
-0.029692832 -0.017406143 0.015579253
-0.028485134 -0.017294547 0.02039513
-0.027551271 -0.017347096 0.019134372
-0.026516255 -0.017337551 0.022006869
-0.025483716 -0.017328927 0.01916483
-0.0243995 -0.01728298 0.021965086
-0.023533152 -0.017394068 0.019024611
-0.022474311 -0.017366514 0.018759638
-0.021633206 -0.017512595 0.016596317
-0.020521713 -0.017443458 0.018375099
-0.019427467 -0.017382471 0.015797228
-0.018466244 -0.017440341 0.018403798
-0.01721357 -0.01721357 0.019111842
-0.016343895 -0.017365389 0.021353871
-0.015291007 -0.017329808 0.020966351
-0.01421323 -0.017258924 0.017363966
-0.013312303 -0.017408395 0.018997192
-0.012322119 -0.017456336 0.016124547
-0.011150052 -0.017231898 0.017782092
-0.010249133 -0.017423527 0.017515332
-0.0092499815 -0.017472187 0.016663671
-0.0082065612 -0.017438943 0.018735439
-0.007116694 -0.017283401 0.017932266
-0.0060772453 -0.017218862 0.021587849
-0.0050809924 -0.017275374 0.017202646
-0.0040281136 -0.017119482 0.024391383
-0.0030582505 -0.017330086 0.015522152
-0.0020285093 -0.017242329 0.020127922
-0.001017493 -0.01729738 0.018982798
0 -0.016694685 0.029753625
0.0010099388 -0.01716896 0.021322161
0.0020162035 -0.017137729 0.018836439
0.003052037 -0.017294876 0.01734969
0.0040147118 -0.017062524 0.025926501
0.0050447471 -0.017152142 0.020467699
0.007197706 -0.017480144 0.018005371
0.0081212902 -0.017257741 0.018175066
0.0090926634 -0.017175032 0.02048853
0.010210156 -0.017357266 0.019488543
0.011187565 -0.017289873 0.017416716
0.012237355 -0.017336253 0.018633366
0.013210191 -0.017274866 0.021676332
0.013964339 -0.016956698 0.023233116
0.0151449 -0.017164221 0.016680539
0.016104303 -0.017110823 0.020745188
0.017050084 -0.017050084 0.018381447
0.018269062 -0.017254114 0.021178961
0.019069048 -0.017061779 0.019764811
0.019932738 -0.016942827 0.019738048
0.021122174 -0.017098904 0.024164438
0.022220047 -0.017170036 0.020852119
0.022724606 -0.016796447 0.025568902
0.024287121 -0.017203378 0.019994766
0.025036821 -0.017025039 0.023883075
0.026130587 -0.017085385 0.022712082
0.027398646 -0.017251 0.020568818
0.02817544 -0.017106516 0.020857006
0.029049672 -0.017029118 0.022749066
0.030450482 -0.017255273 0.02077657
0.031114973 -0.01706305 0.019873738
0.032569077 -0.017302321 0.021740228
0.033109251 -0.017056281 0.019477278
0.034074526 -0.017037263 0.017822117
0.035345364 -0.017167747 0.017041504
-0.035223577 -0.0165758 0.015128523
-0.032628767 -0.016314384 0.015960693
-0.032067236 -0.016550831 0.017178684
-0.030623108 -0.016332325 0.018421382
-0.029456204 -0.016251698 0.017841369
-0.028564634 -0.016322648 0.020202726
-0.027532756 -0.016315708 0.019963056
-0.026278695 -0.016171504 0.019844741
-0.025439205 -0.016281091 0.02074784
-0.024561102 -0.016374068 0.020337433
-0.023271151 -0.016188627 0.019269884
-0.022479296 -0.01634858 0.017544806
-0.02138244 -0.016291382 0.018374622
-0.020609014 -0.016487211 0.015894294
-0.019525439 -0.016442474 0.0177463
-0.017370563 -0.016348764 0.01633805
-0.016336808 -0.016336808 0.018044323
-0.014438887 -0.016501585 0.016586363
-0.013169593 -0.016208731 0.018755585
-0.012269306 -0.016359076 0.016491622
-0.010173445 -0.016277511 0.021366477
-0.0091023706 -0.016181992 0.01997897
-0.0081654973 -0.016330995 0.019322157
-0.0071080448 -0.01624696 0.021540463
-0.0060376637 -0.016100436 0.022979051
-0.0051467023 -0.016469447 0.018130422
-0.004074343 -0.016297372 0.016498178
-0.0020177516 -0.016142013 0.023858666
-0.0010035846 -0.016057353 0.022177309
0 -0.016112968 0.022079885
0.0010025488 -0.016040782 0.025150567
0.0019894817 -0.015915854 0.023493111
0.0030702632 -0.016374737 0.017083436
0.0040124445 -0.016049778 0.024101496
0.0050221165 -0.016070772 0.023077309
0.0060029393 -0.016007837 0.024660438
0.0081382077 -0.016276415 0.015423626
0.0088946018 -0.015812624 0.026435584
0.010065638 -0.01610502 0.019271225
0.011107653 -0.016156588 0.017978847
0.012202074 -0.016269431 0.020559698
0.013032641 -0.016040174 0.020338863
0.014247085 -0.016282383 0.018339962
0.015037778 -0.016040295 0.023939669
0.016281286 -0.016281286 0.015292615
0.017159458 -0.016150078 0.022449583
0.018235879 -0.016209671 0.018965632
0.018984284 -0.015986767 0.023247898
0.020130726 -0.016104581 0.024413407
0.020973573 -0.015979864 0.022390306
0.021874353 -0.015908619 0.024358362
0.023210995 -0.016146779 0.017469406
0.023974331 -0.015982889 0.025154203
0.025202053 -0.016129315 0.017780393
0.025973607 -0.015983758 0.024416804
0.027168389 -0.016099786 0.021276087
0.028120464 -0.016068837 0.022877008
0.029348707 -0.01619239 0.021657556
0.03005443 -0.016029028 0.021823734
0.03111439 -0.016059041 0.022402734
0.032187603 -0.016093802 0.019580364
0.033046514 -0.016022552 0.02047509
0.034420647 -0.016197952 0.016391248
0.035907671 -0.016414935 0.016339213
0.037807941 -0.016349381 0.01536122
0.0424245 -0.016161714 0.016966432
-0.033638861 -0.015290391 0.020137012
-0.032977875 -0.015458378 0.016399562
-0.031908359 -0.015439529 0.015260637
-0.030782823 -0.015391411 0.018034279
-0.029732216 -0.015378732 0.018329293
-0.028546959 -0.015293013 0.018867433
-0.027331868 -0.015184372 0.022591293
-0.026434576 -0.015250716 0.019676387
-0.025557203 -0.015334322 0.019947082
-0.024343045 -0.015214403 0.0219208
-0.023600796 -0.015391824 0.016011089
-0.022395799 -0.015269862 0.0181306
-0.021479063 -0.015342187 0.017597556
-0.020647516 -0.015485638 0.017429411
-0.019314539 -0.01524832 0.016262949
-0.018463351 -0.015386125 0.015631765
-0.017364996 -0.015322055 0.020235837
-0.016260454 -0.015244176 0.016195178
-0.015154314 -0.015154314 0.022870302
-0.014251018 -0.015268948 0.019973725
-0.013139198 -0.015160613 0.018976659
-0.012273415 -0.015341769 0.016907364
-0.011248088 -0.015338302 0.01776132
-0.010080621 -0.015120931 0.021246731
-0.0090994118 -0.015165687 0.022563815
-0.0080629652 -0.01511806 0.020761758
-0.007029837 -0.015063936 0.02300474
-0.0061650956 -0.015412739 0.020008087
-0.0050009727 -0.015002917 0.019813776
-0.0040632826 -0.015237309 0.01866886
-0.0030745817 -0.015372909 0.017109424
-0.0020189215 -0.015141913 0.018572092
-0.0010105059 -0.01515759 0.018718511
0 -0.015148498 0.020180941
0.00099703996 -0.014955599 0.020814568
0.0020119753 -0.015089815 0.024007201
0.003041496 -0.01520748 0.01803562
0.0040425663 -0.015159624 0.018449515
0.0050975434 -0.01529263 0.015865654
0.0060236258 -0.015059064 0.023785472
0.0071283504 -0.015275036 0.017009825
0.010107422 -0.015161133 0.021807134
0.011163668 -0.015223183 0.023584247
0.01208266 -0.015103324 0.022876084
0.01326508 -0.015305861 0.015395701
0.014125695 -0.015134674 0.025576144
0.015254783 -0.015254783 0.015807092
0.016899278 -0.014911128 0.028369129
0.01808315 -0.015069291 0.022059768
0.0192625 -0.015207237 0.018770576
0.020105891 -0.015079418 0.019084722
0.020980708 -0.01498622 0.021613598
0.022125421 -0.015085515 0.025455862
0.02307052 -0.015045992 0.021777987
0.024140138 -0.015087586 0.023988813
0.025307864 -0.015184719 0.023085088
0.025987174 -0.014992601 0.021354586
0.027000295 -0.015000165 0.023563981
0.028434629 -0.015232837 0.020885468
0.02902372 -0.015012269 0.020906091
0.030075548 -0.015037774 0.022457778
0.031467672 -0.015226294 0.023935854
0.032011881 -0.015005569 0.02130726
0.033428442 -0.015194747 0.020501345
0.037546664 -0.015221621 0.017498434
0.043932766 -0.015325382 0.015315682
0.047397431 -0.015126839 0.01934123
-0.033844303 -0.01435819 0.018559784
-0.03284866 -0.014371288 0.018490613
-0.031506289 -0.014228647 0.018032461
-0.030685326 -0.014319818 0.021049976
-0.029607985 -0.01429351 0.018574089
-0.028428677 -0.014214339 0.022467881
-0.027741451 -0.014384456 0.016610563
-0.026503364 -0.014271042 0.020797044
-0.025468277 -0.014262236 0.01977855
-0.024399258 -0.0142329 0.02099818
-0.023541357 -0.014329522 0.016499251
-0.022411207 -0.014261677 0.019227445
-0.021571735 -0.014381156 0.021688581
-0.020581216 -0.014406851 0.01597029
-0.019463163 -0.014341278 0.018650472
-0.018574595 -0.014446908 0.015779257
-0.017183367 -0.014151008 0.021090001
-0.01622393 -0.014195938 0.025671095
-0.015255247 -0.01423823 0.018682748
-0.014099689 -0.014099689 0.020340919
-0.013183934 -0.014198082 0.018685997
-0.012255522 -0.014298109 0.016616493
-0.011262508 -0.014334101 0.017811626
-0.010177785 -0.014248898 0.017422915
-0.0091353273 -0.014210509 0.019787759
-0.0081309574 -0.014229176 0.017839193
-0.0070978603 -0.014195721 0.020642728
-0.0050145257 -0.014040672 0.026128292
-0.00409558 -0.014334531 0.016574413
-0.0030127049 -0.014059289 0.020840287
-0.0020394574 -0.014276201 0.020304382
-0.0010113897 -0.014159456 0.019865841
0 -0.01418936 0.019475877
0.0010270509 -0.014378712 0.015746385
0.00293757 -0.013708659 0.030614555
0.0040619439 -0.014216804 0.021205455
0.0051302994 -0.014364839 0.015672117
0.0060281921 -0.014065783 0.019961119
0.0071861469 -0.014372294 0.017157584
0.0090996874 -0.014155069 0.021834761
0.010160118 -0.014224165 0.017764062
0.011078908 -0.014100429 0.01971221
0.012126148 -0.014147172 0.019125998
0.014161077 -0.014161077 0.016272753
0.015217796 -0.014203276 0.019851953
0.016007649 -0.014006693 0.025159627
0.016928751 -0.013941325 0.024669975
0.018204222 -0.014158839 0.02038151
0.019006334 -0.014004668 0.022521853
0.020321941 -0.014225359 0.020766228
0.021008162 -0.014005441 0.024560899
0.022144821 -0.014092159 0.023219049
0.022775955 -0.013863625 0.026574016
0.024282465 -0.014164771 0.020219594
0.025144411 -0.014080871 0.017199814
0.026130233 -0.014070125 0.021356523
0.027331049 -0.014171655 0.0205504
0.027952086 -0.013976043 0.024437457
0.02905277 -0.014025475 0.020762116
0.030362649 -0.014169236 0.024039745
0.031041078 -0.014018551 0.019903779
0.032485161 -0.014212258 0.019729823
0.034550916 -0.014226847 0.019308835
0.037175097 -0.014066254 0.015849501
0.043759529 -0.014247289 0.015268564
0.047683273 -0.014203528 0.0167768
0.047829729 -0.013950338 0.017207533
-0.038186356 -0.013416828 0.015122622
-0.031740613 -0.01331058 0.018471479
-0.030540219 -0.013234095 0.018329114
-0.029397178 -0.013178046 0.018332452
-0.028562136 -0.013260992 0.025193393
-0.027430207 -0.013207136 0.019773841
-0.026175119 -0.013087559 0.02174753
-0.025494745 -0.013257267 0.01939097
-0.024300564 -0.013162806 0.01871258
-0.023283048 -0.013159984 0.020881355
-0.02260319 -0.01335643 0.016527295
-0.02144191 -0.013273563 0.015531391
-0.019563112 -0.013385288 0.016728431
-0.018370137 -0.013267321 0.017290473
-0.017230356 -0.013176155 0.018510103
-0.01621555 -0.013175135 0.020290166
-0.015100322 -0.013086946 0.019975424
-0.014059095 -0.013054874 0.024070114
-0.012170297 -0.013184489 0.016179264
-0.011199794 -0.01323612 0.022126287
-0.010125029 -0.013162537 0.020105034
-0.0090044923 -0.013006489 0.021787852
-0.0081691761 -0.01327491 0.017645687
-0.0070246672 -0.01304581 0.020815104
-0.0060542934 -0.013117636 0.019450933
-0.0050850278 -0.013221072 0.017940372
-0.0040537543 -0.013174701 0.02110979
-0.0030239283 -0.013103689 0.020817697
-0.0020100111 -0.013065073 0.023523867
-0.0010187882 -0.013244246 0.016430289
0 -0.013140501 0.023377895
0.00099812832 -0.012975669 0.024864823
0.0020123268 -0.013080125 0.019062877
0.0030306927 -0.013133002 0.020037621
0.0040569231 -0.013185 0.019720316
0.0050356677 -0.013092736 0.017915964
0.0059994506 -0.012998809 0.02515465
0.0071116812 -0.013207408 0.017792761
0.0081389537 -0.013225799 0.018693745
0.0091574825 -0.013227474 0.016450554
0.010133558 -0.013173625 0.018886566
0.011026901 -0.013031793 0.019592017
0.012107432 -0.013116385 0.025146127
0.013848481 -0.012859304 0.03069675
0.015112197 -0.013097237 0.025066733
0.01601484 -0.013012058 0.018195361
0.017070951 -0.013054256 0.020653367
0.019054199 -0.013037084 0.017191052
0.020156873 -0.013101968 0.021181881
0.021216972 -0.013134316 0.01852569
0.022173457 -0.013102497 0.020154029
0.023395 -0.013223261 0.017036051
0.023720935 -0.012848839 0.030076414
0.025087219 -0.013045354 0.024183959
0.026450247 -0.013225123 0.019023031
0.027152753 -0.013073547 0.023324877
0.028218282 -0.013101345 0.022129327
0.029074598 -0.01303344 0.023243785
0.030086244 -0.013037372 0.019593179
0.031194367 -0.013081509 0.019686729
0.033584569 -0.013230285 0.015354395
0.038092051 -0.013383694 0.015001237
0.038556866 -0.013190507 0.018735081
0.044795439 -0.012940905 0.017635584
0.046287719 -0.013081312 0.019858688
0.049120381 -0.013303437 0.015684158
0.049921274 -0.01324442 0.01560688
-0.043434594 -0.012409884 0.016923785
-0.041909162 -0.012266097 0.019038051
-0.040909354 -0.012272807 0.015404075
-0.03876736 -0.012242325 0.016358048
-0.038247697 -0.012404658 0.016677439
-0.036927365 -0.012309122 0.017312527
-0.036043383 -0.012357731 0.015640587
-0.033857781 -0.012311921 0.016643316
-0.031905077 -0.012350352 0.017233282
-0.030502476 -0.012200991 0.018014491
-0.029692095 -0.012286385 0.017531514
-0.028329426 -0.012141182 0.018288493
-0.027516071 -0.012229365 0.019726723
-0.02645072 -0.012208025 0.021627575
-0.025113501 -0.012054481 0.019441128
-0.024347717 -0.012173858 0.020344555
-0.023213485 -0.012111383 0.021515757
-0.020596722 -0.012358033 0.015242368
-0.019380718 -0.012240454 0.015463412
-0.01838691 -0.012257939 0.018509537
-0.017514305 -0.012363039 0.015223294
-0.016266508 -0.012199881 0.016467214
-0.015279645 -0.012223716 0.020707846
-0.014180428 -0.012154654 0.025241494
-0.013206663 -0.012190765 0.0189327
-0.012226805 -0.012226805 0.020469397
-0.011319289 -0.012348315 0.015011936
-0.0099936016 -0.011992322 0.01971671
-0.009186713 -0.012248951 0.016939342
-0.0080615906 -0.012092386 0.023496956
-0.0070478236 -0.012081983 0.022523016
-0.0061070533 -0.012214107 0.021573275
-0.0050613517 -0.012147244 0.018209904
-0.0040533398 -0.012160019 0.015675098
-0.0030492132 -0.012196853 0.022598922
-0.0020360099 -0.012216059 0.0163095
-0.0010107616 -0.012129139 0.018942654
0.00099845009 -0.011981402 0.021819413
0.0020118747 -0.012071247 0.023379445
0.0030495788 -0.012198315 0.018113285
0.0040277429 -0.012083228 0.015870124
0.0059304452 -0.01186089 0.031811386
0.0071369773 -0.012234818 0.015770972
0.0082395235 -0.012359286 0.017598331
0.0091401003 -0.0121868 0.015013814
0.010283016 -0.012339619 0.01589033
0.011236857 -0.012258389 0.018716186
0.012008222 -0.012008222 0.024246454
0.013037985 -0.012035063 0.021223158
0.014057633 -0.012049399 0.023901433
0.01519377 -0.012155016 0.018003643
0.016381485 -0.012286115 0.015882611
0.017241016 -0.012170129 0.020728081
0.018284984 -0.01218999 0.017267466
0.019325197 -0.012205387 0.021088719
0.020141399 -0.012084839 0.019065142
0.020952767 -0.011973009 0.025100499
0.022440271 -0.012240148 0.01596868
0.023402419 -0.012209957 0.017475486
0.024122858 -0.012061429 0.022169679
0.025508894 -0.012244269 0.015353411
0.026224591 -0.012103657 0.018489271
0.027158143 -0.012070286 0.021526694
0.02847413 -0.012203198 0.018628955
0.029157946 -0.012065357 0.02064386
0.029950008 -0.011980003 0.023144126
0.031692214 -0.012267954 0.01728189
0.032187119 -0.01207017 0.016598076
0.033968028 -0.01235201 0.016886264
0.03452551 -0.012185474 0.017490089
0.038006492 -0.01200205 0.019367576
0.044465806 -0.012127038 0.015533477
0.046291284 -0.012075988 0.016614795
0.048380561 -0.01209514 0.015830606
0.049086209 -0.012021113 0.016479194
-0.040737588 -0.011202837 0.01615724
-0.040339269 -0.011377743 0.016355336
-0.037794545 -0.011236216 0.0157561
-0.036718011 -0.011219392 0.020494819
-0.03575905 -0.011238559 0.019357741
-0.033759963 -0.011253321 0.015089393
-0.031858373 -0.011304584 0.018012404
-0.030856585 -0.011314081 0.018550664
-0.02968364 -0.011259312 0.018724293
-0.028503403 -0.011197765 0.017730415
-0.027445791 -0.011181618 0.023158073
-0.026523778 -0.011221599 0.018247277
-0.025407299 -0.011179212 0.018858522
-0.024571415 -0.011261899 0.019226432
-0.023264134 -0.011126325 0.020421982
-0.022357525 -0.011178763 0.019986659
-0.021636851 -0.011333589 0.017067611
-0.02041922 -0.011230571 0.019431829
-0.019343933 -0.01119912 0.018313885
-0.018430972 -0.011263371 0.017122567
-0.016327119 -0.011224894 0.018587857
-0.015136386 -0.011100017 0.023608595
-0.014137954 -0.011108392 0.022294998
-0.013173554 -0.011146854 0.020664245
-0.012314684 -0.011288459 0.017229646
-0.009112238 -0.011137179 0.021084249
-0.0081479736 -0.011203463 0.018282115
-0.0070880037 -0.011138291 0.02001375
-0.0060650739 -0.011119302 0.019039422
-0.0050736004 -0.011161922 0.019235134
-0.0040304698 -0.011083792 0.022014946
-0.0030757627 -0.011277797 0.015554637
-0.0020272569 -0.011149913 0.018626899
0 -0.011040094 0.021528453
0.0010119923 -0.011131915 0.020455599
0.0020043391 -0.011023865 0.022600949
0.0040504611 -0.011138769 0.024282306
0.0050443457 -0.011097561 0.018528104
0.006055566 -0.011101871 0.018527508
0.0071767368 -0.01127773 0.015942723
0.0090617817 -0.011075511 0.022059262
0.010050988 -0.011056086 0.025104612
0.011026542 -0.011026542 0.023470074
0.013018329 -0.011015509 0.026293248
0.014030498 -0.011023963 0.018445164
0.014985634 -0.010989465 0.025216669
0.015960719 -0.010972994 0.023776919
0.017125266 -0.011081055 0.016539782
0.018426588 -0.011260692 0.0159778
0.019149592 -0.011086605 0.020822287
0.020049091 -0.011027 0.019407451
0.021335185 -0.011175573 0.020330161
0.022033503 -0.011016752 0.024587721
0.022900239 -0.010952288 0.022929043
0.024337778 -0.011154815 0.020832717
0.025387529 -0.011170513 0.018615186
0.026515871 -0.011218254 0.016860515
0.027261889 -0.011106696 0.021990418
0.028295698 -0.011116167 0.020770639
0.029211156 -0.011080094 0.016803235
0.030253019 -0.011092774 0.019741982
0.030984251 -0.010994412 0.020054251
0.033282861 -0.011094287 0.016158551
0.037352148 -0.011104694 0.01529479
0.038465753 -0.011134823 0.016820371
0.043404825 -0.01110356 0.01835078
0.044522278 -0.01113057 0.018055081
0.045235455 -0.011057556 0.017565519
0.046453342 -0.011108408 0.017681688
0.048137072 -0.011031413 0.015855879
-0.043628912 -0.010387836 0.015034646
-0.041959614 -0.010234052 0.017803609
-0.037576918 -0.010155924 0.021122783
-0.036735702 -0.010204362 0.021321803
-0.035455324 -0.010130093 0.019577652
-0.034245241 -0.01007213 0.02242434
-0.033806268 -0.010244323 0.021505624
-0.032702893 -0.010219654 0.016551703
-0.031702194 -0.010226515 0.018110782
-0.030645236 -0.010215079 0.018697768
-0.029440504 -0.010151898 0.017631173
-0.028554641 -0.010198086 0.018096447
-0.027508341 -0.010188274 0.021675646
-0.026220273 -0.01008472 0.022238821
-0.025337476 -0.01013499 0.025211245
-0.024261972 -0.010109155 0.020517677
-0.023387428 -0.010168447 0.019254833
-0.022494229 -0.01022465 0.018965423
-0.021487422 -0.010232106 0.015096426
-0.020524055 -0.010262027 0.016656905
-0.019322062 -0.010169506 0.020190448
-0.018575767 -0.010319871 0.015345514
-0.017301358 -0.01017727 0.017222971
-0.016328186 -0.010205116 0.017638922
-0.015194027 -0.010129351 0.017762452
-0.01421052 -0.010150371 0.019177377
-0.013186298 -0.010143306 0.023321867
-0.012112962 -0.010094135 0.015865982
-0.01012538 -0.01012538 0.020133764
-0.0090195946 -0.010021772 0.021110028
-0.0081372941 -0.010171617 0.020135999
-0.0070880419 -0.010125774 0.021429032
-0.0060555972 -0.010092663 0.0202353
-0.005075152 -0.010150304 0.019187599
-0.0040990016 -0.010247504 0.017310798
-0.0030659069 -0.01021969 0.017286807
-0.0020286092 -0.010143045 0.020017892
-0.0010216897 -0.010216897 0.018238127
0 -0.010079169 0.019018441
0.0010162647 -0.010162647 0.015287846
0.0020269023 -0.010134512 0.018237948
0.0030697472 -0.01023249 0.01540941
0.0040470697 -0.010117674 0.02126056
0.0051010563 -0.010202113 0.015018493
0.0061020409 -0.010170069 0.01667583
0.0070752427 -0.01010749 0.020990223
0.0081065781 -0.010133223 0.02025789
0.0092071714 -0.010230191 0.018721133
0.01005774 -0.01005774 0.021474391
0.011018552 -0.010016865 0.025250852
0.01236594 -0.01030495 0.015281022
0.013191842 -0.010147571 0.015231103
0.014255721 -0.010182658 0.017130494
0.015187631 -0.010125088 0.018298507
0.015764909 -0.0098530687 0.023193717
0.01708808 -0.010051812 0.024141431
0.018340105 -0.010188947 0.016758293
0.019109199 -0.010057473 0.018972665
0.019934731 -0.0099673653 0.027225792
0.020992709 -0.0099965287 0.02101326
0.022350954 -0.010159524 0.015581369
0.023400025 -0.010173924 0.018281162
0.025737906 -0.0098991944 0.028881282
0.027140511 -0.010052041 0.01946184
0.028314572 -0.010112347 0.017804563
0.029338244 -0.010116636 0.021886915
0.030247696 -0.010082565 0.020399749
0.032699004 -0.010218439 0.017353773
0.03628765 -0.010079904 0.015906364
0.03850745 -0.01013354 0.016481668
0.045001235 -0.010000274 0.02032885
0.046798982 -0.010173691 0.015502751
0.046991713 -0.0099982368 0.017532498
0.048241857 -0.010050387 0.017648369
0.049849652 -0.0099699302 0.015339285
-0.041909866 -0.0091997264 0.017440796
-0.040902767 -0.0092031229 0.019483268
-0.039982226 -0.0092266677 0.016842693
-0.038744941 -0.0091764331 0.018157572
-0.036617644 -0.009154411 0.018845916
-0.035189599 -0.0090487543 0.021813601
-0.034614865 -0.0091627575 0.020020336
-0.033527579 -0.0091438852 0.020510495
-0.031607974 -0.0091765085 0.018354952
-0.030415434 -0.0091246301 0.01702106
-0.029616799 -0.0091914209 0.018945485
-0.028331567 -0.0091065755 0.020797521
-0.027422931 -0.0091409767 0.019317001
-0.02628825 -0.0090997787 0.022069812
-0.025348099 -0.0091253156 0.021148533
-0.024654798 -0.0092455493 0.016770452
-0.023692561 -0.0092710024 0.017332852
-0.022530377 -0.0092169717 0.015606642
-0.021449065 -0.0091924556 0.01558435
-0.019142723 -0.0090676062 0.020459563
-0.016261907 -0.0091473237 0.017932355
-0.015169342 -0.009101605 0.020200193
-0.014090247 -0.0090580164 0.023979247
-0.013032626 -0.0090225879 0.021154195
-0.011219627 -0.0091796946 0.016477406
-0.010063821 -0.0090574389 0.020305574
-0.0091534164 -0.0091534164 0.01952669
-0.0081226621 -0.0091379946 0.019064546
-0.0071494738 -0.0091921808 0.016164184
-0.0061199577 -0.0091799367 0.016481787
-0.0050510713 -0.0090919277 0.019798309
-0.0040643779 -0.009144851 0.021261841
-0.0030609686 -0.0091829058 0.016995221
-0.0020149527 -0.0090672867 0.020531148
-0.0010052912 -0.0090476209 0.020945877
0 -0.0091420151 0.015337557
0.00098761276 -0.0088885147 0.026432276
0.0020140992 -0.009063446 0.020116597
0.0030798048 -0.0092394138 0.015142083
0.004060233 -0.0091355238 0.017872632
0.0050013922 -0.0090025058 0.023918927
0.0060625398 -0.0090938099 0.02111423
0.0070142238 -0.009018288 0.019162953
0.008165082 -0.0091857165 0.017041057
0.0090086116 -0.0090086116 0.022866488
0.01002482 -0.0090223374 0.018452972
0.011134498 -0.0091100438 0.020377398
0.012164134 -0.0091231 0.016914934
0.012964508 -0.0089754295 0.022494644
0.014107306 -0.0090689827 0.022517115
0.01494273 -0.0089656375 0.024513185
0.01622195 -0.0091248471 0.021026641
0.017182279 -0.0090965005 0.019782007
0.018143879 -0.0090719396 0.016783655
0.019346345 -0.0091640586 0.02097103
0.020062549 -0.009028147 0.023111612
0.022245148 -0.0091002882 0.021328211
0.023442002 -0.0091729574 0.016383439
0.024225434 -0.0090845376 0.020056427
0.026367329 -0.0091271522 0.016156942
0.027358884 -0.009119628 0.017881632
0.028529083 -0.0091700628 0.019848853
0.029331159 -0.0091027739 0.018556356
0.030105408 -0.0090316227 0.017118335
0.036814358 -0.0092035895 0.015251607
0.038385186 -0.0090912282 0.016628265
0.039525546 -0.0091212802 0.015410811
0.044541106 -0.0091106808 0.016481817
0.045617223 -0.0091234446 0.017834246
0.046121981 -0.0090238657 0.019282699
0.047478206 -0.0090915719 0.015935123
0.048950661 -0.0091782492 0.01609996
-0.039671972 -0.0081378398 0.020387083
-0.039122894 -0.0082363989 0.017138928
-0.037426129 -0.0080921361 0.020129561
-0.036768209 -0.0081707137 0.01972127
-0.035844017 -0.0081929173 0.020041376
-0.034534074 -0.0081256637 0.018612117
-0.033832096 -0.0082017202 0.01761955
-0.031675592 -0.0081743458 0.01769951
-0.030593948 -0.0081583867 0.020134568
-0.029505512 -0.008139452 0.018776268
-0.028455665 -0.00813019 0.01977694
-0.027468722 -0.0081388801 0.022480905
-0.026541132 -0.0081665022 0.019978255
-0.025498509 -0.0081595229 0.017937005
-0.024634195 -0.0082113985 0.016454905
-0.023065284 -0.0080227079 0.024223447
-0.022218203 -0.0080793463 0.021816343
-0.021093506 -0.0080356216 0.025642484
-0.020286459 -0.0081145838 0.021067023
-0.019040765 -0.0080171637 0.021215737
-0.018460559 -0.008204692 0.016199887
-0.016352437 -0.0081762187 0.018006414
-0.015337373 -0.0081799328 0.020323098
-0.013026981 -0.008016604 0.025688618
-0.01231395 -0.0082093002 0.015648395
-0.011182012 -0.008132373 0.016990155
-0.010166742 -0.0081333937 0.019770384
-0.0091390917 -0.0081236372 0.021941304
-0.0081162667 -0.0081162667 0.018675447
-0.0071251062 -0.0081429789 0.018310577
-0.0060496954 -0.0080662603 0.018091887
-0.0050479867 -0.0080767786 0.018604577
-0.0040799556 -0.0081599113 0.016995758
-0.003023091 -0.0080615757 0.021165907
-0.0020415173 -0.0081660692 0.01802054
-0.0010090023 -0.0080720186 0.020532429
0 -0.0080588758 0.019142538
0.0010085145 -0.0080681164 0.023995131
0.0020005505 -0.008002202 0.025531173
0.0040660566 -0.0081321131 0.017605394
0.0049315556 -0.007890489 0.027821511
0.0059776446 -0.0079701934 0.026284456
0.0070909718 -0.0081039676 0.023308843
0.009016769 -0.0080149053 0.024062306
0.0099826902 -0.0079861525 0.026303589
0.011125703 -0.0080914199 0.018964648
0.011988551 -0.0079923673 0.021376342
0.01301906 -0.0080117295 0.023105145
0.014096966 -0.0080554094 0.021762818
0.015268838 -0.0081433803 0.016789734
0.016101956 -0.0080509782 0.023318142
0.017170763 -0.0080803595 0.017200559
0.018446306 -0.0081983581 0.016005009
0.019265221 -0.0081116725 0.020265788
0.022198116 -0.0080720419 0.021280617
0.023170272 -0.008059225 0.018112838
0.024309965 -0.0081033213 0.021006793
0.026297551 -0.008091554 0.018031508
0.027059793 -0.0080177169 0.023454159
0.029341526 -0.0080942139 0.017560154
0.036470938 -0.0081046531 0.015786707
0.037217245 -0.0080469716 0.015661746
0.038693935 -0.0081460914 0.016993284
0.042523507 -0.0080997152 0.01741299
0.04478341 -0.0081424387 0.017040163
0.046224695 -0.0080390777 0.015334904
0.047497768 -0.0080847265 0.019689888
0.048011869 -0.0080019785 0.017141938
-0.0386842 -0.007126037 0.01767382
-0.03728636 -0.0070541757 0.018624961
-0.036643136 -0.007125054 0.019697875
-0.035358895 -0.0070717786 0.021038353
-0.034672 -0.0071383528 0.018175572
-0.034050219 -0.007222774 0.017984927
-0.032766413 -0.0071676527 0.018255949
-0.031705331 -0.0071592685 0.020934045
-0.03046588 -0.0071087056 0.018627763
-0.029598588 -0.0071444865 0.016247541
-0.028673261 -0.0071683154 0.020775288
-0.027565258 -0.007146548 0.017688781
-0.026089981 -0.0070242258 0.023094088
-0.025397781 -0.0071113785 0.021564364
-0.023445737 -0.0071356585 0.01750499
-0.022283522 -0.0070902118 0.02320531
-0.020994766 -0.0069982554 0.024718255
-0.019076366 -0.0070281345 0.024480879
-0.018475672 -0.0071849832 0.017516166
-0.014061799 -0.0070308996 0.023859799
-0.013090963 -0.0070489803 0.024885505
-0.012038838 -0.0070226556 0.019110441
-0.010023993 -0.0070167948 0.022038549
-0.008156145 -0.0071366266 0.020163596
-0.0060766786 -0.0070894584 0.022140473
-0.0051104031 -0.0071545644 0.024677217
-0.0040806341 -0.00714111 0.015826076
-0.0030334748 -0.0070781074 0.016728669
-0.0020280788 -0.0070982752 0.020898968
-0.0010040504 -0.0070283529 0.021508843
0 -0.0070966566 0.01668039
0.0010188652 -0.0071320562 0.018021584
0.0020051557 -0.0070180451 0.022898644
0.0030382301 -0.0070892032 0.019703746
0.0040494213 -0.007086487 0.016581982
0.005063768 -0.0070892749 0.019946575
0.0060485154 -0.0070566013 0.023115814
0.0069982838 -0.0069982838 0.020042658
0.0081039676 -0.0070909718 0.01770106
0.009069304 -0.0070539028 0.018334031
0.010183674 -0.0071285721 0.01730901
0.010963324 -0.0069766603 0.023645967
0.012164617 -0.0070960261 0.021962345
0.013144036 -0.007077558 0.017061561
0.015277778 -0.0071296296 0.01752159
0.016118301 -0.0070517571 0.017568618
0.018406607 -0.0071581248 0.019075304
0.018988429 -0.0069957371 0.018853903
0.020479821 -0.0071679372 0.018802881
0.021263259 -0.0070877527 0.019628495
0.022092013 -0.0070292768 0.018018812
0.023505934 -0.0071539795 0.016628534
0.02412999 -0.0070379139 0.021494627
0.026349394 -0.0070940675 0.020928234
0.027363248 -0.0070941756 0.017786086
0.028291814 -0.0070729535 0.019826502
0.029498072 -0.0071202246 0.018412292
0.030301733 -0.007070404 0.018603444
0.035526827 -0.0071053649 0.016616881
0.035969861 -0.0069941394 0.016030341
0.043930568 -0.0071514877 0.015421003
0.044742819 -0.0071181757 0.015683502
0.046552807 -0.0070841229 0.018557787
0.047354829 -0.0070528467 0.016372681
0.050825398 -0.0071155559 0.015148133
0.052625783 -0.0069505749 0.016294122
0.054759338 -0.0070984326 0.015587956
0.056610543 -0.0070763179 0.017412931
-0.038761869 -0.0061202953 0.015198171
-0.038105499 -0.0061792699 0.015298814
-0.036498148 -0.0060830242 0.019650102
-0.035472989 -0.0060810838 0.020942032
-0.034487505 -0.00608603 0.021189541
-0.03359843 -0.0061088051 0.018107206
-0.032806627 -0.0061512431 0.019204766
-0.031691536 -0.006133846 0.015537024
-0.030600257 -0.0061200513 0.016439766
-0.029650921 -0.0061346735 0.017707646
-0.028337233 -0.0060722642 0.019997567
-0.027384063 -0.0060853474 0.017251521
-0.026472263 -0.0061089834 0.019298583
-0.025064133 -0.006015392 0.027139097
-0.024373429 -0.0060933572 0.020643473
-0.02326189 -0.0060683191 0.024542093
-0.02212639 -0.0060344702 0.024472445
-0.021290967 -0.0060831336 0.021455854
-0.019262275 -0.006082824 0.020438075
-0.016475704 -0.0061783888 0.015814841
-0.015416395 -0.0061665582 0.015792012
-0.014327665 -0.0061404281 0.016451478
-0.01311922 -0.0060550245 0.017695993
-0.012172423 -0.0060862117 0.020988196
-0.010004895 -0.0060029365 0.026013374
-0.0091536045 -0.0061024032 0.018749267
-0.0081847599 -0.0061385697 0.01636079
-0.006111308 -0.006111308 0.016337782
-0.0030218922 -0.0060437843 0.023508877
-0.0010132975 -0.0060797846 0.016778558
0 -0.00601725 0.021997541
0.0020099925 -0.0060299775 0.020899832
0.0030535341 -0.0061070682 0.018777847
0.0040676314 -0.0061014472 0.018387288
0.0050697653 -0.0060837185 0.0172894
0.0070804972 -0.0060689976 0.019482642
0.0081472108 -0.0061104079 0.017311662
0.010097538 -0.006058523 0.015749365
0.011196398 -0.0061071264 0.016406596
0.012174617 -0.0060873083 0.016795456
0.013120805 -0.006055756 0.017037868
0.0143234 -0.0061385999 0.017231405
0.015155937 -0.0060623745 0.018253416
0.016250543 -0.0060939537 0.019348204
0.017296528 -0.006104657 0.016860902
0.018243998 -0.0060813329 0.016542375
0.019377986 -0.0061193639 0.016321212
0.020300409 -0.0060901227 0.016441017
0.023466285 -0.0061216396 0.017383963
0.024382193 -0.0060955482 0.015068769
0.026459606 -0.0061060633 0.018398136
0.027224749 -0.0060499446 0.020049691
0.028952589 -0.0059901909 0.021185935
0.044651289 -0.0060888119 0.016314387
0.045792595 -0.0061056791 0.015413254
0.046652194 -0.0060850685 0.016450733
0.047333959 -0.0060426332 0.01513806
0.054820251 -0.0060911388 0.015395224
0.05674129 -0.0060794237 0.016012758
0.057562515 -0.0060592121 0.016345233
0.060541574 -0.0060541574 0.015338868
-0.036514696 -0.0050714854 0.022225499
-0.035571989 -0.0050817127 0.023882508
-0.034269731 -0.0050396663 0.025734454
-0.033431139 -0.0050653238 0.024791867
-0.032628823 -0.0050982535 0.020104915
-0.031302538 -0.0050487961 0.020814031
-0.031053657 -0.0051756096 0.01721862
-0.029653698 -0.0051127067 0.02425155
-0.0284489 -0.0050801607 0.020484865
-0.027207611 -0.0050384467 0.028104573
-0.026245372 -0.0050471867 0.022438675
-0.025005661 -0.0050011319 0.02933076
-0.024448758 -0.0050934912 0.021739691
-0.023294888 -0.0050641061 0.020890743
-0.022554396 -0.0051259995 0.015584975
-0.021461757 -0.0051099421 0.019313365
-0.020432636 -0.005108159 0.021605462
-0.019282607 -0.0050743707 0.019342512
-0.017286764 -0.0050843423 0.022733808
-0.016402189 -0.0051256842 0.018739641
-0.01545348 -0.0051511601 0.019618809
-0.013342279 -0.0051316461 0.021401674
-0.012074843 -0.0050311848 0.020964533
-0.0092587024 -0.0051437235 0.015385121
-0.0081528546 -0.005095534 0.020750344
-0.0071878494 -0.0051341783 0.015898794
-0.0061137127 -0.0050947606 0.019093931
-0.0050793891 -0.0050793891 0.017485052
-0.0040658205 -0.0050822757 0.019924283
-0.0030841844 -0.0051403074 0.015803248
-0.0010249777 -0.0051248879 0.016047478
0 -0.0050233877 0.016120702
0.0010134542 -0.0050672707 0.020071536
0.0020232312 -0.0050580781 0.01685217
0.0050361035 -0.0050361035 0.019387186
0.0060317772 -0.0050264811 0.0174357
0.0071276808 -0.0050912006 0.016288906
0.0081016496 -0.005063531 0.018190056
0.010128362 -0.0050641811 0.019699633
0.011058675 -0.0050266706 0.020039618
0.013321682 -0.0051237238 0.015064031
0.014283798 -0.0051013562 0.017256379
0.015294458 -0.0050981524 0.015670687
0.016247204 -0.0050772508 0.016107827
0.018363032 -0.0051008421 0.016981483
0.019246737 -0.0050649303 0.017686009
0.021211144 -0.0050502722 0.021432251
0.022204829 -0.005046552 0.015706778
0.024749657 -0.0051561785 0.015264034
0.025340347 -0.0050680693 0.017793179
0.03306058 -0.0051657152 0.01650697
0.044943467 -0.0051072123 0.015417963
0.045398805 -0.0050443118 0.016455889
0.050938051 -0.005093805 0.017036825
0.05599473 -0.0050904304 0.015704691
-0.035638884 -0.0040730154 0.016715765
-0.034444198 -0.0040522586 0.018274635
-0.03361455 -0.0040744911 0.016309619
-0.032194078 -0.0040242597 0.020567387
-0.031520132 -0.0040671136 0.021057755
-0.030427052 -0.0040569403 0.019699752
-0.029324738 -0.0040447917 0.015714049
-0.02778654 -0.0041165245 0.016157538
-0.025628591 -0.0041005746 0.017744958
-0.024284381 -0.0040473971 0.020450026
-0.023193337 -0.0040336237 0.020014763
-0.02248672 -0.0040884949 0.017752767
-0.021133741 -0.0040254747 0.020482987
-0.020449044 -0.0040898086 0.015345901
-0.01827145 -0.0040603224 0.016884506
-0.015097475 -0.0040259934 0.019424409
-0.012206093 -0.0040686978 0.016333282
-0.011347276 -0.0041262824 0.016992718
-0.0091799619 -0.0040799831 0.015044242
-0.0040530092 -0.0040530092 0.016242266
-0.0010146411 -0.0040585645 0.016145498
0.0040393523 -0.0040393523 0.024607301
0.0071739694 -0.004099411 0.015850455
0.010191428 -0.0040765707 0.015433431
0.012279958 -0.0040933196 0.016308933
0.013190546 -0.0040586297 0.015673846
0.018291185 -0.004064708 0.016251057
0.022300549 -0.0040546451 0.015025318
0.02433843 -0.0040564048 0.015240103
0.025427774 -0.004068444 0.016600937
0.026578318 -0.0040889718 0.01581949
0.043888126 -0.0040826164 0.015810549
0.044400707 -0.0040364279 0.015782088
0.053044379 -0.0040033492 0.015401214
0.056565542 -0.0040403958 0.015071779
-0.035992566 -0.0030850773 0.015379846
-0.034599874 -0.0030529301 0.021458626
-0.033288412 -0.0030262191 0.022240877
-0.032472901 -0.0030443345 0.021102726
-0.031224944 -0.0030217688 0.022274047
-0.030371165 -0.0030371165 0.01914081
-0.029505266 -0.0030522689 0.021357983
-0.028482674 -0.0030517152 0.019318014
-0.027491488 -0.0030546098 0.016644567
-0.026485559 -0.0030560261 0.0230726
-0.025124053 -0.0030148863 0.022078246
-0.023709072 -0.0030924878 0.01614362
-0.022361308 -0.0030492693 0.019506544
-0.020448271 -0.0030672406 0.019219369
-0.01633087 -0.0030620382 0.017156541
-0.015309845 -0.0030619691 0.018011212
-0.013339777 -0.0030784099 0.01601547
-0.012254629 -0.0030636573 0.017357558
-0.011305956 -0.0030834426 0.015237719
-0.0030898261 -0.0030898261 0.016511291
0 -0.0030685111 0.015975147
0.003052694 -0.003052694 0.016730756
0.010150812 -0.0030452434 0.017335564
0.014285364 -0.0030611495 0.018427223
0.047494438 -0.0030315598 0.015090883
-0.033635855 -0.0020385366 0.017549902
-0.032537591 -0.0020335994 0.018720448
-0.03132531 -0.0020209879 0.019015908
-0.030200168 -0.0020133446 0.024832368
-0.028047116 -0.0020033654 0.024403393
-0.027598681 -0.0020443469 0.016839534
-0.026734348 -0.0020564883 0.01625815
-0.025588471 -0.0020470778 0.016577184
-0.024481034 -0.0020400861 0.019111723
-0.023212405 -0.0020184699 0.022742629
-0.022632219 -0.0020574746 0.016024381
-0.017420458 -0.0020494657 0.015303046
-0.015363095 -0.0020484128 0.01757279
-0.014222454 -0.0020317791 0.017696261
-0.012259942 -0.0020433236 0.017187148
-0.008190454 -0.0020476135 0.015996605
-0.0051105125 -0.0020442051 0.015071809
0.011237745 -0.0020432263 0.015237957
0.023506427 -0.0020440372 0.015048146
0.024519015 -0.0020432512 0.015678912
0.026397381 -0.0020305677 0.015601009
0.042404044 -0.0020192401 0.019186944
0.045268144 -0.0020119175 0.015414774
0.056320768 -0.0020114561 0.01574865
0.059431907 -0.002014641 0.01568377
0.06036659 -0.0020122197 0.015123278
-0.049912974 -0.0010398537 0.015280604
-0.03238035 -0.0010118859 0.020130754
-0.031595096 -0.0010191967 0.018554091
-0.030694794 -0.0010231598 0.015760541
-0.029050978 -0.0010017578 0.020555705
-0.028619634 -0.0010221298 0.018345267
-0.027185006 -0.001006852 0.021098256
-0.026547918 -0.0010210738 0.017815977
-0.017494153 -0.0010290678 0.015278846
-0.012303938 -0.0010253282 0.015017599
-0.011302887 -0.0010275352 0.016554683
0.045013469 -0.0010230334 0.016340435
0.056564767 -0.0010100851 0.015966177
-0.044808257 0 0.016025275
-0.031664927 0 0.016876251
-0.030525241 0 0.018581986
-0.028473254 0 0.0219706
-0.027431481 0 0.020368308
-0.026413528 0 0.022854209
0.04743598 0 0.015963346
0.048971549 0 0.016801208
0.055159144 0 0.015783638
0.058446217 0 0.016244739
-0.049299814 0.0010270795 0.015014172
-0.046729673 0.0010158625 0.016573638
-0.030714858 0.0010238286 0.018995404
-0.029334925 0.0010115491 0.022282928
-0.027390329 0.0010144566 0.018664807
-0.026546335 0.0010210129 0.018521816
-0.019540954 0.0010284713 0.0186131
0.047666382 0.0010141784 0.016253978
0.06337522 0.001022181 0.015039861
-0.029542761 0.0020374318 0.01814726
-0.028510367 0.0020364549 0.017298907
-0.027470561 0.0020348562 0.018202245
-0.024526319 0.0020438598 0.015605867
-0.023873257 0.0020759352 0.016265601
-0.044828348 0.0030564782 0.015273273
-0.02858997 0.0030632112 0.016057819
-0.027208967 0.0030232186 0.022363126
-0.02664692 0.0030746446 0.019981682
-0.04721513 0.0041056634 0.015676379
-0.045192719 0.004108429 0.015030533
-0.026714366 0.0041099023 0.015576094
-0.025449073 0.0040718517 0.015992373
