ply
format ascii 1.0
comment PCL generated
element vertex 1596
property float x
property float y
property float z
element camera 0
property float view_px
property float view_py
property float view_pz
property float x_axisx
property float x_axisy
property float x_axisz
property float y_axisx
property float y_axisy
property float y_axisz
property float z_axisx
property float z_axisy
property float z_axisz
property float focal
property float scalex
property float scaley
property float centerx
property float centery
property int viewportx
property int viewporty
property float k1
property float k2
end_header
83.067047 62.230438 228.86119
84.608238 62.930683 226.30008
85.525734 63.171173 225.58096
85.834549 62.952183 226.70888
86.447159 62.962826 226.91031
87.059402 62.973396 227.10977
87.377121 62.754353 228.23506
87.991127 62.764805 228.43143
88.893936 63.004623 227.69644
89.504707 63.014858 227.88812
89.83094 62.795643 229.00877
90.725166 63.035069 228.26566
90.776436 62.586464 230.31645
91.390724 62.596413 230.50195
92.004646 62.606266 230.68552
93.161713 63.074356 228.99779
93.500679 62.854801 230.11153
94.111031 62.864307 230.28868
94.456734 62.644669 231.4008
95.068871 62.654018 231.57487
95.161942 62.205303 233.62363
96.292084 62.672386 231.9175
97.411972 63.139214 230.20677
98.017769 63.14806 230.3721
99.122147 63.61446 228.65366
99.96933 63.851814 227.87241
100.32221 63.63147 228.9726
100.92175 63.639824 229.12936
101.2814 63.419376 230.22789
101.64566 63.198883 231.32593
102.01454 62.978355 232.42342
102.85242 63.214962 231.62953
103.2256 62.994286 232.72469
104.5125 63.687664 230.03278
105.33471 63.923759 229.22998
106.37407 64.388153 227.47647
106.96353 64.395447 227.61571
107.98759 64.859436 225.85532
108.1416 64.409714 227.88908
108.73024 64.416702 228.02322
108.68832 63.738609 231.00768
109.49141 63.973751 230.18892
109.87897 63.752224 231.27083
111.08211 64.443573 228.54311
111.46915 64.221825 229.6217
112.65224 64.912766 226.88644
113.42959 65.147125 226.05412
113.8159 64.925079 227.12779
114.01636 64.474869 229.15567
114.41442 64.252747 230.22858
114.81715 64.030579 231.3008
115.22453 63.808361 232.37236
116.54033 64.726128 228.65958
117.12315 64.731659 228.77026
117.70576 64.737114 228.87932
118.4616 64.970406 228.02869
118.87037 64.747726 229.09265
118.94667 64.069206 232.07388
119.36965 63.846458 233.13733
120.12471 64.079376 232.2803
120.3909 63.628654 234.30164
120.98431 63.633549 234.40166
121.73395 63.866142 233.53906
122.63251 64.326385 231.71259
123.21809 64.330933 231.8067
123.95262 64.563148 230.93698
124.38875 64.33979 231.9902
125.11809 64.571785 231.11662
125.41692 64.120605 233.13083
125.86472 63.897072 234.18121
126.31721 63.673489 235.23074
127.0435 63.905121 234.35057
127.36841 63.453773 236.36246
127.96229 63.457615 236.44394
128.6833 63.688953 235.55846
129.14963 63.465038 236.60222
129.86551 63.696178 235.713
130.81647 64.382294 232.88893
131.39999 64.385658 232.96144
132.09856 64.616447 232.06552
132.67941 64.619637 232.13472
133.14981 64.395264 233.16992
133.51703 63.943352 235.17195
133.99931 63.71888 236.20549
134.28017 63.039448 239.17468
134.97806 63.269756 238.26964
135.57277 63.272549 238.33133
136.35902 63.730095 236.45337
137.04211 63.960114 235.54224
137.72026 64.190033 234.62912
138.12778 63.737698 236.62337
138.80334 63.967461 235.70703
139.3065 63.742386 236.72917
139.89574 63.744617 236.77983
140.48489 63.74678 236.82896
141.15048 63.9762 235.90582
141.66298 63.750877 236.92276
142.32359 63.980133 235.99625
142.91005 63.981995 236.03923
143.36273 63.529167 238.02376
143.95389 63.530891 238.06412
144.60699 63.759846 237.1311
145.19562 63.761425 237.1683
145.78418 63.762936 237.20401
146.48225 64.218933 235.29367
147.01352 63.993015 236.29857
147.59952 63.994305 236.32971
148.13792 63.768269 237.33203
148.72624 63.769428 237.36034
149.27179 63.543266 238.36005
149.82213 63.317043 239.35851
150.37726 63.090763 240.35565
150.97266 63.091656 240.37833
151.53496 62.865246 241.37277
152.19406 63.320469 239.44583
152.84351 63.775623 237.51706
153.40572 63.549007 238.50703
154.01961 63.776775 237.54858
154.62868 64.004478 236.58852
155.19565 63.777664 237.57419
155.76744 63.550785 238.55852
156.37164 63.778282 237.59392
156.93683 63.324055 239.54913
157.54759 63.778633 237.60777
158.12898 63.551487 238.58632
158.71935 63.551506 238.58954
159.30797 63.324219 239.5652
159.90076 63.3241 239.56548
160.49968 62.869465 241.51198
161.09729 62.869198 241.50932
161.69493 62.868866 241.50514
162.28227 63.095695 240.52565
162.86482 63.322453 239.54478
163.45767 63.321918 239.53619
164.06807 63.094093 240.49977
164.6833 62.866184 241.46184
165.32574 62.410976 243.39583
165.92833 62.410156 243.38109
166.53094 62.409275 243.36478
167.10402 62.635563 242.37363
167.67232 62.861797 241.38109
168.27022 62.86071 241.36044
168.90497 62.632294 242.31145
169.623 61.949272 245.20682
170.23068 61.947956 245.18127
170.79436 62.173836 244.18138
171.30681 62.626953 242.20741
171.90739 62.625439 242.17766
172.45676 62.851151 241.17387
173.00136 63.076801 240.16885
173.59729 63.075089 240.13481
174.2518 62.845985 241.07132
174.97214 62.389481 242.97794
175.44882 62.84219 240.99538
176.11319 62.612835 241.92676
176.78246 62.383408 242.85623
177.52721 61.926517 244.75513
178.13571 61.924248 244.70963
178.74429 61.921909 244.66255
179.35295 61.919495 244.61394
180.04195 61.689602 245.53429
180.57056 61.914425 244.51208
181.00934 62.3666 242.51866
181.78853 61.909046 244.40401
182.48756 61.678806 245.31725
183.0069 61.903351 244.28969
183.61624 61.900379 244.23022
184.32286 61.669868 245.13806
184.93484 61.666733 245.07518
185.64894 61.436024 245.97913
186.15916 61.660213 244.94469
186.98518 61.201782 246.81287
187.49323 61.425823 245.7755
188.21992 61.194714 246.67175
189.06572 60.735916 248.53293
189.80479 60.504559 249.42455
190.31094 60.728271 248.38103
190.93378 60.724319 248.30264
191.55676 60.720272 248.22266
192.05367 60.94379 247.17546
192.54587 61.167244 246.12729
193.16446 61.162964 246.04305
194.05023 60.703213 247.88626
194.674 60.698723 247.79803
195.29794 60.69413 247.70822
195.92204 60.689461 247.61668
196.83276 60.229153 249.4498
197.31644 60.45203 248.39149
197.79546 60.67485 247.33224
198.5708 60.441971 248.19611
199.3512 60.20895 249.05753
199.98129 60.203659 248.95523
200.76939 59.970383 249.81207
201.56256 59.736965 250.6664
202.19814 59.731331 250.55818
202.66882 59.953537 249.48869
203.46994 59.719749 250.33661
203.7662 60.169792 248.3058
204.57022 59.935776 249.14981
204.85474 60.385727 247.11775
205.66165 60.151474 247.95787
206.29395 60.145157 247.83844
207.10866 59.910625 248.67368
207.7439 59.90406 248.55031
208.75351 59.441082 250.33606
209.20462 59.662441 249.25317
209.84306 59.655529 249.12399
210.67618 59.420273 249.94699
211.31761 59.413113 249.81372
211.95932 59.405842 249.67862
212.39954 59.626785 248.58928
213.03935 59.61932 248.45108
213.67947 59.611736 248.31108
214.52899 59.375626 249.12012
215.38371 59.139355 249.92615
216.67172 58.445946 252.62874
217.32535 58.43774 252.47864
218.41714 57.972363 254.22375
219.29771 57.735298 255.01669
219.73581 57.955246 253.91168
220.16931 58.175152 252.80589
221.5134 57.480328 255.48438
221.94757 57.699989 254.37473
222.37718 57.91959 253.26436
222.80222 58.139141 252.15327
223.46133 58.129837 251.98528
223.87967 58.349247 250.87218
225.02423 57.881992 252.58585
225.6869 57.872288 252.4113
226.59851 57.633511 253.17593
227.51544 57.394554 253.93721
228.43771 57.155392 254.69514
229.10934 57.145096 254.51053
229.78137 57.134686 254.32384
230.71475 56.895008 255.07291
231.12665 57.113491 253.94434
231.534 57.331928 252.81516
231.93677 57.550339 251.68529
232.87672 57.310123 252.42461
233.54871 57.299042 252.22623
234.49698 57.058472 252.95918
235.1723 57.047134 252.75581
236.12888 56.806221 253.48227
237.65755 56.106102 256.06735
238.62994 55.864723 256.78488
239.31946 55.852737 256.56909
240.0094 55.840652 256.35107
240.9931 55.598789 257.05887
240.5031 56.505352 253.12685
240.59015 56.952644 251.05186
242.17184 56.250973 253.60577
242.85895 56.238506 253.37833
243.24062 56.455875 252.22472
244.54282 55.983398 253.83975
245.5446 55.740658 254.52693
245.92503 55.957855 253.36742
247.2486 55.48481 254.96877
247.94577 55.471786 254.72516
248.96432 55.228531 255.39795
249.66484 55.215363 255.14886
250.69174 54.971886 255.81432
251.72408 54.728279 256.47562
252.76187 54.484543 257.13278
253.47148 54.471138 256.87152
253.8454 54.688171 255.69479
254.21461 54.905319 254.51755
254.92024 54.891998 254.25114
255.62617 54.878723 253.98233
257.02487 54.404129 255.52994
258.08524 54.160095 256.1629
258.79965 54.14679 255.88408
260.22195 53.671944 257.41568
260.94193 53.658691 257.1301
261.66211 53.645538 256.8421
262.38251 53.632484 256.55176
263.83093 53.157593 258.06363
264.92319 52.913689 258.66769
265.65158 52.900932 258.36703
266.38 52.888359 258.06396
267.85675 52.413643 259.55481
268.96695 52.170181 260.14191
268.94461 52.620628 258.03656
269.67554 52.60891 257.72299
270.79056 52.366158 258.30084
270.75012 52.817719 256.1962
271.47794 52.806946 255.8768
272.59735 52.565094 256.44556
61.25531 61.799923 223.61731
62.669205 62.265987 222.11372
63.298615 62.274822 222.38998
62.773865 61.59795 225.347
63.028969 61.378799 226.51793
63.289261 61.159973 227.689
63.177483 60.712887 229.75771
64.574554 61.180187 228.23436
65.961525 61.647511 226.70468
66.96875 61.886417 226.06937
68.337959 62.353775 224.52815
68.96785 62.364418 224.78627
69.959679 62.603477 224.13849
70.586838 62.614315 224.39142
71.570808 62.853443 223.73645
71.840683 62.636242 224.89107
72.819244 62.875435 224.22997
72.744415 62.430386 226.29118
73.373154 62.441612 226.53473
74.001656 62.452881 226.77617
74.971725 62.692108 226.10381
75.597176 62.703377 226.34013
76.222366 62.714657 226.57436
76.847244 62.725937 226.80653
77.471825 62.737213 227.03665
78.425293 62.976177 226.3483
78.393341 62.532051 228.40796
79.343651 62.770931 227.71457
79.966927 62.782112 227.93645
80.270714 62.565727 229.07623
80.895805 62.576874 229.29489
81.834686 62.815411 228.58975
82.456543 62.826397 228.80348
83.387184 63.06469 228.09171
84.925667 63.757435 225.52765
86.144661 64.222595 223.88168
86.750053 64.233063 224.08235
87.355095 64.243469 224.28107
87.959763 64.253799 224.47786
87.681709 63.582771 227.45792
88.001518 63.366013 228.58243
88.615067 63.376266 228.77657
89.514877 63.613396 228.03801
89.556908 63.169575 230.09061
90.735153 63.633369 228.41507
91.065559 63.416367 229.53381
92.230621 63.879761 227.85069
92.562798 63.662609 228.96637
93.98642 64.352341 226.34047
94.048645 63.908302 228.3884
94.387199 63.690971 229.50061
94.201813 63.020382 232.4873
94.816315 63.02964 232.66191
94.91185 62.585728 234.71228
96.044273 63.047844 233.00545
96.912094 63.283249 232.23421
98.026505 63.744904 230.51891
98.881294 63.979923 229.7406
100.2247 64.66748 227.07475
100.33056 64.223099 229.11757
100.93001 64.231331 229.27412
101.28957 64.013199 230.37308
101.65375 63.795017 231.47153
102.02254 63.576805 232.56943
102.86029 63.810875 231.77472
103.23339 63.592506 232.87032
104.29284 64.052383 231.12366
105.56694 64.738098 228.42506
106.60368 65.197495 226.66959
107.19058 65.204651 226.80807
108.42945 65.889633 224.09618
108.79346 65.67054 225.17973
109.37463 65.677338 225.31203
109.1153 64.780457 229.24762
109.49812 64.561295 230.3306
109.8856 64.342072 231.41295
110.68314 64.574432 230.58897
110.87473 64.12928 232.62244
112.26279 65.038673 228.93295
113.43565 65.722023 226.19212
113.62897 65.276604 228.22112
114.21279 65.282539 228.33972
114.60835 65.062729 229.41255
115.00856 64.842865 230.48474
115.41342 64.622948 231.5563
116.54587 65.305328 228.79788
117.12859 65.310776 228.90842
117.88696 65.541687 228.0591
118.46684 65.546936 228.16599
119.04651 65.552078 228.2713
119.12035 64.880714 231.25372
119.54082 64.660294 232.31717
120.12964 64.665253 232.41943
120.39578 64.219284 234.4418
120.83029 63.998711 235.50293
121.58224 64.228821 234.64006
122.32915 64.458801 233.77477
123.22256 64.914001 231.94467
123.95697 65.143723 231.07428
124.5397 65.148003 231.16479
125.26651 65.377487 230.29018
125.56287 64.931061 232.30504
125.86877 64.484619 234.31981
126.45816 64.488617 234.40518
127.04739 64.492523 234.48901
127.24013 63.820747 237.46722
128.09573 64.274902 235.61765
128.81422 64.503754 234.73117
129.1532 64.057022 236.74139
129.869 64.285683 235.85153
130.69983 64.739365 233.99258
131.40326 64.967796 233.09811
131.98657 64.971024 233.16904
132.68251 65.199249 232.27063
133.26317 65.202301 232.33827
133.73582 64.980225 233.37274
134.10771 64.533035 235.37486
134.48917 64.085823 237.37654
135.18213 64.313652 236.47032
135.67371 64.091354 237.50084
136.45744 64.544014 235.62144
137.13803 64.771561 234.70943
137.81369 64.999023 233.79544
138.3073 64.776428 234.82022
138.89178 64.778748 234.87338
139.47621 64.780998 234.92503
140.06055 64.783173 234.9752
140.56589 64.560333 235.99507
141.22897 64.787308 235.07112
141.81308 64.789261 235.11682
142.39713 64.791153 235.16106
142.98109 64.792969 235.20381
143.43132 64.344925 237.18929
143.95555 64.121719 238.20168
144.60858 64.348236 237.26805
145.13753 64.124908 238.27779
145.72844 64.126404 238.31358
146.42885 64.577545 236.40224
147.01482 64.578888 236.43481
147.60075 64.580154 236.46593
148.1391 64.356506 237.46878
148.72734 64.357643 237.49706
149.27283 64.133873 238.4973
149.8231 63.910046 239.49626
150.37817 63.68615 240.49397
150.93802 63.462196 241.49037
151.50266 63.23819 242.48543
152.13342 63.463764 241.53133
152.78761 63.914082 239.60158
153.35458 63.689869 240.59224
153.99667 64.140045 238.65919
154.60808 64.365326 237.69861
155.19601 64.365723 237.71068
155.78395 64.366074 237.72125
156.38567 64.591141 236.75607
156.94838 64.141739 238.71234
157.5387 64.141869 238.71858
158.12901 64.141945 238.7233
158.71931 64.141953 238.72653
159.30788 63.91708 239.70274
159.90125 63.692146 240.67746
160.49638 63.691956 240.67628
161.097 63.466885 241.64799
161.69455 63.466557 241.64383
162.29213 63.466167 241.63815
162.88972 63.46571 241.631
163.48734 63.465179 241.62236
164.10248 63.239769 242.58644
164.70253 63.239105 242.57475
165.34729 62.788723 244.50986
165.95222 62.787918 244.49503
166.53003 63.011875 243.50468
167.10304 63.235767 242.513
167.67126 63.45961 241.51991
168.2691 63.458538 241.49931
168.90378 63.232552 242.4509
169.5433 63.006493 243.40077
170.14609 63.005207 243.37546
170.70488 63.228725 242.3752
171.2589 63.452179 241.37369
171.80814 63.675571 240.37091
172.40388 63.674026 240.3399
172.94601 63.897305 239.33449
173.59555 63.670731 240.27338
174.3085 63.21917 242.18312
175.03116 62.767509 244.09076
175.57353 62.990501 243.07928
176.1769 62.988506 243.03879
176.8485 62.761509 243.96872
177.52499 62.534424 244.89679
178.06044 62.757141 243.87971
178.66652 62.754852 243.83289
179.27271 62.752483 243.78453
179.9592 62.525059 244.70569
180.48531 62.74752 243.68318
181.00668 62.969925 242.65956
181.78578 62.517246 244.54608
182.57465 62.064445 246.43016
183.09631 62.286613 245.40187
183.70799 62.283699 245.34218
184.41695 62.05563 246.25046
184.83212 62.502678 244.24889
185.44173 62.499516 244.1848
185.84261 62.94648 242.18163
186.66127 62.492977 244.0518
187.27124 62.489578 243.98297
188.10466 62.035835 245.84836
188.94791 61.581947 247.71103
189.80099 61.127918 249.57094
190.30707 61.349277 248.52693
190.92981 61.345398 248.44862
191.5527 61.341419 248.36871
192.04955 61.562584 247.32108
192.54169 61.783684 246.27246
193.29124 61.554226 247.15373
193.91232 61.549911 247.06763
194.66949 61.320217 247.94466
195.29333 61.315708 247.8549
195.91736 61.3111 247.76353
196.54155 61.306408 247.67049
197.16592 61.30162 247.57578
197.79048 61.296745 247.4794
198.7162 60.840965 249.30652
199.49892 60.610432 250.16824
199.82063 61.056091 248.14209
200.60619 60.82534 249.00003
201.39679 60.594452 249.85547
202.02985 60.588932 249.7478
202.66309 60.583305 249.63843
203.63162 60.126488 251.44676
204.10022 60.34618 250.37383
204.56418 60.565823 249.29999
204.84865 61.011024 247.26692
205.30087 61.230579 246.19185
205.92818 61.224403 246.0735
206.73788 60.992443 246.91042
207.55272 60.76033 247.74464
208.55974 60.302319 249.53224
209.19781 60.29562 249.405
209.83614 60.288826 249.27594
210.47473 60.281918 249.14511
211.31042 60.049057 249.96657
211.95203 60.041897 249.83165
212.5939 60.034626 249.69493
213.23605 60.027248 249.55637
213.67188 60.245705 248.46405
214.31216 60.238121 248.32242
215.16429 60.004414 249.12982
216.23563 59.544495 250.88458
217.10068 59.31041 251.68552
218.18983 58.85004 253.4326
219.28915 58.389431 255.17549
219.50334 58.833241 253.12209
220.16058 58.824665 252.96396
221.04692 58.589741 253.75072
221.70732 58.580894 253.58815
221.9007 59.024525 251.53241
222.32069 59.241837 250.4222
222.73611 59.459103 249.31128
223.38806 59.449909 249.14345
224.5275 58.987728 250.85985
225.18509 58.97823 250.6868
226.09158 58.742107 251.45355
227.00342 58.505787 252.21703
227.92056 58.269283 252.97711
228.33118 58.485825 251.85432
228.99567 58.475658 251.66997
229.92143 58.238678 252.42195
230.85257 58.001507 253.17049
231.52319 57.990917 252.97858
232.19424 57.980206 252.78462
232.86571 57.969376 252.58858
233.81091 57.731541 253.32524
234.76151 57.493515 254.0583
235.43921 57.482273 253.85445
236.67892 57.01688 255.51357
237.92905 56.551216 257.16745
238.90381 56.31237 257.8851
239.5957 56.300484 257.66879
240.28802 56.288498 257.45026
240.68752 56.503639 256.3009
240.19507 57.400597 252.36749
240.87622 57.388538 252.14636
241.85858 57.149017 252.84924
242.54309 57.136742 252.62286
243.53386 56.896908 253.31885
244.83838 56.42942 254.93452
245.53172 56.416756 254.69894
246.22546 56.404037 254.46104
247.23552 56.163605 255.14197
247.93265 56.150703 254.89865
249.27197 55.682285 256.49167
249.97498 55.669182 256.24197
251.0043 55.428219 256.90744
251.38216 55.642872 255.73553
252.74832 55.17382 257.31021
253.12442 55.388481 256.13449
253.49583 55.603207 254.95833
254.20113 55.58997 254.69455
254.90675 55.57674 254.42841
255.2691 55.791679 253.24898
255.97287 55.778538 252.97908
257.37433 55.30891 254.5249
258.43494 55.067467 255.15634
259.85468 54.597618 256.69049
260.5722 54.584465 256.40616
261.64877 54.342949 257.02448
262.00787 54.558418 255.83034
263.0899 54.317024 256.4418
263.8107 54.30426 256.14688
264.90063 54.063011 256.75049
265.62418 54.050507 256.44977
267.09589 53.58078 257.94418
268.2012 53.339813 258.5343
268.9324 53.327805 258.22324
269.66357 53.316025 257.90985
271.16302 52.846779 259.38293
270.73874 53.522224 256.38269
271.8562 53.28241 256.95563
272.58664 53.271835 256.63297
61.264076 62.415108 223.77821
62.678177 62.876362 222.27327
63.307861 62.885273 222.54942
62.398727 61.989616 226.40311
63.421066 62.225353 225.78371
64.058777 62.235123 226.05713
63.94223 61.792908 228.12477
64.959702 62.029198 227.49707
67.088409 62.943615 224.16435
67.718582 62.953983 224.42638
69.082771 63.416348 222.88162
69.707733 63.426899 223.13744
69.970612 63.211723 224.29562
70.238403 62.996731 225.4538
71.224945 63.233425 224.79898
71.143074 62.792976 226.86246
72.126694 63.029758 226.20248
72.755707 63.040886 226.44789
73.037689 62.826492 227.60156
74.013031 63.063267 226.93237
75.66658 63.750946 224.43449
76.287003 63.762054 224.66866
77.243858 63.998558 223.98656
78.195374 64.23497 223.30052
78.478172 64.020676 224.44276
78.765709 63.806458 225.58481
78.7313 63.367092 227.64455
79.030746 63.153042 228.78703
79.656494 63.164173 229.00955
79.962784 62.950176 230.15062
80.59034 62.961262 230.36989
81.845718 63.422279 228.74242
82.467529 63.433167 228.95587
82.779884 63.219086 230.09138
84.629761 64.129333 226.60202
85.851097 64.589531 224.95541
86.458916 64.599937 225.15668
87.06636 64.610268 225.356
87.970032 64.845215 224.62514
87.986107 64.406052 226.67775
88.01178 63.966969 228.73166
88.336159 63.752537 229.85617
89.238335 63.987144 229.11754
89.56694 63.77261 230.23973
90.74501 64.2314 228.56276
91.075356 64.016708 229.68188
91.686966 64.026382 229.86615
92.29821 64.03595 230.04852
93.724091 64.718277 227.42133
93.788788 64.279037 229.47096
94.396454 64.288269 229.64696
94.73954 64.073227 230.75912
95.087227 63.85815 231.87083
95.180244 63.418945 233.92152
96.310013 63.87603 232.21259
96.920891 63.884819 232.38066
97.531418 63.893494 232.54692
98.640381 64.349983 230.82704
99.986046 65.030151 228.15988
100.33879 64.814453 229.26085
101.1801 65.046432 228.4731
101.77664 65.054398 228.62708
102.13583 64.838478 229.72464
102.49963 64.622513 230.8217
103.33231 64.853973 230.02501
103.93008 64.861557 230.17258
104.75478 65.092705 229.37057
106.02377 65.770966 226.66884
106.38853 65.554504 227.75784
107.19762 65.785156 226.94716
108.21892 66.239204 225.1835
108.58531 66.022469 226.26804
109.16882 66.029182 226.40073
109.12198 65.365402 229.38724
109.50474 65.14856 230.4706
110.09727 65.155083 230.60048
110.89223 65.38488 229.77528
111.28156 65.167816 230.85526
112.66454 66.067352 227.16226
113.63699 66.519981 225.3735
113.8278 66.079285 227.40303
114.21863 65.861862 228.47693
114.80212 65.867599 228.59377
115.19983 65.650055 229.66591
115.60217 65.432442 230.73741
116.73201 66.107437 227.97668
117.31221 66.112778 228.08662
117.89219 66.118034 228.19498
118.64537 66.346291 227.34247
118.70963 65.682114 230.32631
118.95683 65.241028 232.35103
119.37967 65.022957 233.41536
119.80717 64.80484 234.47891
120.07814 64.363678 236.50311
120.83502 64.591431 235.64192
121.58687 64.819046 234.77834
122.48759 65.26947 232.94977
123.22694 65.496811 232.08104
123.96126 65.724037 231.20999
124.5439 65.728256 231.30037
125.12639 65.732391 231.38921
125.42511 65.290741 233.4055
125.87276 65.071899 234.45682
126.32511 64.853012 235.50728
126.64764 64.411285 237.52242
126.97972 63.969521 239.53737
127.84004 64.418808 237.68726
128.56328 64.645203 236.8008
129.15671 64.648758 236.87897
129.99483 65.097664 235.02129
130.94312 65.769165 232.19333
131.52405 65.7724 232.26538
132.22002 65.99823 231.36787
132.91103 66.223976 230.46826
133.48676 66.226944 230.53528
133.84662 65.784554 232.53857
134.21603 65.342133 234.54149
134.69809 65.122307 235.57449
135.38612 65.347656 234.66711
135.8728 65.127701 235.69763
136.5558 65.352875 234.78677
137.32727 65.800537 232.90349
137.81607 65.580368 233.92975
138.30962 65.360153 234.955
138.89404 65.362427 235.0081
139.31093 64.919556 237.00235
139.81871 64.699173 238.02441
140.41014 64.701263 238.07365
141.07797 64.925804 237.14946
141.74091 65.150253 236.2234
142.39894 65.374619 235.29546
142.98285 65.376404 235.33818
143.43301 64.933136 237.32472
144.02161 64.934799 237.36479
144.54814 64.713928 238.37636
145.19862 64.937912 237.44055
145.90141 65.3843 235.52963
146.59451 65.830582 233.6167
147.12082 65.609428 234.62238
147.70186 65.610664 234.6532
148.18777 65.166946 236.63013
148.6833 64.72319 238.60606
149.23114 64.501816 239.60695
149.82407 64.502808 239.63243
150.41696 64.503738 239.65645
151.00983 64.504593 239.67897
151.56958 64.282967 240.67441
152.19545 64.506119 239.71956
152.78824 64.506775 239.73763
153.32928 64.062546 241.70346
153.97372 64.507896 239.76933
154.56644 64.508362 239.78296
155.15913 64.508759 239.7951
155.76804 64.731491 238.83096
156.3721 64.954163 237.86523
156.95995 64.954361 237.87289
157.54779 64.954498 237.87906
158.13562 64.954559 237.88379
158.72762 65.176971 236.91208
159.31305 65.17691 236.91383
159.89978 64.731987 238.86406
160.49309 64.509399 239.83783
161.09123 64.286743 240.81012
161.6942 64.064018 241.78091
162.30199 63.841232 242.75014
162.90193 63.840775 242.74297
163.48677 64.062668 241.75945
164.08434 64.06208 241.74931
164.70184 63.839012 242.71245
165.34653 63.393459 244.64867
165.92665 63.615093 243.65921
166.50197 63.836658 242.66843
167.10208 63.835735 242.65076
167.67024 64.057182 241.65717
168.23361 64.278564 240.66222
168.86581 64.055016 241.61447
169.54207 63.608952 243.53915
170.14478 63.607685 243.51389
170.70351 63.828812 242.51312
171.21101 64.272339 240.53725
171.7578 64.493355 239.53406
172.40233 64.269371 240.47681
172.94438 64.490265 239.47087
173.59386 64.266129 240.41037
174.3067 63.819424 242.32126
175.02928 63.372616 244.23004
175.57159 63.593231 243.21805
176.17488 63.591278 243.17758
176.77826 63.589241 243.1356
177.45226 63.36462 244.06442
178.0582 63.362434 244.01921
178.66422 63.36018 243.97244
179.27031 63.357857 243.92413
180.03696 62.910316 245.81752
180.48277 63.352974 243.82292
181.00409 63.573013 242.7988
181.78308 63.125206 244.68648
182.57184 62.677273 246.57175
183.09344 62.897083 245.54295
183.61034 63.116844 244.51306
184.31677 62.891258 245.4222
184.72948 63.333534 243.41986
185.2346 63.553112 242.38654
185.735 63.772644 241.35213
186.55113 63.324036 243.22379
187.26782 63.098007 244.12402
188.10115 62.649147 245.99063
188.94429 62.200153 247.85449
189.68074 61.973766 248.74771
190.30325 61.970028 248.67113
190.56189 62.634541 245.69107
191.17741 62.63068 245.61217
191.6669 62.849541 244.56502
192.40894 62.6227 245.44955
193.02492 62.61858 245.36584
193.77454 62.39151 246.24619
194.66507 61.941452 248.08954
195.28882 61.937027 247.99986
195.91275 61.932491 247.90862
196.53685 61.927879 247.81566
197.30673 61.700226 248.68498
197.93362 61.695408 248.58835
198.71117 61.467514 249.45319
199.49377 61.239483 250.3156
199.97076 61.457363 249.25079
200.75864 61.229107 250.10902
201.55156 61.000706 250.96474
202.18694 60.995251 250.8568
202.82253 60.989697 250.74713
203.62584 60.760914 251.59604
204.26431 60.755131 251.48251
204.55824 61.195606 249.44836
205.01747 61.412857 248.37328
205.47206 61.630054 247.29736
206.10168 61.623974 247.17863
207.09586 61.171238 248.97342
207.73085 61.164894 248.8503
208.74017 60.711803 250.63875
209.1911 60.928535 249.55498
209.82932 60.921841 249.4261
210.27344 61.138428 248.3403
211.10657 60.908123 249.16301
211.74561 60.9011 249.02878
212.3849 60.893974 248.89273
213.02451 60.886734 248.75488
213.87099 60.655861 249.56776
214.30457 60.871914 248.47379
215.15656 60.640759 249.28192
216.22772 60.18581 251.03806
217.30902 59.730629 252.79008
218.18159 59.49889 253.58818
219.28075 59.043262 255.33246
219.71866 59.258602 254.22667
220.37823 59.25013 254.06813
221.03818 59.241524 253.9077
221.69844 59.232807 253.74532
221.65811 59.895565 250.74243
222.07556 60.110607 249.63245
222.24985 60.549534 247.57686
222.89673 60.54055 247.41048
224.03104 60.083439 249.12955
224.68358 60.074142 248.95804
225.33649 60.064739 248.78455
226.74263 59.38287 251.43425
227.40372 59.373127 251.25479
228.0652 59.363258 251.07335
228.98546 59.129044 251.82959
230.17194 58.670387 253.52136
230.84204 58.660046 253.33179
231.51256 58.649593 253.14012
231.91519 58.8634 252.00957
232.85483 58.628338 252.75061
233.25331 58.841999 251.61734
234.47455 58.382133 253.2874
235.42789 58.146538 254.01845
236.66742 57.686172 255.67903
237.63409 57.450153 256.40201
238.6062 57.21394 257.12131
238.71899 57.651638 255.04442
239.11301 57.864662 253.89851
239.50241 58.077679 252.75198
239.59152 58.515503 250.67648
240.26758 58.503662 250.45728
241.54555 58.041897 252.08945
242.53073 57.804825 252.79019
244.13289 57.117565 255.3373
245.13397 56.880066 256.0285
246.14053 56.642395 256.71576
246.52594 56.854847 255.55388
247.85422 56.39175 257.15656
247.91965 56.82935 255.07013
249.57968 56.140675 257.58459
250.28514 56.127644 257.33429
251.31689 55.889202 257.99976
252.0257 55.876045 257.74384
253.06583 55.637383 258.40189
253.11102 56.075153 256.30954
253.81845 56.06197 256.04745
254.52626 56.048779 255.78302
255.23444 56.03558 255.51624
255.59937 56.248104 254.33546
256.30566 56.234993 254.06487
257.0123 56.221909 253.79193
257.71921 56.208866 253.51662
258.78012 55.969978 254.14661
259.84634 55.731071 254.7722
260.55908 55.718132 254.48778
261.63339 55.479256 255.10558
262.71295 55.240398 255.71895
263.06494 55.453804 254.52277
264.14987 55.215118 255.1293
264.86847 55.202705 254.83089
266.70923 54.511703 257.22833
267.81216 54.273224 257.82034
268.92017 54.034874 258.40784
269.65152 54.023064 258.09457
271.15118 53.558655 259.56915
270.34058 54.453117 255.67317
271.45575 54.215706 256.24799
272.57578 53.978546 256.8183
61.272934 63.030239 223.93736
63.077019 63.71051 221.53772
63.704422 63.719456 221.81267
62.793159 62.833633 225.66763
63.813148 63.066933 225.04637
64.448517 63.076691 225.31857
63.952591 62.41573 228.28502
65.344795 62.873188 226.75665
67.470955 63.777763 223.42018
68.098724 63.78809 223.68098
69.460411 64.245499 222.13374
70.447426 64.479431 221.4843
70.705383 64.266586 222.64085
70.608849 63.830593 224.70346
71.592865 64.064743 224.04683
71.508629 63.629112 226.11032
72.137909 63.640137 226.35757
72.766968 63.651211 226.60274
73.049004 63.439194 227.75684
74.02433 63.673458 227.08676
75.336029 64.130676 225.49976
76.29818 64.364746 224.82072
77.254982 64.598724 224.13776
78.540588 65.055496 222.53508
78.820915 64.843521 223.67677
78.776817 64.408798 225.73592
79.395676 64.419777 225.95955
79.041931 63.762547 228.93947
79.667618 63.773563 229.16177
79.973915 63.561924 230.30316
80.917961 63.795483 229.60011
81.856636 64.028915 228.89325
82.789917 64.262192 228.18266
83.099762 64.0504 229.31766
84.64035 64.728294 226.75031
85.557503 64.961121 226.02859
85.866219 64.749123 227.15764
86.777626 64.98172 226.43033
87.683655 65.214142 225.69945
87.702217 64.779785 227.75388
88.021935 64.567673 228.8791
88.635307 64.577682 229.07278
89.248299 64.587601 229.26451
89.576851 64.375381 230.38708
90.754738 64.829163 228.70871
91.36412 64.838768 228.89392
91.973145 64.848274 229.07721
93.130035 65.301468 227.3871
94.276619 65.754395 225.6922
94.336319 65.319824 227.74136
95.205597 65.550629 226.97777
95.276993 65.116058 229.02681
95.619652 64.903214 230.13751
95.966934 64.690353 231.24773
96.832329 64.920715 230.47606
97.183861 64.707718 231.58397
98.043625 64.93779 230.80728
98.399422 64.724655 231.91289
99.500473 65.175949 230.18784
99.858063 64.962631 231.2905
100.70418 65.192123 230.50327
101.30555 65.200043 230.65831
102.14363 65.42923 229.86562
102.74191 65.436905 230.01653
103.57199 65.665787 229.21844
104.39684 65.894501 228.41742
105.21648 66.123047 227.61349
106.48036 66.793846 224.90866
106.84015 66.579651 225.99689
107.42438 66.586563 226.13448
108.44305 67.035614 224.36891
108.80692 66.821182 225.45329
108.96297 66.385635 227.48895
108.91856 65.729065 230.47754
109.3037 65.514572 231.56187
109.89856 65.521011 231.69215
110.89851 65.969276 229.91272
111.28777 65.754532 230.99313
112.67053 66.644272 227.29773
113.64285 67.091965 225.50769
113.83362 66.656021 227.53821
114.41481 66.661758 227.65599
114.99577 66.667381 227.7722
115.57652 66.672928 227.88678
116.15704 66.678368 227.99977
117.09872 67.125198 226.19426
117.67394 67.130417 226.30315
118.07315 66.914841 227.36984
118.65041 66.919891 227.47601
118.71465 66.262894 230.46141
118.79329 65.605927 233.44783
119.38455 65.610825 233.55191
119.81199 65.39505 234.61594
120.0829 64.958649 236.64111
120.99845 65.404449 234.81691
121.74776 65.629555 233.95224
122.3381 65.634003 234.04839
123.38274 66.299881 231.25227
123.96547 66.304123 231.34409
124.54802 66.308266 231.43437
125.13042 66.312332 231.5231
125.57088 66.095879 232.57535
126.01604 65.879372 233.62679
126.4659 65.662811 234.67737
126.92046 65.446213 235.72708
127.24763 65.009186 237.74237
128.103 65.453552 235.89038
128.69406 65.457108 235.9697
129.40981 65.680893 235.08008
130.12057 65.904587 234.18829
130.82637 66.128174 233.29436
131.40965 66.131355 233.36664
132.10794 66.354744 232.46878
132.80128 66.578033 231.56883
133.48965 66.801208 230.66685
133.95735 66.583832 231.70169
134.42976 66.366394 232.73566
134.90689 66.148911 233.76863
135.59003 66.371765 232.86014
136.07179 66.15416 233.89064
136.5583 65.936501 234.92014
137.32968 66.379288 233.03571
137.81842 66.161499 234.06245
138.22336 65.723495 236.05965
138.81012 65.725739 236.11292
139.3131 65.507782 237.13654
139.8208 65.28978 238.1591
140.33328 65.071716 239.18056
141.07993 65.513916 237.28351
141.52058 65.075638 239.2748
142.25743 65.517662 237.37401
142.91533 65.739517 236.44402
143.50151 65.741211 236.48538
144.02321 65.522758 237.49861
144.67368 65.744385 236.56366
145.20009 65.525818 237.57423
145.9028 65.967346 235.66225
146.54105 66.188751 234.72212
147.12207 66.190025 234.75436
147.60315 65.751175 236.73355
148.14137 65.532288 237.73746
148.68437 65.313362 238.74013
149.27486 65.3144 238.76697
149.86531 65.315369 238.79234
150.49362 65.536285 237.84146
151.04611 65.317108 238.83864
151.63647 65.317879 238.85959
152.22681 65.318596 238.87901
152.78885 65.099236 239.8721
153.32983 64.659813 241.839
153.9742 65.100334 239.90378
154.5248 64.660797 241.86794
155.14087 64.88118 240.90485
155.75211 65.101501 239.94019
156.35852 65.321754 238.97395
156.9601 65.541946 238.0062
157.53889 65.322098 238.98779
158.12907 65.322159 238.99252
158.72342 65.54216 238.02026
159.31294 65.762085 237.04657
159.89961 65.321991 238.99785
160.48674 65.541794 238.02118
161.08546 65.101555 239.96956
161.67809 65.101242 239.96542
162.29128 64.660873 241.91071
162.88875 64.660431 241.90356
163.48622 64.65992 241.89493
164.10123 64.439331 242.86018
164.741 63.998684 244.7991
165.3681 63.777966 245.76108
165.95058 63.9972 244.77104
166.52824 64.216362 243.77966
167.13069 64.215462 243.76192
167.7012 64.434509 242.76773
168.23254 64.87352 240.79732
168.82787 64.872437 240.77531
169.42323 64.871277 240.75183
170.01865 64.870041 240.7269
170.61411 64.868759 240.70044
171.11674 65.307503 238.72372
171.70747 65.306091 238.6945
172.34953 65.084549 239.63797
172.88911 65.30307 238.63165
173.59218 64.861305 240.54573
174.30495 64.419449 242.45775
174.96652 64.197578 243.3941
175.50636 64.415825 242.38176
176.17291 64.193802 243.31479
176.70805 64.411926 242.29971
177.37958 64.189743 243.22935
178.12897 63.747353 245.12982
178.66194 63.965267 244.11037
179.26797 63.962982 244.06213
180.03452 63.520309 245.95667
180.39766 64.17836 242.98904
180.91649 64.396042 241.96465
181.69296 63.95311 243.85371
182.38934 63.730251 244.76907
182.90605 63.947723 243.74025
183.70216 63.504478 245.62289
184.50806 63.061111 247.50299
184.92555 63.4986 245.4991
185.53741 63.495541 245.43488
185.94061 63.932941 243.42938
186.54788 63.929749 243.36255
187.15526 63.926483 243.29413
187.98605 63.482525 245.16219
188.71259 63.258751 246.05879
189.44411 63.034866 246.95323
189.94278 63.251575 245.90918
190.31543 63.688587 243.8963
190.80228 63.905197 242.85059
191.28442 64.121758 241.80391
192.14769 63.677036 243.65698
192.75874 63.673016 243.57402
193.5034 63.448475 244.45566
194.25307 63.223816 245.33501
195.14607 62.778549 247.17763
195.76749 62.77412 247.08679
196.53223 62.549091 247.95914
197.1564 62.54446 247.86465
197.9288 62.319199 248.73259
198.55579 62.314362 248.63445
199.33585 62.088848 249.49791
199.81033 62.30442 248.43306
200.59564 62.078682 249.29239
201.22583 62.073456 249.18706
202.01886 61.847469 250.04178
202.48688 62.06271 248.97137
203.28519 61.836483 249.82184
203.74876 62.051575 248.74886
204.03534 62.487354 246.71509
204.83675 62.260815 247.55994
205.28882 62.475716 246.48404
205.91592 62.469738 246.36597
206.90747 62.02198 248.16249
207.72449 61.794895 248.99767
208.35965 61.788536 248.87297
208.80562 62.002995 247.78979
209.43884 61.996456 247.66205
210.07233 61.989811 247.53256
210.90286 61.762074 248.35648
211.73856 61.534168 249.17763
212.57944 61.306099 249.99597
213.22137 61.298946 249.85776
213.86359 61.291687 249.71773
214.50612 61.284302 249.57591
215.14893 61.276817 249.43224
216.00598 61.048031 250.23822
217.30106 60.37664 252.94305
217.95462 60.368694 252.79158
218.82982 60.139362 253.588
219.71027 59.909851 254.38133
220.14351 60.122826 253.27444
221.02956 59.893017 254.06279
221.6897 59.884434 253.9006
221.88297 60.318592 251.84296
222.06671 60.752762 249.78584
222.24095 61.186954 247.72928
222.88773 61.178093 247.56314
223.77832 60.947556 248.33929
224.42828 60.938419 248.16869
225.32706 60.707539 248.93904
226.48204 60.254807 250.64836
227.14053 60.245224 250.46983
227.79944 60.235523 250.28934
228.71704 60.003922 251.04706
229.90085 59.550316 252.74094
230.56836 59.540157 252.55229
231.23627 59.529881 252.36159
231.63634 59.741425 251.2314
232.84409 59.287014 252.91071
233.24249 59.498375 251.77708
234.46353 59.04353 253.44859
235.13852 59.032608 253.24602
236.09464 58.799446 253.97505
237.05617 58.56609 254.70044
238.02313 58.332546 255.42213
238.13092 58.765583 253.34587
238.81055 58.754093 253.13182
239.78381 58.520149 253.84546
240.46683 58.508411 253.62627
240.85205 58.719017 252.47664
242.13487 58.26218 254.1087
242.8217 58.250122 253.88206
244.12042 57.79285 255.5047
244.81317 57.780537 255.27193
245.50633 57.768147 255.03687
246.19995 57.755676 254.79955
247.52554 57.297649 256.4046
247.58847 57.73053 254.3181
249.24579 57.049358 256.8356
250.59532 56.590744 258.42578
251.30365 56.577751 258.17249
252.01242 56.564705 257.91687
252.39069 56.774643 256.74194
253.09772 56.761585 256.48251
253.46919 56.971615 255.30566
254.51294 56.735413 255.95656
255.2211 56.722309 255.69005
255.92961 56.709217 255.42114
256.63849 56.696133 255.14989
257.34766 56.68309 254.87621
258.05713 56.670067 254.60017
258.76691 56.657097 254.32176
259.47696 56.644176 254.04099
260.18726 56.63134 253.7578
261.25903 56.395012 254.37749
262.33609 56.158688 254.99275
263.05206 56.146049 254.70039
264.50598 55.686111 256.20996
264.85587 55.897419 255.00963
266.69666 55.213776 257.40918
268.17621 54.753906 258.90097
269.2869 54.517952 259.48819
270.02106 54.50605 259.17407
271.52341 54.046478 260.64896
270.3291 55.155029 255.85489
271.44452 54.919991 256.43051
272.9566 54.461113 257.89395
61.281868 63.645325 224.09471
63.086121 64.318306 221.6931
63.326561 64.105972 222.86295
62.802879 63.451351 225.82526
63.440903 63.460972 226.10043
64.458603 63.692024 225.47527
64.34005 63.259628 227.54402
65.355255 63.491005 226.91364
67.481392 64.385773 223.57449
68.109291 64.396088 223.83511
69.104065 64.627556 223.19003
70.093651 64.859047 222.54083
70.716148 64.869614 222.79317
70.619789 64.438484 224.85678
71.603836 64.670143 224.19931
71.874031 64.460175 225.35512
72.500824 64.471092 225.60117
73.127403 64.482071 225.84509
73.7537 64.493057 226.08698
74.379745 64.504082 226.32674
75.347176 64.735687 225.65088
76.309265 64.967232 224.97101
76.929382 64.97818 225.20265
77.883316 65.209572 224.51581
78.500275 65.220444 224.74243
78.787842 65.010941 225.88521
79.080093 64.801483 227.02777
79.052994 64.371811 229.09012
79.678658 64.382736 229.31212
80.303947 64.393616 229.53209
81.561905 64.844727 227.90462
82.809456 65.295609 226.27164
83.423615 65.306137 226.48204
84.037422 65.31662 226.6904
84.957314 65.546982 225.97072
85.26387 65.337349 227.10124
85.273582 64.907837 229.15919
86.488838 65.357788 227.50414
87.100761 65.367889 227.70264
87.418304 65.158142 228.82939
87.448975 64.728683 230.88676
88.645241 65.178009 229.21823
88.971626 64.968163 230.34232
89.302628 64.758301 231.46597
90.764351 65.426682 228.85289
91.652687 65.655685 228.10301
92.259117 65.665039 228.28535
93.139275 65.893738 227.52943
94.285683 66.341667 225.83316
94.34536 65.91185 227.88327
94.947868 65.920776 228.05736
95.285866 65.710281 229.16887
95.890144 65.719025 229.34
96.494064 65.727661 229.50932
96.840927 65.517014 230.61807
97.44664 65.525482 230.78438
98.052017 65.533844 230.9489
98.657051 65.542114 231.11156
99.508606 65.769333 230.32846
100.3549 65.996384 229.54227
100.95403 66.004265 229.69826
101.79227 66.231003 228.90659
102.38829 66.238647 229.05843
102.98401 66.246185 229.20848
103.81149 66.472488 228.40906
104.63375 66.698631 227.60669
105.45079 66.924606 226.80141
106.48734 67.369202 225.04367
106.84705 67.157341 226.13228
107.2114 66.945419 227.22041
108.23236 67.389542 225.45413
108.38374 66.958794 227.4913
108.75707 66.746689 228.57668
108.92506 66.315926 230.6144
109.51765 66.322342 230.74564
110.10999 66.328659 230.87523
110.90469 66.553413 230.04855
111.29388 66.341003 231.12935
112.4787 67.002472 228.38716
113.45331 67.445236 226.59636
113.45361 66.795639 229.58496
114.03959 66.801315 229.70363
114.81332 67.025299 228.86307
115.58195 67.249138 228.01993
116.16238 67.254486 228.13281
117.28458 67.914711 225.36705
117.67905 67.701523 226.4348
118.25398 67.706558 226.54199
118.65535 67.493248 227.608
118.71957 66.84343 230.59491
118.96667 66.41185 232.62164
119.55541 66.416649 232.72517
119.81673 65.985016 234.75127
120.40996 65.989677 234.85248
121.16177 66.212387 233.98914
121.7522 66.216858 234.08673
122.49636 66.439346 233.21904
123.53844 67.097885 230.42078
123.9696 66.883957 231.47661
124.69869 67.106087 230.60191
125.42278 67.328094 229.72496
125.71655 66.895935 231.74252
126.29855 66.899765 231.82811
126.88042 66.903519 231.91211
127.32764 66.689217 232.96127
127.64749 66.256912 234.97656
128.49548 66.69635 233.12238
129.07919 66.699783 233.20067
129.66278 66.703156 233.2774
130.36862 66.924347 232.38434
131.06947 67.145424 231.48918
131.5303 66.930664 232.52965
132.11096 66.933708 232.60004
132.80421 67.154526 231.69948
133.49251 67.375252 230.79684
134.17586 67.595871 229.8922
134.64337 67.380775 230.92607
135.21866 67.38343 230.98846
135.89444 67.603806 230.0786
136.27071 67.170746 232.07988
136.56076 66.51989 235.05196
137.33203 66.957817 233.16635
137.72977 66.524643 235.16536
138.2256 66.309166 236.19182
138.8123 66.311371 236.24503
139.39891 66.313507 236.29674
139.82286 65.880157 238.29219
140.41415 65.882172 238.34134
141.15829 66.319519 236.44293
141.67055 66.103683 237.4619
142.4025 66.540848 235.5596
143.05548 66.760254 234.62865
143.50314 66.326553 236.61711
144.02478 66.110489 237.63083
144.61317 66.112022 237.66936
145.14194 65.895851 238.68059
145.78981 66.114899 237.74196
146.43282 66.333878 236.80154
147.0186 66.335144 236.834
147.50444 65.901077 238.81453
148.09496 65.902222 238.84431
148.64029 65.685684 239.84761
149.23312 65.686699 239.87456
149.86623 65.905273 238.92477
150.49448 66.123764 237.97333
151.08238 66.12458 237.99565
151.70334 66.342941 237.04099
152.22746 65.90844 239.01138
152.78944 65.691475 240.00497
153.33038 65.256851 241.97293
153.97467 65.692551 240.03661
154.52521 65.25782 242.00183
155.14122 65.475792 241.03819
155.73618 65.476105 241.0489
156.34494 65.693954 240.08215
156.92609 65.476563 241.06581
157.52103 65.476692 241.07207
158.12253 65.694351 240.10078
158.72339 66.129517 238.15199
159.31285 66.347046 237.17772
159.89946 65.911758 239.13011
160.48653 66.129158 238.15291
161.07971 65.911324 239.12633
161.66986 65.911018 239.12221
162.28058 65.475471 241.06862
162.87556 65.475037 241.06149
163.48567 65.25695 242.02882
164.0831 65.256378 242.01872
164.70049 65.038162 242.98296
165.30037 65.03746 242.96982
165.90028 65.036697 242.95518
166.47307 65.253479 241.96338
167.1002 65.034988 242.92142
167.66824 65.251648 241.92677
168.26587 65.250641 241.90622
168.86354 65.249565 241.88416
169.42206 65.466034 240.88541
170.05901 65.247208 241.8356
170.65681 65.245934 241.80907
171.1618 65.679886 239.83116
171.75488 65.678482 239.80191
172.45053 65.241722 241.72047
172.99487 65.457848 240.71338
173.64661 65.238586 241.6539
174.36171 64.801559 243.56691
174.90382 65.017487 242.55545
175.5045 65.015671 242.51677
176.10524 65.013794 242.47653
176.63792 65.229546 241.46117
177.30695 65.009827 242.39156
178.05383 64.572296 244.29335
178.73509 64.352394 245.21976
179.26567 64.567871 244.19847
179.95192 64.347809 245.12143
180.31259 64.99868 242.15248
180.91399 64.996239 242.10007
181.60292 64.775955 243.01822
182.20692 64.773354 242.96254
182.90331 64.552887 243.87694
183.79402 63.896709 246.7321
184.60223 63.458202 248.61313
184.92256 64.108734 245.6371
185.63629 63.88789 246.54356
186.04187 64.320503 244.53683
186.54468 64.535217 243.49966
187.15198 64.532013 243.43134
187.98267 64.092941 245.30055
188.70911 63.871639 246.19778
189.44054 63.650227 247.09286
189.93915 63.864582 246.04836
190.43306 64.07888 245.00285
190.92226 64.293137 243.95636
191.40677 64.507324 242.90892
192.01517 64.503471 242.82797
192.6237 64.499542 242.74539
193.23241 64.495522 242.66127
194.11298 64.055336 244.50841
195.00343 63.615002 246.35252
195.76303 63.392582 247.22791
196.38454 63.388134 247.13556
197.15178 63.165485 248.00658
197.92404 62.942726 248.87515
198.25009 63.374264 246.8486
199.02516 63.151299 247.71349
199.65001 63.146381 247.61249
200.43277 62.923168 248.47287
201.06046 62.918041 248.36812
201.68832 62.912827 248.26166
202.31642 62.907516 248.1535
203.11218 62.683826 249.00505
203.57324 62.89661 247.93208
203.85732 63.327667 245.89775
204.65619 63.103657 246.74379
205.28293 63.097881 246.62755
205.90993 63.092003 246.50961
206.90134 62.649193 248.30736
207.53369 62.643066 248.18503
208.35327 62.418373 249.01871
208.60976 62.848999 246.97786
209.24042 62.84259 246.85077
209.67705 63.054626 245.76563
210.69931 62.610897 247.54709
211.33324 62.604145 247.4142
212.37073 62.160046 249.18904
213.4183 61.715748 250.95993
213.85632 61.927235 249.86589
214.49872 61.919968 249.72424
215.14142 61.912598 249.58075
215.99834 61.686359 250.38745
216.86047 61.459942 251.19124
217.50902 61.452183 251.04108
218.37915 61.225456 251.8394
219.25453 60.99855 252.6347
220.13516 60.771481 253.42691
221.02106 60.544228 254.21603
221.68109 60.53577 254.05405
221.8743 60.965199 251.99544
222.058 61.394638 249.93738
222.4707 61.605022 248.82599
222.63785 62.034462 246.76846
223.76929 61.587383 248.49091
224.41913 61.578392 248.32045
225.31775 61.350071 249.09163
226.47253 60.902332 250.80235
227.13092 60.892887 250.62404
228.04552 60.664013 251.38527
228.96545 60.434952 252.14313
230.15155 59.986317 253.83772
230.82141 59.976261 253.64859
231.4917 59.966087 253.45743
232.1624 59.955799 253.26419
233.10422 59.725864 254.00616
233.50504 59.934879 252.87149
234.72836 59.48502 254.54367
235.6839 59.254555 255.27567
236.36418 59.243584 255.06973
237.04489 59.232502 254.86165
238.0117 59.001541 255.5842
237.8313 59.649658 252.57498
238.50833 59.63834 252.36201
239.47894 59.407036 253.07727
240.45502 59.175537 253.78879
241.13835 59.163849 253.56766
242.42349 58.711998 255.20036
242.80957 58.920109 254.04599
243.80243 58.687984 254.74376
244.80075 58.455688 255.43759
245.49385 58.443424 255.20285
245.87416 58.651337 254.04201
247.19707 58.198387 255.6494
247.89401 58.18586 255.40695
248.91211 57.952888 256.08334
249.9357 57.719769 256.75565
250.31313 57.927471 255.58505
251.34261 57.694157 256.25092
251.71582 57.901855 255.0775
252.41779 57.888996 254.82022
253.45602 57.655457 255.47626
254.49969 57.421806 256.12805
255.20786 57.408806 255.86182
255.57288 57.616615 254.68033
256.27921 57.603668 254.41029
256.63733 57.811634 253.22701
257.3418 57.798786 252.95322
258.04651 57.785984 252.67703
258.75153 57.77322 252.39851
259.81552 57.539452 253.02452
260.52356 57.526791 252.74022
261.23187 57.514214 252.45358
261.57397 57.722965 251.26073
263.01776 57.268154 252.77591
263.72906 57.25589 252.48112
265.56226 56.579746 254.88597
267.0343 56.124908 256.38242
268.89554 55.448662 258.77072
269.62735 55.436783 258.45786
271.51141 54.760605 260.8316
269.93094 56.078377 255.13936
271.43323 55.624199 256.61096
272.5538 55.391769 257.18283
62.467552 64.917229 221.57002
63.095268 64.926041 221.84671
63.723145 64.935097 222.1214
63.581894 64.506683 224.18758
63.832954 64.29744 225.35828
64.848282 64.526031 224.73122
65.481491 64.535965 225
66.114716 64.546082 225.26666
67.119858 64.774994 224.62912
68.11985 65.003952 223.98741
69.114685 65.232948 223.34154
69.739937 65.243423 223.59679
70.726891 65.472488 222.94368
70.98999 65.264648 224.10101
71.614754 65.275375 224.34999
71.530792 64.849442 226.41548
71.808426 64.642029 227.57259
72.440063 64.653015 227.81828
73.071449 64.664032 228.06184
74.0467 64.89325 227.39011
75.016609 65.122383 226.71434
76.320274 65.569519 225.11948
77.276978 65.798431 224.4348
77.894234 65.809219 224.66322
78.511169 65.820007 224.88959
79.127785 65.830765 225.11389
79.417534 65.623611 226.25589
79.71196 65.416519 227.39766
80.33255 65.427246 227.61765
