ply
format ascii 1.0
comment PCL generated
element vertex 1597
property float x
property float y
property float z
element camera 0
property float view_px
property float view_py
property float view_pz
property float x_axisx
property float x_axisy
property float x_axisz
property float y_axisx
property float y_axisy
property float y_axisz
property float z_axisx
property float z_axisy
property float z_axisz
property float focal
property float scalex
property float scaley
property float centerx
property float centery
property int viewportx
property int viewporty
property float k1
property float k2
end_header
236.42609 87.298149 251.64505
236.79294 87.413315 250.49388
237.15524 87.528458 249.34219
237.80991 87.523048 249.13731
238.76434 87.397041 249.87686
238.81877 87.632607 247.77568
240.08099 87.385857 249.45525
241.04684 87.25956 250.18536
241.09026 87.495026 248.08197
241.74777 87.489227 247.86462
242.40582 87.48336 247.64523
242.43069 87.718826 245.5421
243.08472 87.712875 245.32013
244.06105 87.586136 246.03506
244.39423 87.700806 244.86975
246.35719 87.211525 248.39066
247.68202 86.963623 250.02945
248.68555 86.836395 250.72694
249.36021 86.829926 250.48572
251.0462 86.460754 253.04352
251.72948 86.454102 252.79504
252.75528 86.326462 253.4762
253.78665 86.19873 254.15315
254.47658 86.191872 253.89589
254.8175 86.305984 252.7072
255.1539 86.42009 251.51811
256.19495 86.292099 252.18286
256.88446 86.285095 251.91714
257.93414 86.156952 252.57422
258.62723 86.149864 252.30275
259.68555 86.021576 252.95207
260.38214 86.014412 252.67477
261.4491 85.886009 253.31622
262.14923 85.878777 253.03305
263.22473 85.750275 253.66647
264.30579 85.621704 254.29541
265.01236 85.61441 254.00273
265.71936 85.607109 253.70761
266.42676 85.599823 253.40999
267.13455 85.59256 253.10989
268.23297 85.463898 253.71992
65.541054 90.568596 219.96967
65.766808 90.455612 221.14622
67.154686 90.699219 219.57805
66.232712 90.229874 223.49933
66.853477 90.235886 223.75882
67.473892 90.241898 224.01616
68.469559 90.366653 223.35216
68.713638 90.253929 224.52434
69.703461 90.378632 223.85396
71.423767 90.740601 221.33496
72.397568 90.865128 220.65425
73.365883 90.989578 219.96945
73.968361 90.995377 220.20578
74.928246 91.119713 219.51387
74.816673 90.888351 221.59952
75.773178 91.012611 220.9025
76.023643 90.899796 222.05977
76.626472 90.905457 222.28682
77.919327 91.147987 220.64983
78.173515 91.03511 221.8029
78.772507 91.040634 222.02293
79.708717 91.164497 221.30722
79.969116 91.051559 222.45706
80.234093 90.938614 223.60675
81.49411 91.180603 221.94676
81.760704 91.067589 223.0934
82.03186 90.954567 224.23987
82.952866 91.078033 223.50786
84.18856 91.319611 221.83224
85.096176 91.442863 221.09213
85.99836 91.56601 220.34842
86.582497 91.570908 220.54366
87.166206 91.575745 220.73703
87.441833 91.462418 221.8727
88.027206 91.467171 222.06316
88.006805 91.23571 224.14331
88.896507 91.358444 223.38516
90.078514 91.599121 221.67627
90.069328 91.367592 223.75487
90.655151 91.372086 223.93698
91.240562 91.376511 224.11729
92.401131 91.616806 222.39502
92.695526 91.503143 223.52139
93.277298 91.507385 223.6956
94.419395 91.747375 221.96278
94.995491 91.751472 222.13199
95.295822 91.637634 223.25357
95.873657 91.641624 223.42006
96.721603 91.763405 222.62932
97.296272 91.767273 222.79166
97.87059 91.771072 222.95233
98.44458 91.774834 223.11125
99.018227 91.778534 223.26851
99.333405 91.664413 224.38298
100.16454 91.785759 223.57802
100.48399 91.671562 224.69049
101.30959 91.79277 223.88086
101.88164 91.796204 224.02979
102.4534 91.799576 224.17706
102.78143 91.685226 225.28549
103.59599 91.80616 224.46678
104.16687 91.80938 224.60918
104.97351 91.930168 223.7854
105.77498 92.050888 222.95877
106.34012 92.053925 223.09515
107.13371 92.174492 222.26363
107.69587 92.177414 222.39629
108.48161 92.297852 221.55988
109.04082 92.300667 221.68884
109.81873 92.420967 220.84764
109.94198 92.188622 222.91133
110.71696 92.308823 222.06651
111.27521 92.311447 222.18932
111.20563 91.96154 225.22299
111.77072 91.964111 225.34431
112.3356 91.966629 225.46413
113.30404 92.204025 223.63774
113.86361 92.206436 223.75349
115.01407 92.561127 220.94771
115.37133 92.445984 222.03282
116.11759 92.565659 221.16879
116.28958 92.333054 223.2267
116.65842 92.217834 224.30974
117.21678 92.219986 224.41653
117.95743 92.339478 223.54565
118.69305 92.458916 222.67239
119.42363 92.578293 221.79678
119.79884 92.462906 222.87387
120.17872 92.347496 223.95038
120.73361 92.349396 224.04793
121.12044 92.233932 225.12282
121.67743 92.235771 225.21788
122.56041 92.472198 223.35225
123.11224 92.473946 223.44363
123.66395 92.475662 223.53357
124.05969 92.360039 224.60289
124.61353 92.361687 224.69037
125.16721 92.363297 224.77641
125.86932 92.482147 223.87914
126.42033 92.483681 223.96198
127.25865 92.719696 222.07813
127.80457 92.721146 222.15747
128.07257 92.488083 224.2021
128.21365 92.137772 227.23036
128.77129 92.139153 227.30721
129.3288 92.140503 227.38264
129.75697 92.024605 228.4413
130.31668 92.025902 228.51421
131.00069 92.144379 227.60043
131.55777 92.145599 227.67026
132.11475 92.146797 227.73865
132.90599 92.382355 225.83328
133.45796 92.383484 225.89833
134.12219 92.501762 224.97525
134.67157 92.502823 225.03725
135.22086 92.50386 225.09787
135.66492 92.387695 226.14468
136.11372 92.271507 227.1906
136.66757 92.272461 227.24765
137.22134 92.273392 227.30328
137.67955 92.157135 228.34608
138.23558 92.15802 228.39922
138.79155 92.158859 228.451
139.43571 92.276833 227.51222
140.07501 92.394768 226.57161
140.70943 92.512665 225.62924
141.33897 92.630539 224.68512
141.88499 92.631241 224.72925
142.43095 92.63192 224.77205
142.75531 92.281197 227.78459
143.23694 92.164719 228.81577
143.72333 92.04821 229.84595
144.34773 92.165924 228.89331
144.90305 92.166481 228.93005
145.52016 92.284134 227.97426
146.1324 92.401764 227.01677
146.62576 92.285141 228.04065
147.17851 92.285606 228.07181
147.83565 92.520256 226.11813
148.38351 92.520668 226.14638
148.93137 92.521057 226.17325
149.43416 92.404327 227.19089
149.89914 92.170479 229.19965
150.41389 92.053711 230.21516
150.97122 92.054016 230.23709
151.45773 91.820107 232.24266
152.01984 91.820374 232.26202
152.61249 91.937698 231.28741
153.17213 91.937912 231.304
153.73177 91.938095 231.31924
154.29138 91.938263 231.33313
154.87196 92.055496 230.35275
155.41057 91.938522 231.35681
155.97015 91.938622 231.36662
156.52972 91.938698 231.37506
157.08929 91.938751 231.38219
157.66679 92.172958 229.40175
158.20183 91.821701 232.38538
158.75963 91.704605 233.38152
159.32399 91.704559 233.38322
159.88898 91.587418 234.37666
160.46182 91.353157 236.36182
161.02252 91.587219 234.37317
161.58931 91.587097 234.36937
162.14587 91.704025 233.37114
162.73555 91.469681 235.35066
163.27469 91.703659 233.35672
163.82169 91.820526 232.35451
164.38374 91.820282 232.3439
164.9458 91.820023 232.33199
165.48325 91.936829 231.32584
166.07001 91.81942 232.30399
166.63214 91.819092 232.28793
167.19431 91.818726 232.27055
167.82501 91.584145 234.23683
168.35538 91.700844 233.22408
168.95911 91.583305 234.19484
169.56766 91.465744 235.16402
170.13719 91.465263 235.13948
170.66049 91.581871 234.12149
171.27637 91.464233 235.08621
171.84602 91.463676 235.0575
172.41573 91.463097 235.0274
173.04135 91.345367 235.98747
173.55525 91.461868 234.96301
174.12509 91.461212 234.92876
174.56879 91.694786 232.91087
175.13393 91.694092 232.87411
175.76703 91.576233 233.82678
176.33469 91.575485 233.78706
176.97513 91.457565 234.73645
177.69557 91.222466 236.67433
178.34816 91.104477 237.61996
179.00565 90.98645 238.56383
179.58566 90.98555 238.51619
180.08099 91.101776 237.4776
180.74591 90.983658 238.41658
181.32614 90.982674 238.36462
181.90646 90.981659 238.31123
182.48686 90.980621 238.25641
182.97057 91.096725 237.21175
183.74713 90.861259 239.13058
184.22859 90.977318 238.08328
184.80936 90.976151 238.02272
185.28378 91.092163 236.9733
185.97116 90.97374 237.89717
186.55222 90.972488 237.83224
187.13336 90.971207 237.76587
187.71463 90.969894 237.69803
188.41449 90.851318 238.61476
189.24019 90.615471 240.51514
189.95233 90.496811 241.4274
190.41797 90.612579 240.36739
191.00705 90.611084 240.29129
191.72681 90.492302 241.1982
192.18556 90.607994 240.13461
192.77502 90.6064 240.05405
193.36462 90.604767 239.97198
194.09457 90.485817 240.87157
194.54422 90.601395 239.80334
195.27928 90.482353 240.6992
195.72438 90.59787 239.62866
196.3147 90.596062 239.53906
197.05746 90.476891 240.42928
197.49577 90.592323 239.35527
198.08655 90.590385 239.26114
198.67749 90.588425 239.16544
199.59262 90.351715 241.02777
200.51759 90.114937 242.88696
201.28561 89.995438 243.76402
202.22791 89.758522 245.61716
202.83672 89.756287 245.51082
203.09744 89.9888 243.44746
203.34866 90.221313 241.38425
204.12732 90.101578 242.25169
204.54822 90.216621 241.16389
204.96446 90.33165 240.07541
205.93486 90.094315 241.91266
206.7265 89.97435 242.77139
207.33208 89.971786 242.65311
208.13145 89.851692 243.50723
209.13193 89.614052 245.33229
209.54707 89.728806 244.23457
209.95758 89.843536 243.13622
210.56676 89.840714 243.00926
210.97046 89.955383 241.90913
211.5777 89.952477 241.77937
211.76395 90.184631 239.707
212.79295 89.946518 241.51489
213.40099 89.943466 241.38016
214.22723 89.822762 242.2126
214.83826 89.819588 242.07396
215.67239 89.698746 242.90135
216.28642 89.695457 242.75873
217.58395 89.339188 245.51419
218.20592 89.335747 245.36638
219.29346 89.096909 247.14771
219.68587 89.211006 246.0304
220.0737 89.325081 244.91252
220.69693 89.321411 244.75771
221.32048 89.317688 244.60109
221.69946 89.431641 243.48035
223.06332 89.074547 246.20604
223.44299 89.188377 245.0817
224.07037 89.184402 244.91725
224.69812 89.180367 244.75102
225.84064 88.940628 246.50125
225.95471 89.172104 244.41306
227.10782 88.932182 246.15691
228.53578 88.574257 248.85332
229.17775 88.569824 248.67442
229.8201 88.565331 248.49361
231.0069 88.324936 250.22096
232.20398 88.084396 251.94354
232.58051 88.197594 250.80046
233.23196 88.192787 250.60976
233.88383 88.187912 250.41707
234.53613 88.182983 250.22237
234.90201 88.296005 249.07504
235.8421 88.172905 249.82704
236.20392 88.285843 248.6772
236.85553 88.280655 248.47525
237.50763 88.275414 248.27129
238.4595 88.15197 249.0121
238.8132 88.264725 247.85721
240.37961 87.90477 250.48276
240.7343 88.017395 249.32373
241.08447 88.12999 248.16425
241.74194 88.124344 247.94705
242.71419 88.000366 248.66971
242.74155 88.231117 246.56528
243.39801 88.225296 246.34258
244.69858 87.982773 247.99652
245.03674 88.095131 246.82932
246.67773 87.734009 249.41223
247.6756 87.609467 250.11415
248.67905 87.484818 250.81212
249.35368 87.4785 250.57111
251.03952 87.11676 253.12997
251.72275 87.11026 252.88168
252.74844 86.985214 253.56328
253.77975 86.860062 254.24075
254.81662 86.73481 254.914
255.50957 86.728058 254.65361
255.49893 86.958466 252.53398
255.8333 87.070313 251.34334
256.52023 87.063499 251.07877
257.20767 87.056656 250.81183
257.89563 87.049782 250.54251
258.94882 86.924141 251.19434
260.00757 86.798431 251.84172
261.44174 86.553864 253.40614
262.14185 86.546799 253.12315
263.21732 86.420891 253.7571
264.29834 86.294914 254.38651
265.00488 86.287788 254.09399
265.71191 86.280655 253.79904
266.03418 86.392471 252.58641
267.12711 86.266426 253.20166
267.44504 86.378342 251.98621
65.156212 91.03791 220.96082
65.772858 91.043686 221.2245
67.160698 91.282295 219.65555
65.855621 90.706146 224.49428
66.478951 90.712036 224.75467
67.480019 90.834274 224.09451
68.100075 90.840149 224.34952
68.719749 90.846024 224.60237
70.080025 91.084419 223.01003
71.797714 91.438942 220.48891
72.403496 91.444664 220.73029
73.734665 91.682747 219.12045
74.334557 91.688377 219.3557
74.576202 91.577835 220.5154
74.467171 91.351196 222.60252
75.778923 91.589012 220.97754
75.679131 91.362411 223.06439
76.632172 91.484009 222.36188
77.579727 91.60553 221.65544
78.179108 91.610962 221.87737
78.437866 91.500366 223.03044
79.376518 91.621689 222.3152
79.974556 91.626991 222.53113
80.572151 91.632248 222.74509
81.499428 91.753349 222.02025
82.093613 91.758492 222.22939
82.362244 91.647728 223.37512
82.958054 91.652786 223.58125
84.193642 91.889412 221.90491
84.783562 91.894325 222.10548
85.688179 92.014954 221.36218
85.962135 91.904007 222.50092
86.550766 91.908752 222.69585
86.831352 91.797752 223.8333
87.421646 91.802422 224.02528
88.011513 91.807037 224.21541
88.901123 91.927231 223.45685
90.083038 92.162971 221.74722
90.073837 91.936142 223.82631
90.659584 91.940506 224.00833
91.244949 91.944824 224.18852
92.117676 92.064636 223.41621
92.414497 91.953278 224.54355
93.281494 92.072945 223.76619
94.143173 92.19252 222.98558
94.72168 92.196518 223.15543
95.29982 92.200455 223.32355
96.15052 92.319801 222.53482
97.266365 92.554482 220.78723
97.836044 92.558212 220.94807
98.139877 92.446487 222.06439
98.97438 92.565506 221.26474
99.282471 92.453705 222.37906
99.595139 92.341873 223.49309
100.42375 92.460701 222.68706
100.74071 92.348801 223.79906
101.56377 92.467499 222.98842
101.88502 92.355515 224.09842
102.45671 92.358795 224.24562
102.78471 92.246758 225.35426
103.59921 92.365204 224.53514
104.17003 92.368332 224.67746
104.74056 92.371407 224.81818
105.54441 92.489647 223.99181
106.11195 92.492615 224.12871
107.13663 92.725906 222.33072
107.47247 92.613571 223.43053
108.48441 92.84671 221.62653
109.04358 92.849449 221.75542
109.82143 92.967278 220.91386
109.72815 92.624512 223.94753
110.50552 92.742249 223.10287
111.06616 92.744812 223.22615
111.41737 92.632233 224.319
111.98 92.634712 224.43976
112.33807 92.522072 225.5311
113.30644 92.754608 223.70407
113.66652 92.641899 224.79286
114.81934 92.989349 221.98668
115.179 92.876541 223.07249
116.1198 93.108803 221.23401
116.29176 92.880913 223.2924
116.66055 92.768028 224.37569
117.21889 92.770119 224.48242
118.14194 93.002151 222.63472
118.51503 92.88916 223.71454
119.24799 93.006104 222.83902
119.80077 93.008018 222.93898
120.00787 92.779984 224.99396
120.56514 92.781845 225.09189
121.12226 92.783661 225.18834
121.67922 92.785446 225.28336
122.39909 92.902115 224.397
122.95332 92.903824 224.48874
123.5074 92.905487 224.57903
123.74973 92.677315 226.63007
124.46174 92.793823 225.7368
125.16878 92.910286 224.84132
126.01939 93.141579 222.96152
126.42182 93.028183 224.02652
127.40381 93.374252 221.15916
127.80598 93.260788 222.22137
128.07397 93.032455 224.26653
128.21503 92.689255 227.29561
128.77263 92.690605 227.37241
129.33011 92.691917 227.4478
129.88748 92.693199 227.52179
130.44475 92.69445 227.59433
131.12631 92.810493 226.67993
131.55896 92.696861 227.73528
132.2355 92.812836 226.81746
132.90712 92.928772 225.89767
133.45905 92.929863 225.96268
134.2356 93.160522 224.05228
134.67259 93.046753 225.1013
135.22185 93.04776 225.16187
135.77101 93.048729 225.22113
136.21739 92.934898 226.26704
136.6685 92.821045 227.31212
137.32014 92.936714 226.37921
137.77592 92.822815 227.42201
138.32951 92.823662 227.47488
138.79236 92.709717 228.51567
139.43651 92.825279 227.57654
140.07578 92.940804 226.63565
140.62669 92.941544 226.68285
141.25862 93.057007 225.73863
141.80701 93.057693 225.78294
142.35535 93.05835 225.82593
142.75595 92.829506 227.84882
143.23755 92.715385 228.88026
143.79295 92.715981 228.91971
144.41492 92.831284 227.96663
145.03204 92.946564 227.01187
145.64432 93.061813 226.05544
146.13289 92.947578 227.08063
146.68326 92.948051 227.11301
147.17896 92.833771 228.13591
147.78386 92.948921 227.17371
148.33411 92.949326 227.20201
148.88432 92.949707 227.22902
149.38951 92.83535 228.24706
149.94206 92.835686 228.27147
150.45439 92.721291 229.28714
151.00931 92.721581 229.30899
151.52879 92.60714 230.32224
152.08606 92.607384 230.34146
152.6127 92.492905 231.35225
153.17233 92.493111 231.36884
153.73193 92.493294 231.38408
154.31491 92.608162 230.40482
154.87209 92.608299 230.41727
155.44785 92.723122 229.43515
156.00259 92.723213 229.44489
156.55734 92.723282 229.45325
157.11208 92.723335 229.46028
157.66681 92.723358 229.46596
158.21498 92.608658 230.4637
158.76794 92.493942 231.46008
159.3257 92.379204 232.45515
159.88828 92.264435 233.44888
160.45566 92.149651 234.44122
161.02242 92.149544 234.43881
161.5735 92.378838 232.44824
162.13547 92.378685 232.44313
162.7101 92.263809 233.42995
163.25945 92.378326 232.42879
163.82146 92.378113 232.41957
164.40334 92.263168 233.40219
164.94554 92.377617 232.39706
165.48296 92.49205 231.39064
166.06969 92.377037 232.36908
166.66125 92.261993 233.34602
167.19394 92.376366 232.33566
167.79037 92.261276 233.30971
168.35497 92.26088 233.28949
168.95866 92.145744 234.26054
169.52574 92.145302 234.23749
170.18057 91.915382 236.19792
170.75253 91.914894 236.17189
171.32451 91.914383 236.14445
171.84547 92.028564 235.12355
172.41515 92.028008 235.09348
172.98486 92.02742 235.062
173.49634 92.141548 234.03745
174.06375 92.140923 234.0033
174.63121 92.140266 233.96782
175.19873 92.139587 233.93094
175.83421 92.024124 234.88371
176.40425 92.023392 234.84389
177.04706 91.907883 235.79338
177.69475 91.792328 236.7411
178.26979 91.791519 236.69669
179.00476 91.561142 238.63121
179.50241 91.675034 237.59363
180.08006 91.674133 237.54475
180.65779 91.67321 237.49446
181.50429 91.327911 240.41078
181.99742 91.441704 239.36786
182.67459 91.325897 240.30173
183.16307 91.439636 239.25636
183.84523 91.323761 240.18689
184.12585 91.667068 237.16273
184.8082 91.55114 238.09035
185.38902 91.549988 238.02835
185.8611 91.66362 236.97749
186.55096 91.547585 237.90001
187.24574 91.431511 238.82051
187.82939 91.430229 238.75243
188.6501 91.199234 240.65546
189.35968 91.083038 241.56982
190.07422 90.966797 242.48216
190.66795 90.96537 242.40695
191.26183 90.963905 242.33029
191.85582 90.962402 242.25211
192.18402 91.190628 240.20355
192.77344 91.189072 240.12302
193.36299 91.187485 240.04099
193.95268 91.185867 239.95746
194.54251 91.184212 239.87244
195.42259 90.952713 241.75133
195.87009 91.065887 240.68021
196.61267 90.949188 241.57231
197.05562 91.062309 240.49883
197.4939 91.1754 239.42461
197.92747 91.288475 238.34961
198.51596 91.286575 238.25436
199.26662 91.169662 239.1377
200.18669 90.937744 240.99831
200.9498 90.820724 241.87648
201.88721 90.588661 243.73112
202.6628 90.471519 244.60408
202.92108 90.699326 242.54065
203.34641 90.812111 241.45491
204.125 90.694832 242.32269
204.54587 90.807549 241.23468
205.1459 90.805214 241.12216
205.9324 90.687775 241.98386
206.53528 90.685333 241.86768
207.1384 90.682846 241.74991
207.93527 90.565239 242.60486
208.93326 90.332474 244.43106
209.74277 90.214722 245.28027
210.35654 90.212006 245.15405
210.76724 90.324371 244.05382
211.58479 90.206444 244.89655
211.99113 90.318726 243.79404
212.18225 90.546143 241.72014
213.00301 90.428055 242.55737
213.61343 90.425072 242.42216
214.22412 90.422035 242.28529
214.83508 90.418953 242.1467
215.44633 90.415817 242.00647
216.05786 90.412628 241.8645
217.12512 90.178902 243.65459
217.97231 90.060326 244.47435
218.82469 89.941666 245.29121
219.68228 89.822929 246.10512
220.30759 89.819405 245.95155
220.93321 89.815819 245.79622
221.55917 89.81218 245.6391
221.94058 89.92382 244.51753
223.30678 89.57402 247.24358
223.43907 89.800911 245.157
223.81413 89.91243 244.03191
224.43935 89.908516 243.86641
225.57932 89.673714 245.61801
225.69089 89.900513 243.52998
226.84143 89.66552 245.27522
228.00223 89.430412 247.0159
228.63919 89.426132 246.83847
229.54607 89.30629 247.61519
230.73029 89.070847 249.34395
231.65033 88.950798 250.11333
232.2988 88.946198 249.92543
232.94771 88.941544 249.73557
233.59703 88.936813 249.5437
234.2468 88.932022 249.34991
234.61014 89.042793 248.20314
235.2583 89.037895 248.0061
236.19876 88.917274 248.75652
236.556 89.027908 247.606
237.50233 88.90712 248.35085
238.45412 88.786232 249.09209
239.10959 88.780975 248.88338
240.67834 88.428375 251.50917
240.7287 88.654495 249.40445
240.76956 88.880623 247.3009
242.048 88.643494 248.97083
243.02267 88.522064 249.69307
243.05251 88.748116 247.58734
244.34998 88.510651 249.24504
245.33618 88.388947 249.95749
245.35501 88.614929 247.84955
246.34476 88.493088 248.55676
247.34004 88.37114 249.26006
248.3409 88.249092 249.9594
249.34729 88.126945 250.65466
250.69611 87.888664 252.28024
251.37677 87.882355 252.03304
252.74179 87.643822 253.64861
253.77301 87.521255 254.32652
254.80981 87.398598 255.00024
255.85222 87.275841 255.66975
255.84412 87.501549 253.54871
256.53555 87.494904 253.28471
256.87042 87.604439 252.09154
257.20071 87.714005 250.89795
257.52646 87.823578 249.70398
258.94177 87.584244 251.28113
259.63324 87.577469 251.00616
260.69498 87.4543 251.65063
261.7623 87.33107 252.29062
262.83517 87.207779 252.92609
263.91364 87.084435 253.55702
264.61765 87.077492 253.26576
265.32208 87.070557 252.97202
266.02692 87.063622 252.67578
266.34451 87.173241 251.46266
267.04761 87.166367 251.16261
64.771294 91.511986 221.95093
65.390503 91.517647 222.21556
67.166573 91.865265 219.73138
65.861633 91.301117 224.57155
66.484947 91.30687 224.83183
67.486008 91.426537 224.17119
68.106049 91.432266 224.42607
68.725708 91.438004 224.67879
70.085907 91.671394 223.08569
71.803505 92.018501 220.56349
72.409286 92.024078 220.80472
74.103233 92.370941 218.26929
74.700577 92.376404 218.50337
74.581886 92.154411 220.58908
74.47287 91.93248 222.67668
75.784546 92.165306 221.05093
75.684753 91.943405 223.13829
76.290016 91.948807 223.36603
77.240028 92.067795 222.66008
77.841881 92.073105 222.8828
78.103134 91.964813 224.03699
79.381882 92.197144 222.3878
80.314995 92.315834 221.66829
80.910027 92.32093 221.88121
81.834717 92.439453 221.15508
82.426346 92.444443 221.36319
82.692436 92.335938 222.50826
83.285698 92.340851 222.71336
84.198593 92.459099 221.97601
85.106064 92.577255 221.23502
85.377907 92.46862 222.375
85.65432 92.35997 223.51477
86.245399 92.364616 223.71036
86.528435 92.255913 224.84886
87.121162 92.260475 225.04152
88.016083 92.378242 224.28598
88.905632 92.495911 223.52699
89.789795 92.613495 222.76459
90.373413 92.617783 222.94751
90.956619 92.622009 223.12865
91.249222 92.513023 224.25824
92.121872 92.63031 223.48552
92.703918 92.634384 223.66129
93.568367 92.751511 222.8828
94.42749 92.868546 222.10106
95.003479 92.872421 222.27007
95.579086 92.876236 222.43738
96.700142 93.106094 220.69218
97.270111 93.109779 220.85463
97.839729 93.113403 221.0154
98.409012 93.116974 221.17445
99.240997 93.233475 220.37372
99.285995 93.010994 222.4464
100.11488 93.12738 221.64163
100.42719 93.017807 222.7542
100.9973 93.021133 222.90561
101.56709 93.024406 223.05537
102.13659 93.027634 223.20351
102.45995 92.917923 224.31271
103.0313 92.921059 224.45821
103.84328 93.037003 223.63812
104.1731 92.927185 224.74432
104.74359 92.930176 224.88495
105.31378 92.933105 225.02399
106.11486 93.048813 224.19502
107.13947 93.277229 222.39639
107.70153 93.279991 222.5289
108.71095 93.508247 220.72368
109.489 93.62365 219.8833
110.04298 93.626236 220.00946
110.16374 93.403305 222.07362
110.72213 93.40583 222.19785
111.06867 93.295593 223.29135
111.41985 93.185333 224.3844
112.18916 93.300438 223.5332
112.54477 93.190109 224.62425
113.51065 93.417786 222.79607
114.0677 93.420044 222.91121
115.01857 93.647575 221.07703
115.1812 93.424446 223.13695
115.92978 93.539223 222.27274
116.10416 93.316063 224.33212
116.66264 93.31813 224.44026
117.22093 93.32016 224.54695
117.96149 93.434753 223.67537
118.33698 93.324104 224.75584
119.07231 93.438599 223.88045
119.62747 93.440475 223.98079
119.83698 93.217171 226.03671
120.56696 93.331535 225.1561
121.12404 93.333305 225.2525
121.84644 93.447578 224.36769
122.40078 93.449265 224.4608
123.1156 93.563446 223.57191
123.66724 93.565056 223.66174
123.90712 93.341599 225.71291
124.4633 93.343155 225.80067
125.1703 93.457184 224.90491
125.87233 93.571159 224.00697
126.27715 93.460121 225.07257
127.11779 93.686501 223.18788
127.66606 93.687874 223.26749
128.07532 93.576752 224.32961
128.35283 93.353134 226.37524
128.90799 93.354431 226.45168
129.46303 93.355698 226.52672
130.01796 93.356941 226.60033
130.57278 93.358154 226.67252
131.00308 93.246887 227.7292
131.6821 93.360474 226.81279
132.23662 93.361595 226.88083
132.9082 93.475113 225.96074
133.57486 93.588585 225.0387
134.34897 93.814438 223.12743
134.78352 93.703018 224.17641
135.33035 93.703987 224.23671
135.87709 93.704926 224.29565
136.32103 93.593445 225.34158
136.66939 93.369553 227.37523
137.32101 93.482803 226.44202
137.77676 93.371262 227.48508
138.23724 93.259705 228.52724
138.88383 93.372879 227.58943
139.52554 93.486023 226.6498
139.99065 93.374397 227.68829
140.54395 93.375114 227.7357
141.17824 93.488174 226.79138
141.72902 93.488846 226.83586
142.20349 93.377121 227.86974
142.60889 93.15303 229.89354
143.16672 93.153633 229.93449
143.65546 93.041855 230.96536
144.28221 93.15477 230.0123
144.90411 93.267654 229.05757
145.52116 93.380501 228.10117
146.07394 93.380981 228.13503
146.62669 93.381439 228.16751
147.12479 93.269539 229.19081
147.73206 93.382294 228.22844
148.23488 93.270348 229.24933
148.88469 93.495384 227.29146
149.38985 93.3834 228.30977
149.94238 93.383728 228.33417
150.4547 93.271698 229.3501
151.00958 93.27198 229.37192
151.56444 93.27224 229.3924
152.11928 93.272476 229.41154
152.64351 93.16037 230.42252
153.17252 93.048248 231.4323
153.7321 93.048416 231.44753
154.31506 93.160904 230.46797
154.87222 93.161034 230.48044
155.44794 93.273468 229.49806
156.00267 93.27356 229.50777
156.5574 93.273628 229.51614
157.11212 93.273674 229.52318
157.65785 93.161377 230.52249
158.21497 93.161385 230.52682
158.77208 93.161369 230.52986
159.32742 93.049011 231.52516
159.88757 92.93663 232.51917
160.45557 92.711906 234.50546
161.02773 92.599487 235.49666
161.58904 92.711685 234.49924
162.15579 92.711533 234.49408
162.70992 92.8237 233.49393
163.27429 92.823509 233.48604
163.8038 93.047958 231.48976
164.42293 92.710747 234.45966
164.96751 92.822823 233.45419
165.50731 92.934875 232.44746
166.09644 92.82225 233.42613
166.69037 92.709602 234.40327
167.22545 92.821594 233.39258
167.85851 92.596565 235.35989
168.42789 92.596176 235.33952
168.9973 92.595772 235.31776
169.56676 92.595337 235.29463
170.22397 92.370209 237.25549
170.75203 92.482063 236.2368
171.37267 92.369217 237.20186
171.89601 92.481041 236.18057
172.46806 92.480492 236.15038
172.98427 92.592278 235.12666
173.55402 92.59169 235.09383
174.12381 92.591072 235.05959
174.75674 92.478073 236.01563
175.32904 92.477409 235.97841
175.90141 92.476715 235.93983
176.54413 92.363632 236.89101
177.11902 92.362892 236.84946
177.69397 92.362122 236.80647
178.3465 92.248955 237.75273
179.08385 92.023369 239.68762
179.50154 92.247284 237.65933
179.99442 92.358803 236.62045
180.56972 92.35791 236.5704
181.41377 92.019791 239.48779
181.90448 92.131241 238.44484
182.57919 92.017853 239.37923
183.16203 92.016838 239.32278
183.84416 91.903381 240.25362
184.22638 92.127144 238.2171
184.80707 92.126053 238.15657
185.38788 92.124931 238.09462
185.96877 92.123779 238.03119
186.54974 92.122604 237.96631
187.13084 92.121391 237.90001
187.71204 92.120155 237.83221
188.5303 91.893982 239.7361
189.23744 91.780212 240.65112
190.07281 91.55394 242.55002
190.79225 91.440086 243.46053
191.3885 91.43866 243.38361
191.98488 91.437202 243.30511
192.44843 91.548203 242.24043
193.04265 91.546677 242.1593
193.49921 91.657631 241.09259
194.23149 91.543549 241.99246
194.82611 91.541924 241.90678
195.56595 91.42775 242.80258
196.01582 91.538582 241.73085
196.6109 91.536858 241.64063
197.05382 91.647644 240.56693
197.33734 91.870949 238.51093
197.92563 91.869141 238.41725
198.51407 91.867287 238.32207
199.42665 91.640259 240.18604
200.34909 91.41317 242.04686
201.28142 91.186005 243.90453
202.05435 91.071365 244.77982
202.48895 91.18187 243.69527
202.7448 91.404968 241.63177
203.34419 91.402817 241.52409
203.94377 91.40062 241.41479
204.54356 91.398392 241.30397
205.14355 91.396118 241.19151
205.93001 91.281143 242.0535
206.53285 91.27877 241.93744
207.32703 91.163681 242.79478
207.93274 91.161209 242.67502
208.93065 90.933304 244.50185
209.54169 90.930733 244.37781
210.15297 90.928108 244.25214
210.7645 90.925438 244.12482
211.17055 91.035461 243.02371
211.57196 91.145454 241.92201
212.17937 91.14267 241.79076
213.00008 91.027054 242.62837
213.82593 90.911377 243.4632
214.65692 90.795624 244.29527
215.4931 90.679787 245.12456
216.11163 90.676704 244.98271
216.50519 90.7864 243.87137
217.34955 90.67038 244.69382
217.96896 90.667137 244.54678
218.58868 90.663849 244.39798
219.20871 90.6605 244.24748
220.06654 90.544205 245.05998
220.68967 90.540733 244.90538
221.31311 90.537209 244.74895
221.93689 90.53363 244.59076
223.30298 90.191139 247.31775
223.18546 90.526306 244.269
223.81027 90.522552 244.10542
224.43542 90.518753 243.94003
225.06094 90.514885 243.77284
225.42722 90.623993 242.64473
226.5752 90.393944 244.3913
227.73343 90.163773 246.13336
228.36786 90.159622 245.95674
229.54169 89.92923 247.6909
230.7258 89.698723 249.42033
231.92023 89.468079 251.14507
232.57111 89.463585 250.95656
233.22241 89.459038 250.76605
233.87416 89.454422 250.57361
233.95761 89.676132 248.47516
234.31844 89.784637 247.32896
235.54269 89.553436 249.03381
235.61011 89.775085 246.93463
236.55093 89.656944 247.68349
237.79398 89.425415 249.37694
238.74817 89.307053 250.11783
239.40604 89.301918 249.90845
240.67291 89.07003 251.58862
240.72325 89.291466 249.48346
240.76408 89.512909 247.37946
242.04242 89.280762 249.05008
242.70274 89.275314 248.83026
243.36357 89.269806 248.60829
244.34418 89.150772 249.32504
245.65207 88.918152 250.97792
245.34912 89.252937 247.92955
246.66556 89.020134 249.57547
247.33398 89.014297 249.34093
248.66655 88.78125 250.97717
249.34106 88.775253 250.73645
250.68977 88.541969 252.36281
251.70975 88.42218 253.0495
253.07721 88.188629 254.66492
253.76645 88.18232 254.41048
255.15012 87.948532 256.01563
256.19498 87.828339 256.68466
255.48538 88.276871 252.70406
256.52878 88.156624 253.36929
256.86365 88.263916 252.17598
257.55353 88.257378 251.90837
257.88181 88.36467 250.71326
259.66425 88.016464 253.21431
259.99353 88.123703 252.01439
261.0578 88.003105 252.65831
261.38297 88.110359 251.45555
262.45328 87.989685 252.09256
263.15173 87.982964 251.80603
263.47064 88.090263 250.59909
264.16742 88.083565 250.3087
264.86462 88.076874 250.01585
265.17459 88.184296 248.80582
265.87 88.177658 248.50914
65.167877 92.214005 221.11261
65.784561 92.219505 221.37602
67.558022 92.559677 218.88969
65.867485 91.895981 224.64719
66.871429 92.013092 223.9893
67.869904 92.130165 223.32718
68.487404 92.135735 223.58087
69.477493 92.252731 222.9113
70.832573 92.481094 221.31537
71.809174 92.597954 220.63643
72.414925 92.603394 220.87753
73.383095 92.720154 220.19138
73.62516 92.614204 221.35349
73.156281 92.285675 224.3698
74.123161 92.402359 223.67738
75.084541 92.518974 222.98096
75.690224 92.524277 223.2106
76.643143 92.640762 222.5072
77.93573 92.868347 220.86797
78.189865 92.762306 222.02153
78.788696 92.767418 222.24121
79.724716 92.883614 221.52414
80.655243 92.999718 220.80331
81.247726 93.004662 221.01518
82.169823 93.120621 220.28775
82.758896 93.125443 220.49487
83.347534 93.130234 220.70004
83.290581 92.912964 222.78337
84.523483 93.139648 221.10471
85.110809 93.144287 221.30417
85.382614 93.037933 222.44435
85.658997 92.931564 223.58426
86.560104 93.046989 222.83554
87.148209 93.051437 223.02834
87.430786 92.944977 224.16513
88.020554 92.949341 224.355
88.910011 93.064476 223.59564
89.794098 93.179527 222.83282
90.377655 93.183701 223.01564
91.253494 93.298592 222.24689
91.543579 93.191879 223.3759
92.701393 93.417366 221.65074
92.993195 93.31057 222.77693
94.137863 93.535866 221.04453
94.431381 93.42897 222.16798
95.285126 93.543411 221.38266
95.858215 93.547104 221.54913
96.703827 93.661392 220.75826
97.003326 93.554337 221.87695
97.575363 93.557877 222.0383
98.147049 93.561363 222.198
98.981438 93.675385 221.39754
99.02887 93.457619 223.47137
99.860138 93.571518 222.6669
100.17487 93.464264 223.78032
100.74739 93.467506 223.93231
101.06886 93.360191 225.04437
101.89149 93.473846 224.23132
102.46307 93.476944 224.37837
103.27775 93.590462 223.56015
103.8463 93.593452 223.70331
104.17609 93.485939 224.80974
104.74652 93.488846 224.95027
105.0831 93.381271 226.05527
105.65543 93.384094 226.19321
106.68486 93.607666 224.39508
107.478 93.720749 223.56088
108.26599 93.833771 222.72398
108.8275 93.836365 222.8533
109.6077 93.949265 222.01155
109.94978 93.841408 223.10728
110.29652 93.733536 224.20255
110.6479 93.625641 225.29735
111.21309 93.628036 225.42003
111.98479 93.740677 224.56903
112.54709 93.742981 224.68811
113.51291 93.965797 222.85933
114.26935 94.078262 222.0007
115.21773 94.300934 220.16541
115.3779 94.082512 222.22537
116.12401 94.194824 221.36032
116.48564 94.086609 222.44409
116.85194 93.978378 223.52736
117.40778 93.980331 223.63351
118.14585 94.092468 222.76117
118.51889 93.984146 223.8414
119.25175 94.096184 222.96523
119.80444 94.097992 223.06509
120.18424 93.989578 224.1423
120.73902 93.991318 224.2397
121.46153 94.103188 223.356
122.01358 94.104851 223.4501
122.56547 94.106476 223.54277
123.11721 94.108078 223.63399
123.5106 93.999504 224.70503
123.90868 93.890915 225.77544
124.46481 93.892418 225.86319
125.02083 93.89389 225.94948
125.72523 94.005447 225.05161
126.27855 94.006851 225.13469
126.97545 94.118324 224.23288
127.38481 94.009567 225.29663
127.93776 94.010887 225.37549
128.21767 93.792007 227.422
128.90926 93.903343 226.51387
129.46426 93.904572 226.58885
130.01917 93.905777 226.66243
130.70076 94.016998 225.74881
131.12863 93.908081 226.8054
131.68323 93.909195 226.8748
132.2377 93.910278 226.94283
132.79208 93.911339 227.00941
133.46112 94.0224 226.08739
134.23761 94.243454 224.17583
134.78448 94.244415 224.23746
135.22375 94.135338 225.28583
135.77287 94.136246 225.34503
136.11649 93.917114 227.38007
136.56996 93.807968 228.42587
137.22395 93.918823 227.49258
137.68208 93.809639 228.53613
138.23804 93.81044 228.5892
138.79393 93.811211 228.6409
139.43802 93.921951 227.7012
139.99136 93.922668 227.74995
140.46118 93.813377 228.78777
141.09785 93.924042 227.84334
141.72966 94.034668 226.89717
142.12787 93.815338 228.9223
142.53564 93.595993 230.94679
143.1673 93.706551 229.99654
143.72504 93.707108 230.0361
144.28275 93.707649 230.07433
144.90462 93.81813 229.11929
145.52165 93.928581 228.16261
146.01498 93.819092 229.1886
146.62712 93.929489 228.22894
147.1252 93.819962 229.25249
147.68024 93.820358 229.28239
148.23524 93.82074 229.31097
148.83763 93.931046 228.34538
149.39017 93.931381 228.37111
149.90009 93.821747 229.38853
150.41478 93.712097 230.40485
150.97205 93.712372 230.42674
151.5293 93.712624 230.4473
152.11951 93.8228 229.47311
152.64371 93.713066 230.48434
153.20088 93.713257 230.50087
153.75806 93.713425 230.51602
154.33858 93.823517 229.53615
154.89331 93.823639 229.54855
155.46661 93.933685 228.56584
156.01894 93.933777 228.57549
156.57123 93.933838 228.58383
157.11215 93.823952 229.58469
157.65787 93.714027 230.5843
158.22154 93.823975 229.59473
158.77206 93.71402 230.59164
159.32915 93.713982 230.59332
159.88687 93.603989 231.58757
160.44638 93.603912 231.5865
161.00046 93.71376 230.59019
161.54973 93.823578 229.59258
162.1147 93.713501 230.58141
162.67183 93.713341 230.57495
163.25906 93.493279 232.55484
163.82103 93.493073 232.54564
164.4227 93.272964 234.52255
164.96725 93.38266 233.51683
165.53168 93.382401 233.50346
166.09613 93.382111 233.48877
166.69005 93.271858 234.46619
167.19325 93.491425 232.46182
167.82388 93.271172 234.42976
168.35419 93.38076 233.4162
168.87971 93.490318 232.40147
169.4834 93.379951 233.37172
170.13579 93.159592 235.33334
170.70528 93.159134 235.30745
171.32349 93.048691 236.27289
171.89548 93.048172 236.24413
172.46751 93.047646 236.21394
172.9837 93.157066 235.18997
173.49513 93.266464 234.16492
174.18388 93.045921 236.11499
174.8192 92.935318 237.07115
175.32838 93.044655 236.04207
175.83281 93.153969 235.01187
176.54341 92.933304 236.95496
177.04556 93.04258 235.92213
177.61809 93.04184 235.87938
178.19066 93.041069 235.83519
179.0031 92.710281 238.76176
179.41837 92.929466 236.73314
179.99356 92.928627 236.68451
180.48167 93.037766 235.64438
181.41284 92.596825 239.5527
181.81155 92.815933 237.51984
182.38947 92.814987 237.46532
183.06424 92.703987 238.39857
183.74393 92.592949 239.32993
184.02213 92.922012 236.30444
184.59798 92.920959 236.24446
185.28033 92.809845 237.17123
185.74995 92.918777 236.12016
186.3261 92.917648 236.05585
186.90234 92.916481 235.99011
187.59476 92.805237 236.91005
188.41055 92.583878 238.8148
189.11525 92.472542 239.73041
189.94817 92.251083 241.63017
190.79086 92.029579 243.52727
191.38708 92.028198 243.45033
191.85287 92.136879 242.3866
192.44695 92.135437 242.30699
193.04114 92.133972 242.22589
193.35988 92.352692 240.17462
193.94951 92.351166 240.09119
194.53926 92.349609 240.00623
195.27422 92.237885 240.90308
195.86667 92.236252 240.81473
196.4593 92.234589 240.72491
197.05208 92.232887 240.63358
197.645 92.231155 240.54068
198.2381 92.229378 240.44627
198.83134 92.22757 240.35033
199.74872 92.005371 242.2141
200.34715 92.003479 242.11426
201.27942 91.781151 243.97252
202.05231 91.668961 244.84814
202.48688 91.777138 243.7634
202.74269 91.995514 241.6994
203.51855 91.883202 242.56984
203.76263 92.10154 240.50488
204.54134 91.989136 241.37177
205.14128 91.986923 241.25937
205.92769 91.874413 242.1217
206.34181 91.982391 241.02982
207.13351 91.869774 241.88805
207.54321 91.977676 240.79393
208.53618 91.754654 242.62231
209.34071 91.641861 243.47325
209.74867 91.749649 242.37473
210.35527 91.747078 242.24849
210.96213 91.744461 242.12061
211.56923 91.741798 241.99107
211.96599 91.849457 240.88857
212.99722 91.625961 242.69783
213.60754 91.623138 242.56279
214.21812 91.620285 242.42604
215.2697 91.396553 244.22592
216.10854 91.283142 245.05328
216.72729 91.280098 244.90981
217.34636 91.277 244.76457
218.19586 91.163391 245.58449
218.81798 91.160187 245.43521
219.20535 91.267403 244.3185
220.06314 91.153603 245.13139
220.68619 91.150238 244.97684
221.30957 91.146812 244.82051
221.93329 91.143333 244.6624
222.80466 91.029251 245.46512
222.93199 91.24678 243.37888
223.8065 91.132568 244.17735
224.43161 91.128876 244.01205
225.05707 91.125122 243.84494
225.68289 91.121307 243.67601
226.57118 91.006805 244.46393
227.46478 90.892204 245.24864
228.36369 90.777527 246.03011
229.26794 90.66275 246.8083
230.44949 90.43718 248.53917
231.36691 90.322205 249.31006
231.73587 90.428612 248.16859
232.3797 90.424232 247.98041
233.30579 90.309029 248.74332
233.09993 90.636879 245.69357
233.74008 90.632355 245.50099
234.66998 90.516953 246.25726
235.31349 90.512291 246.06
236.54602 90.285858 247.75928
237.49219 90.170166 248.50494
238.74306 89.943474 250.19475
239.40086 89.938477 249.98547
240.66763 89.711563 251.66637
240.71793 89.928314 249.56073
240.75876 90.145081 247.45627
242.03697 89.917892 249.12766
242.69724 89.912598 248.90794
243.35803 89.907242 248.68614
244.65778 89.679718 250.34447
245.6463 89.563126 251.05692
245.66763 89.779732 248.9472
246.65973 89.663002 249.65448
247.32808 89.657326 249.42009
247.99695 89.651588 249.1835
249.00067 89.534615 249.88062
250.00995 89.417549 250.57364
251.70351 89.077934 253.13074
253.07086 88.849388 254.74689
253.41563 88.954514 253.56038
254.44977 88.837059 254.23596
255.83894 88.608185 255.83766
255.12689 89.047211 251.85701
255.81317 89.040947 251.59525
256.85703 88.923248 252.25859
257.18729 89.028297 251.0647
257.87515 89.021927 250.79585
259.6575 88.681152 253.29799
260.354 88.67466 253.02138
261.42072 88.556641 253.6647
261.74844 88.661606 252.4608
262.44641 88.65506 252.17688
263.14484 88.648506 251.89049
263.84372 88.641945 251.60167
264.16058 88.747009 250.39319
264.47272 88.852127 249.18437
264.78015 88.957306 247.97527
265.47302 88.950859 247.67982
65.1735 92.801895 221.18604
65.790184 92.807259 221.44933
66.792244 92.921761 220.79428
65.873215 92.490738 224.72112
66.877129 92.605286 224.06279
67.87558 92.719788 223.40024
68.868568 92.834244 222.73341
69.856094 92.948647 222.06238
71.208557 93.171989 220.46469
71.814697 93.177299 220.70776
72.420425 93.182587 220.94873
73.025734 93.187866 221.18761
73.270309 93.084213 222.35089
73.519524 92.980591 223.51404
74.483818 93.094688 222.82024
75.442627 93.208717 222.12241
76.395927 93.32267 221.42064
76.996078 93.327751 221.64619
77.940926 93.441574 220.93752
77.852402 93.229065 223.02441
78.793831 93.342789 222.31079
79.054573 93.239014 223.46332
80.660233 93.569977 220.87207
80.920082 93.466118 222.02063
82.174706 93.688194 220.35596
82.763725 93.692886 220.56296
83.35231 93.69754 220.76802
83.617905 93.593559 221.91148
84.528152 93.706696 221.17245
84.797882 93.602661 222.3138
85.387215 93.60714 222.51212
85.350998 93.394547 224.5959
86.254524 93.507454 223.84758
86.845062 93.511795 224.04111
87.435188 93.51609 224.23273
88.327484 93.628769 223.47559
89.214386 93.741364 222.71501
90.095917 93.853867 221.95103
90.972076 93.966286 221.18369
92.135544 94.186989 219.46294
92.127975 93.974159 221.54065
92.993034 94.086357 220.76491
93.567543 94.090149 220.93822
94.141678 94.093895 221.10979
94.715431 94.09758 221.27965
95.566643 94.209496 220.49321
96.137207 94.213066 220.65887
96.980286 94.324829 219.86688
97.547676 94.328285 220.02844
98.114731 94.331696 220.18831
98.681442 94.335052 220.34651
99.510834 94.446541 219.54433
99.553322 94.233444 221.61732
100.37959 94.344818 220.81116
100.43375 94.131699 222.88416
101.25693 94.242966 222.07405
101.57346 94.137924 223.18498
102.14285 94.140968 223.33295
102.71194 94.143959 223.47928
103.76746 94.363052 221.6962
104.33105 94.365921 221.83804
104.65591 94.260704 222.94344
105.22141 94.263496 223.0827
105.55304 94.158218 224.18672
105.88931 94.052917 225.2903
106.68755 94.163589 224.4585
107.48064 94.274208 223.62393
108.26859 94.38475 222.78667
108.6087 94.279297 223.88512
109.39127 94.389732 223.04364
109.73576 94.28421 224.14009
110.08492 94.178665 225.2361
110.65029 94.18103 225.36026
111.21543 94.18335 225.48289
112.1938 94.401443 223.6591
112.54934 94.295761 224.75058
113.71696 94.62162 221.94772
114.2715 94.623734 222.06223
114.82582 94.625816 222.17526
115.37996 94.627853 222.28679
115.93389 94.62986 222.39682
116.10822 94.416145 224.4572
116.47935 94.310257 225.5416
117.22484 94.419998 224.6718
117.9653 94.529686 223.79959
118.52073 94.531509 223.90276
119.25356 94.641106 223.02628
119.80621 94.642853 223.1261
120.3587 94.644569 223.22447
120.74072 94.538467 224.30086
121.4632 94.647888 223.41687
122.34612 94.865036 221.55029
122.73009 94.758835 222.62282
123.11876 94.652626 223.69472
123.82852 94.761887 222.80296
124.22174 94.655617 223.87283
124.61964 94.549332 224.94203
125.1732 94.550758 225.02791
125.87515 94.659866 224.12938
126.27992 94.553513 225.19545
126.97678 94.662552 224.29333
127.38612 94.556145 225.35732
127.93903 94.557411 225.43616
128.35538 94.450966 226.49834
128.77643 94.344498 227.5598
129.59708 94.56105 225.66422
130.27875 94.669884 224.75171
130.95551 94.778679 223.83716
131.50293 94.77977 223.90698
132.17223 94.888489 222.98878
132.47789 94.67421 225.02951
133.02744 94.675224 225.09552
133.57687 94.676208 225.16016
134.23856 94.784813 224.2356
134.67548 94.678101 225.28531
135.22466 94.679016 225.34583
135.77376 94.679901 225.40497
136.22006 94.573135 226.45163
136.6711 94.466347 227.49744
137.32266 94.574783 226.56361
137.87386 94.575569 226.61758
138.33189 94.468719 227.65997
138.88535 94.469467 227.71144
139.52699 94.577789 226.77124
139.99205 94.470886 227.81024
140.3784 94.256348 229.83896
140.9364 94.257011 229.88535
141.49435 94.257645 229.93036
141.89975 94.04306 231.95657
142.38857 93.936066 232.99066
143.02499 94.04422 232.0405
143.65656 94.152359 231.08858
144.21663 94.152878 231.12692
144.90511 94.368538 229.1797
145.4603 94.369019 229.215
145.89661 94.154312 231.23381
146.57054 94.369896 229.28157
147.01639 94.155159 231.29823
147.57622 94.155548 231.32837
148.18581 94.263489 230.36423
148.79057 94.371407 229.39845
149.30049 94.264168 230.4175
149.8152 94.156906 231.43539
150.37486 94.157188 231.45874
150.89673 94.049889 232.47423
151.45874 94.05014 232.49493
152.02075 94.050369 232.5143
152.58273 94.050568 232.5323
153.1447 94.050751 232.54895
153.73242 94.158478 231.57036
154.31534 94.266182 230.59027
154.87245 94.266304 230.60274
155.44814 94.373962 229.61981
155.98665 94.266495 230.62357
156.54373 94.266556 230.63199
157.10081 94.266602 230.63904
157.64891 94.159065 231.6389
158.20839 94.159073 231.64326
158.77203 94.266609 230.6521
159.33087 94.37413 229.65956
159.88681 94.158966 231.64827
160.44629 94.15889 231.64725
161.01122 94.051231 232.63905
161.5731 94.051117 232.63527
162.14525 93.94342 233.62428
162.69693 94.050827 232.62366
163.27391 93.943085 233.60992
163.82082 94.050461 232.60661
164.40262 93.942673 233.59007
164.96701 93.942444 233.57808
165.53142 93.942184 233.56474
166.09584 93.94191 233.55005
166.68974 93.834038 234.52774
167.22478 93.941292 233.51653
167.78928 93.940948 233.49771
168.35381 93.94059 233.47752
168.87932 94.047791 232.46252
169.48299 93.939812 233.43304
170.13535 93.724236 235.3952
170.75108 93.616211 236.36244
171.323 93.615738 236.33504
171.94604 93.50766 237.29915
172.46698 93.614731 236.27611
172.98315 93.721786 235.25192
173.49457 93.828819 234.22659
174.12259 93.72065 235.18489
174.6924 93.720047 235.14928
175.26224 93.719429 235.11226
175.69635 93.933983 233.09015
176.40211 93.718117 235.0341
176.97214 93.71743 234.9929
177.54224 93.716713 234.95036
178.03485 93.823586 233.91519
178.92238 93.392372 237.83391
179.33522 93.606812 235.80499
179.99271 93.498383 236.74718
180.65511 93.389915 237.68753
181.5015 93.066154 240.60635
181.9026 93.280518 238.57275
182.48289 93.279594 238.51804
183.16005 93.171005 239.45135
183.64374 93.277679 238.40428
183.8179 93.707268 234.38931
184.38892 93.706261 234.32985
184.96002 93.705223 234.26897
185.42239 93.811829 233.21843
185.99127 93.810738 233.15498
186.67389 93.701958 234.07776
187.47751 93.485466 235.98593
188.29086 93.268921 237.89156
188.9931 93.160019 238.80772
189.70029 93.051071 239.72186
190.66382 92.7267 242.60631
191.25758 92.725357 242.52974
191.72095 92.831703 241.46609
192.17961 92.938026 240.4016
192.9043 92.828896 241.30611
193.22061 93.042892 239.25468
193.80779 93.041428 239.17162
194.3951 93.039917 239.08707
195.27261 92.822899 240.96811
195.86505 92.82132 240.87984
196.60751 92.711945 241.77284
197.35495 92.602524 242.6636
197.79797 92.708603 241.58794
198.39345 92.706879 241.49319
198.82954 92.812904 240.41563
199.5849 92.703323 241.2991
200.18088 92.7015 241.19972
201.11066 92.484024 243.05894
201.88107 92.37429 243.9353
202.31319 92.480148 242.8508
202.74065 92.585983 241.76553
203.33997 92.583954 241.65796
203.76053 92.689743 240.57086
204.53918 92.579796 241.43806
205.13908 92.577652 241.32571
205.92543 92.467598 242.18839
206.5282 92.46537 242.07242
207.32227 92.355209 242.93048
207.73436 92.460785 241.83566
208.53374 92.350525 242.68951
209.13983 92.348114 242.56662
209.74614 92.345665 242.44205
210.35271 92.34317 242.31589
210.9595 92.34063 242.18806
211.7747 92.230087 243.03073
212.38445 92.227448 242.89908
213.20747 92.116783 243.73683
213.82019 92.114044 243.6013
214.43317 92.111252 243.4641
215.04642 92.108421 243.32521
216.10553 91.889481 245.12234
216.72426 91.886528 244.97893
217.34326 91.883522 244.83377
218.42282 91.664345 246.62119
218.81476 91.769287 245.50485
219.43713 91.766113 245.35393
220.29729 91.6548 246.16655
220.68282 91.759628 245.04674
221.06375 91.864433 243.92635
221.92981 91.75293 244.73248
222.0592 91.965805 242.64691
222.42888 92.070518 241.52434
223.0462 92.067024 241.36287
223.91855 91.955276 242.16058
224.53903 91.95166 241.9949
225.41946 91.839767 242.78702
226.04315 91.836029 242.61702
227.19626 91.61573 244.36171
227.82565 91.611847 244.18668
228.45541 91.607903 244.00978
229.62946 91.387314 245.74339
230.81378 91.166595 247.47227
231.17773 91.27076 246.33205
232.09592 91.158188 247.09949
