ply
format ascii 1.0
comment PCL generated
element vertex 1598
property float x
property float y
property float z
element camera 0
property float view_px
property float view_py
property float view_pz
property float x_axisx
property float x_axisy
property float x_axisz
property float y_axisx
property float y_axisy
property float y_axisz
property float z_axisx
property float z_axisy
property float z_axisz
property float focal
property float scalex
property float scaley
property float centerx
property float centery
property int viewportx
property int viewporty
property float k1
property float k2
end_header
85.332199 145.6758 220.27158
86.233101 145.55576 219.52715
86.815605 145.54887 219.72215
86.776718 145.76799 221.80296
87.979324 145.53532 220.10658
89.171524 145.30286 218.40508
90.050339 145.18346 217.64479
90.322746 145.2899 218.77524
91.49379 145.05789 217.06186
92.0634 145.05167 217.24089
92.339577 145.15829 218.36754
91.748642 145.60321 222.34456
92.905663 145.37166 220.62016
93.195564 145.47838 221.74612
93.773178 145.47244 221.9193
94.631035 145.35394 221.1376
95.483574 145.23558 220.35268
96.055107 145.22993 220.5192
96.626266 145.22438 220.68401
97.467834 145.10634 219.89107
98.035828 145.10095 220.05176
98.869278 144.98314 219.25331
99.434128 144.97792 219.40996
99.998627 144.97279 219.56494
100.3044 145.08015 220.67772
101.12666 144.96274 219.86993
101.9437 144.84541 219.05917
102.50446 144.84059 219.20692
102.56777 145.06055 221.27719
103.13283 145.05582 221.42299
103.94126 144.93886 220.60381
104.26208 145.04659 221.70969
104.5875 145.15434 222.81519
105.39015 145.03763 221.98997
106.18763 144.92102 221.16191
106.74852 144.91673 221.29749
107.5381 144.80032 220.46454
108.09601 144.79617 220.59636
108.65366 144.79211 220.72665
109.21107 144.7881 220.85536
109.54903 144.89629 221.9518
110.54185 144.66818 220.13844
111.09607 144.66438 220.26201
112.07376 144.43649 218.44234
112.41322 144.54491 219.53319
112.96432 144.54132 219.65169
113.10612 144.76183 221.71355
113.86374 144.64632 220.85713
114.21696 144.75487 221.94508
115.16652 144.52753 220.11073
115.71655 144.52422 220.22177
116.45873 144.40903 219.35643
117.00594 144.40585 219.46407
117.92793 144.17889 217.61848
118.84003 143.95204 215.76961
119.37695 143.94908 215.87102
119.9137 143.94618 215.97104
120.27248 144.05521 217.0473
120.28525 144.38797 220.0793
120.31241 144.7207 223.11246
121.03596 144.60609 222.23083
121.25027 144.82703 224.28514
121.63977 144.93614 225.35982
122.36041 144.8217 224.47342
123.23686 144.59555 222.60416
123.46995 144.81659 224.65594
124.18045 144.70233 223.76363
124.88597 144.58817 222.86914
125.43539 144.5858 222.95464
126.28207 144.36002 221.07362
127.11895 144.13432 219.18973
127.65829 144.13214 219.26958
128.19751 144.13 219.34804
128.7366 144.12791 219.42514
128.86575 144.46092 222.45375
129.41187 144.45889 222.52911
129.69431 144.68025 224.573
130.24503 144.6783 224.64621
130.54175 144.89969 226.68924
131.47067 144.56287 223.80255
131.89653 144.6727 224.85751
132.68625 144.44766 222.95215
133.34891 144.33432 222.03104
133.89178 144.33264 222.09508
134.32208 144.44263 223.14513
134.75713 144.55261 224.19435
135.19688 144.66264 225.24278
135.6414 144.77271 226.29033
136.2963 144.65964 225.36021
136.84587 144.65817 225.41684
137.59138 144.43364 223.49431
138.13599 144.43228 223.54776
138.7737 144.31941 222.61052
139.31577 144.31815 222.66103
139.85774 144.31691 222.71021
140.31371 144.42725 223.74808
140.69087 144.64914 225.7753
141.15875 144.75954 226.81151
141.63138 144.86996 227.8468
142.10876 144.98041 228.88107
142.73875 144.86786 227.93231
143.43538 144.64384 225.99069
143.91502 144.75439 227.02107
144.53281 144.64198 226.06738
144.95287 144.86409 228.0871
145.4444 144.97473 229.11423
146.00017 144.97392 229.14832
146.55589 144.97314 229.18105
147.16626 144.86092 228.22017
147.77176 144.74873 227.25766
148.32257 144.74808 227.28607
148.87334 144.74744 227.31313
149.42409 144.74684 227.33887
149.93214 144.85776 228.35611
150.5657 144.63429 226.39334
151.11397 144.6338 226.41498
151.59132 144.85628 228.42151
152.14435 144.85585 228.4406
152.72795 144.744 227.46504
153.27853 144.74365 227.4814
153.80327 144.8548 228.48987
154.40303 144.63159 226.5166
154.95114 144.63135 226.52885
155.44345 144.96548 229.52063
155.96637 145.1882 231.51762
156.55406 144.96515 229.53876
157.09798 145.07649 230.53951
157.65567 145.0764 230.54524
158.22652 144.85345 228.5621
158.78358 144.74199 227.57132
159.32875 145.07635 230.55428
159.88582 144.96497 229.56084
160.44414 145.07651 230.55356
161.00729 145.18808 231.54491
161.56741 145.18823 231.54117
162.11729 145.07697 230.54233
162.67503 145.07719 230.53586
163.24783 145.1889 231.52171
163.77309 144.96629 229.5253
164.32846 144.96663 229.51483
164.88387 144.96698 229.50301
165.51329 145.30176 232.47025
165.99472 144.9678 229.47534
166.63863 145.30267 232.43945
167.23322 145.41464 233.41527
167.76407 145.30371 232.40323
168.25343 145.08134 230.39688
168.88962 145.3049 232.36148
169.45245 145.30554 232.33858
170.01532 145.30623 232.31429
170.57822 145.30695 232.28862
171.14117 145.30769 232.26157
171.65303 145.19701 231.24074
172.21365 145.19783 231.21109
172.77432 145.19868 231.18005
173.39339 145.31108 232.13969
174.07806 145.53503 234.0896
174.6461 145.53601 234.05399
175.14864 145.42552 233.02544
175.71437 145.42656 232.9872
176.35056 145.53918 233.93887
176.84604 145.42879 232.9066
177.41196 145.42995 232.86421
178.05556 145.54269 233.81116
178.46399 145.32086 231.78471
179.02771 145.32214 231.73834
179.59149 145.32346 231.69058
180.15536 145.32481 231.64142
180.7193 145.3262 231.59087
181.3754 145.43921 232.52843
181.94189 145.44069 232.47482
182.60538 145.5538 233.40887
183.37306 145.77856 235.32982
184.04878 145.89178 236.25981
184.7294 146.00507 237.18788
185.41496 146.11839 238.114
185.99649 146.12018 238.05035
186.46675 146.01038 236.9978
186.81851 145.78896 234.95709
187.50931 145.90248 235.87691
188.08643 145.90442 235.80803
188.66365 145.9064 235.73767
189.48787 146.13177 237.63802
190.19601 146.24554 238.5499
190.78085 146.24768 238.47426
191.62717 146.47327 240.36736
192.2171 146.47552 240.2881
192.94267 146.58955 241.1918
193.39734 146.48019 240.12509
193.98767 146.4826 240.04135
194.57813 146.48506 239.95609
195.16875 146.48758 239.86931
195.75951 146.49014 239.78101
196.35042 146.49275 239.69122
197.09396 146.60721 240.58185
197.37782 146.38634 238.52544
197.9668 146.3891 238.43146
198.71567 146.50372 239.31673
199.46954 146.61844 240.19968
199.89928 146.50954 239.12029
200.9924 146.84808 241.95853
201.76138 146.96303 242.83435
202.19167 146.85431 241.75029
202.79156 146.8575 241.6438
203.21497 146.74886 240.55788
203.63368 146.64023 239.47124
203.86615 146.41971 237.40694
204.64117 146.53503 238.27249
205.6077 146.76241 240.11157
206.39531 146.87791 240.97162
206.99667 146.88153 240.85399
207.98578 147.10922 242.68401
208.78867 147.22502 243.53633
209.00078 147.00479 241.46507
209.80658 147.12073 242.31361
210.41399 147.12469 242.18686
211.2276 147.24083 243.03059
211.42119 147.02074 240.9568
212.44858 147.24911 242.76773
212.84619 147.14125 241.66328
213.4549 147.14555 241.5282
213.84572 147.03775 240.42201
215.11438 147.37875 243.1908
215.2827 147.15889 241.11288
216.56908 147.50015 243.87433
217.41452 147.61711 244.69624
218.26517 147.73418 245.51526
218.42244 147.51453 243.43335
218.80551 147.40717 242.31744
218.94624 147.18753 240.23622
219.79816 147.3049 241.04825
220.41263 147.31003 240.89371
220.78227 147.20285 239.77448
222.13779 147.54533 242.504
223.00827 147.66316 243.30457
223.37897 147.55623 242.17998
224.00008 147.5618 242.01526
225.13649 147.79242 243.76814
225.76329 147.7982 243.59848
226.91525 148.02914 245.34367
227.81262 148.14769 246.12662
228.71532 148.26637 246.90627
229.62338 148.38519 247.68268
230.2645 148.39151 247.50012
230.63126 148.28526 246.36079
231.54797 148.40442 247.12929
232.19037 148.41101 246.94095
232.26874 148.19221 244.84521
232.62233 148.08618 243.70251
232.97137 147.98016 242.5593
233.60558 147.98701 242.36612
234.53238 148.10678 243.12067
235.75925 148.33955 244.82059
236.40228 148.34676 244.61916
237.64507 148.57988 246.31039
238.89828 148.81322 247.9964
239.55273 148.8208 247.78564
240.5148 148.94148 248.51776
241.17273 148.94928 248.30202
241.83115 148.95717 248.08415
242.17545 148.85205 246.92174
242.51526 148.74698 245.75887
243.1702 148.75508 245.53632
243.82564 148.76329 245.31165
245.13098 148.99802 246.96284
245.79251 149.00647 246.73213
247.11397 149.24158 248.3737
248.44604 149.47693 250.00952
249.11923 149.48578 249.76859
249.79295 149.49471 249.52536
250.80702 149.61716 250.21353
251.48434 149.62631 249.96486
252.50708 149.74902 250.64566
253.18803 149.75839 250.39146
254.21942 149.88138 251.06477
255.25644 150.00453 251.73383
255.94406 150.01419 251.47064
255.91718 149.79662 249.35123
256.60077 149.80637 249.08527
257.28491 149.81618 248.81694
258.33472 149.93985 249.47018
259.02243 149.94984 249.19608
260.08087 150.07375 249.84146
261.14493 150.19778 250.48235
261.8392 150.20804 250.19891
262.53394 150.21832 249.91299
263.22916 150.22868 249.62466
263.54175 150.12503 248.41714
263.07849 149.79317 245.37816
262.9884 149.57524 243.25775
264.06061 149.69965 243.87947
67.765007 146.59711 214.51363
68.365074 146.58817 214.77104
68.578545 146.69566 215.94139
68.029373 147.03589 218.94389
69.401039 146.79417 217.36497
70.004898 146.78526 217.61609
70.232307 146.89267 218.78436
71.95858 146.5351 216.27138
73.298218 146.29399 214.67142
73.890381 146.2854 214.91
74.848053 146.16074 214.22314
75.073502 146.26837 215.38098
75.664429 146.25995 215.61342
76.254944 146.25159 215.8438
77.200813 146.12729 215.14478
77.4347 146.23503 216.29845
78.725334 145.99504 214.66422
78.960869 146.10287 215.81483
79.201019 146.21071 216.96538
79.78891 146.20274 217.18369
80.716972 146.07907 216.46696
81.301453 146.07129 216.6804
81.88549 146.06358 216.89189
82.802132 145.94028 216.16566
83.052208 146.0484 217.30905
83.962959 145.92531 216.57715
84.217171 146.03351 217.71849
84.798981 146.0262 217.92035
84.739342 146.24997 220.00063
85.007271 146.35825 221.14143
85.595276 146.35107 221.34018
86.495872 146.22856 220.59428
86.770004 146.33698 221.73193
87.972748 146.09932 220.03627
89.165085 145.86188 218.33551
90.044006 145.73993 217.57564
90.01593 145.96396 219.65271
91.189583 145.72694 217.94086
91.761765 145.72058 218.12079
92.040482 145.82948 219.24805
91.742592 146.16875 222.27486
92.899734 145.93224 220.55121
93.760948 145.81102 219.77415
94.050507 145.9201 220.89818
94.625336 145.91417 221.069
95.199791 145.90831 221.2381
95.773865 145.90253 221.40546
96.34758 145.89684 221.57109
96.920944 145.8912 221.735
98.030548 145.65579 219.9843
98.864105 145.53545 219.18626
99.429024 145.53014 219.34302
99.993599 145.52489 219.49811
100.55785 145.51973 219.65154
101.12177 145.51463 219.8033
101.9389 145.39481 218.99294
102.49973 145.38989 219.14079
102.56306 145.61456 221.2106
103.1282 145.60974 221.35646
104.1804 145.37555 219.57463
104.49881 145.48561 220.6797
105.06061 145.48103 220.82011
105.62212 145.47652 220.95892
106.18335 145.47208 221.09618
106.97573 145.35307 220.26575
107.53398 145.34879 220.39922
108.31848 145.22998 219.56389
109.09782 145.11128 218.72589
109.6504 145.10722 218.85358
110.20273 145.10324 218.97972
110.75481 145.09932 219.10434
111.09234 145.20995 220.19748
111.64639 145.20615 220.31961
112.20021 145.20239 220.4402
112.96078 145.08426 219.58769
113.30716 145.19507 220.6769
114.06242 145.0771 219.82033
114.61293 145.07361 219.93439
115.16321 145.07018 220.047
115.7133 145.0668 220.1581
116.26318 145.06351 220.26776
116.81287 145.06024 220.37592
117.73739 144.8284 218.53143
118.46692 144.71097 217.65968
119.1914 144.59364 216.78558
119.5504 144.70496 217.86307
120.09187 144.70201 217.9626
120.28246 144.92764 220.01639
120.48256 145.15327 222.07051
121.03324 145.15045 222.1675
121.41566 145.2619 223.24216
121.80278 145.37338 224.31622
122.35782 145.3707 224.4097
123.23435 145.13969 222.54102
123.46745 145.36546 224.59233
124.17802 145.24878 223.70035
124.88359 145.13216 222.80618
125.5842 145.01559 221.90981
126.27982 144.89911 221.01131
126.97046 144.7827 220.11066
127.51228 144.78046 220.1909
128.05396 144.77827 220.26976
128.59552 144.77612 220.34724
128.7271 145.11627 223.37543
129.27567 145.1142 223.45116
129.82413 145.11215 223.52545
130.50185 144.99612 222.61339
130.79376 145.22227 224.65529
131.71793 144.87827 221.76883
132.26112 144.87642 221.83702
132.80423 144.87463 221.90384
133.34723 144.87288 221.96927
134.00502 144.75717 221.04652
134.32047 144.98351 223.08313
134.75554 145.09586 224.13213
135.30299 145.09427 224.19269
135.74513 145.20668 225.23972
136.29483 145.20517 225.29778
136.74403 145.31766 226.34286
137.394 145.20226 225.40981
138.13466 144.97295 223.48601
138.77242 144.85767 222.54904
139.40529 144.74243 221.61026
140.03328 144.62723 220.66969
140.65637 144.5121 219.72739
140.94038 144.85269 222.74323
141.48221 144.85155 222.78839
141.86652 145.07828 224.813
142.33672 145.1911 225.84645
142.88559 145.19006 225.88823
143.50594 145.07515 224.9377
143.9832 145.18808 225.96765
144.53192 145.18715 226.00536
144.95201 145.41403 228.02452
145.38168 145.64093 230.043
145.9399 145.64009 230.07724
146.55515 145.52542 229.11826
147.16554 145.41078 228.15768
147.77109 145.2962 227.19547
148.32193 145.29552 227.22389
148.92018 145.181 226.25859
149.42351 145.29427 227.27672
149.93161 145.40755 228.29369
150.5652 145.17931 226.33148
151.07565 145.29266 227.34587
151.55547 145.5199 229.35197
152.14394 145.40561 228.37822
152.72758 145.29137 227.40295
153.24997 145.40485 228.41241
153.80296 145.40453 228.42752
154.37935 145.29039 227.448
154.9299 145.29013 227.46037
155.44325 145.51759 229.45801
155.98241 145.63126 230.46112
156.55394 145.51726 229.47615
157.10927 145.51714 229.48318
157.6646 145.51706 229.48891
158.2265 145.40317 228.49979
158.78358 145.28931 227.50929
159.33057 145.51701 229.49792
159.88525 145.40323 228.50475
160.44122 145.51715 229.49722
161.002 145.63112 230.48831
161.55974 145.63129 230.48457
162.11749 145.63147 230.47946
162.68793 145.74556 231.46645
163.26317 145.85966 232.45198
163.79085 145.63228 230.45602
164.34868 145.63261 230.44551
164.88423 145.51913 229.4404
165.46437 145.63339 230.42041
165.96809 145.40613 228.41957
166.55066 145.52045 229.39684
167.13808 145.63481 230.37256
167.66174 145.5215 229.36102
168.18063 145.40822 228.34828
168.77295 145.52271 229.31981
169.41161 145.75108 231.28242
170.01602 145.86565 232.25075
170.57896 145.86638 232.22508
171.14194 145.86716 232.19803
171.65382 145.75407 231.17743
172.21449 145.75491 231.14777
172.77519 145.7558 231.11673
173.3943 145.87061 232.07608
174.01826 145.98546 233.03377
174.58394 145.98645 232.99834
175.14966 145.98749 232.96146
175.78342 146.10248 233.91438
176.42206 146.2175 234.86559
176.99278 146.21866 234.82422
177.56355 146.21986 234.78146
178.1344 146.22112 234.73727
178.62529 146.10846 233.70143
179.11143 145.99583 232.66457
179.59283 145.88324 231.62671
180.15674 145.88463 231.57753
180.63106 145.77209 230.53754
181.1927 145.77356 230.48578
181.94339 146.00299 232.4106
182.70383 146.2325 234.33308
183.27536 146.23412 234.27617
184.05043 146.46375 236.19437
184.83524 146.69345 238.11014
185.41672 146.69522 238.04794
185.78036 146.46901 236.00929
186.35721 146.47086 235.94472
186.7066 146.24469 233.90483
187.27882 146.24661 233.83792
188.08838 146.47665 235.74231
188.66565 146.47868 235.67195
189.36649 146.59482 236.58591
190.19814 146.82509 238.48325
190.78302 146.82729 238.40758
191.49872 146.9436 239.31525
192.21938 147.06001 240.22078
192.80948 147.06236 240.13997
193.39972 147.06477 240.05768
194.13046 147.18137 240.95738
194.58061 147.06975 239.88857
195.17126 147.07231 239.80174
195.90971 147.18909 240.69583
196.35306 147.07759 239.62354
197.24911 147.30867 241.49551
197.69035 147.19728 240.42056
198.28421 147.20012 240.32574
199.03799 147.31723 241.2099
199.7968 147.43442 242.09174
200.23143 147.32321 241.01172
201.16246 147.55478 242.86893
201.59503 147.44368 241.78622
201.85104 147.21832 239.72433
202.44617 147.22156 239.61865
203.04147 147.22485 239.5114
203.45781 147.11389 238.42543
203.86948 147.00296 237.33878
205.01263 147.34946 240.15645
205.79767 147.46736 241.01822
206.58777 147.58537 241.87744
207.00031 147.47469 240.78441
207.60196 147.47844 240.66512
208.20384 147.48225 240.54417
208.6073 147.3717 239.44824
209.40831 147.4901 240.29745
210.21443 147.60858 241.14397
211.23166 147.84166 242.95969
211.63368 147.73135 241.8577
212.45277 147.85013 242.69669
213.06372 147.85448 242.56267
213.45921 147.74434 241.45726
214.06827 147.74879 241.32042
214.89822 147.86794 242.15051
215.28722 147.75795 241.04169
216.57372 148.10652 243.80219
216.96329 147.99669 242.68993
217.80913 148.11623 243.5097
218.19443 148.0065 242.3952
218.5751 147.89682 241.28006
218.9512 147.78717 240.16443
220.04346 148.0218 241.93997
220.90317 148.14183 242.748
221.2778 148.03241 241.6277
222.14311 148.15263 242.43094
223.01369 148.27298 243.23109
223.13187 148.04889 241.14592
223.75061 148.05457 240.98177
224.62718 148.1752 241.77518
225.24913 148.18106 241.60675
226.13387 148.30194 242.39452
227.28882 148.53792 244.13647
227.91931 148.5441 243.9604
229.0899 148.78041 245.69447
229.99847 148.90186 246.46854
230.6376 148.90837 246.28465
231.55444 149.03006 247.05272
232.47665 149.15192 247.81738
232.83981 149.04359 246.67381
233.19843 148.93533 245.52977
233.83972 148.94229 245.33612
234.48145 148.94936 245.14052
235.41583 149.07176 245.89232
236.06097 149.07904 245.69197
236.7066 149.0864 245.48959
237.65234 149.2092 246.23225
238.90572 149.44753 247.9175
239.8649 149.57066 248.65204
240.82959 149.69394 249.38287
241.49011 149.70193 249.16615
242.46329 149.8255 249.8903
242.498 149.60266 247.78421
243.15753 149.6109 247.56194
244.13727 149.7348 248.27797
244.47815 149.62766 247.11096
245.78867 149.86746 248.75964
246.45529 149.87614 248.52698
247.45221 150.00063 249.22905
248.45468 150.12526 249.92711
249.12796 150.13428 249.68599
249.46448 150.02757 248.50839
250.47612 150.15259 249.19699
251.49338 150.27777 249.88145
252.17133 150.28717 249.63029
253.19724 150.41263 250.30734
253.87878 150.42224 250.05061
254.56088 150.43193 249.79155
255.2435 150.44171 249.53012
255.92667 150.45155 249.26636
256.25024 150.34534 248.07457
256.93188 150.3553 247.80705
258.34445 150.59776 249.38443
259.03223 150.60794 249.11015
260.09076 150.73447 249.755
261.52777 150.97745 251.31599
262.60004 151.10428 251.95081
263.29993 151.11482 251.6626
264.00027 151.12543 251.37193
263.93491 150.90311 249.24606
263.85974 150.68066 247.12204
263.77475 150.4581 244.99991
264.85211 150.58519 245.61893
67.364944 147.28983 215.3484
67.96756 147.28072 215.6071
68.569893 147.27161 215.86365
68.404373 147.50018 217.94963
70.154793 147.1347 215.45363
70.374924 147.24446 216.62068
70.975906 147.23549 216.86879
72.697243 146.87053 214.35486
73.660873 146.7431 213.67467
73.88205 146.853 214.83441
75.571709 146.48863 212.30196
75.42868 146.71716 214.38167
76.017128 146.70862 214.61327
76.605164 146.70013 214.84283
77.19278 146.69171 215.07036
77.426682 146.80174 216.22388
78.366707 146.67508 215.51939
78.604797 146.78516 216.67082
79.538895 146.65871 215.96042
80.124329 146.65063 216.17795
81.04998 146.52443 215.46077
81.293877 146.6347 216.6071
81.542358 146.74498 217.75331
82.461632 146.61906 217.02846
83.044846 146.61137 217.23621
83.955696 146.48572 216.50478
84.535522 146.47821 216.70779
84.468796 146.70673 218.78694
84.732216 146.81725 219.92776
84.682152 147.0457 222.00912
85.272743 147.03836 222.20885
85.862907 147.0311 222.40666
86.763168 146.90611 221.65933
87.966049 146.6635 219.96443
89.158524 146.42107 218.2644
90.037544 146.29657 217.50499
90.009491 146.52531 219.58159
90.885208 146.401 218.81775
91.459953 146.39449 218.99858
91.741203 146.50565 220.12645
91.445801 146.85202 223.15324
92.317429 146.72807 222.38144
93.469353 146.48674 220.65523
93.761452 146.59811 221.77979
94.058136 146.7095 222.90408
94.637627 146.70348 223.07472
95.49247 146.58011 222.28964
96.068741 146.57426 222.45609
96.644638 146.56851 222.62083
97.488525 146.44547 221.82768
98.858818 146.08792 219.11777
98.897034 146.31711 221.1897
99.466614 146.31171 221.34625
100.29433 146.18913 220.54224
101.11679 146.06668 219.73521
101.68047 146.06155 219.88547
102.24382 146.05652 220.03407
102.55826 146.16872 221.14253
102.87732 146.28094 222.25061
103.68839 146.15895 221.43285
104.01175 146.27129 222.53896
104.57852 146.26657 222.68071
105.38135 146.14485 221.85623
106.41289 145.9062 220.06377
107.2029 145.78474 219.23314
107.75876 145.78038 219.36612
108.76744 145.54211 217.56367
109.31789 145.53793 217.69238
109.42477 145.76772 219.75577
109.9796 145.76364 219.88255
110.53419 145.75961 220.00781
110.87421 145.87256 221.10129
111.85453 145.63489 219.28345
112.6154 145.51421 218.4328
113.16418 145.51048 218.55092
113.50816 145.62364 219.6394
114.26106 145.5032 218.78267
114.6095 145.61646 219.8692
114.96259 145.72975 220.95523
115.51517 145.72629 221.06691
116.25993 145.60614 220.20277
116.61971 145.71956 221.28583
117.54675 145.48283 219.44244
118.27878 145.36293 218.57152
119.00575 145.24312 217.69823
119.36723 145.35675 218.77594
119.91119 145.35374 218.87598
120.10422 145.58411 220.9297
120.30678 145.81447 222.98376
121.03046 145.69495 222.1028
121.58102 145.69212 222.19839
122.13144 145.68935 222.29253
122.68168 145.68661 222.38527
123.39261 145.56737 221.49646
123.62331 145.79791 223.54688
124.17554 145.79533 223.63568
124.72762 145.7928 223.72308
125.1284 145.90686 224.79068
126.12878 145.55486 221.92963
126.67561 145.55251 222.01204
127.22231 145.5502 222.09303
127.76888 145.54794 222.17265
128.45436 145.42926 221.26746
128.58838 145.77652 224.29517
129.27362 145.65793 223.38718
129.82213 145.65585 223.46155
130.37051 145.65382 223.53453
130.79184 145.76828 224.59116
131.59152 145.53348 222.69096
132.13718 145.53159 222.75949
132.68274 145.52975 222.82663
133.3455 145.41154 221.90613
134.00336 145.29341 220.98372
134.4313 145.40811 222.03299
134.864 145.52283 223.08148
135.30144 145.63759 224.12912
135.74359 145.75238 225.17595
136.29333 145.75082 225.23404
136.74258 145.86566 226.27885
137.39258 145.74785 225.34612
138.32451 145.28105 221.44572
138.7711 145.39603 222.48624
139.40402 145.27837 221.54776
140.03204 145.16075 220.6075
140.56923 145.15952 220.65498
140.77211 145.62358 224.6599
141.31879 145.62241 224.70554
141.70793 145.85387 226.72997
142.25931 145.85277 226.77328
142.73671 145.96799 227.80569
143.36191 145.85066 226.85582
143.84402 145.96596 227.88588
144.46431 145.84871 226.93294
144.95113 145.96408 227.96063
145.44272 146.07947 228.98726
145.93907 146.19489 230.01282
146.55437 146.0778 229.05414
147.11012 146.07703 229.08556
147.66585 146.07629 229.11559
148.27141 145.95934 228.15231
148.82465 145.95868 228.17953
149.42291 145.8418 227.2132
149.93105 145.95746 228.2299
150.52444 145.84067 227.26067
151.03734 145.95641 228.27489
151.51958 146.1884 230.28053
152.07747 146.18796 230.29984
152.69659 145.95508 228.33228
153.27785 145.83847 227.35588
153.82848 145.83813 227.3709
154.40248 145.7216 226.39165
154.95068 145.72134 226.40393
155.48026 145.83736 227.40794
156.01462 145.9534 228.41072
156.58139 145.83701 227.42595
157.13194 145.83688 227.43295
157.6825 145.83681 227.4386
158.2462 145.60429 225.45651
158.78777 145.7205 226.45268
159.33414 145.83676 227.44754
159.88469 145.83682 227.44783
160.43829 145.95314 228.44003
160.99669 146.0695 229.43088
161.55208 146.06966 229.42714
162.10747 146.06985 229.42206
162.67552 146.18633 230.40877
163.23334 146.1866 230.40097
163.77371 146.07066 229.3987
164.32916 146.07101 229.38824
164.88463 146.07138 229.37642
165.48947 146.30428 231.34906
165.96854 145.95599 228.35585
166.52167 145.95648 228.34003
167.13861 146.1895 230.30829
167.66231 146.07381 229.297
168.18123 145.95815 228.2845
168.81268 146.19128 230.2482
169.41229 146.30821 231.2178
169.97282 146.30891 231.1936
170.53339 146.30966 231.16801
171.04527 146.19418 230.14905
171.60352 146.19499 230.12085
172.1618 146.19585 230.09129
172.72014 146.19675 230.06038
173.27852 146.19766 230.02806
173.89772 146.31493 230.98576
174.39545 146.19965 229.95938
174.95398 146.20068 229.92297
175.64856 146.43437 231.86697
176.35281 146.66812 233.80894
176.99396 146.78561 234.75826
177.63998 146.90315 235.70583
178.21329 146.90443 235.66145
178.70662 146.78941 234.62567
179.11276 146.55809 232.59906
179.67905 146.55948 232.55104
180.24539 146.5609 232.50163
180.72217 146.446 231.46164
181.28625 146.44751 231.40965
182.03941 146.68176 233.33363
182.7054 146.79973 234.26683
183.27699 146.80138 234.2099
184.05212 147.03584 236.12752
184.73285 147.15398 237.05495
185.2054 147.03937 236.00549
185.67322 146.9248 234.95514
186.2477 146.92668 234.89078
186.70848 146.81216 233.83833
187.28076 146.81413 233.77141
188.09038 147.04901 235.6752
188.78873 147.16753 236.59059
189.49203 147.2861 237.50392
190.2003 147.40475 238.41516
190.78523 147.407 238.33945
191.50098 147.52577 239.2468
192.08858 147.52812 239.16777
192.67632 147.53052 239.08723
193.26418 147.53296 239.00525
193.85219 147.53546 238.92174
194.29755 147.42148 237.85385
195.02863 147.54062 238.7502
195.61707 147.54327 238.66217
196.20567 147.54599 238.57263
196.9469 147.66533 239.46295
197.53824 147.66817 239.37001
198.12973 147.67105 239.2755
198.88115 147.7906 240.1597
199.6376 147.91025 241.0416
200.06985 147.79669 239.96223
200.99854 148.03311 241.81921
201.59819 148.03633 241.71577
201.85423 147.80624 239.65436
202.44942 147.80954 239.54863
202.86803 147.6962 238.46402
203.46117 147.69962 238.35558
204.05449 147.70308 238.24554
205.2002 148.05685 241.06183
205.98773 148.17726 241.92279
206.59143 148.18098 241.80614
207.3867 148.30156 242.66241
207.60571 148.07181 240.59395
208.20767 148.0757 240.47295
208.61119 147.96283 239.37723
209.21117 147.96684 239.25346
209.81139 147.97093 239.12807
210.82384 148.20886 240.94415
211.42944 148.21312 240.81445
212.45705 148.45129 242.62407
213.28139 148.57266 243.45995
213.89513 148.57719 243.32362
214.50914 148.58179 243.18558
215.12344 148.58644 243.04584
215.51492 148.47418 241.93668
216.57846 148.71304 243.72845
216.96808 148.60091 242.61638
217.58356 148.60588 242.46977
218.43225 148.72801 243.28685
218.81546 148.61604 242.17136
219.43188 148.62126 242.01953
220.28891 148.7437 242.82954
221.39391 148.98344 244.59955
221.7735 148.87175 243.47815
222.64383 148.99454 244.27972
223.26933 149.00021 244.11711
223.64261 148.88872 242.99225
224.01129 148.77724 241.86687
224.37543 148.6658 240.74095
225.25496 148.78909 241.53149
226.1398 148.91251 242.31883
227.29489 149.15344 244.06009
228.19287 149.27716 244.84032
229.09619 149.401 245.61725
230.27721 149.64246 247.34586
230.64409 149.53163 246.20685
231.83835 149.77341 247.92807
232.48337 149.78027 247.73871
232.84659 149.66969 246.59532
233.20526 149.55914 245.4514
233.84663 149.56624 245.25763
234.19876 149.4558 244.11205
235.13077 149.58073 244.86418
235.7735 149.58812 244.66441
236.41672 149.5956 244.46269
237.06039 149.60318 244.25893
238.00673 149.72864 244.99907
239.26321 149.97208 246.68069
240.53021 150.21573 248.35699
241.18832 150.22385 248.14096
241.84695 150.23204 247.92279
241.87666 150.00446 245.81882
242.53127 150.01277 245.59807
243.18639 150.02121 245.37518
244.16425 150.14777 246.08945
245.47241 150.39258 247.73824
246.46387 150.51949 248.44379
246.80135 150.41028 247.27208
247.79892 150.53745 247.97147
248.46722 150.54657 247.73196
249.13608 150.55577 247.49022
250.4852 150.80164 249.11224
251.16016 150.8111 248.86414
251.83566 150.82065 248.61372
252.85916 150.94867 249.29123
253.53827 150.95842 249.03526
253.86536 150.84979 247.84869
255.25313 151.09668 249.44365
255.93634 151.1067 249.17966
256.62009 151.11681 248.91333
257.30435 151.12698 248.64461
258.7196 151.37453 250.22017
259.04218 151.26622 249.02231
260.1008 151.39537 249.66667
261.16504 151.52464 250.30653
262.61029 151.77286 251.8611
262.93222 151.66475 250.65454
264.01062 151.79437 251.28183
263.94522 151.56734 249.15643
264.25568 151.45915 247.94781
263.78494 151.1129 244.91119
265.25317 151.36166 246.44247
66.573212 148.10898 217.09302
67.180939 148.09964 217.35406
68.174744 147.96902 216.69862
68.011711 148.20229 218.78519
70.14608 147.70807 215.37492
70.744904 147.69894 215.62424
71.719521 147.56871 214.95288
73.435905 147.19637 212.43806
74.765602 146.94537 210.83559
75.347672 146.93663 211.07043
76.295349 146.80696 210.38051
76.147217 147.04028 212.45772
76.369743 147.15259 213.61221
76.596931 147.26488 214.76663
76.828751 147.37717 215.92105
76.711899 147.61024 218.00305
78.007874 147.36015 216.37234
78.596771 147.35175 216.59497
79.530968 147.22272 215.88507
80.11647 147.21449 216.10277
81.042213 147.08571 215.38608
81.286156 147.19827 216.53223
81.870331 147.19028 216.74403
82.454063 147.18234 216.95387
83.367973 147.05402 216.22574
83.948296 147.0463 216.43086
84.528198 147.03864 216.63403
84.461494 147.27187 218.71268
84.724945 147.38469 219.85336
84.674919 147.61784 221.9342
85.265587 147.61037 222.13408
85.855827 147.60297 222.33205
86.756195 147.47543 221.58519
87.651146 147.34804 220.83479
88.846245 147.1006 219.13637
89.727882 146.97353 218.3782
90.002922 147.08684 219.50897
90.58065 147.08006 219.6925
91.157967 147.07339 219.87427
91.734879 147.0668 220.05421
91.439476 147.42029 223.08022
92.311218 147.29381 222.30882
93.74894 146.92758 219.63258
94.03862 147.04126 220.75623
94.332886 147.15498 221.87958
94.909966 147.14886 222.04965
95.762436 147.02298 221.26424
96.336319 147.01706 221.43011
97.180649 146.89142 220.6391
97.482986 147.00543 221.75668
98.853432 146.64053 219.04781
99.155083 146.75473 220.162
99.461327 146.86894 221.27589
99.772171 146.98318 222.38947
100.59966 146.85817 221.5842
101.16833 146.85291 221.73584
101.98779 146.7281 220.92528
102.55336 146.72302 221.07303
103.36484 146.59845 220.25725
104.4148 146.35446 218.4762
105.45465 146.11063 216.69101
105.76796 146.22543 217.79286
106.32227 146.22079 217.93002
107.11018 146.09677 217.10075
107.66148 146.0923 217.23422
108.21251 146.08789 217.36612
108.98983 145.96417 216.52985
109.5379 145.95992 216.65807
109.64236 146.19446 218.72038
110.41405 146.07095 217.87834
110.53024 146.30554 219.9404
110.87032 146.42081 221.03362
111.85072 146.17825 219.21649
112.40222 146.17436 219.3367
112.95349 146.17053 219.45546
113.50455 146.16678 219.57265
114.45967 145.92465 217.74422
114.40629 146.27866 220.77519
114.95913 146.27507 220.88844
115.51176 146.27155 221.00018
116.44901 146.02977 219.16234
116.99638 146.0264 219.27017
117.91863 145.78484 217.42651
118.64587 145.66251 216.55501
119.36806 145.54025 215.68114
119.54446 145.77533 217.7341
119.90823 145.89134 218.81059
120.10129 146.12643 220.86378
120.47684 146.24249 221.93964
120.85709 146.35858 223.01483
121.57825 146.23666 222.13235
121.79733 146.47185 224.18449
122.51575 146.35005 223.29871
123.39 146.10936 221.43088
123.77914 146.22568 222.50058
124.32899 146.22305 222.58908
125.03228 146.10155 221.69518
125.57942 146.09904 221.78046
126.27516 145.97766 220.88261
126.81961 145.97528 220.96471
127.36394 145.97293 221.04539
127.90813 145.97064 221.12469
128.59126 145.84952 220.2195
128.85951 146.08508 222.26259
129.67421 145.8452 220.37048
130.21552 145.84311 220.44391
130.88608 145.72223 219.53151
131.04382 146.07674 222.55615
131.83876 145.83711 220.65594
132.37962 145.83522 220.72391
132.92039 145.83336 220.79047
133.46106 145.83154 220.85573
134.11655 145.71097 219.93332
134.65462 145.70926 219.99556
134.97244 145.94513 222.03001
135.51517 145.94348 222.09012
135.95255 146.06064 223.13612
136.39465 146.17783 224.18134
136.94196 146.1763 224.23784
137.58719 146.05606 223.30489
138.32314 145.81715 221.38182
138.86296 145.81577 221.43353
139.49352 145.69568 220.49516
140.03079 145.69438 220.54402
140.56802 145.69312 220.59149
140.93803 145.92932 222.6165
141.47995 145.92813 222.66174
141.8643 146.16437 224.68524
142.25822 146.40063 226.70819
142.8096 146.39954 226.75015
143.3609 146.39848 226.79079
143.84305 146.51614 227.82054
144.46338 146.39648 226.86792
144.88593 146.6329 228.8862
145.44185 146.63199 228.92171
145.99774 146.63112 228.95584
146.61066 146.51164 227.99734
147.16405 146.51085 228.02863
147.71741 146.5101 228.05855
148.27072 146.50938 228.08714
148.87148 146.39008 227.12259
149.46738 146.2708 226.15643
149.88783 146.62613 229.1568
150.48367 146.50693 228.18796
151.03685 146.50639 228.20979
151.55455 146.62454 229.2226
152.11008 146.62408 229.24178
152.72682 146.38641 227.27473
153.2775 146.38605 227.29111
153.82816 146.3857 227.30612
154.3788 146.38541 227.31984
154.92943 146.38513 227.33217
155.48004 146.3849 227.34319
156.01445 146.50333 228.34564
156.59505 146.26593 226.36833
157.14323 146.26581 226.37531
157.69141 146.26572 226.38095
158.24617 146.14705 225.39233
158.78778 146.26566 226.38821
159.33595 146.26569 226.38986
159.88414 146.26573 226.39017
160.4384 146.50307 228.375
160.99684 146.62183 229.36555
161.55226 146.62199 229.36183
162.12817 146.85944 231.34253
162.68843 146.85968 231.33604
163.23363 146.74133 230.33536
163.7915 146.74164 230.32617
164.32951 146.62337 229.32291
164.84047 146.38649 227.32568
165.44054 146.62418 229.29788
165.96901 146.506 228.29077
166.52217 146.50648 228.27495
167.10725 146.62566 229.2502
167.66289 146.62622 229.23161
168.21854 146.62683 229.21165
168.85245 146.86476 231.17467
169.41298 146.86545 231.15182
169.97354 146.86617 231.12758
170.58047 146.9856 232.09386
171.0948 146.86774 231.07504
171.65549 146.86856 231.04671
172.21622 146.86945 231.017
172.72105 146.75168 229.99455
173.27948 146.75264 229.96223
173.89871 146.8723 230.91965
174.39647 146.75465 229.89354
174.95505 146.75572 229.8571
175.71765 147.1129 232.79111
176.35397 147.23276 233.74185
176.99516 147.35268 234.69089
177.71645 147.59134 236.62822
178.29219 147.59264 236.58362
178.78798 147.47527 235.5479
179.19656 147.2392 233.52167
179.68045 147.12189 232.48413
180.24683 147.12332 232.43465
180.81331 147.12483 232.38382
181.28778 147.00761 231.34293
182.04099 147.24669 233.26633
182.70703 147.36708 234.19919
183.27866 147.36876 234.14221
183.85037 147.37048 234.08382
184.63048 147.60983 235.99892
185.10065 147.49286 234.94997
185.5661 147.37593 233.9001
186.13821 147.37784 233.836
186.59662 147.26096 232.78407
187.28273 147.38177 233.70349
188.09242 147.62149 235.60667
188.91188 147.8613 237.50722
189.74112 148.10118 239.40514
190.32838 148.10341 239.33049
190.91577 148.10571 239.25443
191.37259 147.98917 238.1926
191.95782 147.99156 238.11388
192.54318 147.994 238.03363
193.26665 148.1154 238.93517
193.85471 148.11795 238.85159
194.4429 148.12056 238.76656
195.03125 148.12321 238.67996
195.32443 147.88802 236.62817
196.2084 148.12869 238.5023
196.7972 148.13152 238.41118
197.38615 148.13438 238.31851
198.28998 148.37534 240.18509
199.20367 148.61636 242.04849
199.64064 148.50044 240.97009
200.23755 148.50359 240.87013
201.00171 148.62584 241.74733
201.60141 148.62912 241.6438
201.68559 148.27521 238.60503
202.2784 148.27858 238.49966
202.69461 148.16289 237.41568
203.46458 148.28546 238.28419
204.23961 148.40814 239.15025
205.38785 148.76923 241.96512
205.99139 148.77295 241.85002
206.59515 148.77673 241.73331
207.19914 148.78059 241.61497
207.41576 148.54611 239.54752
208.01534 148.55006 239.42691
208.81383 148.67334 240.27747
209.61743 148.79672 241.1254
210.22261 148.80092 240.99893
211.24002 149.04378 242.81328
211.64215 148.92883 241.71172
212.25053 148.93327 241.57974
212.85918 148.93777 241.44606
213.68387 149.06172 242.27988
214.29552 149.06639 242.14229
214.90744 149.07114 242.00302
215.74277 149.19537 242.82951
216.5833 149.31973 243.65314
216.97298 149.20528 242.54128
217.35806 149.09087 241.42886
218.20441 149.2155 242.24612
218.82059 149.22073 242.09593
219.43707 149.22604 241.944
220.5345 149.47057 243.71692
221.39932 149.59567 244.52289
221.77898 149.48167 243.4017
222.40173 149.48737 243.24144
223.02484 149.49312 243.07932
223.39572 149.3793 241.95529
223.76202 149.2655 240.83075
224.38127 149.27148 240.66454
225.26091 149.39729 241.45464
226.40833 149.64302 243.19905
227.83096 150.00873 245.89566
229.0014 150.25485 247.63014
229.64238 150.26147 247.44914
230.55612 150.38806 248.22093
230.92555 150.27499 247.08138
231.56776 150.28189 246.89458
231.9306 150.16891 245.7533
232.85349 150.29596 246.51514
233.49701 150.30313 246.32245
234.42822 150.43045 247.07809
234.78537 150.31778 245.93112
235.138 150.20514 244.78372
236.07556 150.33279 245.53181
236.42413 150.22029 244.38194
236.76819 150.10783 243.2316
238.01437 150.35605 244.91769
239.57573 150.72473 247.54333
240.53816 150.85315 248.27405
241.19637 150.8614 248.05782
242.47952 151.11044 249.7242
242.19955 150.75786 246.67751
242.22229 150.52556 244.57439
243.19473 150.65456 245.29204
243.85045 150.66322 245.06683
244.83145 150.79251 245.77757
245.81802 150.92195 246.48439
246.15051 150.81041 245.31464
247.14316 150.94011 246.0153
247.80652 150.94933 245.77744
248.80777 151.07932 246.47092
250.15454 151.33017 248.09303
251.16946 151.46053 248.77739
251.50011 151.34946 247.59602
252.52118 151.48004 248.27393
253.19783 151.48994 248.01872
253.52243 151.37901 246.83327
254.55269 151.50996 247.50133
255.23091 151.5201 247.23914
255.54945 151.40929 246.04958
256.22614 151.41953 245.78368
257.26862 151.55092 246.4384
258.31665 151.68246 247.0887
259.74066 151.9353 248.65553
261.17538 152.18837 250.21584
262.99622 152.5629 252.68834
263.69873 152.57384 252.3987
264.40173 152.58484 252.10655
263.95569 152.23178 249.0649
264.26611 152.12131 247.8564
263.79529 151.7679 244.8206
264.87277 151.90022 245.43858
66.955681 148.56659 216.09915
67.56086 148.55716 216.35928
68.552147 148.424 215.70328
68.386528 148.66203 217.78821
70.137215 148.28162 215.29459
71.114799 148.14873 214.62689
72.086945 148.01593 213.95497
73.427277 147.75972 212.3596
74.75708 147.50369 210.758
74.970642 147.61829 211.91434
75.920937 147.48599 211.22595
76.138817 147.60062 212.38026
76.000389 147.83858 214.459
76.588547 147.8298 214.68887
76.108643 148.19092 217.69583
76.350189 148.3054 218.85194
77.297997 148.17346 218.15135
78.5886 147.9185 216.51755
79.868668 147.66376 214.87791
81.138184 147.40924 213.23256
81.715744 147.40105 213.44566
81.954689 147.51596 214.58978
81.862534 147.75388 216.66776
82.113182 147.86877 217.81259
83.029709 147.73782 217.08585
83.2845 147.85281 218.22859
83.869492 147.84497 218.43372
84.454048 147.83719 218.63687
84.71756 147.95229 219.77736
84.985641 148.0674 220.91765
85.573891 148.05981 221.11684
86.161713 148.05232 221.3141
87.0597 147.92224 220.56688
87.952255 147.79233 219.81615
88.533798 147.78516 220.00615
89.721138 147.53293 218.30423
90.29686 147.52597 218.48894
90.872169 147.51912 218.67184
91.447083 147.51234 218.85295
92.021591 147.50565 219.03227
91.723701 147.86632 222.05669
92.593063 147.7373 221.28499
93.742767 147.4861 219.55954
94.032501 147.60208 220.68298
94.32682 147.71809 221.80615
94.62571 147.83414 222.92906
95.756561 147.58345 221.19139
96.603821 147.45517 220.40326
97.174942 147.44925 220.56683
97.745705 147.44339 220.72868
98.847931 147.19331 218.97636
98.8862 147.43193 221.0473
99.194962 147.54843 222.16167
99.76683 147.54288 222.31741
100.85046 147.29329 220.55365
101.67032 147.16591 219.74518
102.48495 147.03865 218.93376
103.0457 147.03351 219.08028
103.60614 147.02843 219.22517
104.41003 146.90149 218.40633
105.2087 146.77467 217.58464
105.52451 146.89177 218.68687
106.08133 146.88702 218.82477
106.8718 146.76048 217.99651
107.19412 146.87775 219.09583
107.75012 146.87321 219.22899
108.75902 146.62515 217.4279
109.30959 146.62079 217.55682
109.41653 146.86003 219.61916
110.40999 146.6123 217.81004
110.52621 146.85161 219.87155
110.86633 146.96919 220.96457
111.84683 146.72174 219.14813
112.60788 146.59612 218.29822
113.15678 146.59222 218.4165
113.70545 146.58841 218.53326
114.45607 146.46304 217.67677
114.4027 146.82419 220.70691
114.95561 146.82053 220.82022
115.50831 146.81693 220.93204
116.63805 146.44873 218.12112
117.18305 146.4453 218.22852
118.10297 146.19888 216.38507
118.82784 146.0741 215.51347
119.18228 146.19238 216.59076
119.18088 146.55368 219.61974
119.72737 146.55054 219.72037
120.0983 146.6689 220.79651
120.64688 146.66586 220.89467
121.1953 146.66287 220.99138
121.91166 146.53853 220.10843
122.29163 146.65707 221.18053
122.83955 146.65425 221.27295
123.38733 146.65147 221.36394
123.93495 146.64877 221.45351
124.48243 146.64612 221.54167
125.18335 146.52216 220.64775
125.57696 146.64096 221.71373
126.4215 146.39581 219.83484
126.81726 146.51469 220.89838
127.36163 146.5123 220.97911
127.90588 146.50996 221.05847
128.58907 146.3864 220.15359
128.99399 146.50543 221.21298
129.6721 146.38199 220.30469
130.34528 146.25861 219.3943
130.88409 146.25653 219.46608
131.16882 146.49696 221.50542
131.71227 146.49496 221.5751
132.49991 146.2506 219.67322
133.0383 146.2487 219.73953
133.45929 146.36806 220.79019
134.11481 146.24506 219.86812
134.65292 146.2433 219.93039
134.97078 146.48393 221.96432
135.40587 146.60342 223.01122
135.95096 146.60178 223.07022
136.49596 146.60017 223.12785
137.04088 146.59862 223.18414
137.58572 146.59711 223.23907
138.32173 146.35338 221.31662
138.67519 146.59421 223.34486
139.31061 146.47169 222.40727
140.02953 146.22813 220.47916
140.56677 146.22684 220.52669
141.18755 146.10449 219.58376
141.72226 146.1033 219.62843
142.02066 146.46541 222.64034
142.40981 146.70644 224.66232
142.95639 146.70534 224.70395
143.35988 146.94643 226.72438
143.84206 147.06645 227.75388
144.39571 147.06546 227.79198
144.88501 147.18556 228.81924
145.37907 147.30569 229.8455
145.93739 147.30481 229.87982
146.49568 147.30396 229.91277
147.10861 147.1821 228.95319
147.6644 147.18134 228.98328
148.27003 147.05957 228.02061
148.87082 146.93784 227.05634
149.46677 146.81616 226.0905
149.9299 147.05762 228.0983
150.52339 146.936 227.12964
151.07419 146.93549 227.1514
151.58952 147.05602 228.1638
152.14267 147.05556 228.18295
152.72644 146.93411 227.20857
153.27715 146.93373 227.22495
153.82784 146.93338 227.23999
154.40193 146.81206 226.26132
154.90817 147.05382 228.25847
155.47983 146.93257 227.27707
156.03047 146.93237 227.28674
156.58112 146.93221 227.29509
157.13174 146.93208 227.30208
157.69135 146.81097 226.31514
158.23956 146.81093 226.31943
158.78778 146.81091 226.3224
159.33777 146.68993 225.33138
159.88358 146.68999 225.33171
160.43547 146.9321 227.31598
160.99155 147.05325 228.30626
161.5446 147.05342 228.30254
162.10791 147.17464 229.29007
162.67603 147.2959 230.27618
163.18874 146.93312 227.29076
163.7569 147.05446 228.2742
164.29015 146.93379 227.27129
164.84088 146.93419 227.25957
165.39162 146.9346 227.24646
165.9424 146.93507 227.23204
166.49319 146.93558 227.21629
167.07591 147.05714 228.19133
167.59486 146.93668 227.18073
168.18245 147.05833 228.15291
168.814 147.30106 230.11543
169.37216 147.30176 230.09265
169.88644 147.18144 229.07686
170.53493 147.42432 231.03462
170.99814 147.18303 229.0247
171.60521 147.30493 229.98795
172.21712 147.42688 230.94955
172.77794 147.42781 230.91844
173.33881 147.42879 230.88599
173.96049 147.55087 231.84293
174.39752 147.30977 229.82629
174.95613 147.31085 229.78984
175.7188 147.67525 232.72296
176.28474 147.67644 232.68327
176.9964 147.91985 234.62212
177.71774 148.16333 236.55884
178.29352 148.16466 236.51422
178.78934 148.04492 235.47876
179.28041 147.92522 234.44228
179.68187 147.68442 232.41579
180.33557 147.80702 233.3551
180.9045 147.80855 233.30402
181.28932 147.56784 231.27478
182.04259 147.81174 233.19757
182.70868 147.93456 234.13013
183.0817 147.69394 232.09782
183.64864 147.69569 232.03992
184.42398 147.93983 233.95485
184.88936 147.8205 232.90669
185.459 147.82239 232.84424
186.02873 147.82433 232.78036
186.59857 147.82631 232.71506
187.28474 147.94955 233.63411
188.0945 148.19411 235.53667
188.79297 148.3175 236.4514
189.61986 148.56219 238.34895
190.20476 148.56448 238.27463
190.53317 148.32428 236.23021
191.11349 148.32664 236.15358
191.69394 148.32906 236.07544
192.27451 148.33153 235.99582
192.85522 148.33405 235.9147
193.71687 148.57925 237.79739
194.15988 148.46057 236.73036
194.74344 148.46326 236.64442
195.32715 148.466 236.55704
196.0611 148.59016 237.4493
196.80003 148.7144 238.33931
197.54399 148.83873 239.22708
198.29295 148.96313 240.11252
199.04694 149.08763 240.99562
199.64374 149.09077 240.89713
200.07608 148.97255 239.81824
200.83788 149.09726 240.69551
201.26572 148.97911 239.61429
201.51697 148.73953 237.55478
202.28177 148.86444 238.42696
202.69803 148.74641 237.34322
203.10965 148.62843 236.2588
204.06152 148.87509 238.10117
205.02336 149.12187 239.94022
205.6221 149.12564 239.82596
206.22107 149.12949 239.7101
206.82025 149.13339 239.59265
207.03201 148.89413 237.52664
207.82304 149.01978 238.37993
208.42049 149.02386 238.25813
209.2193 149.14969 239.1067
210.02322 149.27563 239.95261
210.83231 149.40167 240.79585
211.43805 149.4061 240.66599
212.25496 149.53233 241.50432
213.07703 149.65868 242.33995
213.90427 149.78514 243.17279
214.73666 149.91171 244.00282
215.13287 149.79478 242.89467
215.7476 149.79971 242.75301
216.36264 149.80472 242.6097
216.74992 149.68794 241.4986
217.3631 149.6931 241.35237
218.44249 149.94215 243.13405
219.2966 150.06944 243.94739
219.91811 150.07491 243.79413
221.26086 150.44638 246.52808
221.89041 150.45207 246.36942
222.52028 150.45784 246.20894
222.90282 150.34166 245.08551
223.28076 150.22552 243.96153
223.40152 149.98732 241.87721
224.02298 149.99335 241.71202
224.38724 149.87732 240.5865
225.52701 150.12784 242.33403
226.41454 150.25635 243.11984
227.57236 150.50722 244.85892
228.74048 150.75827 246.59332
229.91888 151.00952 248.32306
230.56284 151.01639 248.13931
230.93233 150.90103 246.99994
231.57462 150.90807 246.81297
231.93753 150.79282 245.67188
232.57822 150.8 245.48177
233.78894 151.05215 247.19118
234.72278 151.18205 247.94557
235.37225 151.18962 247.74724
236.02219 151.1973 247.54694
236.67259 151.20505 247.34456
237.32347 151.21292 247.14015
237.67506 151.09827 245.98761
238.3244 151.10629 245.77991
239.88846 151.48244 248.40366
240.54626 151.49075 248.18935
241.51431 151.6219 248.91582
242.48785 151.7532 249.63849
242.52264 151.5163 247.5338
242.54794 151.27934 245.43036
243.52301 151.41095 246.14662
244.18134 151.41983 245.92038
244.84018 151.4288 245.69199
245.49954 151.43787 245.46144
245.82956 151.32402 244.29266
247.15218 151.57933 245.92883
247.14584 151.34256 243.8224
248.14218 151.47507 244.5172
249.48402 151.7309 246.1403
250.83652 151.98697 247.75745
251.50964 151.99683 247.50761
252.53085 152.13002 248.185
253.20757 152.14009 247.9296
253.8848 152.15024 247.67186
254.20744 152.03709 246.48518
254.88318 152.04736 246.22375
255.55945 152.05769 245.95999
256.59897 152.1916 246.61755
257.64407 152.32565 247.27071
258.3269 152.33627 246.99783
259.38062 152.47057 247.64317
260.8129 152.72865 249.20361
261.88031 152.86325 249.83894
262.57523 152.87427 249.55222
263.65118 153.00908 250.17946
263.58316 152.77258 248.05609
263.50525 152.53596 245.93457
263.41754 152.29919 243.81499
264.49249 152.43408 244.4335
66.555016 149.27203 216.92726
66.773773 149.38864 218.1012
68.156639 149.12662 216.53426
67.9935 149.36937 218.61975
69.746872 148.98145 216.12843
70.727074 148.84593 215.46231
72.078056 148.58449 213.87407
73.04483 148.44923 213.19849
74.377281 148.18816 211.5988
74.96199 148.17909 211.83498
75.912376 148.0442 211.14708
76.130241 148.16113 212.30127
75.991814 148.40381 214.37946
76.580025 148.39488 214.6095
76.455978 148.63745 216.68959
76.695015 148.75426 217.84457
77.640396 148.61978 217.14352
78.928612 148.35985 215.5096
79.860474 148.22569 214.79976
81.130142 147.96616 213.15524
81.367027 148.08331 214.30022
81.608513 148.20049 215.44513
81.51889 148.44307 217.5235
82.105293 148.43483 217.73457
83.021935 148.30132 217.00832
83.604927 148.29327 217.21463
84.513145 148.16003 216.48186
