ply
format ascii 1.0
comment PCL generated
element vertex 1597
property float x
property float y
property float z
element camera 0
property float view_px
property float view_py
property float view_pz
property float x_axisx
property float x_axisy
property float x_axisz
property float y_axisx
property float y_axisy
property float y_axisz
property float z_axisx
property float z_axisy
property float z_axisz
property float focal
property float scalex
property float scaley
property float centerx
property float centery
property int viewportx
property int viewporty
property float k1
property float k2
end_header
173.92229 57.773483 233.63901
174.6902 57.009541 236.49809
175.21893 57.261181 235.49416
175.8746 57.00486 236.41902
176.5352 56.748444 237.342
177.2007 56.491917 238.26312
177.65179 56.997204 236.28899
178.16884 57.248447 235.27837
178.83702 56.99165 236.1947
179.67085 56.226727 239.03683
180.18817 56.477715 238.02158
180.78593 56.474606 237.96864
181.38382 56.471394 237.91418
181.8017 56.976215 235.93217
182.20999 57.480995 233.94955
182.8934 57.22348 234.85391
183.67906 56.711761 236.71851
184.3748 56.453995 237.61853
184.87119 56.704365 236.59296
185.57199 56.446384 237.48933
186.3848 55.934116 239.34483
186.7697 56.438396 237.35388
187.2569 56.688442 236.32315
187.73936 56.938431 235.2914
188.10042 57.442585 233.2986
188.80931 57.183983 234.18477
190.86041 54.128326 245.62286
192.34998 52.343544 252.25607
194.12653 50.049782 260.80078
196.07584 47.501236 270.29639
197.28624 46.478241 274.03452
197.44658 47.489853 270.10553
198.81294 46.212067 274.79474
199.7881 45.697159 276.60721
199.78613 46.963036 271.71906
199.76004 48.229004 266.83267
199.56395 49.749557 260.99216
199.04222 51.779236 253.24313
198.93396 53.045631 248.36423
199.26108 53.548531 246.35207
199.73428 53.796837 245.29425
200.51895 53.535896 246.14363
200.6667 54.293266 243.17592
201.12592 54.541389 242.11545
201.41508 55.044113 240.10133
201.35907 56.056206 236.18256
201.79453 56.304264 235.12129
203.08884 55.278511 238.81659
203.87747 55.016747 239.65356
204.67125 54.754822 240.48788
205.83023 53.983047 243.21971
206.09171 54.485291 241.19896
205.78883 55.752201 236.33101
205.27435 57.274223 230.51756
205.67989 57.521732 229.44902
206.8499 56.74926 232.17033
208.81384 54.956429 238.6754
210.81239 53.163025 245.17155
213.04521 51.113976 252.60469
214.7113 49.829605 257.19083
215.78859 49.310211 258.93469
215.21989 50.83197 253.11868
215.04095 51.843597 249.19514
214.84265 52.855362 245.27422
214.83936 53.612015 242.29869
214.82161 54.368752 239.32474
216.10532 53.593445 242.00229
216.96054 53.328575 242.79236
217.82101 53.063507 243.57939
219.1402 52.287315 246.24303
219.78696 52.277267 246.08339
220.43404 52.26712 245.9218
221.08148 52.256813 245.75833
221.96587 51.990776 246.53029
222.37738 52.235863 245.42554
223.2674 51.969498 246.19228
223.6747 52.214424 245.0849
224.57037 51.947731 245.84642
225.22241 51.936653 245.67053
226.37775 51.413712 247.35951
227.03546 51.402328 247.17822
228.20642 50.878891 248.85909
228.61095 51.123169 247.74103
229.27228 51.111382 247.55298
229.14235 51.86776 244.57307
229.797 51.855873 244.3831
230.18314 52.100067 243.26256
231.10741 51.831787 243.99698
232.03705 51.563316 244.72783
233.52475 50.781998 247.3076
234.19128 50.769409 247.10428
235.13953 50.500313 247.82355
236.0932 50.231018 248.53917
237.33859 49.705032 250.17421
238.01666 49.691895 249.9592
239.27785 49.165451 251.58514
239.96175 49.152039 251.3642
240.34966 49.395279 250.2211
240.73294 49.638535 249.07744
241.11159 49.881844 247.93324
241.78946 49.86834 247.70593
242.46771 49.854782 247.47644
243.45525 49.584213 248.16048
244.44815 49.313522 248.84055
245.44644 49.042702 249.51663
246.76657 48.514648 251.10182
248.09711 47.986374 252.68123
249.43805 47.457893 254.25473
250.46536 47.186493 254.9119
251.49803 46.915001 255.56496
251.21979 47.672882 252.57962
251.92145 47.658875 252.3204
251.95514 48.159843 250.24551
252.31563 48.403549 249.07788
253.01044 48.389877 248.81464
254.38885 47.861076 250.35674
254.40067 48.362816 248.28133
255.09604 48.349457 248.01128
256.14084 48.078468 248.63982
256.13538 48.580948 246.56451
256.82855 48.568085 246.2887
257.87866 48.297508 246.90848
259.29327 47.769096 248.42084
260.35605 47.498711 249.03107
261.78833 46.970451 250.53172
262.12967 47.216515 249.34486
263.5744 46.688599 250.83586
265.02908 46.160843 252.32039
264.99536 46.666061 250.23636
266.45972 46.138855 251.71223
267.55426 45.870155 252.29326
267.50702 46.376747 250.20818
266.67996 47.400612 246.35303
266.60666 47.908455 244.27481
266.13306 48.675323 241.31511
266.42822 48.926025 240.12576
64.310394 57.078575 214.66397
64.530151 56.829342 215.82051
65.143135 56.836304 216.09187
63.830658 55.565475 220.79515
64.457077 55.573418 221.06845
65.463959 55.837311 220.45105
66.843773 56.357037 218.93958
67.08844 56.110443 220.09514
68.083549 56.375179 219.46666
68.333664 56.129253 220.62057
69.324066 56.394463 219.98615
69.944504 56.404488 220.243
70.565018 56.414749 220.49788
71.545547 56.680473 219.85347
72.163597 56.69109 220.10341
72.781639 56.701889 220.35136
72.694817 56.202579 222.39815
73.317787 56.213753 222.64417
73.940689 56.22509 222.88811
75.598 57.001499 220.42
76.555397 57.267845 219.7527
77.507607 57.53418 219.08148
78.454613 57.800495 218.40636
79.061638 57.811989 218.63452
78.671715 57.059254 221.58514
78.956146 56.816273 222.72121
79.245369 56.573418 223.85715
80.513496 57.094521 222.26016
80.804749 56.851753 223.39297
81.420433 56.863609 223.61287
82.987312 57.638851 221.09001
84.538849 58.413803 218.55983
85.138641 58.42535 218.76845
86.357376 58.945492 217.14278
87.872932 59.7197 214.59459
87.850052 59.222454 216.62901
88.138992 58.979527 217.74615
88.732254 58.990788 217.94344
89.325195 59.001991 218.13882
89.917809 59.013142 218.33231
89.925896 58.516247 220.36798
90.522873 58.527367 220.55927
91.119514 58.538403 220.74867
90.861977 57.787827 223.7094
91.465431 57.798855 223.89735
92.068565 57.809811 224.08336
92.117058 57.313236 226.12097
92.724487 57.324108 226.3047
93.875916 57.842133 224.6301
94.477692 57.85273 224.80856
95.346329 58.116764 224.05548
96.73909 58.887623 221.43823
96.805473 58.390842 223.47049
97.400955 58.400963 223.64009
97.481583 57.904243 225.67291
98.081375 57.914238 225.84024
98.680832 57.924126 226.00574
99.279968 57.933914 226.16939
100.3735 58.450005 224.46075
101.94661 59.472172 220.87579
102.52995 59.481392 221.03011
103.35294 59.743603 220.24544
104.40816 60.258671 218.51991
104.51318 59.761429 220.54405
104.62778 59.264221 222.56898
105.44218 59.525879 221.77547
105.56852 59.028645 223.80002
105.70442 58.531433 225.82526
106.74063 59.045586 224.08505
107.32626 59.053886 224.22499
107.91163 59.062088 224.36319
108.71202 59.322895 223.55644
109.08151 59.078133 224.63455
109.24527 58.580662 226.65648
109.83446 58.588474 226.78902
110.62887 58.84877 225.97437
110.80902 58.351189 227.99506
111.60046 58.611225 227.17651
112.58488 59.123604 225.40811
113.36357 59.383263 224.5836
113.75067 59.137863 225.65266
114.71477 59.649666 223.87521
115.10384 59.404083 224.94148
116.05525 59.915524 223.15828
116.62976 59.922081 223.27171
117.56606 60.43314 221.48244
118.31381 60.691711 220.64067
118.88035 60.697865 220.74792
118.92564 59.94725 223.70946
119.32786 59.701069 224.76735
119.73476 59.454857 225.82448
120.14632 59.208569 226.88097
121.05434 59.718601 225.07556
121.62944 59.724239 225.17514
122.3634 59.981853 224.3186
122.93571 59.987267 224.41461
123.35365 59.740543 225.46446
123.77628 59.493759 226.51353
124.35292 59.498917 226.60568
125.07626 59.755928 225.73978
125.79459 60.012814 224.87154
126.50787 60.269547 224.00104
127.35574 60.778049 222.17064
127.78225 60.530724 223.21126
128.21347 60.28334 224.25108
128.64941 60.035904 225.29007
129.09006 59.78841 226.32822
129.40797 59.28904 228.32487
130.1105 59.545029 227.44229
130.80806 59.800892 226.55753
131.50063 60.056622 225.67062
132.07047 60.060493 225.74222
132.75549 60.315994 224.85139
133.32268 60.319664 224.91969
134.0002 60.574936 224.02504
134.56471 60.578403 224.0901
134.91786 60.078461 226.07773
135.59021 60.333447 225.17804
136.05603 60.085022 226.20152
136.42822 59.584923 228.1868
137.00189 59.588013 228.24548
137.48193 59.339413 229.26601
137.96674 59.090755 230.28548
138.54495 59.093613 230.34013
139.29559 59.599499 228.46536
139.78496 59.350613 229.48082
140.52335 59.856274 227.60199
141.01495 59.607216 228.61472
141.58791 59.609623 228.66154
142.01244 59.108921 230.63692
142.59007 59.111168 230.68121
143.16763 59.113346 230.72397
143.74513 59.115429 230.76527
144.19356 58.614487 232.73651
144.83784 58.867897 231.80928
145.35789 58.618286 232.81235
145.88272 58.36861 233.81419
146.46716 58.370304 233.84854
147.20885 59.126236 230.98206
147.73592 58.876324 231.97961
148.41058 59.380611 230.07585
148.98518 59.381962 230.10378
149.51695 59.131817 231.09715
150.13423 59.384422 230.15524
150.70869 59.385525 230.1788
151.2476 59.135159 231.16811
151.82442 59.136124 231.18881
152.46262 59.639778 229.27328
152.97797 59.137791 231.22588
153.58058 59.3899 230.27467
154.15489 59.390549 230.28946
154.72917 59.391102 230.30284
155.28481 59.140205 231.28246
155.87769 59.391994 230.3252
156.46574 59.6437 229.36639
157.03757 59.643951 229.3739
157.60938 59.644119 229.37999
158.17461 59.392841 230.35246
158.74883 59.39286 230.35564
159.32129 59.141418 231.32529
159.89726 59.392654 230.3577
160.48685 58.135563 235.19594
161.07315 58.135262 235.1933
161.65945 58.134888 235.18913
162.25609 57.883049 236.15132
162.84483 57.882511 236.14418
163.37305 58.887432 232.26448
163.95218 58.886745 232.25452
164.53134 58.885986 232.24307
165.15527 58.382355 234.16545
165.78889 57.878616 236.08612
166.37778 57.877609 236.07002
166.93709 58.127914 235.08501
167.49161 58.378155 234.09866
168.0069 58.879742 232.14374
168.58627 58.878426 232.12202
169.12643 59.128456 231.13177
169.74518 58.875546 232.07422
170.4129 58.371109 233.98183
170.95079 58.620899 232.98727
171.48389 58.870628 231.99146
172.16626 58.365906 233.89391
172.75084 58.364006 233.86163
173.33546 58.362022 233.82785
173.97876 58.108467 234.75868
174.68796 57.603325 236.65363
175.15318 58.104073 234.68335
175.93805 57.347198 237.54027
176.5327 57.344761 237.49835
177.1981 57.090706 238.42014
177.72223 57.339622 237.40991
178.24161 57.58849 236.39848
178.75624 57.83728 235.38594
179.58754 57.079689 238.23026
180.18512 57.076721 238.17892
180.868 56.822052 239.09015
181.4682 56.818882 239.03552
182.15854 56.563999 239.94298
182.39156 57.567211 236.03145
182.98482 57.563816 235.97287
183.67548 57.308655 236.87567
184.37111 57.053379 237.7764
184.8674 57.30138 236.75027
185.56813 57.045872 237.64742
186.16682 57.041988 237.58057
186.43739 57.793251 234.6274
187.02907 57.789223 234.55824
187.84941 57.28154 236.40958
188.79628 56.521889 239.21889
190.11522 55.006577 244.90607
192.43579 51.476273 258.2688
193.8327 49.960182 263.94275
195.38531 48.191879 270.57056
196.97211 46.423203 277.19199
198.06805 45.661781 279.97168
198.10925 46.915573 275.07974
198.94307 46.657738 275.93808
198.95062 47.911575 271.0473
198.08813 50.677483 260.41379
197.746 52.435692 253.61465
197.37 54.194077 246.81898
197.10838 55.700619 240.98317
197.72208 55.694809 240.8857
198.64229 55.184692 242.69753
199.10565 55.430756 241.64079
200.1965 54.668129 244.40198
200.4998 55.166161 242.38759
200.79358 55.664162 240.37318
201.40851 55.6577 240.26566
201.52028 56.407909 237.29738
201.78784 56.905869 235.28265
202.5639 56.646889 236.12437
203.16995 56.640095 236.01184
203.95381 56.380802 236.84885
205.10281 55.616562 239.58469
205.71935 55.609306 239.46518
205.96634 56.106834 237.44443
205.64171 57.361813 232.576
206.62146 56.849388 234.35237
207.41902 56.589264 235.17676
208.80586 55.571251 238.84174
210.01543 54.805458 241.55363
212.43767 52.523537 249.94109
214.0961 51.251595 254.53235
215.77939 49.979195 259.11636
216.03868 50.475479 257.07712
216.70734 50.466232 256.92731
216.31683 51.720886 252.05542
215.90202 52.975761 247.18723
215.02928 54.73661 240.43707
215.87665 54.474533 241.23164
216.50749 54.465225 241.08145
217.5871 53.949814 242.81168
218.67688 53.434128 244.53764
219.08943 53.677345 243.43954
219.9606 53.41433 244.21935
220.60297 53.404243 244.05733
221.24568 53.394028 243.89342
221.6497 53.636917 242.79013
222.77364 53.119987 244.49651
223.41986 53.109375 244.32613
224.31293 52.845291 245.08925
224.96234 52.834389 244.91426
226.11499 52.316521 246.60553
226.5162 52.558769 245.49178
227.4256 52.293945 246.24292
227.8226 52.536034 245.12653
228.73773 52.270905 245.87219
228.86667 52.766495 243.82256
229.78503 52.501106 244.56345
230.70877 52.235504 245.30086
231.63786 51.969696 246.03476
232.29852 51.957535 245.83739
233.23587 51.691391 246.56488
234.17862 51.425056 247.28879
234.84543 51.412491 247.08362
235.79645 51.145821 247.80098
236.75284 50.878967 248.51463
237.13705 51.120132 247.37845
238.09924 50.852997 248.08626
238.47922 51.094109 246.94734
238.85458 51.335228 245.80795
239.82294 51.06778 246.50761
240.19403 51.308876 245.36549
241.16817 51.041214 246.05914
242.14769 50.773392 246.74893
243.44147 50.250931 248.35123
244.12289 50.237335 248.11673
245.11861 49.969086 248.79472
246.43608 49.446083 250.38248
247.44505 49.177551 251.05154
249.10229 48.399406 253.54057
250.12704 48.130562 254.19969
251.15715 47.861633 254.85464
251.20557 48.357338 252.77762
251.90726 48.343353 252.51871
252.27518 48.584419 251.35007
252.97488 48.570595 251.08748
253.33569 48.811935 249.91708
254.03333 48.798302 249.65085
254.04282 49.295158 247.57524
254.38907 49.537079 246.40382
255.07965 49.523918 246.13373
255.06685 50.021584 244.06018
256.46118 49.498024 245.58678
257.86572 48.974457 247.10707
258.92105 48.706375 247.72353
259.98148 48.438416 248.33568
261.41138 47.915024 249.83902
261.75049 48.158554 248.65265
262.82343 47.891136 249.2529
264.64526 47.112526 251.63348
265.35852 47.101227 251.33167
266.44861 46.834503 251.91785
267.54349 46.568062 252.49971
268.26099 46.557816 252.18921
268.20883 47.059776 250.10281
267.75897 47.818253 247.13295
267.6832 48.321449 245.05237
268.38123 48.313324 244.74135
65.887802 58.687065 211.30197
66.488152 58.693668 211.56952
66.701332 58.447483 212.72166
64.994209 56.935822 218.31151
64.848175 56.437542 220.3586
65.85289 56.699146 219.73926
66.852837 56.960995 219.11594
67.097847 56.71701 220.27213
68.093208 56.97942 219.64282
67.973595 56.483109 221.69124
68.59922 56.49308 221.95198
69.954887 57.009068 220.41875
70.575607 57.019402 220.67349
71.19635 57.029938 220.92627
72.531906 57.546181 219.37889
73.502472 57.8097 218.72554
73.410828 57.315258 220.77156
74.028893 57.326389 221.01535
74.646851 57.337643 221.25716
75.954269 57.854061 219.68883
76.909203 58.117912 219.01961
77.858902 58.381737 218.34651
78.803413 58.645546 217.66948
79.07325 58.404625 218.80438
79.015709 57.911541 220.84804
79.297699 57.67094 221.98366
79.584488 57.430458 223.11913
80.849998 57.946552 221.51959
81.783051 58.210358 220.82695
82.391197 58.222008 221.04391
82.999062 58.233658 221.25888
83.921242 58.497257 220.5567
84.526009 58.50882 220.76685
85.440056 58.772217 220.05814
86.655869 59.287304 218.42798
87.252197 59.298618 218.62971
88.150291 59.561619 217.91006
89.043053 59.824471 217.18681
89.336372 59.583912 218.30225
89.04525 58.840233 221.26123
88.768791 58.096764 224.22318
89.375679 58.107967 224.41742
89.982231 58.119099 224.60974
90.019295 57.627354 226.65033
91.194321 58.141132 224.98857
92.079437 58.403332 224.24847
92.127945 57.911568 226.28717
92.735283 57.922329 226.47066
93.614403 58.184174 225.72336
94.488205 58.445839 224.97267
95.356705 58.707317 224.21866
96.484558 59.219666 222.53024
96.815598 58.978722 223.63254
97.41098 58.988728 223.80191
97.74881 58.747715 224.90263
98.346008 58.757568 225.06903
98.942886 58.767303 225.23361
99.78923 59.027733 224.46112
100.63031 59.287983 223.68549
101.71098 59.798767 221.97015
102.29668 59.807915 222.12491
103.36191 60.318256 220.40211
104.41695 60.828335 218.67503
104.52193 60.335869 220.7003
104.869 60.093975 221.78659
105.68079 60.353054 220.99158
105.80462 59.860546 223.01666
106.16313 59.618507 224.10081
107.19424 60.127598 222.35789
107.33446 59.635014 224.382
107.91971 59.643105 224.52003
108.50467 59.651081 224.65636
109.08937 59.658943 224.791
109.25307 59.166252 226.81404
110.25797 59.674339 225.05519
110.84187 59.68187 225.18478
111.01952 59.18903 227.20607
111.80836 59.446499 226.38614
112.59206 59.703793 225.56351
113.17497 59.710892 225.68642
113.75763 59.717869 225.80769
114.72157 60.224701 224.02876
114.73393 59.481548 226.99509
115.87594 60.23801 224.26114
116.45278 60.244492 224.37492
117.39137 60.750622 222.58464
117.96289 60.756844 222.69424
118.53421 60.762962 222.80229
118.58435 60.019608 225.76654
118.82016 59.526066 227.77885
119.23428 59.282261 228.83784
119.98576 59.537838 227.98825
120.89606 60.04295 226.18184
121.63496 60.298195 225.32692
122.3688 60.553295 224.4696
122.941 60.558617 224.56554
123.35886 60.314251 225.61588
123.78142 60.069824 226.66547
124.35796 60.074898 226.75751
125.22804 60.578938 224.93367
125.79939 60.583778 225.02184
126.65456 61.087509 223.19266
127.49986 61.591064 221.3605
127.92387 61.346085 222.40129
128.21788 60.851601 224.40028
128.65373 60.606525 225.43979
128.96445 60.111992 227.43813
129.28473 59.617432 229.43628
130.11459 60.1203 227.59299
130.56686 59.874977 228.62874
131.14403 59.878922 228.70265
131.83878 60.132088 227.81384
132.64386 60.634445 225.96133
133.10049 60.388786 226.99167
133.89322 60.890873 225.13474
134.35202 60.645046 226.16241
134.81557 60.39917 227.1891
135.28386 60.153236 228.21483
135.85764 60.156445 228.27643
136.23462 59.661175 230.26341
136.90897 59.913418 229.35884
137.48486 59.916382 229.4162
137.96959 59.670101 230.43623
138.54771 59.672916 230.49084
139.29825 60.173908 228.61475
139.87137 60.176529 228.66591
140.52582 60.428177 227.75058
141.01735 60.181499 228.7639
141.59023 60.183868 228.81065
142.01469 59.687973 230.78723
142.664 59.939266 229.86563
143.16974 59.692329 230.87416
143.74715 59.694382 230.91541
144.1955 59.198242 232.88788
144.90179 59.698238 230.9935
145.30002 58.952938 233.93027
145.88443 58.954693 233.96606
146.4688 58.956364 234.00035
147.15794 59.455982 232.09903
147.68736 59.208473 233.09731
148.36435 59.707901 231.19237
148.98647 59.958237 230.2529
149.51816 59.710487 231.2469
150.13536 59.960655 230.30431
150.70975 59.961742 230.32785
151.21304 59.46479 232.28563
151.79221 59.46574 232.3064
152.43274 59.964542 230.38968
152.95042 59.467396 232.34355
153.55537 59.717072 231.39177
154.132 59.717709 231.40662
154.70863 59.718258 231.42001
155.26659 59.469772 232.40031
155.8456 59.470173 232.41083
156.43839 59.71946 231.45148
157.00356 59.470745 232.42749
157.59152 59.719875 231.46515
158.16808 59.719971 231.4698
158.74463 59.719986 231.47301
159.32118 59.719925 231.47475
159.89708 59.968739 230.50655
160.48659 58.723751 235.34793
161.07829 58.474495 236.31377
161.66693 58.474125 236.3096
162.26588 58.224716 237.2724
162.84425 58.473148 236.2968
163.37239 59.468399 232.4146
163.95145 59.46772 232.40466
164.51057 59.715942 231.42494
165.10963 59.466141 232.38037
165.73834 58.967274 234.30243
166.32233 58.966286 234.28648
166.87674 59.214195 233.30104
167.45837 59.213047 233.28223
167.97118 59.70982 231.32614
168.54807 59.708527 231.30458
169.125 59.707161 231.28152
169.78534 59.207672 233.19225
170.3672 59.206139 233.16605
170.94911 59.204517 233.13838
171.53107 59.20282 233.10922
172.21576 58.702957 235.01286
172.7489 58.950127 234.01349
173.27728 59.197243 233.01288
173.91808 58.946148 233.94453
174.62476 58.445889 235.84093
175.15092 58.692757 234.83603
175.86983 58.19228 236.72864
176.53023 57.940788 237.653
177.2662 57.440079 239.54138
177.6465 58.18486 236.59897
178.23889 58.182213 236.55272
178.83138 58.179489 236.5049
179.58463 57.678352 238.38585
180.09937 57.924599 237.36969
180.8649 57.423233 239.24651
181.46501 57.42012 239.19197
182.15524 57.167709 240.10011
182.48067 57.912064 237.15015
183.07626 57.908695 237.09143
183.76924 57.65601 237.99467
184.26778 57.901714 236.96931
184.65945 58.396637 234.97987
185.35521 58.143658 235.87823
185.94896 58.139862 235.81201
186.65224 57.886646 236.70648
187.80779 56.635952 241.44655
189.33047 54.636932 249.06714
190.77544 52.886917 255.72003
192.13541 51.385948 261.40598
193.7677 49.385849 269.008
195.06714 48.133636 273.72195
196.26465 47.130554 277.47083
197.22414 46.626137 279.29565
197.93106 46.620499 279.19843
197.43512 48.86026 270.46735
197.44003 50.102188 265.57565
196.8667 52.342369 256.85208
195.96785 55.081955 246.21707
195.58926 56.823547 239.41911
196.05179 57.067696 238.3685
196.06482 58.060673 234.44624
196.96277 57.555805 236.26468
198.17691 56.551395 239.9922
198.63289 56.795193 238.93616
199.55821 56.289761 240.74529
199.85172 56.783112 238.7314
200.29855 57.026665 237.67204
200.57541 57.519978 235.65776
201.01047 57.763454 234.59718
201.44086 58.00687 233.53584
202.2119 57.750477 234.37926
202.46277 58.243629 232.36317
202.88162 58.486855 231.29912
204.01575 57.73019 234.03987
204.43506 57.973186 232.97249
205.03461 57.966114 232.85481
205.25975 58.45903 230.83556
206.42421 57.701561 233.56386
207.21918 57.444023 234.38954
208.79799 56.185753 239.00627
209.6131 55.927731 239.82445
211.63084 54.168335 246.3242
213.4812 52.6586 251.86795
215.77031 50.647827 259.29608
216.65038 50.388474 260.09311
217.9545 49.628242 262.77762
217.79065 50.620247 258.84399
217.17879 52.11319 253.02464
215.88736 54.357727 244.37955
216.08667 54.84948 242.34375
216.27644 55.341259 240.30843
217.35336 54.830902 242.04077
218.66714 54.069687 244.71008
219.07959 54.310577 243.61154
219.95061 54.050125 244.39226
220.82689 53.789482 245.16982
221.70847 53.528625 245.94421
222.11736 53.769104 244.83925
223.00456 53.507935 245.60846
223.65315 53.497398 245.43767
224.54851 53.235863 246.20102
225.2003 53.225037 246.02565
226.35519 52.712158 247.71782
226.75883 52.952026 246.603
227.41422 52.940804 246.42093
227.55231 53.431679 244.37141
228.20346 53.420311 244.18672
228.59122 53.660019 243.06873
229.50693 53.397247 243.81128
230.42801 53.13427 244.55037
231.35446 52.871094 245.28593
232.56003 52.356354 246.94635
233.49973 52.092735 247.67406
234.16606 52.080391 247.47128
234.83279 52.06794 247.2664
235.78365 51.803848 247.98473
236.45366 51.791168 247.77483
236.83533 52.030037 246.63905
237.79488 51.765526 247.3486
238.46608 51.752579 247.13228
238.8414 51.991364 245.99243
239.2121 52.230156 244.8521
240.18073 51.965218 245.55057
241.15475 51.700096 246.24522
242.13416 51.43483 246.93599
242.81017 51.421463 246.70572
243.79785 51.155945 247.38951
244.79094 50.890305 248.06932
245.78941 50.624535 248.74516
246.79327 50.358635 249.41699
248.44531 49.588043 251.91023
249.46497 49.321823 252.57213
250.48999 49.055511 253.22992
250.53348 49.54644 251.15361
251.23015 49.532608 250.89682
252.26111 49.266258 251.54585
252.62433 49.505051 250.37637
253.66087 49.238716 251.01892
254.36111 49.225037 250.752
254.37332 49.716942 248.67419
254.37561 50.209114 246.59808
255.76466 49.690277 248.1328
255.40543 50.435783 245.15475
257.15659 49.664131 247.58228
258.20947 49.398315 248.20293
259.26749 49.132584 248.81929
259.60693 49.373108 247.63684
260.67004 49.107704 248.24664
261.73819 48.842461 248.8521
262.81134 48.577385 249.45323
264.26141 48.059265 250.94307
264.97244 48.047859 250.64249
266.0603 47.783455 251.23061
267.15298 47.519341 251.81435
267.48627 47.762321 250.61632
267.81415 48.005798 249.41833
267.36234 48.756714 246.44746
267.67422 49.001282 245.25198
268.37274 48.992889 244.94096
65.109261 58.771084 213.24155
65.324936 58.527172 214.39723
65.933701 58.534496 214.66637
64.61731 57.28854 219.37448
64.856819 57.046097 220.53476
65.861816 57.305393 219.91467
67.617157 58.066212 217.50768
67.482422 57.574146 219.55482
68.847992 58.084736 218.03008
69.463638 58.094395 218.28842
70.079391 58.104298 218.54483
70.695213 58.114422 218.7993
71.311089 58.124752 219.05182
71.926964 58.135269 219.30237
72.542831 58.145962 219.55092
73.15863 58.156792 219.79755
73.06974 57.667347 221.84576
74.040237 57.928715 221.18755
75.352844 58.44022 219.62155
75.965714 58.451488 219.85918
76.578438 58.462845 220.0948
77.870399 58.974236 218.51503
78.140526 58.735691 219.6524
78.415497 58.497303 220.78966
78.363121 58.009205 222.83635
79.309479 58.270691 222.15337
79.923447 58.282375 222.3779
81.186356 58.793461 220.77582
82.116859 59.05471 220.0813
83.042046 59.315857 219.38304
83.644875 59.327354 219.59598
84.561943 59.588314 218.89114
84.849632 59.350262 220.01601
85.761086 59.611084 219.3055
86.360199 59.622414 219.50975
87.263512 59.883011 218.79279
88.463509 60.392735 217.15207
89.353676 60.653 216.42706
89.94149 60.663944 216.6203
89.350922 59.678303 220.50209
89.364059 59.191143 222.54158
89.676361 58.953121 223.65819
89.993309 58.715111 224.77446
89.74585 57.979233 227.74193
91.487259 58.985847 224.22624
92.09021 58.996582 224.41179
92.138718 58.509621 226.45157
92.745964 58.520267 226.63481
93.897018 59.028282 224.95702
94.229012 58.789974 226.06531
95.366959 59.297581 224.38007
95.965393 59.307724 224.55357
96.301331 59.069202 225.65776
97.161224 59.327702 224.89511
97.758652 59.33754 225.06311
98.101044 59.098835 226.16385
99.20475 59.605293 224.45839
99.798721 59.614777 224.62025
100.88693 60.120773 222.90717
102.45456 61.123074 219.31514
103.03275 61.132008 219.46771
103.37077 60.892628 220.55708
104.42562 61.397705 218.82848
104.53057 60.910023 220.85486
104.41263 60.174282 223.82243
105.2292 60.430874 223.02782
105.58546 60.191246 224.11356
106.17143 60.199551 224.25655
106.97975 60.455704 223.45494
107.34254 60.215843 224.53734
107.92767 60.223827 224.67517
108.51253 60.231697 224.81131
109.3099 60.487274 224.0006
109.4711 59.999321 226.02422
110.47336 60.502396 224.26334
111.26012 60.757519 223.44537
111.83876 60.764763 223.57205
112.41714 60.771919 223.69704
112.79721 60.531326 224.76881
113.57318 60.785896 223.94212
113.95766 60.545139 225.01164
114.53753 60.551884 225.13062
114.7406 60.063488 227.14877
115.88242 60.812546 224.41273
116.45915 60.818943 224.52635
117.39758 61.32011 222.73463
117.79049 61.078827 223.79645
118.54021 61.332272 222.952
118.76396 60.843487 224.96477
118.99727 60.354702 226.97777
119.40887 60.113216 228.03682
120.15779 60.366241 227.18602
120.90163 60.619129 226.33275
121.64041 60.871857 225.47707
122.21512 60.877228 225.57483
122.78966 60.8825 225.67102
123.36401 60.887669 225.76566
123.93819 60.892742 225.85872
124.36292 60.650589 226.90765
125.08603 60.902592 226.04024
125.65971 60.907383 226.12866
126.51717 61.406204 224.29848
127.08568 61.410755 224.38312
127.65402 61.415215 224.46625
128.22221 61.419575 224.54785
128.65799 61.176853 225.58791
128.96866 60.687107 227.58739
129.28888 60.197334 229.5867
130.11859 60.69529 227.74205
130.57082 60.452335 228.77832
131.02774 60.209316 229.81371
131.72481 60.460007 228.92447
132.5322 60.957458 227.07095
133.10403 60.961048 227.13965
133.89664 61.458237 225.28137
134.57143 61.708443 224.3835
134.92445 61.21809 226.37349
135.39024 60.974503 227.39954
135.86076 60.730862 228.42461
136.23769 60.240383 230.41278
136.81601 60.243397 230.47182
137.39426 60.24633 230.52933
137.97238 60.249172 230.58537
138.55045 60.251938 230.63991
139.21463 60.501328 229.72772
139.79008 60.503914 229.77907
140.36545 60.506405 229.82895
140.94073 60.508827 229.87732
141.51595 60.511158 229.92424
142.01692 60.266747 230.93594
142.66614 60.515587 230.01363
143.1718 60.271034 231.02274
143.74913 60.273048 231.06396
144.26192 60.028351 232.07063
144.90361 60.276852 231.14191
145.4211 60.032009 232.14597
146.00061 60.033718 232.18141
146.58006 60.035347 232.21539
147.2643 60.530094 230.31248
147.83882 60.531548 230.34329
148.46088 60.779514 229.40465
148.98773 60.534225 230.40047
149.56212 60.535461 230.42683
150.13647 60.536613 230.4518
150.67285 60.291122 231.44366
151.17848 59.799 233.40274
151.79309 60.046486 232.45503
152.40283 60.293896 231.50566
152.92287 59.801559 233.46086
153.55603 60.295353 231.53973
154.13258 60.295982 231.55453
154.73018 60.54306 230.59904
155.26701 60.050446 232.54884
155.84593 60.050835 232.55937
156.42485 60.051163 232.56839
156.99236 59.804867 233.54506
157.58266 60.051575 232.58211
158.16812 60.298199 231.61768
158.7446 60.29821 231.6209
159.32108 60.298145 231.62263
159.89755 60.298019 231.62292
160.4894 59.065125 236.46739
161.08344 58.818302 237.43384
161.67441 58.817928 237.42966
162.2757 58.570942 238.39308
162.8564 58.816956 237.41685
163.37175 60.04908 232.56314
163.96828 59.801868 233.52219
164.52974 60.04768 232.54181
165.13113 59.800312 233.49782
165.73738 59.552853 234.45226
166.32129 59.551872 234.43634
166.81641 60.29052 231.51294
167.42517 60.042824 232.46291
167.93549 60.534782 230.50571
168.54674 60.286942 231.45264
169.1236 60.285587 231.42964
169.82553 59.544376 234.30984
170.36563 59.789452 233.31548
170.94745 59.787865 233.28783
171.57825 59.539574 234.22661
172.1626 59.537819 234.19588
172.63951 60.029232 232.22847
173.27531 59.780697 233.16252
173.85744 59.778706 233.12749
174.50061 59.52998 234.05817
175.14868 59.281155 234.98705
175.80167 59.03223 235.91409
176.39131 59.029896 235.8726
177.12236 58.534092 237.76263
177.57085 59.02496 235.78511
178.16074 59.022362 235.73912
178.82861 58.772972 236.65752
179.50143 58.523472 237.57401
180.09642 58.520599 237.52304
180.77667 58.270882 238.43587
181.46187 58.021061 239.34671
181.972 58.26469 238.32581
182.38495 58.755051 236.33917
182.97803 58.751755 236.28076
183.66849 58.501564 237.18492
184.06483 58.991756 235.19536
184.4516 59.481915 233.20526
185.35147 58.737717 236.03165
186.05209 58.487095 236.92865
186.97646 57.74255 239.74925
188.47453 55.763264 247.37943
190.24001 53.289757 256.92792
191.35417 52.297501 260.69699
192.96423 50.317154 268.30865
194.49176 48.583389 274.95233
195.55769 47.837273 277.74557
195.7538 48.820061 273.80988
196.18826 49.3088 271.79578
196.35074 50.291611 267.86105
195.42476 53.251076 256.2493
195.39322 54.481239 251.35979
195.33752 55.711502 246.47208
195.11678 57.189003 240.62759
195.01039 58.419491 235.74413
195.46309 58.661373 234.6945
195.16989 60.139202 228.85625
196.05309 59.639416 230.67839
196.9462 59.13945 232.49736
197.6937 58.886547 233.35678
198.92023 57.891621 237.08173
199.52475 57.885658 236.97948
199.96663 58.126934 235.92044
200.40384 58.368153 234.86061
200.83638 58.60931 233.79999
201.09407 59.097832 231.78473
201.68747 59.091461 231.67644
202.10602 59.332458 230.61353
202.6974 59.325897 230.5024
203.46899 59.071712 231.34164
203.69849 59.560013 229.32365
204.28813 59.553162 229.20805
204.31613 60.289017 226.23906
205.84764 59.043839 230.87209
207.01949 58.293591 233.59927
208.40094 57.295345 237.27083
209.60518 56.544472 239.98801
211.02396 55.54554 243.64835
212.05862 55.041809 245.40765
214.53461 52.80307 253.79192
216.22743 51.555038 258.37885
217.73578 50.554451 262.01245
218.20496 50.793076 260.91302
218.02667 51.775513 256.97842
216.31177 54.494049 246.43697
215.85831 55.725056 241.56804
215.8239 56.460163 238.58919
216.67157 56.202972 239.38181
217.97769 55.449322 242.0551
218.61172 55.439846 241.89917
219.70918 54.93383 243.62262
220.58284 54.675781 244.4017
221.69827 54.169258 246.11697
222.10706 54.407417 245.01158
222.99411 54.148804 245.78172
223.88647 53.890007 246.5486
224.53778 53.87944 246.37544
224.94058 54.117226 245.26418
226.0928 53.609406 246.95862
226.49387 53.847015 245.84404
226.89034 54.084572 244.72885
227.28223 54.322098 243.61304
228.19205 54.06221 244.362
228.57971 54.299599 243.24358
229.49527 54.039398 243.98708
230.4162 53.778999 244.72708
231.3425 53.518394 245.46361
232.54788 53.008682 247.12563
233.48743 52.74765 247.85429
234.15363 52.73542 247.65179
234.82027 52.723091 247.44722
236.05469 52.212471 249.0925
236.7271 52.19986 248.8821
236.82251 52.685539 246.82069
237.19952 52.922089 245.68394
237.57193 53.158646 244.54671
237.64349 53.644554 242.48692
238.30286 53.631813 242.27065
239.26384 53.36956 242.97261
240.53394 52.857681 244.59023
241.81448 52.345528 246.20235
242.79666 52.082726 246.89102
243.47299 52.069397 246.65883
245.09106 51.306984 249.17267
245.77567 51.293434 248.93343
246.77943 51.030067 249.60623
248.10995 50.516754 251.18843
249.12701 50.253128 251.85219
249.82309 50.239311 251.60028
249.86165 50.725464 249.52473
250.88474 50.461754 250.17984
252.2471 49.947884 251.73958
252.27393 50.434387 249.66179
253.64696 49.92041 251.21317
254.6888 49.656525 251.85245
254.7037 50.143463 249.77254
254.70871 50.630684 247.69424
256.79858 49.615952 251.03568
256.4472 50.353905 248.05278
257.85175 49.839943 249.57863
258.90982 49.576454 250.19817
259.61377 49.563606 249.91443
259.59421 50.052162 247.83252
260.65747 49.789154 248.44318
261.72583 49.526276 249.04955
262.79916 49.263557 249.65155
263.50558 49.251808 249.35548
264.5863 48.989525 249.94984
266.04889 48.476624 251.43147
267.14191 48.214798 252.01605
267.47559 48.455139 250.81741
268.18851 48.444984 250.50714
268.12683 48.937271 248.42027
268.05463 49.43013 246.33578
268.75616 49.421455 246.02365
64.33107 58.864967 215.18227
64.162086 58.375423 217.22754
65.166405 58.631363 216.61218
63.85556 57.397903 221.32602
64.865616 57.654644 220.7092
65.110832 57.415218 221.87042
66.493874 57.920704 220.35551
66.367058 57.433781 222.4072
67.740379 57.93969 220.88411
68.733788 58.197624 220.25015
69.354797 58.207691 220.50853
70.705666 58.713921 218.97009
71.321716 58.724316 219.22244
71.937759 58.734886 219.47281
72.553772 58.745613 219.72121
73.169724 58.756489 219.96761
73.081047 58.27198 222.01701
73.701843 58.283184 222.26143
74.669746 58.542164 221.5993
74.943047 58.305904 222.74414
75.905579 58.56496 222.07602
77.202545 59.071514 220.49655
78.1521 59.33046 219.81958
78.427139 59.094479 220.95734
79.039093 59.106026 221.18472
79.9804 59.364929 220.49892
80.589333 59.376469 220.72137
81.847122 59.882488 219.11586
82.772537 60.141129 218.41862
83.692635 60.399662 217.71764
84.290421 60.410988 217.92856
85.202393 60.669338 217.22102
85.485069 60.433567 218.3446
86.081947 60.444805 218.54968
86.678497 60.456005 218.75285
87.274734 60.467159 218.95407
87.870651 60.478264 219.15337
88.46624 60.489307 219.35075
89.358467 60.747021 218.62375
88.478546 59.524521 223.43286
88.791153 59.288921 224.55183
89.397888 59.299927 224.74557
90.004288 59.310863 224.93736
89.472397 58.335735 228.83304
91.780014 59.825378 223.46078
92.100883 59.589561 224.5733
92.426399 59.353748 225.68542
92.48201 58.871609 227.72667
93.635376 59.374664 226.04802
93.969803 59.138733 227.15747
94.842979 59.395176 226.40311
95.710854 59.651447 225.64542
96.311317 59.661411 225.81758
96.911453 59.671284 225.98788
97.768402 59.927078 225.22182
98.110718 59.690708 226.32298
99.214233 60.192154 224.616
99.80809 60.201523 224.77765
100.89612 60.70253 223.063
102.21872 61.449108 220.40604
102.55697 61.212166 221.4976
103.13969 61.220959 221.64952
103.95946 61.475353 220.85988
104.30421 61.238205 221.94815
104.18873 60.509712 224.91812
105.23758 61.009407 223.18156
105.82127 61.017693 223.32544
106.17963 60.780312 224.41052
106.54263 60.542896 225.49509
107.13039 60.550911 225.63503
107.71786 60.558819 225.77325
108.08986 60.321198 226.85501
108.892 60.574295 226.0446
109.47867 60.581875 226.17772
110.48075 61.079971 224.41537
111.06198 61.087265 224.54407
111.8459 61.33971 223.72308
112.42417 61.346752 223.84795
112.80417 61.108501 224.92017
113.3844 61.115364 225.04224
113.77126 60.87698 226.11272
114.54416 61.128769 225.28148
114.93543 60.890228 226.34972
115.88881 61.386803 224.56267
116.6488 61.638142 223.72411
117.58463 62.134323 221.9305
117.97502 61.895355 222.99232
118.54613 61.901306 223.10005
118.94344 61.66222 224.16008
119.00308 60.933277 227.12808
119.58334 60.939026 227.23283
120.16341 60.944656 227.33603
120.74326 60.950188 227.43765
121.48434 61.200428 226.58163
122.22038 61.450523 225.72321
122.63827 61.210945 226.77614
123.21495 61.216064 226.87103
123.79147 61.221081 226.96439
124.21856 60.981297 228.01424
124.79716 60.986153 228.10483
125.37561 60.990898 228.19389
126.09584 61.240189 227.32227
126.95059 61.733974 225.48882
127.65837 61.982979 224.61232
128.22647 61.987274 224.69383
128.79443 61.991486 224.77382
129.23242 61.751049 225.81322
129.42035 61.021492 228.77425
130.12256 61.270016 227.88945
130.69724 61.273907 227.9644
131.27179 61.277718 228.03783
131.9639 61.525894 227.14726
132.88159 62.262863 224.32903
133.33322 62.021915 225.35983
134.01044 62.269737 224.46304
134.57471 62.273048 224.52785
134.82208 61.543095 227.48291
135.18706 61.057514 229.47392
135.76309 61.060635 229.53563
136.24069 60.819321 230.5605
136.81895 60.822285 230.61945
137.49059 61.0695 229.71173
138.15729 61.316601 228.80206
138.64177 61.074989 229.8217
139.30345 61.321903 228.90865
139.8764 61.324432 228.95969
140.44926 61.326874 229.00931
141.02205 61.32925 229.0574
141.59476 61.331532 229.10408
142.1674 61.333744 229.14925
142.81169 61.580105 228.22594
143.31245 61.337914 229.23526
143.88489 61.339886 229.27605
144.39276 61.097565 230.28297
144.96747 61.099388 230.321
145.48247 60.85693 231.32547
146.11673 61.102791 230.39272
146.58162 60.616005 232.36273
147.21335 60.86171 231.42686
147.74022 60.618984 232.42618
148.36702 60.864521 231.48712
148.89862 60.621639 232.48376
149.52052 60.867016 231.54155
150.09721 60.868149 231.56657
150.67386 60.869205 231.59013
151.25049 60.870193 231.61223
151.82707 60.871105 231.63287
152.40363 60.871929 231.65207
152.95187 60.628555 232.63914
153.55667 60.873379 231.68607
154.13315 60.873978 231.7009
154.70963 60.874516 231.71426
155.26744 60.630852 232.69576
155.83006 60.387123 233.67584
156.42513 60.631554 232.71527
156.99255 60.387669 233.69257
157.58276 60.631954 232.729
158.16817 60.876156 231.76395
158.7529 61.364407 229.82767
159.32272 61.120235 230.79913
159.89737 60.87598 231.76918
160.47992 60.387539 233.7075
161.06116 60.387257 233.70486
161.63452 60.631012 232.73106
162.22368 60.386463 233.69521
162.77953 60.874207 231.74884
163.32574 61.361877 229.80118
163.96758 60.38472 233.66971
164.54892 60.383987 233.65829
165.13028 60.383179 233.64539
165.73645 60.138153 234.60046
166.37466 59.648899 236.5233
166.84494 60.624451 232.62863
167.45602 60.379196 233.57915
168.00313 60.622158 232.58981
168.54544 60.86507 231.59915
169.12222 60.863739 231.57619
169.82405 60.129826 234.45821
170.40817 60.128315 234.43201
170.99232 60.126743 234.4043
171.62546 59.880901 235.34358
172.16081 60.12336 234.34444
172.69141 60.365753 233.34406
173.32953 60.119667 234.27863
173.97255 59.873478 235.21144
174.55949 59.871422 235.17467
175.20988 59.625046 236.10403
175.79938 59.622818 236.06415
176.32071 59.86478 235.05537
177.04924 59.373859 236.94688
177.49524 59.859943 234.96837
178.2336 59.36882 236.85614
178.82591 59.36618 236.80846
179.49863 59.119137 237.72563
180.09354 59.116318 237.67473
180.7737 58.869076 238.58824
181.37122 58.86607 238.53404
181.96883 58.86298 238.47832
182.47414 59.104176 237.45578
182.87988 59.589699 235.46712
183.56783 59.34198 236.3723
183.96169 59.827396 234.38182
184.85646 59.090645 237.21219
186.07947 57.62038 242.93152
187.01083 56.883224 245.75481
188.28497 55.412464 251.46527
189.8119 53.452438 259.09711
191.37776 51.492065 266.72266
192.16609 51.242973 267.60358
193.67383 49.526512 274.25592
194.48672 49.277046 275.13022
194.68506 50.250298 271.1937
194.35876 52.201942 263.41245
194.63766 52.930733 260.43979
194.90218 53.659523 257.46738
194.48412 55.611568 249.69344
194.9798 55.851151 248.64339
195.05531 56.824722 244.71342
194.97064 58.043068 239.82532
194.71848 59.506241 233.9803
195.31203 59.50108 233.88948
195.16464 60.719669 229.00612
196.04768 60.224827 230.82962
196.78757 59.974606 231.69261
197.37698 59.969082 231.59618
198.44048 59.228867 234.36797
199.19798 58.978191 235.22328
199.79773 58.97226 235.12036
200.23242 59.211163 234.06047
200.66245 59.450005 232.99979
201.0878 59.688801 231.93835
201.68109 59.682529 231.83018
202.2746 59.67614 231.7204
203.04581 59.424591 232.56209
203.46228 59.663059 231.49586
203.50935 60.391712 228.52455
203.91162 60.630127 227.45789
203.93471 61.358845 224.48811
205.08162 60.616409 227.22401
206.24348 59.873684 229.95531
207.6149 58.885406 233.63162
208.80911 58.142071 236.35294
210.21783 57.153118 240.0181
210.6366 57.390568 238.93651
213.09499 55.174103 247.33049
214.77034 53.938614 251.92461
216.67989 52.45723 257.45792
217.77206 51.957253 259.19879
218.66014 51.702538 259.99002
217.16959 54.148697 250.38483
216.72604 55.367489 245.51059
216.25816 56.586502 240.64026
216.43831 57.068764 238.6033
217.51517 56.568295 240.33684
218.37318 56.313282 241.12422
219.46797 55.812305 242.84982
220.57297 55.311066 244.57104
221.68819 54.809547 246.28787
222.09691 55.045403 245.18205
222.98378 54.789368 245.95306
223.63213 54.779083 245.78278
224.52716 54.52269 246.54794
224.92987 54.758171 245.43625
225.8306 54.501457 246.19615
226.2291 54.736778 245.08185
226.62302 54.972061 243.96693
226.7536 55.453514 241.91736
227.39706 55.442528 241.73531
228.04092 55.431435 241.55124
228.95135 55.173897 242.2971
229.86716 54.916161 243.03951
231.33066 54.16539 245.63933
231.98849 54.153641 245.44353
233.19907 53.648758 247.10358
234.41998 53.143593 248.75854
235.65131 52.638145 250.40834
236.32573 52.62571 250.19958
237.00055 52.613174 249.98868
236.80981 53.340759 247.00034
236.89563 53.821747 244.93892
236.97183 54.302849 242.87859
237.03842 54.78405 240.81938
237.99135 54.52459 241.52687
238.64851 54.511932 241.30957
240.52081 53.511108 244.7709
241.18878 53.498123 244.54596
242.16586 53.237961 245.23735
242.8371 53.224838 245.00716
244.44992 52.469994 247.52505
245.12946 52.456619 247.28786
245.80936 52.443222 247.04843
247.45349 51.687683 249.54906
248.46545 51.426682 250.21564
249.48279 51.165573 250.87808
249.51894 51.646919 248.80238
250.87083 51.138199 250.36981
252.23312 50.629311 251.9312
252.59653 50.863251 250.76088
253.2941 50.849617 250.49776
254.6749 50.340515 252.04556
254.69 50.82254 249.96457
255.04175 51.056976 248.78984
256.78494 50.299973 251.22957
257.13708 50.534615 250.05025
258.54672 50.025452 251.57573
259.60995 49.764313 252.19417
260.31912 49.751328 251.9086
259.94315 50.482971 248.92479
260.64484 50.470505 248.63773
260.97974 50.70649 247.45184
262.04822 50.446228 248.05684
262.74982 50.434456 247.76303
263.82571 50.174599 248.36041
265.28348 49.666557 249.84573
266.75119 49.158669 251.32454
267.84677 48.899475 251.90665
268.56256 48.889099 251.59534
268.89099 49.127686 250.39397
269.21393 49.366776 249.19266
269.53137 49.606392 247.99152
63.5532 58.968704 217.12411
63.7798 58.730221 218.28564
64.011818 58.492176 219.44762
63.479172 57.762928 222.38901
64.492035 58.017391 221.77254
65.120117 58.026352 222.04372
66.125893 58.28133 221.42014
66.751854 58.29084 221.68636
68.12281 58.791885 220.16072
69.113876 59.047409 219.52487
69.732582 59.05751 219.78203
71.445869 59.804371 217.3429
72.41938 60.060211 216.69385
73.387794 60.31612 216.0408
72.92202 59.590538 218.98851
73.535568 59.601383 219.23372
73.092346 58.876461 222.18651
73.363548 58.642426 223.33487
73.986832 58.653778 223.57802
74.609955 58.665226 223.81911
75.575027 58.921852 223.15105
76.874474 59.423508 221.57095
77.826538 59.680012 220.89403
78.104187 59.446518 222.03314
79.050728 59.70298 221.35033
79.991997 59.959385 220.66362
80.927963 60.215694 219.97307
81.85862 60.471912 219.2787
83.105965 60.972767 217.666
84.023491 61.228733 216.96318
84.301765 60.9953 218.08932
85.213669 61.251122 217.38086
85.496361 61.017731 218.50485
85.783737 60.784382 219.62866
85.768883 60.306633 221.67204
86.372581 60.317848 221.87555
86.975945 60.328991 222.07712
88.177834 60.82872 220.4321
89.369362 61.328194 218.78189
88.784027 60.36208 222.67015
89.38604 60.372967 222.86397
89.987701 60.383781 223.05586
90.302094 60.150433 224.17216
90.052238 59.428997 227.14235
91.790627 60.415745 223.62009
92.390907 60.426231 223.80435
92.713875 60.192707 224.91617
93.041481 59.95919 226.02757
94.189682 60.457142 224.3459
94.519081 60.223473 225.45428
95.387154 60.477268 224.69757
95.985367 60.487183 224.87065
96.32119 60.253334 225.97565
96.661636 60.019466 227.0802
98.035126 60.759907 224.44359
98.374901 60.525829 225.54449
98.971451 60.535225 225.7084
99.817352 60.787991 224.93327
100.9052 61.284 223.2171
101.73811 61.53635 222.4351
102.08122 61.301815 223.52841
102.90857 61.553886 222.74156
103.73067 61.805767 221.95171
104.0778 61.570988 223.04105
104.42958 61.336163 224.1299
105.24585 61.587646 223.3336
106.0569 61.838959 222.53436
106.41273 61.603878 223.61929
106.99574 61.611835 223.75955
107.35838 61.376644 224.84285
108.16092 61.627407 224.03503
108.52792 61.392063 225.11609
109.53773 61.885494 223.35732
110.11692 61.892872 223.48859
110.90366 62.143021 222.67068
111.47988 62.150154 222.7981
112.05585 62.157181 222.92387
112.43111 61.921307 223.99716
112.81102 61.685383 225.06985
113.39114 61.69215 225.19177
113.77792 61.4561 226.26273
114.36002 61.462685 226.38187
114.75366 61.226513 227.45105
115.70932 61.718155 225.6631
116.47163 61.966991 224.82425
117.40974 62.458241 223.02971
117.98096 62.464199 223.13889
118.55196 62.470055 223.24649
119.12277 62.475811 223.35249
119.52223 62.238998 224.41188
119.92637 62.002121 225.4706
120.33519 61.765205 226.52859
120.91251 61.770634 226.62964
121.48965 61.775955 226.72913
122.0666 61.781185 226.82703
122.64337 61.786316 226.92337
123.21997 61.791355 227.01814
124.0997 62.28088 225.19482
124.52185 62.043407 226.2444
125.0955 62.048153 226.33411
125.52462 61.810539 227.38176
126.24232 62.057327 226.50899
126.95499 62.303963 225.63402
127.79974 62.792656 223.79628
128.36533 62.796867 223.87733
128.79854 62.558846 224.91808
129.36627 62.562901 224.99644
129.55173 61.840534 227.95891
130.0015 61.602364 228.99744
130.57851 61.606209 229.07262
131.1554 61.60997 229.14626
131.96751 62.097729 227.29218
132.88507 62.82737 224.47202
133.2238 62.346767 226.46706
133.90334 62.592133 225.56984
134.46992 62.595406 225.63483
134.82527 62.114647 227.62741
135.19019 61.633865 229.61955
135.96759 62.120823 227.75108
136.44029 61.881855 228.776
137.01361 61.884747 228.8344
137.58685 61.887554 228.8913
138.25104 62.132187 227.9807
138.73303 61.892937 229.00069
139.3922 62.137371 228.0867
139.96265 62.139851 228.1375
140.53302 62.14225 228.1868
141.02435 61.902721 229.20177
141.59697 61.904968 229.24838
142.24367 62.148964 228.32602
142.81374 62.151039 228.36954
143.31444 61.911247 229.37936
143.81989 61.671379 230.38815
144.39459 61.673241 230.42763
144.96922 61.67503 230.46562
145.48416 61.434971 231.47064
146.11833 61.678383 230.53722
146.63797 61.438175 231.53963
147.31963 61.923183 229.63409
147.84158 61.682838 230.6337
148.41591 61.684174 230.66293
148.89986 61.20195 232.6293
149.56442 61.686615 230.71707
150.05794 61.204266 232.68095
150.63693 61.205307 232.70459
151.2514 61.448002 231.75706
151.86102 61.690609 230.80792
152.43509 61.691425 230.827
152.98087 61.450451 231.81458
153.58316 61.692837 230.86081
154.15717 61.693436 230.87555
154.7101 61.452244 231.85899
155.26784 61.210995 232.84105
155.8304 60.969669 233.82176
156.41158 60.969978 233.83083
156.98134 60.728504 234.80875
157.58289 61.21207 232.87428
158.17477 61.695557 230.93828
158.75287 61.937271 229.97112
159.32437 61.937214 229.97284
159.89653 61.695381 230.9435
160.47661 61.211777 232.88303
161.05536 61.211498 232.8804
161.63412 61.211147 232.87633
162.22321 60.969017 233.84109
162.77898 61.451931 231.89354
163.34026 61.693069 230.9149
163.96687 60.967293 233.81566
164.54814 60.966576 233.80424
165.10707 61.2075 232.82127
165.71075 60.964912 233.77702
166.2921 60.963963 233.76123
166.84387 61.204681 232.77405
167.42288 61.203598 232.75539
168.00191 61.202435 232.73526
168.58099 61.201195 232.71368
169.19936 60.958134 233.66019
169.86426 60.473232 235.57443
170.40663 60.713512 234.57881
170.94423 60.953732 233.58191
171.62376 60.468567 235.49106
