ply
format ascii 1.0
comment PCL generated
element vertex 1596
property float x
property float y
property float z
element camera 0
property float view_px
property float view_py
property float view_pz
property float x_axisx
property float x_axisy
property float x_axisz
property float y_axisx
property float y_axisy
property float y_axisz
property float z_axisx
property float z_axisy
property float z_axisz
property float focal
property float scalex
property float scaley
property float centerx
property float centery
property int viewportx
property int viewporty
property float k1
property float k2
end_header
201.17479 184.92856 233.41281
201.94897 185.20432 234.25087
202.7283 185.48029 235.08632
203.33701 185.48926 234.97168
203.94592 185.49838 234.8553
204.55511 185.50766 234.73721
204.98137 185.24974 233.67134
205.95984 185.79399 235.44135
206.38417 185.53635 234.37248
207.18492 185.81364 235.19197
207.99088 186.09119 236.00868
208.60657 186.10144 235.87907
209.02458 185.84427 234.80467
209.83876 186.12238 235.61449
210.65816 186.40073 236.42142
211.27745 186.41164 236.2841
211.89705 186.4227 236.14497
212.51694 186.4339 236.004
213.56261 186.98091 237.74059
213.97284 186.72466 236.6557
214.59613 186.73636 236.50865
215.21974 186.74823 236.35974
216.06631 187.02829 237.14633
216.91815 187.30859 237.92984
218.00287 187.85725 239.64632
218.63773 187.86995 239.48747
219.73799 188.41922 241.1964
220.14345 188.16406 240.09818
220.30678 187.64066 238.06572
221.18051 187.92227 238.8327
221.81709 187.93576 238.66415
222.20906 187.68091 237.56204
223.33879 188.23169 239.25214
224.22888 188.51422 240.00725
224.61945 188.2598 238.8999
225.26033 188.27408 238.72081
225.90158 188.2885 238.53972
227.06308 188.84067 240.21149
227.9725 189.12436 240.95168
228.88731 189.40831 241.68835
230.34235 190.23047 244.27203
231.54286 190.78407 245.92464
232.20889 190.79987 245.72461
233.15027 191.08496 246.44548
233.81958 191.10107 246.24039
233.92935 190.57875 244.19023
234.31195 190.32565 243.06172
235.25989 190.61136 243.77249
235.92572 190.62782 243.56038
236.88194 190.91393 244.2644
238.42862 191.73944 246.79959
238.81061 191.48683 245.66106
238.89035 190.96446 243.60616
239.56055 190.98148 243.38235
239.92853 190.72873 242.24226
239.98666 190.20602 240.1884
241.26563 190.763 241.78539
242.55501 191.32028 243.37669
243.85483 191.8779 244.9623
244.84985 192.16563 245.63234
245.53247 192.18329 245.38948
246.21542 192.20099 245.14442
247.54425 192.7594 246.71112
247.90744 192.50677 245.55356
248.59369 192.52451 245.30075
249.94101 193.08333 246.85419
251.29868 193.64236 248.40154
252.33121 193.93091 249.04044
253.36899 194.21953 249.67517
254.75255 194.77899 251.20599
255.80331 195.06772 251.83124
256.51364 195.08551 251.55376
256.87589 194.83214 250.37659
257.23309 194.57849 249.19913
257.58527 194.32452 248.02142
257.93234 194.07022 246.84348
258.27432 193.8156 245.66539
258.97195 193.83191 245.37946
260.03287 194.11935 245.98257
260.73276 194.13516 245.69122
262.53781 194.96512 248.06509
263.98682 195.52353 249.54234
265.81918 196.35336 251.90009
266.91428 196.6398 252.47743
267.63544 196.65421 252.16568
267.97498 196.39636 250.96812
268.30896 196.13794 249.77072
269.02347 196.15071 249.45499
268.95993 195.61914 247.37659
270.45041 196.1745 248.81761
271.16272 196.18542 248.49606
67.095139 183.64771 206.13342
66.900253 184.18793 208.15604
67.494545 184.17929 208.42281
67.702789 184.44415 209.56853
68.300873 184.43442 209.83319
69.66288 183.87628 208.3307
70.636154 183.59177 207.70598
70.851532 183.85471 208.84731
71.44648 183.84332 209.10304
71.298584 184.37914 211.13124
70.792 185.18813 214.05014
71.400513 185.17545 214.30588
72.373268 184.88885 213.66949
73.341164 184.60211 213.02917
74.304176 184.31522 212.38487
75.618698 183.75473 210.84323
76.92318 183.19431 209.29565
77.514832 183.18056 209.53299
78.106514 183.16666 209.76845
78.35186 183.42581 210.89948
78.946045 183.41156 211.13214
79.198898 183.67026 212.26233
79.456741 183.92874 213.39253
80.055748 183.91406 213.62141
81.322037 183.35345 212.0437
81.584587 183.61159 213.17001
82.509308 183.32397 212.4879
83.428825 183.03644 211.80194
84.666702 182.47635 210.20615
84.288925 183.27946 213.13968
85.518822 182.71954 211.53728
85.790321 182.97728 212.65573
87.320648 182.14528 210.13531
88.213654 181.85837 209.42879
89.101372 181.57161 208.71861
89.677841 181.55722 208.91711
90.55748 181.27072 208.20058
90.228142 182.07277 211.13652
90.510422 182.33044 212.24593
91.685112 181.77217 210.60808
92.262703 181.75801 210.79803
92.839996 181.74393 210.98615
93.70536 181.45815 210.25423
93.707832 181.98773 212.2757
93.436684 182.78885 215.21822
94.584473 182.23166 213.56096
95.165245 182.21791 213.74135
95.745705 182.20427 213.91988
97.145859 181.37645 211.32805
98.801537 180.27771 207.80629
99.095215 180.53612 208.89842
99.659424 180.52325 209.06516
100.48668 180.23932 208.30431
101.30862 179.95561 207.54027
101.86691 179.94321 207.70026
102.4249 179.93094 207.85851
102.98259 179.91879 208.01503
103.53996 179.90677 208.16982
103.60023 180.43661 210.18289
104.16198 180.42474 210.3356
104.72342 180.41299 210.48657
105.04362 180.67209 211.56781
105.84543 180.38989 210.78334
106.64198 180.10794 209.99585
107.19977 180.09677 210.13933
107.75725 180.08574 210.28114
108.54301 179.80438 209.48605
109.09747 179.79366 209.62387
109.20443 180.32382 211.63289
109.98441 180.04297 210.83156
110.32184 180.30289 211.90263
110.44775 180.8331 213.91144
111.01072 180.82288 214.0433
111.36216 181.08295 215.11288
111.71826 181.34308 216.18196
112.28537 181.33319 216.31
113.25993 180.78342 214.55429
113.6202 181.04385 215.61949
114.383 180.76451 214.79996
115.14064 180.48538 213.97769
115.6991 180.4763 214.09592
116.25732 180.46738 214.21252
117.57169 179.37949 210.55087
118.11961 179.37097 210.66228
118.48312 179.63231 211.71733
119.03305 179.62402 211.82611
119.76205 179.34625 210.9872
119.95546 179.87746 212.9856
120.50719 179.86954 213.09018
120.88681 180.13127 214.14072
121.27113 180.39307 215.19061
121.82716 180.38547 215.29143
122.38299 180.37802 215.3907
123.10074 180.1013 214.53912
123.65374 180.09413 214.63486
124.20655 180.0871 214.72905
124.91396 179.81088 213.87119
125.31161 180.07339 214.91289
125.86388 180.06674 215.00252
126.71088 179.52179 213.18718
127.40292 179.24628 212.32089
127.94736 179.24007 212.40483
128.49162 179.23399 212.4873
128.76036 179.76624 214.47476
129.03871 180.29849 216.46213
129.32664 180.83075 218.44942
129.62419 181.36305 220.43658
130.18721 181.35739 220.51437
131.00108 180.81389 218.68074
131.55893 180.8085 218.75484
132.23727 180.53433 217.87187
132.79242 180.52921 217.94267
133.4632 180.25534 217.0558
133.90233 180.51933 218.0798
134.78976 179.70807 215.27583
135.22865 179.97229 216.29692
135.77831 179.9678 216.35974
136.32785 179.96342 216.42114
136.97845 179.69041 215.52319
137.52534 179.68626 215.58139
138.07214 179.68225 215.63818
138.61884 179.67834 215.6935
139.25687 179.40585 214.7885
139.71191 179.67087 215.79982
140.25833 179.66728 215.85085
140.72047 179.93245 216.85999
141.26913 179.92908 216.90836
141.6591 180.46304 218.87526
142.21243 180.45985 218.92114
142.69125 180.72536 219.92596
143.46294 179.91667 217.08748
144.0808 179.64528 216.16792
144.69373 179.37402 215.24661
145.17226 179.63995 216.2457
145.65556 179.90598 217.24376
146.32335 179.36655 215.35645
146.86644 179.36426 215.3902
147.29938 179.89906 217.34601
148.00508 179.09151 214.49171
148.64598 178.55261 212.5972
148.99048 179.6246 216.4734
149.44504 180.15974 218.42471
149.9951 180.15805 218.45042
150.46411 180.69336 220.3996
150.94276 181.22873 222.34775
151.53806 180.95889 221.40695
152.062 181.22603 222.38998
152.71402 180.41956 219.52049
153.2663 180.41849 219.53778
153.84451 180.14909 218.5907
154.39433 180.14822 218.60506
154.90186 180.68427 220.54419
155.43776 180.95198 221.51898
155.94594 181.75661 224.41878
156.51021 181.75612 224.42772
157.06302 182.02414 225.39847
157.65675 181.21869 222.51477
158.20956 181.48692 223.48265
158.77974 180.95007 221.5592
159.33321 181.48689 223.48752
159.89503 181.48703 223.48781
160.45996 181.75568 224.44992
161.02422 181.75603 224.44733
161.58057 181.48808 223.47998
162.1217 180.95183 221.54797
162.67874 180.95248 221.54111
163.23579 180.95323 221.53281
163.79288 180.9541 221.52309
164.39006 181.49188 223.4381
164.97449 181.76137 224.38844
165.5638 182.03098 225.33723
166.13068 182.03227 225.32152
166.72731 182.30209 226.26715
167.29668 182.30362 226.24846
167.93524 182.84212 228.15359
168.47253 182.57539 227.16917
169.04445 182.57722 227.14595
169.57457 182.31071 226.15891
170.05562 181.77579 224.20828
170.57372 181.50943 223.21886
171.13614 181.51166 223.19022
171.69864 181.51398 223.16014
172.31516 181.78494 224.09035
173.10577 182.86163 227.90372
173.68057 182.86433 227.8685
174.25545 182.86716 227.83182
174.8304 182.87009 227.79362
175.47153 183.14172 228.71497
175.84348 182.33911 225.79118
176.48477 182.61096 226.7095
177.05762 182.61433 226.66554
177.55473 182.34918 225.65979
178.04709 182.08411 224.65297
178.61536 182.08778 224.6049
179.2668 182.36026 225.515
179.9232 182.63287 226.42314
180.58458 182.90564 227.32936
181.25092 183.17856 228.23363
181.92221 183.45163 229.13588
182.50325 183.45609 229.07764
183.18208 183.72945 229.97606
183.66568 183.46536 228.95653
184.24709 183.47018 228.89369
184.8286 183.47513 228.82928
185.51767 183.74905 229.72054
186.32156 184.29204 231.56651
187.02307 184.56631 232.4532
187.50017 184.30292 231.42513
187.97253 184.03957 230.39606
188.55975 184.04529 230.32173
189.02512 183.78214 229.29047
189.73466 184.05713 230.16835
190.44926 184.33231 231.04401
191.03955 184.33856 230.96301
191.7618 184.61407 231.83447
192.48907 184.88976 232.70363
193.08476 184.89645 232.61711
193.81973 185.17252 233.48199
194.41821 185.17952 233.39188
194.87291 184.9174 232.34785
195.61575 185.19394 233.20671
196.51257 185.73999 235.01462
197.11673 185.74759 234.91711
197.72108 185.75536 234.81798
198.16943 185.49385 233.76686
198.6131 185.23242 232.71494
199.05208 184.97107 231.66219
199.81351 185.24881 232.50659
200.41405 185.2572 232.3999
201.18327 185.53531 233.23964
201.95764 185.81366 234.07681
202.56377 185.82254 233.96414
203.17014 185.8316 233.84978
203.77676 185.84079 233.73367
204.56438 186.1199 234.56168
205.17395 186.12943 234.44162
206.34076 186.94862 237.15439
206.582 186.41882 235.14069
207.38539 186.69876 235.95874
208.00096 186.70898 235.8307
208.61679 186.71933 235.70087
208.83694 186.18979 233.68469
209.84929 186.74054 235.43582
210.66888 187.0215 236.24185
211.28833 187.03252 236.10429
212.11591 187.31392 236.90501
212.73842 187.32529 236.76326
213.7868 187.87744 238.49759
214.41489 187.88922 238.351
215.04327 187.90118 238.20253
215.67198 187.91327 238.0522
216.52371 188.19601 238.83659
217.15555 188.2085 238.6819
218.243 188.7623 240.39607
218.88046 188.77518 240.23631
219.98349 189.32959 241.9429
220.39153 189.07214 240.84448
220.55737 188.54395 238.81255
221.67386 189.09911 240.5101
222.31557 189.11282 240.33997
222.71259 188.85571 239.23694
223.60004 189.14069 239.99373
224.24283 189.15488 239.81764
224.88599 189.16919 239.63953
225.7845 189.45483 240.38759
226.68839 189.74072 241.1322
227.8576 190.29819 242.80009
228.77472 190.58466 243.53703
229.43224 190.59999 243.3452
230.89259 191.42984 245.92487
231.82837 191.71716 246.65042
232.49701 191.73314 246.4493
233.16608 191.74925 246.24606
234.11304 192.0372 246.96217
234.22531 191.51009 244.9124
234.61047 191.25467 243.78352
235.27603 191.27115 243.57326
236.22955 191.55969 244.27919
237.18845 191.84845 244.98132
238.44531 192.40953 246.59637
238.82733 192.15451 245.45824
239.20467 191.89948 244.3196
239.87746 191.91664 244.09464
239.94528 191.38922 242.04074
240.00336 190.86159 239.98807
241.2825 191.42365 241.58324
242.57205 191.98599 243.1727
244.1848 192.82124 245.66631
245.18243 193.1116 246.33438
246.18542 193.4021 246.9984
246.87341 193.41995 246.75116
248.20743 193.98352 248.31419
248.25018 193.45563 246.24991
249.26689 193.74643 246.90028
250.28888 194.03732 247.54649
251.98215 194.87454 249.99356
253.01974 195.16568 250.62949
253.72449 195.18365 250.36061
254.76999 195.47482 250.98904
255.47754 195.49261 250.71461
255.83948 195.23682 249.54022
256.19644 194.98077 248.3656
256.54834 194.7244 247.19067
256.89517 194.46771 246.01555
257.59271 194.48438 245.73381
258.29022 194.50082 245.44989
258.98761 194.517 245.16379
260.41171 195.0806 246.6564
261.4798 195.37021 247.25325
262.55267 195.65958 247.84578
264.37247 196.49678 250.2086
266.20709 197.33386 252.56281
266.92822 197.34845 252.25311
268.02753 197.63675 252.8253
268.75021 197.65039 252.51028
269.08865 197.38922 251.31143
269.80762 197.40173 250.99348
269.74844 196.8649 248.91444
270.85217 197.15048 249.4733
271.56631 197.16103 249.15071
67.482445 183.95233 205.07137
67.284393 184.49794 207.09116
67.875633 184.48969 207.35669
68.080795 184.75742 208.50044
68.675865 184.74806 208.76396
69.271507 184.73819 209.02588
70.246895 184.45148 208.40306
70.087646 184.99347 210.42885
70.687241 184.98224 210.68681
70.543907 185.52316 212.71567
70.780144 185.78729 213.85962
71.388321 185.77483 214.11548
72.724915 185.20981 212.59048
73.328506 185.19685 212.84058
74.650345 184.63162 211.30563
75.605705 184.34232 210.65732
76.556122 184.05289 210.0051
76.798668 184.31503 211.13828
77.744141 184.02533 210.48029
78.684593 183.73558 209.81837
78.932243 183.9971 210.94792
79.184906 184.25839 212.07756
79.781387 184.24388 212.30757
80.714058 183.95383 211.63513
80.974068 184.2146 212.76192
81.239006 184.47517 213.88867
82.16626 184.18503 213.20851
83.08831 183.89493 212.52454
84.00515 183.60495 211.83676
84.274475 183.86522 212.95764
85.504478 183.30029 211.35706
86.408096 183.01056 210.65895
86.992889 182.99588 210.86604
87.888481 182.70636 210.16147
89.087326 182.14224 208.54254
89.357826 182.40251 209.65285
89.936577 182.38806 209.85062
90.214104 182.64822 210.95972
90.496376 182.90833 212.06865
90.783379 183.16837 213.1774
91.368584 183.15393 213.3701
92.535339 182.59093 211.72778
93.114922 182.57678 211.9151
93.694199 182.56273 212.10057
93.706367 183.09706 214.12212
94.851852 182.53487 212.4659
95.151817 182.79512 213.56633
95.732384 182.78137 213.74512
96.586021 182.49384 213
97.976135 181.65878 210.40585
98.277359 181.9194 211.49973
99.115067 181.63252 210.74461
99.684067 181.61957 210.91132
100.77457 181.05946 209.22467
101.07956 181.32042 210.31282
101.64514 181.30788 210.47345
102.46384 181.022 209.70444
103.02632 181.00977 209.86087
103.09158 181.54434 211.87408
103.9044 181.25896 211.09845
104.22497 181.52029 212.18094
104.5502 181.78166 213.26306
105.35715 181.49677 212.48085
106.15884 181.21211 211.69563
106.48816 181.47377 212.77385
107.2843 181.18948 211.98392
108.0752 180.90544 211.19104
108.86087 180.62161 210.39523
108.97034 181.15659 212.40363
109.53178 181.14589 212.54016
110.09296 181.13533 212.67502
109.78891 182.21574 216.55814
110.35942 182.20528 216.69199
110.92966 182.19496 216.82411
111.29079 182.45735 217.8938
112.06934 182.17473 217.08339
113.04659 181.61987 215.32993
113.40939 181.88264 216.39517
114.37383 181.32826 214.63568
115.32814 180.77417 212.87242
116.07832 180.49272 212.0479
116.63176 180.48376 212.16368
117.75236 179.6582 209.44753
118.11128 179.92184 210.50258
118.29067 180.4577 212.50153
119.02496 180.17715 211.66602
119.5748 180.16891 211.77344
119.94757 180.43286 212.82516
120.32505 180.69685 213.87625
121.05112 180.41696 213.0331
121.60257 180.40921 213.13474
121.98678 180.67351 214.18254
122.54028 180.66599 214.28152
123.25575 180.38675 213.43039
123.48701 180.92316 215.42386
124.0424 180.916 215.51866
124.5976 180.90897 215.61188
125.1526 180.90207 215.7036
125.85736 180.6236 214.84314
126.70454 180.07364 213.02933
127.25171 180.06721 213.1153
127.9413 179.78928 212.24797
128.62584 179.51155 211.37842
128.61678 180.59178 215.26927
128.89763 181.12885 217.25571
129.32092 181.39442 218.28885
129.74893 181.66008 219.32115
130.18167 181.92581 220.35263
131.12123 181.10591 217.56631
131.79985 180.82907 216.68565
132.47346 180.5524 215.80284
133.02386 180.54727 215.87314
133.57411 180.54225 215.94196
134.01091 180.80865 216.96509
134.89609 179.98996 214.16301
135.22415 180.52789 216.13957
135.87997 180.25208 215.24586
136.4272 180.24767 215.30708
137.0755 179.97214 214.40965
137.42258 180.51038 216.38258
138.16455 179.96391 214.52431
138.70891 179.95998 214.57948
139.25319 179.95615 214.63321
139.70833 180.22354 215.64392
140.34145 179.94881 214.73637
140.80127 180.2164 215.74466
141.26585 180.48407 216.75197
141.6559 181.0229 218.71756
142.20935 181.01967 218.76352
142.68826 181.28758 219.76772
143.38805 180.74252 217.89124
144.00845 180.46861 216.97264
144.55675 180.46585 217.0125
145.04022 180.73418 218.01129
145.59081 180.73161 218.04845
146.20123 180.45819 217.12343
146.6918 180.72681 218.11845
147.2422 180.72456 218.15131
147.95045 179.90962 215.29927
148.5939 179.36577 213.40631
148.9409 180.44756 217.27994
149.48868 180.44574 217.30698
150.03642 180.44403 217.3326
150.54361 180.71333 218.31856
151.01752 181.2536 220.26518
151.5724 181.25218 220.28685
152.09402 181.52176 221.26913
152.74373 180.70793 218.40167
153.29369 180.70685 218.41891
153.84361 180.70584 218.43471
154.41708 180.43411 217.48679
154.92229 180.97504 219.4245
155.45587 181.24521 220.39853
155.9617 182.05717 223.29626
156.53752 181.78584 222.34265
157.0856 182.0563 223.31267
157.66557 181.51434 221.39357
158.22266 181.51418 221.39813
158.77974 181.51411 221.40126
159.33507 181.785 222.36559
159.89525 182.05598 223.32849
160.46027 182.32707 224.28993
161.03015 182.59828 225.24994
161.58107 182.05704 223.32065
162.13268 181.78676 222.3526
162.67946 181.51657 221.38315
163.25182 181.78818 222.33734
163.81142 181.78906 222.32756
164.39108 182.0609 223.27873
164.99809 182.60373 225.1907
165.58994 182.87581 226.13872
166.13202 182.60625 225.16068
166.72878 182.87854 226.10559
167.29825 182.88007 226.08684
167.93692 183.42352 227.99063
168.47432 183.15436 227.00685
169.04634 183.15622 226.9836
169.61841 183.15819 226.95886
170.10197 182.61841 225.00951
170.62259 182.34964 224.02057
171.18756 182.3519 223.99176
171.80412 182.62524 224.92271
172.31766 182.35677 223.92979
173.10843 183.4433 227.74033
173.68333 183.44604 227.70508
174.19707 183.1779 226.7077
174.70601 182.90984 225.70914
175.34241 183.18394 226.63007
175.77812 182.64503 224.66876
176.34613 182.64832 224.62656
176.98763 182.92276 225.54263
177.63406 183.19737 226.45685
178.05069 182.6588 224.49104
178.69975 182.93365 225.40208
179.35376 183.20865 226.3112
179.92719 183.21263 226.25961
180.58868 183.48792 227.16507
181.25516 183.76335 228.06851
181.92659 184.03894 228.96999
182.50775 184.04346 228.91167
183.18672 184.31935 229.80933
183.77054 184.32413 229.74767
184.25194 184.05774 228.72742
184.83357 184.06274 228.66292
185.6302 184.61053 230.50981
186.21698 184.61584 230.44167
186.80389 184.62126 230.37192
187.39096 184.6268 230.30061
187.97816 184.63248 230.22772
188.44591 184.36684 229.19829
188.90894 184.10129 228.16789
189.74068 184.65028 229.99965
190.20157 184.38495 228.9664
190.91647 184.6628 229.83966
191.76823 185.2124 231.66399
192.62993 185.76224 233.48531
193.09149 185.49744 232.44565
193.82663 185.77603 233.30966
194.56682 186.05481 234.17133
194.88004 185.51865 232.17593
195.76953 186.06949 233.98509
196.52008 186.34882 234.84026
197.27573 186.62833 235.69299
197.72885 186.36438 234.6433
198.48982 186.64426 235.49188
198.62109 185.83672 232.54134
198.89902 185.30106 230.54037
199.65817 185.58133 231.38434
200.25639 185.58978 231.27791
200.68634 185.32637 230.22238
201.62448 185.87924 232.00697
202.39926 186.16031 232.84155
203.1792 186.44159 233.67348
203.60764 186.17871 232.61162
204.57375 186.73257 234.38426
205.18347 186.74223 234.26404
206.16486 187.29663 236.0303
206.78001 187.30667 235.90558
207.39545 187.31686 235.7791
208.20424 187.59961 236.59341
208.62714 187.33768 235.52077
209.04538 187.07581 234.44737
209.85995 187.35912 235.25528
210.88268 187.91528 237.00081
211.50475 187.92648 236.86249
212.12711 187.93784 236.72231
212.74976 187.94934 236.58029
213.7984 188.50656 238.31294
214.21132 188.24567 237.22844
214.8374 188.25769 237.08031
215.46379 188.26987 236.93033
216.0905 188.28221 236.77844
216.71753 188.29471 236.62468
217.5726 188.58044 237.40372
218.43295 188.86642 238.17958
219.29861 189.15266 238.9523
219.93443 189.16594 238.78902
220.5706 189.17937 238.62383
221.68735 189.73962 240.3196
222.08661 189.48007 239.21837
222.72632 189.49402 239.04662
223.36639 189.50812 238.87292
224.00684 189.52237 238.6972
224.90021 189.81036 239.44762
225.54385 189.82497 239.2672
226.70299 190.38715 240.93817
227.61243 190.67592 241.67827
228.52724 190.96495 242.41489
229.18237 190.98035 242.22346
230.37299 191.54379 243.87752
231.30394 191.83359 244.60347
232.2403 192.12366 245.32584
232.6319 191.86569 244.20151
233.29643 191.88193 243.99733
233.96135 191.89828 243.79102
234.34406 191.64044 242.66338
235.29231 191.93134 243.37195
236.24597 192.22247 244.07678
236.9149 192.23932 243.86107
238.16946 192.80542 245.47505
238.84415 192.82257 245.25333
238.92381 192.29044 243.20082
239.89435 192.58238 243.8898
240.26485 192.32489 242.74973
240.32538 191.79242 240.69742
241.29944 192.08463 241.37897
242.58916 192.65201 242.96658
244.20212 193.49481 245.45755
245.19983 193.78769 246.1245
246.20288 194.08073 246.78743
247.21129 194.3739 247.44629
248.22501 194.66719 248.10103
248.59308 194.40976 246.94257
249.28433 194.42764 246.6873
250.30634 194.72104 247.33244
251.66666 195.29008 248.87514
252.70169 195.58365 249.51097
253.06566 195.32576 248.34299
254.10603 195.61923 248.97231
254.46516 195.36099 247.80174
255.16502 195.37836 247.52769
255.86496 195.3956 247.25145
256.91571 195.68869 247.86777
257.26477 195.42947 246.6922
258.67639 195.99841 248.19481
259.38123 196.01486 247.90759
259.00305 195.20215 244.94603
260.42694 195.77057 246.43689
261.49475 196.06247 247.03279
262.93591 196.63057 248.51198
264.38687 197.1985 249.98474
266.22122 198.0428 252.3365
266.94189 198.05708 252.02672
267.66208 198.07086 251.71487
268.38171 198.08414 251.40094
268.71701 197.82007 250.20399
269.43286 197.83215 249.88718
269.37045 197.2899 247.81091
270.07974 197.30061 247.49255
270.78815 197.31061 247.17235
66.29306 185.36826 207.51163
67.277214 185.08191 206.90297
67.867851 185.07405 207.16841
68.072441 185.34464 208.31128
68.666985 185.3356 208.57475
69.643898 185.04715 207.95546
69.857834 185.31607 209.09688
69.700569 185.86327 211.12219
70.302269 185.85226 211.38126
70.160988 186.39835 213.40962
70.768501 186.38647 213.66736
71.376335 186.37421 213.92329
73.076843 185.52585 211.51131
73.316017 185.79166 212.65022
74.637688 185.22162 211.11699
75.236305 185.20839 211.36143
76.189072 184.91656 210.71118
76.082382 185.45956 212.73862
77.032776 185.16739 212.08362
78.324608 184.59692 210.52885
78.574577 184.86096 211.65878
79.170982 184.84665 211.89095
80.106194 184.5542 211.2224
80.363625 184.81767 212.34955
81.293633 184.52515 211.67525
81.224617 185.06613 213.70218
82.151871 184.7735 213.02307
83.400177 184.20322 211.43654
84.638206 183.63316 209.84439
84.581215 184.17365 211.86832
85.8088 183.60378 210.26866
86.709953 183.3116 209.57069
87.292213 183.29695 209.77718
88.185364 183.00497 209.07274
89.381836 182.43588 207.45476
89.955841 182.42148 207.65295
90.52961 182.40709 207.84926
91.103119 182.39275 208.04369
91.079308 182.9325 210.06293
91.361298 183.19507 211.16946
91.648026 183.4576 212.2758
92.521469 183.16641 211.55029
93.101135 183.15219 211.73788
93.680489 183.13806 211.92363
93.976089 183.40063 213.02571
94.83831 183.11002 212.28951
95.416771 183.09615 212.46967
95.994926 183.08237 212.64796
96.846214 182.7923 211.90312
97.6922 182.50244 211.15492
98.532883 182.21281 210.40341
99.102295 182.19965 210.57217
99.934868 181.9104 209.81482
100.76215 181.6214 209.05424
101.32565 181.60867 209.21617
101.63287 181.87209 210.30281
102.19827 181.85956 210.46194
102.51236 182.12305 211.54716
102.83112 182.38655 212.632
103.64661 182.09851 211.85803
103.96974 182.36217 212.94069
104.53859 182.35017 213.09244
105.10715 182.3383 213.2424
105.9115 182.05101 212.45883
106.24338 182.31499 213.53719
107.2733 181.75259 211.81577
108.06439 181.46594 211.02386
108.62405 181.45491 211.16338
108.73604 181.99467 213.17114
109.3001 181.98381 213.30849
109.64513 182.24832 214.38033
109.77853 182.78809 216.38843
110.13538 183.05264 217.45981
110.91956 182.76706 216.65486
111.69854 182.48174 215.84711
112.26591 182.47162 215.97556
113.03697 182.18669 215.16278
113.39989 182.45184 216.22749
114.36453 181.8924 214.46965
115.12251 181.60809 213.64926
115.87534 181.32402 212.82617
116.62299 181.04016 212.00044
117.55467 180.4818 210.22937
117.91615 180.74776 211.28438
118.2823 181.01379 212.33884
118.83495 181.00528 212.4485
119.20804 181.27145 213.50124
119.58582 181.53769 214.55336
120.14273 181.52951 214.65921
120.69943 181.52145 214.7635
121.25592 181.51355 214.86621
121.97929 181.23138 214.02037
122.53293 181.22377 214.11952
123.24855 180.94197 213.26927
123.47989 181.48322 215.26144
124.03539 181.47597 215.3564
124.43587 181.74307 216.3989
125.14586 181.46185 215.54163
125.85077 181.18083 214.68202
126.69813 180.62587 212.86981
127.10034 180.89345 213.90662
127.79253 180.61295 213.04051
128.47966 180.33264 212.1722
128.47307 181.42261 216.06067
128.89172 181.69052 217.09404
129.44797 181.68452 217.17409
129.87364 181.95259 218.20547
130.17606 182.49464 220.18922
131.11581 181.66728 217.40514
131.67146 181.66177 217.47916
132.46832 181.1087 215.64333
132.9006 181.37732 216.66821
133.56921 181.09842 215.78265
134.0061 181.36722 216.80518
134.89146 180.54108 214.00531
135.32809 180.81012 215.0249
135.87555 180.80553 215.08768
136.52652 180.52736 214.19276
137.27373 179.97566 212.33939
137.51724 180.79245 215.26723
138.1606 180.51468 214.36719
138.70508 180.51068 214.42244
139.24945 180.50679 214.47626
139.7047 180.7766 215.48636
140.25131 180.77292 215.53754
140.71365 181.04291 216.54544
141.18077 181.31299 217.55234
141.65266 181.58313 218.5582
142.20622 181.57986 218.60425
142.75969 181.57669 218.64883
143.4572 181.02669 216.77364
144.00566 181.02377 216.81496
144.41968 181.56787 218.77393
144.9081 181.83859 219.77246
145.40131 182.10941 220.76984
146.01913 181.83347 219.84607
146.51706 182.10446 220.8409
147.18498 181.55536 218.95357
147.94843 180.45961 215.14336
148.54178 180.1842 214.21243
148.98686 180.72903 216.16199
149.53232 180.7272 216.18895
150.03479 180.99884 217.17548
150.46103 181.81726 220.0829
150.97797 182.08905 221.0672
151.49973 182.36096 222.05026
152.05954 182.35962 222.07069
152.71179 181.53841 219.20543
153.29266 181.26398 218.26126
153.81673 181.53629 219.23868
154.39272 181.26207 218.2915
154.90044 181.80789 220.22791
155.41783 182.35382 222.16309
155.9286 183.17314 225.05882
156.49551 183.17264 225.06784
157.05096 183.44556 226.03726
157.63831 182.89867 224.11964
158.20935 182.6252 223.16235
158.77556 182.35184 222.20363
159.33517 182.35187 222.20531
159.89478 182.35201 222.20558
160.46059 182.89886 224.12828
161.02505 182.89923 224.12564
161.58159 182.62639 223.15968
162.1333 182.35364 222.19228
162.69296 182.35432 222.18535
163.25264 182.3551 222.17699
163.81235 182.35599 222.16719
164.41217 182.90363 224.07938
164.99925 183.17805 225.02824
165.5912 183.45261 225.97554
166.16071 183.45393 225.95969
166.7005 183.18204 224.98093
167.26765 183.18358 224.9622
167.93863 184.00529 227.82591
168.51314 184.00708 227.80402
169.08769 184.00897 227.78062
169.70416 184.28436 228.71674
170.19267 183.7397 226.76848
170.71823 183.46854 225.78
171.23901 183.19743 224.79024
171.85814 183.47328 225.72034
172.37418 183.20239 224.72791
173.11111 184.02536 227.57523
173.62729 183.75468 226.57982
174.13869 183.48413 225.58325
174.5816 182.94016 223.62572
175.21327 183.21672 224.54622
175.64421 182.67293 222.58658
176.27847 182.94972 223.50391
176.91766 183.22668 224.41942
177.63763 183.77733 226.29193
178.05435 183.23389 224.32744
178.70354 183.51125 225.2377
179.35768 183.78876 226.14603
180.01677 184.06641 227.0524
180.68083 184.34422 227.95682
181.34987 184.62219 228.85928
182.11673 185.17398 230.71703
182.60759 184.90492 229.70103
183.38684 185.45706 231.55449
183.8755 185.1882 230.5356
184.46201 185.19321 230.47203
184.83862 184.65079 228.4948
185.63541 185.20357 230.34018
186.00255 184.6613 228.36092
186.58472 184.66676 228.29167
187.16702 184.67233 228.22084
187.86667 184.95193 229.10306
188.33209 184.68387 228.07451
188.91484 184.68983 227.99898
189.87128 185.51779 230.78281
190.58861 185.79807 231.65648
191.05222 185.53052 230.62187
191.9066 186.08517 232.44432
192.7709 186.64005 234.26373
193.23505 186.37289 233.2243
193.83362 186.37996 233.13551
194.71558 186.93546 234.94753
195.17535 186.66867 233.90385
195.92343 186.95038 234.76019
196.52766 186.95805 234.66408
197.28348 187.24014 235.51591
197.5829 186.69952 233.51752
198.1853 186.70758 233.41675
198.31171 185.89267 230.46902
198.58482 185.35213 228.47018
199.17561 185.36044 228.36655
200.09879 185.91788 230.15552
200.52638 185.65204 229.10095
201.63329 186.4845 231.83064
202.40825 186.76813 232.66429
203.36426 187.3266 234.44063
203.79527 187.06142 233.37883
204.58325 187.34569 234.205
205.00984 187.08072 233.14067
205.98898 187.64014 234.90575
206.60184 187.65025 234.78131
207.40562 187.93538 235.59752
208.2146 188.22073 236.41089
209.02879 188.50635 237.22145
209.45209 188.24222 236.14752
210.07124 188.25317 236.01309
210.89369 188.53937 236.81667
211.5159 188.55069 236.67807
211.9305 188.287 235.59901
212.76125 188.57382 236.39543
214.02299 189.41139 239.06386
214.43851 189.14816 237.97923
215.0672 189.16039 237.83028
215.69623 189.17274 237.67943
216.32556 189.18527 237.5267
216.50473 188.64694 235.50299
217.58524 189.21078 237.21555
218.4458 189.49939 237.99043
219.54434 190.0639 239.69476
220.65318 190.62877 241.39464
221.53464 190.91824 242.15857
222.42142 191.20801 242.91927
222.82825 190.94629 241.81651
222.98532 190.40868 239.78369
223.62802 190.42294 239.60898
224.02098 190.16135 238.50427
224.91454 190.45197 239.2536
225.55835 190.46667 239.07291
226.46011 190.75775 239.81612
227.36725 191.0491 240.55588
228.54236 191.61702 242.21666
228.93253 191.35616 241.10117
230.12088 191.92465 242.75414
231.04953 192.217 243.47975
231.98355 192.50961 244.20177
232.64783 192.52582 243.99939
233.86774 193.09555 245.63486
234.81793 193.38889 246.34584
235.20822 193.12885 245.21629
235.87903 193.14566 245.00378
236.83786 193.43951 245.70589
237.5119 193.45657 245.4882
238.18631 193.47375 245.26833
238.86105 193.491 245.04626
238.94067 192.95395 242.99498
239.91135 193.24847 243.68288
240.28183 192.98856 242.54321
240.64757 192.72855 241.40309
241.62427 193.02338 242.08267
242.91669 193.59589 243.66756
244.53238 194.44627 246.15495
245.8481 195.01941 247.72734
246.85629 195.31511 248.38736
247.54932 195.33316 248.13768
248.88861 195.90688 249.69513
248.93611 195.36914 247.63148
249.95792 195.66508 248.27783
250.98499 195.96107 248.92001
251.68414 195.979 248.65706
252.71913 196.27502 249.29181
253.75931 196.57108 249.92233
254.46396 196.58881 249.65063
254.82541 196.32803 248.4796
255.52765 196.3454 248.20435
256.92657 196.91956 249.71692
257.63391 196.93668 249.43517
258.34119 196.95354 249.15115
259.40433 197.24884 249.75691
260.47241 197.54398 250.35841
260.10138 196.72377 247.39597
260.80554 196.73944 247.1042
261.87558 197.03366 247.69814
262.95038 197.32761 248.2878
264.02991 197.62123 248.8732
265.48773 198.19359 250.33896
266.20285 198.20744 250.03128
267.29617 198.49997 250.604
267.6315 198.23361 249.40987
267.96112 197.96661 248.21596
269.05759 198.25748 248.78052
268.99194 197.70978 246.70705
270.08932 197.99936 247.26675
270.4032 197.72946 246.07098
66.286896 185.95407 207.32121
66.878624 185.94724 207.5891
67.860481 185.65823 206.97852
68.064461 185.93167 208.12048
69.042755 185.6416 207.50465
69.634888 185.63245 207.76537
70.227592 185.62279 208.02449
70.444046 185.89398 209.16455
70.666016 186.16464 210.30511
70.893463 186.43478 211.44612
71.495552 186.42325 211.70177
71.731277 186.69247 212.8425
73.429077 185.83691 210.43196
74.388695 185.54341 209.79123
74.984337 185.53067 210.03658
75.936768 185.23677 209.38913
76.530228 185.22357 209.62981
76.420677 185.77176 211.65479
77.368401 185.47726 210.99976
78.657639 184.90199 209.44576
79.248833 184.88806 209.67804
79.498566 185.15453 210.8055
80.431198 184.85971 210.13695
80.685921 185.12579 211.26256
81.279495 185.11127 211.48825
81.210266 185.65729 213.51385
82.137505 185.3622 212.83577
83.059563 185.06715 212.15385
83.652649 185.05234 212.37189
84.245567 185.03746 212.58798
85.475769 184.46254 210.99109
87.011909 183.60791 208.48219
87.277962 183.87317 209.59535
88.482346 183.29887 207.98376
89.367775 183.00458 207.27585
89.941811 182.99013 207.4743
90.21199 183.25534 208.58171
90.788055 183.24088 208.77727
90.766678 183.78549 210.79605
91.05117 184.05045 211.90294
91.633965 184.03595 212.0954
92.216476 184.02153 212.286
92.510185 184.28644 213.3905
93.380669 183.99289 212.66147
93.67878 184.25784 213.7639
94.543663 183.9646 213.02953
95.124718 183.95056 213.21072
95.981476 183.65768 212.47032
96.832916 183.36502 211.72652
97.137054 183.63025 212.82196
97.982887 183.33792 212.073
98.557404 183.32454 212.24352
99.395142 183.03259 211.48865
100.48859 182.46228 209.80627
101.0547 182.44942 209.96922
101.87655 182.15817 209.20471
102.18604 182.42403 210.28976
102.75124 182.41151 210.44742
102.57047 183.2341 213.38658
103.3886 182.94342 212.61432
103.4707 183.48761 214.62628
104.28577 183.19722 213.84979
104.6183 183.46332 214.93115
105.4278 183.17331 214.14986
105.99837 183.16156 214.29726
107.03102 182.59404 212.57823
107.82477 182.30475 211.78792
108.83949 181.73784 210.06108
108.50154 182.8381 213.93539
109.06821 182.82709 214.07361
109.63459 182.81622 214.21011
109.55173 183.63849 217.15292
110.12498 183.62775 217.2878
111.12074 183.06201 215.54668
111.89744 182.77411 214.73927
112.46248 182.76395 214.8674
113.02727 182.75391 214.99387
113.39027 183.02142 216.05806
114.15608 182.73427 215.24182
114.52352 183.00197 216.30379
115.2839 182.71519 215.48322
116.23078 182.1514 213.71848
116.97838 181.8651 212.89207
117.34732 182.13332 213.94807
118.08954 181.84738 213.11746
118.64478 181.83871 213.22775
119.02042 182.10724 214.28047
119.75461 181.82181 213.44362
120.3092 181.81357 213.54918
120.69156 182.08238 214.59854
121.24817 182.07437 214.70146
121.97171 181.78964 213.85649
122.52548 181.78192 213.95581
123.07906 181.77435 214.05356
123.47266 182.04367 215.09735
124.02831 182.03633 215.19244
124.58376 182.02911 215.28598
125.13902 182.02203 215.37799
125.99407 181.46182 213.57005
126.69164 181.17847 212.70862
127.09395 181.44844 213.74483
127.50098 181.71848 214.7803
128.19315 181.43558 213.91359
128.19145 182.53526 217.80005
128.47977 183.08194 219.78499
129.04346 183.07579 219.86621
129.73743 182.79337 218.99377
130.04236 183.34026 220.97658
130.98474 182.50539 218.19508
131.78922 181.94713 216.36327
132.34242 181.9417 216.43558
132.89549 181.9364 216.50639
133.44843 181.93121 216.57574
134.11462 181.64992 215.68921
134.77582 181.3688 214.80066
135.3235 181.36401 214.86496
135.97716 181.08319 213.97261
136.52219 181.07867 214.03374
137.1683 180.79813 213.13763
137.61189 181.06998 214.15163
138.15659 181.06581 214.20844
138.60725 181.33783 215.22032
139.24567 181.05782 214.31767
139.61194 181.60608 216.28416
140.24774 181.32631 215.3784
140.54178 182.15073 218.3006
141.17738 181.87119 217.39197
141.57002 182.41972 219.35507
142.12613 182.4164 219.40138
142.75662 182.13722 218.48798
143.3822 181.85818 217.57271
143.93321 181.85522 217.61429
144.28253 182.6801 220.5309
144.77589 182.95322 221.52913
145.27405 183.22643 222.5262
145.89685 182.94797 221.60352
146.45723 182.94551 221.63852
147.07263 182.6673 220.71243
147.78842 181.83752 217.8651
148.43939 181.28377 215.97542
148.8894 181.83347 217.92387
149.43982 181.83159 217.95114
149.99019 181.82983 217.97696
150.45947 182.37979 219.92206
150.9384 182.92982 221.86617
151.49835 182.92836 221.88809
152.05827 182.927 221.90857
152.67981 182.37418 220.00613
153.26323 182.09727 219.06279
153.8158 182.09624 219.0787
154.39189 181.81956 218.13229
154.8997 182.37029 220.06731
155.41721 182.9211 222.00108
155.92809 183.74777 224.89473
156.50896 183.47153 223.94264
157.05064 184.02264 225.8725
157.63809 183.47084 223.95627
158.20926 183.19492 222.99971
158.77139 183.19485 223.00288
159.33353 183.19489 223.00459
159.89566 183.19504 223.00487
160.46091 183.47104 223.96492
161.03099 183.74716 224.92349
161.59006 183.47186 223.95819
162.14429 183.19669 222.99149
162.70648 183.19737 222.9845
163.26869 183.19817 222.9761
163.83093 183.19907 222.96625
164.39319 183.20007 222.95493
164.97794 183.47699 223.90312
165.54268 183.47821 223.88885
166.10744 183.47955 223.87311
166.67224 183.48099 223.8559
167.26926 183.75836 224.79794
167.90576 184.31166 226.69891
168.51498 184.58928 227.63756
169.08965 184.5912 227.61412
169.70624 184.86908 228.5495
170.19482 184.31953 226.60262
170.67377 183.77008 224.65471
171.24138 183.7724 224.62569
171.86061 184.05075 225.55502
172.37675 183.77744 224.56325
173.11383 184.6078 227.40839
173.68898 184.61063 227.37302
174.2029 184.33765 226.37694
174.71205 184.06476 225.37967
175.34869 184.34386 226.29903
175.85313 184.07117 225.29912
176.42381 184.07455 225.25661
177.14142 184.63004 227.1293
177.71712 184.63368 227.08342
178.21463 184.36142 226.07805
178.78809 184.36528 226.02934
179.52792 184.92137 227.89421
180.10645 184.92551 227.84204
180.77309 185.20584 228.74542
181.35425 185.21025 228.68999
182.0284 185.49091 229.58963
182.51692 185.21942 228.57448
183.29391 185.77652 230.42667
183.98058 186.05765 231.3204
184.56964 186.06271 231.25644
185.0538 185.79169 230.23557
185.9631 186.62576 233.03394
186.44754 186.35501 232.00993
186.81488 185.80801 230.03041
187.28741 185.53738 229.00468
187.98965 185.81953 229.88574
188.33795 185.27275 227.90392
188.79874 185.0024 226.875
189.75293 185.83781 229.65691
190.46799 186.12061 230.53004
191.05867 186.12714 230.44865
191.91324 186.68678 232.26949
192.91205 187.52322 235.03891
193.24197 186.97717 233.04848
193.97987 187.26089 233.91039
194.86447 187.82144 235.72041
195.32683 187.55232 234.67697
195.931 187.55995 234.58234
196.53535 187.56772 234.48602
197.13992 187.57562 234.38803
197.43698 187.03014 232.3913
198.03706 187.03827 232.29079
198.47861 186.76971 231.24092
198.75424 186.22437 229.2429
199.34763 186.23282 229.13866
200.27347 186.79533 230.92557
200.87219 186.80417 230.81709
201.81322 187.36717 232.59795
202.59082 187.65344 233.43022
203.54951 188.21701 235.20447
203.80469 187.67236 233.19858
204.41199 187.68205 233.08017
205.01956 187.69189 232.96001
205.81314 187.97913 233.78076
206.42369 187.98932 233.65662
207.2252 188.27701 234.47237
208.41824 189.11967 237.16757
209.43074 189.68533 238.91728
209.85907 189.41895 237.84279
210.48332 189.43011 237.70709
211.3109 189.71901 238.50856
211.7327 189.45294 237.43018
212.35785 189.4646 237.28897
213.19374 189.75412 238.08327
214.46074 190.59935 240.74808
214.8813 190.33388 239.6628
215.51511 190.34631 239.51239
215.92889 190.08102 238.42509
215.89238 189.25992 235.46831
216.29193 188.99463 234.38084
217.37022 189.56351 236.09222
218.2285 189.85468 236.8667
219.32483 190.42426 238.56993
220.66669 191.27237 241.19992
221.54834 191.56447 241.96281
222.67554 192.13515 243.65244
222.84224 191.59276 241.62015
223.24454 191.3287 240.51717
223.64221 191.06473 239.41356
224.03525 190.80075 238.30931
224.42366 190.5368 237.20441
225.57294 191.10883 238.87657
226.47491 191.40253 239.61871
227.38225 191.69647 240.35741
228.55762 192.2695 242.01634
229.21301 192.28514 241.8243
229.86877 192.3009 241.63016
230.79509 192.59581 242.35544
231.99947 193.17001 243.99786
232.66388 193.18637 243.79517
233.88403 193.76117 245.42876
234.55418 193.77788 245.22021
235.50743 194.07399 245.92717
236.18085 194.09097 245.71355
237.14235 194.38748 246.41374
237.23848 193.8457 244.36446
237.91045 193.8629 244.14507
238.58276 193.88017 243.92351
238.65979 193.33813 241.87428
239.62807 193.63516 242.5619
240.60172 193.93239 243.24567
241.27536 193.94989 243.0153
242.25717 194.24741 243.69203
243.24435 194.54506 244.36479
244.54984 195.12296 245.94112
245.86569 195.70114 247.51161
247.19196 196.27957 249.07628
247.56696 196.0174 247.92052
249.2294 196.87646 250.37996
249.27927 196.3338 248.3167
250.30359 196.63228 248.96098
251.33316 196.93082 249.60115
252.70116 197.50998 251.13722
252.73653 196.96663 249.0705
253.77664 197.26509 249.69995
254.14035 197.00195 248.53078
254.49902 196.73853 247.36128
255.19855 196.75574 247.08679
256.59485 197.33472 248.59854
257.29944 197.35162 248.31758
258.35736 197.64938 248.92657
259.77631 198.22818 250.42255
260.84668 198.52567 251.022
260.47766 197.69781 248.06076
261.91122 198.276 249.54396
262.25629 198.00983 248.35979
262.96457 198.0246 248.06152
264.0437 198.32045 248.64606
265.87488 199.17902 250.99391
266.21579 198.91101 249.80246
266.92984 198.92398 249.49272
267.64328 198.9364 249.181
267.97229 198.6665 247.98796
269.06812 198.95941 248.55177
268.61288 198.12451 245.60287
269.70709 198.41603 246.16302
270.01764 198.14313 244.96936
66.675552 186.2556 206.25526
67.65596 185.96523 205.64677
68.632217 185.67426 205.03462
68.44371 186.23462 207.05078
68.265945 186.79425 209.06987
69.244377 186.50151 208.45322
69.839088 186.49217 208.71339
69.303917 187.33374 211.61717
69.907234 187.3233 211.87735
70.511024 187.31241 212.13582
70.745964 187.58478 213.27756
70.986313 187.85663 214.41966
73.053177 186.71017 211.12666
73.653328 186.69786 211.37601
74.612907 186.40176 210.73439
75.567635 186.10548 210.08891
75.809219 186.37576 211.22198
75.704376 186.92899 213.24753
76.656998 186.632 212.59547
78.297768 185.76857 210.15102
78.891312 185.75467 210.38448
79.826385 185.45755 209.7198
80.417397 185.44339 209.94855
81.0084 185.42911 210.17537
81.599327 185.4147 210.40033
81.195961 186.24864 213.32368
82.123184 185.95108 212.64661
83.045227 185.65359 211.96576
83.962082 185.35617 211.28114
83.909805 185.90651 213.30423
85.461418 185.04404 210.80534
86.68145 184.46436 209.20473
86.636192 185.01443 211.22482
87.5345 184.7173 210.52428
88.736275 184.13805 208.91176
89.315353 184.12344 209.11221
89.59053 184.39098 210.22083
90.472816 184.09428 209.50746
91.05117 184.07977 209.7023
91.036995 184.62918 211.72043
91.61985 184.61462 211.91315
91.911316 184.88196 213.01826
92.496124 184.86746 213.20804
93.08065 184.85306 213.39597
93.664886 184.83871 213.58197
94.5299 184.54291 212.84868
95.111038 184.52881 213.03018
95.967941 184.23334 212.29082
96.81955 183.93811 211.54807
96.852646 184.48706 213.56355
97.969704 183.91083 211.8951
98.544342 183.89734 212.06587
99.645798 183.32167 210.38933
100.47589 183.02744 209.63153
101.30071 182.73341 208.87051
102.12023 182.43964 208.10631
102.68088 182.42703 208.26457
102.99012 182.69537 209.34738
103.05542 183.24457 211.35686
103.62263 183.23215 211.51192
103.70229 183.78125 213.52194
104.03271 184.04964 214.60385
104.60651 184.03745 214.75566
105.41618 183.74486 213.97537
106.2206 183.4525 213.19206
107.01976 183.16039 212.40578
108.04243 182.58812 210.68423
108.37609 182.85721 211.75708
108.26683 183.6869 214.69637
108.83611 183.67572 214.8354
109.40511 183.66469 214.97273
109.75746 183.93394 216.04364
110.11447 184.20325 217.114
111.3219 183.35239 214.43816
112.09631 183.06195 213.63118
112.45253 183.33167 214.69649
113.01745 183.32153 214.8232
113.58212 183.31152 214.94818
114.34564 183.02185 214.13239
114.71071 183.29196 215.19328
115.85715 182.44313 212.49265
116.60516 182.15411 211.66881
117.15875 182.14497 211.78357
117.52534 182.41562 212.83853
118.26527 182.12714 212.00836
118.63631 182.39795 213.06108
119.01205 182.66885 214.11325
119.56944 182.66032 214.22101
120.30112 182.37251 213.38309
120.68359 182.64371 214.43187
121.40994 182.35623 213.58986
122.1312 182.06897 212.74535
122.84734 181.78191 211.89841
123.39614 181.77431 211.99548
123.78496 182.04605 213.03783
124.33582 182.0387 213.13226
124.88651 182.03145 213.22511
125.43701 182.02435 213.31648
125.98734 182.01738 213.4063
126.53749 182.01053 213.4946
126.94235 182.28287 214.53062
127.4946 182.27626 214.61629
128.04669 182.26978 214.70041
128.18524 183.10027 217.63411
128.60898 183.37289 218.66702
129.17035 183.36668 218.74805
129.73157 183.3606 218.8275
130.16461 183.63351 219.85724
130.97916 183.07001 218.0298
131.53749 183.06433 218.10439
132.21642 182.78001 217.2247
132.77203 182.77463 217.29597
133.44337 182.49063 216.41237
134.10971 182.20679 215.52667
134.77104 181.92313 214.63892
135.31885 181.9183 214.70337
135.86653 181.91357 214.76631
136.41411 181.90897 214.82782
136.96156 181.9045 214.88786
137.31131 182.45729 216.85709
137.95978 182.17445 215.95917
138.50935 182.1703 216.01508
139.05882 182.16628 216.06956
139.6082 182.16235 216.12256
140.24411 181.88007 215.21762
140.53821 182.71184 218.13776
141.17395 182.42978 217.2299
141.7254 182.42632 217.27733
142.19981 182.70139 218.28069
142.75352 182.69814 218.32541
143.37921 182.4166 217.41092
143.93034 182.41359 217.45258
144.21251 183.52419 221.32526
144.77319 183.52135 221.36469
145.27145 183.79698 222.36113
145.89438 183.51602 221.43921
146.45486 183.51353 221.47427
146.96022 183.78946 222.46677
147.62834 183.23059 220.58095
148.2867 182.67184 218.69313
148.74408 183.22639 220.64059
149.30188 183.22447 220.66824
149.94556 182.66611 218.77536
150.41734 183.22095 220.71921
150.9369 183.49762 221.70227
151.49696 183.49612 221.72423
152.05699 183.49475 221.74472
152.67865 182.93701 219.84378
153.29059 182.37938 217.94104
153.84084 182.37836 217.95692
154.39105 182.37743 217.97139
154.9201 182.65483 218.94472
155.41656 183.48877 221.83739
155.94383 184.04459 223.76852
156.50853 184.0441 223.77756
157.06177 184.3219 224.74556
157.63788 184.0434 223.79121
158.20255 184.04323 223.79587
158.77139 183.76495 222.83855
159.33188 184.04318 223.80077
159.89655 184.04333 223.80106
160.46431 184.32182 224.76039
161.03694 184.6004 225.71825
161.60648 184.60089 225.71411
162.16566 184.32324 224.74803
162.74561 184.60217 225.70143
163.29997 184.32477 224.7325
163.86716 184.32568 224.72253
164.49455 185.16142 227.59203
165.06906 185.16257 227.57895
165.6187 184.88559 226.60419
166.19084 184.88696 226.58824
166.70351 184.33194 224.65071
167.27087 184.33353 224.63193
167.87289 184.61351 225.57159
168.47981 184.89362 226.5096
169.09163 185.17383 227.44591
169.70833 185.45419 228.38054
170.19702 184.89977 226.43503
170.76953 184.90204 226.40721
171.24377 184.34778 224.45943
171.86313 184.6286 225.38799
172.37938 184.35287 224.39687
173.06017 184.91231 226.28101
173.63298 184.91516 226.24573
174.26718 185.1965 227.16748
174.71513 184.64282 225.21234
175.3519 184.92444 226.13095
175.85645 184.64932 225.13167
176.49825 184.93118 226.04691
177.14499 185.2132 226.96028
177.79668 185.49536 227.87175
178.37502 185.49918 227.82408
178.95345 185.50313 227.77487
179.61514 185.78572 228.68097
180.19623 185.78992 228.62848
180.86542 186.07281 229.53085
181.5396 186.35587 230.43123
182.21875 186.63907 231.32957
182.61693 186.08662 229.35892
183.49426 186.92735 232.16469
184.08575 186.9324 232.10196
184.67738 186.93756 232.03763
185.16408 186.66417 231.01711
185.96852 187.22702 232.85858
186.45305 186.95386 231.83516
186.93286 186.68077 230.81073
187.40793 186.40779 229.78534
188.11275 186.6925 230.66522
188.46356 186.14088 228.68439
188.9269 185.86816 227.65576
189.88374 186.71109 230.43506
190.60139 186.99646 231.30699
191.06522 186.72415 230.27359
192.05185 187.56781 233.04405
192.91901 188.13275 234.85992
193.38577 187.86087 233.82127
193.84785 187.5891 232.78171
194.73021 188.15465 234.5905
194.90201 187.32487 231.64923
195.64554 187.61166 232.50456
196.09615 187.34027 231.46028
196.84496 187.62741 232.31152
197.44498 187.6355 232.21251
198.04521 187.64374 232.11185
