ply
format ascii 1.0
comment PCL generated
element vertex 1598
property float x
property float y
property float z
element camera 0
property float view_px
property float view_py
property float view_pz
property float x_axisx
property float x_axisy
property float x_axisz
property float y_axisx
property float y_axisy
property float y_axisz
property float z_axisx
property float z_axisy
property float z_axisz
property float focal
property float scalex
property float scaley
property float centerx
property float centery
property int viewportx
property int viewporty
property float k1
property float k2
end_header
216.74992 149.68794 241.4986
217.13261 149.5712 240.38695
217.97659 149.69832 241.20441
218.59041 149.70364 241.05473
219.20453 149.70903 240.90329
220.29961 149.95847 242.67607
220.67653 149.84207 241.55751
221.2941 149.84773 241.40018
221.66432 149.73143 240.27991
222.53029 149.85931 241.08009
222.89627 149.74313 239.95755
223.76788 149.87123 240.75285
224.64478 149.99947 241.54501
225.26697 150.00568 241.37617
225.88953 150.01196 241.20551
227.3074 150.38501 243.90244
228.20558 150.51379 244.68175
229.10913 150.64273 245.45779
230.29044 150.8941 247.18492
230.65744 150.77872 246.04626
231.01991 150.66336 244.90707
231.09802 150.42569 242.81523
232.01358 150.55521 243.57881
232.64973 150.56244 243.38823
233.57361 150.69221 244.14565
234.50291 150.82216 244.89958
235.43765 150.95226 245.65002
236.37784 151.0825 246.39688
236.72897 150.96776 245.24637
237.67506 151.09827 245.98761
238.3244 151.10629 245.77991
238.66946 150.99174 244.62564
238.39551 150.63184 241.58354
239.34604 150.76276 242.31577
240.30206 150.89384 243.04427
240.94884 150.9023 242.82784
241.91339 151.03368 243.54967
243.20323 151.28809 245.20712
243.53674 151.17403 244.04314
243.86574 151.06 242.87871
244.19023 150.946 241.71393
244.84003 150.95502 241.48471
245.82272 151.08717 242.18846
247.14584 151.34256 243.8224
248.14218 151.47507 244.5172
249.48402 151.7309 246.1403
250.49403 151.86378 246.82602
250.81966 151.75038 245.64665
251.48825 151.76025 245.39639
251.80731 151.6469 244.2153
252.827 151.78023 244.88904
253.14203 151.66698 243.70528
253.81013 151.67712 243.44679
254.47876 151.68735 243.186
255.51065 151.82114 243.84656
255.8175 151.70801 242.65744
257.22333 151.96558 244.23294
258.26941 152.09975 244.88136
259.69403 152.3577 246.4449
260.37827 152.3685 246.16484
261.81909 152.6268 247.71729
262.50931 152.63777 247.43024
262.81677 152.52496 246.22542
262.34802 152.1644 243.1918
263.02924 152.17531 242.90182
263.71075 152.18622 242.60938
71.253418 147.75681 205.98976
71.052559 148.00012 208.06306
72.407349 147.73856 206.48415
71.832268 148.10789 209.47247
72.034836 148.22481 210.63364
72.999748 148.08952 209.96114
73.959213 147.95435 209.2845
73.792198 148.19727 211.36058
74.377281 148.18816 211.5988
75.330589 148.05319 210.91396
75.912376 148.0442 211.14708
76.130241 148.16113 212.30127
77.435745 147.90063 210.68326
77.655365 148.01762 211.83438
77.879639 148.1346 212.9855
78.815308 148.0002 212.28259
79.394661 147.99158 212.50371
80.321915 147.85744 211.79391
80.897873 147.849 212.01015
82.159966 147.58957 210.36281
82.389282 147.70683 211.505
83.637901 147.44774 209.84915
83.868881 147.56512 210.98845
84.770859 147.43175 210.25871
85.006012 147.54922 211.39604
85.573944 147.54138 211.597
85.49012 147.78419 213.67041
85.739067 147.9017 214.8074
86.633873 147.76878 214.06648
86.886971 147.8864 215.20148
88.091545 147.62857 213.51453
88.972565 147.49608 212.76379
89.537537 147.48882 212.95183
90.102089 147.48164 213.13808
91.277504 147.22452 211.43471
92.139404 147.09258 210.67101
92.695259 147.08575 210.84949
93.548889 146.95407 210.07988
94.101479 146.94745 210.25406
94.653679 146.94089 210.42653
93.461334 147.68347 216.28909
94.315903 147.55209 215.51329
94.879387 147.54565 215.6844
94.876015 147.7888 217.75555
95.162933 147.9072 218.87634
96.567627 147.52682 216.18736
96.853828 147.64539 217.30469
97.691307 147.51469 216.51411
99.065216 147.13489 213.81143
99.887169 147.00452 213.01328
100.96977 146.74969 211.25616
101.77869 146.61961 210.45131
102.06038 146.73868 211.558
102.34668 146.85779 212.66443
102.6376 146.97691 213.77058
103.44032 146.84718 212.95795
103.73554 146.96643 214.06223
104.28407 146.96129 214.20564
104.83229 146.95624 214.34747
105.3802 146.95126 214.48775
105.68654 147.07068 215.58887
105.99749 147.19016 216.68967
107.02228 146.93677 214.89911
107.80302 146.80782 214.06883
108.34711 146.80322 214.2007
109.11997 146.67447 213.36557
109.66109 146.67004 213.49377
110.20193 146.6657 213.6205
110.52083 146.78557 214.71286
111.2829 146.65718 213.86937
111.38938 146.90129 215.92815
111.93415 146.89717 216.04994
112.47868 146.89311 216.17023
113.23248 146.76505 215.31912
113.98118 146.63708 214.46547
114.72478 146.50922 213.6093
115.2611 146.50548 213.72211
115.39774 146.74982 215.77739
115.93853 146.74617 215.88828
116.28425 146.86655 216.97066
117.0195 146.73906 216.10568
117.36968 146.85954 217.18614
118.28725 146.60826 215.34288
119.1949 146.3571 213.49631
119.72723 146.35387 213.59714
120.07912 146.47458 214.6723
120.61353 146.47144 214.77077
120.97234 146.59222 215.84445
121.33585 146.71303 216.91762
121.87461 146.71004 217.0127
122.41321 146.70709 217.10635
122.95164 146.70422 217.19862
123.81651 146.45381 215.33188
124.18893 146.57484 216.3997
124.72449 146.57214 216.48737
125.57195 146.32199 214.61369
125.94878 146.44315 215.67813
126.48151 146.44061 215.76122
127.16283 146.31441 214.86186
127.54653 146.4357 215.92334
127.93494 146.55701 216.98416
128.32806 146.67834 218.04431
128.72589 146.79973 219.10382
129.12845 146.92113 220.16263
129.8042 146.79526 219.2543
130.47501 146.66943 218.34396
131.14087 146.5437 217.43161
131.54779 146.66527 218.4856
132.2086 146.53964 217.56989
132.74232 146.53769 217.63701
133.39569 146.41217 216.7177
133.92679 146.41032 216.78185
134.68764 146.16133 214.87331
135.10123 146.28317 215.92017
135.51955 146.40503 216.96623
135.94261 146.5269 218.01151
136.37042 146.64882 219.05598
136.80296 146.77075 220.09962
137.24025 146.89273 221.14244
137.7803 146.8912 221.19691
138.3203 146.88971 221.25003
138.67378 147.1353 223.27774
139.12764 147.2574 224.31682
139.76305 147.13251 223.37817
140.30757 147.13118 223.42639
140.85202 147.1299 223.47322
141.55876 146.88167 221.54068
142.09828 146.88046 221.58443
142.48505 147.12628 223.60568
143.1032 147.00168 222.65758
143.50189 147.24754 224.67706
143.97929 147.36996 225.70595
144.59488 147.24548 224.75362
145.26993 146.9976 222.80939
145.62578 147.36705 225.81525
146.17453 147.36615 225.84898
146.7803 147.24185 224.89069
147.21719 147.48793 226.90329
147.71594 147.6106 227.9241
148.36908 147.36298 225.9705
149.01256 147.11543 224.01511
149.5112 147.2382 225.03189
150.09995 147.11417 224.06468
150.64359 147.11359 224.08749
151.18721 147.11307 224.10898
151.7308 147.11256 224.1291
152.27437 147.11209 224.14792
152.81792 147.11168 224.16542
153.38968 146.98788 223.18964
153.93079 146.98753 223.20444
154.44847 147.11063 224.20998
154.94994 147.35718 226.20644
155.47961 147.48035 227.20959
156.0303 147.48015 227.21928
156.55338 147.72679 229.21216
157.12024 147.60326 228.22694
157.67331 147.60316 228.2326
158.22636 147.60312 228.23694
158.77943 147.60309 228.23994
159.33426 147.47971 227.24924
159.88492 147.47977 227.24957
160.43559 147.47987 227.24854
160.99715 147.72682 229.23083
161.55263 147.72699 229.2271
162.09787 147.60379 228.22972
162.6763 147.85086 230.20784
163.21916 147.72774 229.20776
163.75723 147.60464 228.20642
164.35013 147.85184 230.18028
164.93039 147.97565 231.16049
165.46611 147.85268 230.15511
166.07831 148.09999 232.12447
166.61168 147.9771 231.11642
167.14026 147.85423 230.10718
167.66406 147.7314 229.09669
168.2565 147.85545 230.06842
168.77556 147.7327 229.0554
169.4144 147.98027 231.01569
169.88719 147.73415 229.0087
170.4894 147.85837 229.97455
170.95023 147.61232 227.96536
171.50378 147.61317 227.93736
172.05737 147.61407 227.908
172.66696 147.73846 228.86806
173.3398 147.98637 230.81711
174.02231 148.23434 232.76421
174.65132 148.35889 233.71901
175.15402 148.23656 232.69176
175.85596 148.48468 234.63345
176.42677 148.48589 234.59338
177.14328 148.73413 236.53127
177.64381 148.61195 235.49855
178.29488 148.73682 236.44341
178.95081 148.86172 237.38643
179.36429 148.61615 235.36092
179.68332 148.24707 232.34605
180.33708 148.3721 233.28505
180.81636 148.25012 232.24565
181.29089 148.12819 231.20526
182.13873 148.50046 234.11523
182.80728 148.62572 235.04724
183.28209 148.50391 234.00262
184.15913 148.8764 236.90549
184.52995 148.63112 234.87112
185.10437 148.63301 234.80956
185.67888 148.63495 234.74654
186.3649 148.76054 235.66814
186.71439 148.51538 233.6304
187.51927 148.76469 235.53435
187.85933 148.51959 233.49483
188.43196 148.52176 233.42488
189.0047 148.52399 233.3535
189.70348 148.64993 234.26497
190.02225 148.40494 232.22238
190.72368 148.53098 233.13062
191.29691 148.53342 233.05338
192.14142 148.78329 234.94075
192.85776 148.90956 235.84264
193.71948 149.15961 237.72467
194.16254 149.03857 236.65787
194.8914 149.16507 237.55353
195.47758 149.16788 237.46568
196.21402 149.29451 238.35724
196.80293 149.29745 238.26602
197.54695 149.42422 239.1534
198.45335 149.6749 241.0182
199.05005 149.67804 240.9212
199.6469 149.68126 240.82266
199.74998 149.313 237.7869
200.33992 149.3163 237.68646
200.76053 149.19579 236.60678
201.69228 149.44696 238.45825
202.45956 149.57434 239.32957
203.40871 149.82573 241.1749
204.18854 149.95332 242.04088
204.61014 149.83313 240.95334
205.39526 149.96088 241.81522
205.99893 149.96475 241.69995
206.41388 149.84473 240.60898
207.01556 149.84872 240.49095
207.42365 149.72878 239.39816
207.6308 149.48482 237.33206
208.02716 149.36493 236.23851
209.02232 149.61728 238.05934
209.21313 149.37341 235.99191
210.21857 149.62598 237.80748
211.23401 149.87869 239.61931
212.04857 150.0074 240.45778
212.86829 150.13623 241.29355
213.90897 150.38936 243.09503
214.74147 150.51843 243.92467
214.91702 150.27496 241.8493
215.75255 150.40422 242.67497
216.14204 150.28506 241.56528
216.98306 150.41452 242.38634
217.36826 150.29549 241.27431
217.98181 150.30083 241.12625
218.5957 150.30624 240.97646
219.44778 150.4361 241.78821
220.30511 150.5661 242.59698
220.6821 150.44739 241.47858
221.54501 150.57761 242.28258
222.16547 150.5835 242.12267
223.03647 150.71394 242.92114
223.66011 150.72003 242.75702
224.28412 150.7262 242.59106
224.90846 150.73245 242.42325
225.27316 150.61423 241.2961
225.89581 150.62065 241.12531
227.04883 150.87642 242.86497
227.94467 151.00772 243.64453
228.57591 151.0145 243.46606
230.02483 151.39549 246.14787
230.93922 151.52727 246.91682
231.30424 151.40967 245.7771
231.38486 151.16731 243.68501
232.58537 151.42422 245.39854
232.65692 151.18195 243.30547
233.00629 151.06453 242.1631
234.51035 151.44681 244.81592
235.7375 151.70441 246.51398
236.3855 151.71228 246.31221
236.73669 151.59526 245.16188
237.98271 151.85336 246.84842
238.33237 151.73651 245.69476
238.67749 151.61969 244.54068
238.40355 151.25266 241.4994
239.0444 151.261 241.28859
240.62265 151.64502 243.90085
241.272 151.65366 243.68336
242.23918 151.78766 244.40384
243.85152 152.17242 246.99878
244.51245 152.18149 246.77151
243.87453 151.68921 242.79239
244.19905 151.57294 241.6277
245.17883 151.70755 242.33398
246.16415 151.84233 243.03632
246.82011 151.85178 242.80078
247.81406 151.98686 243.496
248.81355 152.1221 244.18713
249.81862 152.25751 244.87418
250.13921 152.14177 243.69681
250.80283 152.15173 243.44827
251.46695 152.16177 243.19746
252.48422 152.29767 243.87161
253.15192 152.30792 243.61526
253.4624 152.1924 242.4313
254.4888 152.32864 243.09563
255.52081 152.46504 243.75563
255.46231 152.22368 241.64435
256.86572 152.48625 243.21997
258.27979 152.74905 244.78911
259.33154 152.88599 245.43256
260.38882 153.02304 246.07149
261.82977 153.28641 247.62302
262.52002 153.29753 247.33577
262.82748 153.18246 246.13112
262.35864 152.81474 243.09836
263.03983 152.82581 242.80815
264.1123 152.96326 243.42726
70.461441 148.56668 207.73088
70.654633 148.686 208.89363
72.012062 148.41937 207.31667
71.055504 148.92445 211.21957
72.025887 148.78648 210.55179
72.990852 148.64862 209.87984
73.950394 148.51086 209.2037
73.409599 148.88695 212.19788
73.997261 148.87766 212.4373
74.584557 148.86842 212.6747
75.171463 148.85922 212.91003
75.757996 148.85008 213.14333
77.066162 148.58453 211.52719
77.288315 148.70378 212.67917
77.515144 148.823 213.83109
78.453453 148.68597 213.12965
79.035393 148.67719 213.35193
79.965271 148.54042 212.6436
80.543831 148.5318 212.86095
81.465271 148.39528 212.14587
81.699677 148.51477 213.28975
83.291733 148.12271 210.7043
83.189522 148.37021 212.77756
83.763412 148.362 212.98428
84.667587 148.22609 212.25404
84.909897 148.34583 213.392
85.156807 148.46558 214.5298
85.731476 148.45766 214.72983
86.626404 148.32219 213.9894
87.197701 148.31448 214.18481
88.084274 148.17928 213.43806
88.652237 148.17177 213.62894
89.21978 148.16434 213.81796
89.478752 148.28448 214.94794
90.353638 148.14975 214.19058
91.526306 147.88776 212.48541
92.087227 147.88075 212.66563
93.244133 147.61911 210.9521
93.799294 147.61232 211.12721
94.35408 147.60562 211.30057
93.164124 148.36256 217.16205
94.021286 148.22862 216.38748
94.587334 148.22203 216.55948
94.869736 148.34271 217.68031
95.437515 148.33626 217.84958
97.396523 147.69431 213.25691
97.951187 147.68817 213.4191
99.052246 147.42798 211.67265
99.872162 147.29501 210.87587
99.881538 147.54323 212.94072
100.6983 147.41046 212.14
101.24632 147.40479 212.29251
101.01096 147.77998 215.31425
101.82427 147.64748 214.50792
102.63234 147.51511 213.69861
103.18155 147.50972 213.84534
103.47928 147.63126 214.95007
104.03033 147.62599 215.09424
104.82733 147.49403 214.27594
105.37532 147.48895 214.41631
105.92303 147.48395 214.55507
106.47047 147.47903 214.69229
107.25403 147.34749 213.86461
107.79845 147.34273 213.99809
108.34261 147.33806 214.13007
108.88648 147.33345 214.2605
109.43011 147.32892 214.38937
109.74931 147.45105 215.48305
110.07314 147.57321 216.57632
110.84019 147.44229 215.73436
110.95159 147.6911 217.79369
111.7157 147.56033 216.94815
112.47471 147.42967 216.09998
113.22858 147.29913 215.24928
113.77029 147.29515 215.36613
114.5164 147.16479 214.51088
115.25743 147.03453 213.65311
115.3941 147.2836 215.70786
115.93495 147.27988 215.81882
116.08582 147.52899 217.87363
116.82359 147.399 217.00952
117.17625 147.52179 218.09019
117.90876 147.39197 217.2222
118.82137 147.13591 215.37726
119.54134 147.00629 214.50406
119.89569 147.1293 215.57945
120.43258 147.1261 215.67842
120.79387 147.24921 216.7523
121.15985 147.37234 217.82567
121.7011 147.36928 217.92123
122.24217 147.36627 218.01538
122.94882 147.23711 217.13002
123.65046 147.10803 216.24246
124.02534 147.2314 217.31042
124.72183 147.10246 216.41925
125.56937 146.84746 214.54623
126.09985 146.84483 214.63039
126.479 146.96838 215.69362
127.1604 146.83974 214.7946
127.54414 146.96338 215.85582
127.78867 147.21313 217.8979
128.18425 147.33682 218.95815
128.72363 147.33446 219.03552
129.26288 147.33215 219.1115
129.80203 147.3299 219.18611
130.34105 147.32768 219.25934
131.00938 147.19949 218.34766
131.41876 147.32343 219.40172
131.95747 147.32135 219.47083
132.61823 147.19333 218.55411
133.39381 146.93939 216.65068
133.92497 146.9375 216.71484
134.80081 146.55771 213.82164
135.0995 146.80788 215.85355
135.51787 146.9321 216.89935
135.83327 147.1823 218.93053
136.26352 147.30656 219.97502
136.69852 147.43085 221.01862
137.13824 147.55519 222.06143
137.77881 147.42769 221.12901
138.31883 147.42618 221.18216
138.76558 147.55061 222.22163
139.30788 147.54918 222.27232
139.8501 147.54778 222.32169
140.39226 147.54643 222.36969
140.93434 147.54512 222.41637
141.55754 147.41797 221.47298
142.09711 147.41675 221.51675
142.4839 147.66733 223.53743
143.02817 147.66617 223.57889
143.42929 147.91679 225.59799
143.97826 147.91573 225.63715
144.5939 147.78883 224.68515
145.14037 147.78786 224.72145
145.62488 147.91275 225.74652
146.17366 147.91183 225.78026
146.77948 147.78514 224.8223
147.27109 147.91016 225.84377
147.76747 148.03519 226.86415
148.41824 147.78278 224.91106
148.96443 147.78207 224.93797
149.46552 147.90723 225.95459
150.01404 147.9066 225.97894
150.52228 148.03183 226.99319
151.03531 148.15709 228.00632
151.65944 147.90495 226.04398
152.20786 147.90448 226.06297
152.7869 147.77823 225.08905
153.36108 147.65204 224.11366
153.93047 147.52588 223.13678
154.42476 147.77716 225.13382
154.94968 147.90268 226.13792
155.498 147.90244 226.14891
156.03012 148.02803 227.15045
156.56703 148.15366 228.15077
157.13153 148.02774 227.16583
157.67323 148.15344 228.16351
158.21976 148.27919 229.15988
158.78362 148.02757 227.1788
159.33253 148.1534 228.17253
159.88564 148.15346 228.17282
160.43874 148.15355 228.17177
160.9973 148.2795 229.16142
161.55283 148.27966 229.1577
162.09811 148.15408 228.1606
162.67656 148.40594 230.13812
163.21947 148.28043 229.13835
163.74011 148.02916 227.1454
164.33064 148.28113 229.1187
164.90854 148.40735 230.09863
165.46657 148.40779 230.08536
166.05173 148.53409 231.06242
166.61221 148.53462 231.04636
167.14084 148.40938 230.0374
167.69899 148.40997 230.01868
168.33058 148.66228 231.98137
168.85448 148.53714 230.96846
169.49818 148.78952 232.92793
169.97581 148.53864 230.92131
170.53654 148.53944 230.89566
170.99982 148.2886 228.88693
171.55582 148.28949 228.8588
172.11185 148.29042 228.82932
172.72389 148.41724 229.78889
173.39919 148.66995 231.73718
174.08415 148.92273 233.68352
174.71561 149.0497 234.63785
175.22075 148.92499 233.6107
175.78914 148.92618 233.5722
176.35759 148.92741 233.53227
177.07175 149.18047 235.4697
177.56992 149.05591 234.43745
178.21861 149.18318 235.38213
178.79214 149.1846 235.33621
179.28328 149.06017 234.30029
179.68481 148.80984 232.27492
180.33861 148.9373 233.21359
180.81793 148.81297 232.17445
181.47672 148.94054 233.10985
182.23492 149.19409 235.03091
182.80902 149.19585 234.97504
183.38319 149.19763 234.91772
184.16096 149.4514 236.83261
184.63599 149.32733 235.78537
185.10628 149.20328 234.7372
185.57184 149.07928 233.68813
186.14409 149.0813 233.6239
186.4888 148.83136 231.58728
187.40514 149.2115 234.47632
187.86147 149.08766 233.42259
188.43416 149.08989 233.35262
189.00696 149.09216 233.28116
189.57986 149.09448 233.20828
190.02458 148.97079 232.15022
190.72607 149.09929 233.05814
191.29936 149.10176 232.98087
192.14395 149.35649 234.86758
192.72235 149.3591 234.78671
193.58173 149.614 236.66843
194.30807 149.74286 237.56555
195.03944 149.87181 238.46051
195.6281 149.87469 238.37225
196.36702 150.00378 239.26306
196.95842 150.00681 239.17142
197.70494 150.13605 240.05804
198.45647 150.2654 240.94235
198.8934 150.1424 239.86624
199.48788 150.14566 239.76805
199.75323 149.8965 237.71178
200.17613 149.77359 236.63345
200.93341 149.90327 237.50926
201.69571 150.03304 238.38261
202.46309 150.1629 239.25359
203.58913 150.54549 242.07431
204.013 150.42291 240.98814
204.43221 150.30037 239.90126
205.03087 150.30423 239.78848
205.81628 150.43452 240.64835
206.03986 150.18575 238.58426
206.82816 150.31619 239.44044
207.23386 150.19391 238.34837
207.43861 149.94522 236.28331
208.03131 149.94943 236.16234
208.82542 150.0802 237.01114
209.21742 149.9581 235.91556
210.42902 150.34207 238.70076
211.44701 150.5997 240.51132
212.05316 150.60439 240.37962
213.08635 150.86227 242.18367
213.91377 150.99373 243.0157
214.74637 151.12531 243.84492
214.92197 150.87712 241.7701
215.98076 151.13553 243.56187
216.82401 151.26743 244.38365
217.44441 151.27277 244.23724
217.83456 151.15147 243.12425
218.45313 151.15695 242.97488
219.07201 151.16252 242.82379
219.45331 151.0414 241.70792
220.07037 151.0471 241.55391
220.68777 151.0529 241.3981
221.79608 151.31248 243.16275
222.41908 151.31851 243.00209
223.29265 151.45151 243.79947
224.17151 151.58466 244.59377
225.31082 151.84488 246.34343
225.68753 151.7244 245.21498
226.05969 151.60394 244.086
226.16473 151.35652 241.99998
227.05536 151.49023 242.78238
227.68382 151.49701 242.60634
228.58267 151.63098 243.38289
229.75928 151.89223 245.10982
230.94626 152.15369 246.83202
231.58875 152.16098 246.64478
231.67189 151.91396 244.55246
232.87502 152.17587 246.26442
232.9491 151.92894 244.17116
233.30103 151.80927 243.02823
234.51793 152.07164 244.73055
235.45291 152.20686 245.47998
236.39334 152.34225 246.22588
236.7446 152.22295 245.0757
238.29057 152.61351 247.70683
238.64279 152.49442 246.55257
239.29529 152.50288 246.34166
238.71904 152.00124 242.35658
239.98213 152.26494 244.02917
240.94342 152.40125 244.75497
241.5954 152.4101 244.53654
241.93054 152.29132 243.37628
243.54054 152.68349 245.97086
243.55432 152.43716 243.86835
243.23369 152.06302 240.83011
243.55325 151.9444 239.66737
244.85802 152.20941 241.31021
246.1734 152.47466 242.94731
247.1644 152.61221 243.64508
248.16098 152.74992 244.33885
249.50314 153.01582 245.96021
249.82831 152.89781 244.78337
250.49402 152.9079 244.53595
251.16025 152.91808 244.28629
252.17714 153.0565 244.9622
253.19958 153.19508 245.63387
253.87244 153.20558 245.37534
253.4725 152.8313 242.33965
254.49902 152.97015 243.00342
255.16827 152.98079 242.73988
255.4726 152.86308 241.55208
256.87616 153.13072 243.12679
258.66083 153.52705 245.61493
258.59607 153.28104 243.50014
259.64835 153.42064 244.14061
260.70615 153.56035 244.77658
261.38879 153.57153 244.49234
261.68854 153.45406 243.29103
262.36938 153.46527 243.00304
263.0506 153.4765 242.71263
264.12311 153.61656 243.33115
70.844025 148.99301 206.73671
71.034615 149.1147 207.89819
72.389572 148.84309 206.32104
72.198242 149.09579 208.39354
73.161018 148.95537 207.7231
73.739548 148.946 207.96463
74.694046 148.80576 207.28694
74.521858 149.05821 209.35983
75.101913 149.04892 209.59636
75.312943 149.17044 210.75113
75.528671 149.29193 211.90596
75.749115 149.41339 213.06076
76.335289 149.40414 213.29221
76.562538 149.5256 214.44597
76.794441 149.64703 215.5997
78.091377 149.37682 213.97444
79.026833 149.23732 213.27058
80.305214 148.9675 211.63458
80.881317 148.95879 211.85115
81.800339 148.81973 211.13564
81.691414 149.0719 213.20949
82.945366 148.80272 211.55719
82.845673 149.0549 213.63086
84.088684 148.78603 211.97105
84.990463 148.64758 211.24042
85.230286 148.76965 212.37732
85.14901 149.02185 214.45053
86.046974 148.8837 213.71338
86.61879 148.87576 213.91078
86.871986 148.99796 215.04541
88.076851 148.73016 213.36014
88.644897 148.72252 213.55115
88.901833 148.84489 214.68192
89.163368 148.96729 215.81248
90.346558 148.7001 214.11322
90.912956 148.69281 214.29697
91.478958 148.68561 214.47893
92.640991 148.41893 212.76779
93.496933 148.28223 211.99823
94.054283 148.27536 212.17249
93.157471 148.91701 217.0849
94.014748 148.78052 216.31081
94.580887 148.7738 216.48293
95.146652 148.76718 216.65331
95.431206 148.89021 217.77295
97.390427 148.23605 213.1821
97.669319 148.3593 214.29681
98.77298 148.09413 212.55188
99.324554 148.08807 212.71014
99.607338 148.21153 213.8213
99.894722 148.33501 214.93222
100.71373 148.19977 214.13097
100.48331 148.58206 217.1532
101.30166 148.44699 216.34866
102.11476 148.31204 215.54114
102.92262 148.17725 214.73067
103.22287 148.30106 215.83583
104.02518 148.16646 215.02084
105.06854 147.90279 213.24242
105.37035 148.02681 214.34343
105.91814 148.02171 214.48235
106.22674 148.14583 215.58206
107.01286 148.01176 214.7554
107.32581 148.13599 215.85323
107.87492 148.13116 215.98648
108.42378 148.12643 216.11818
109.19902 147.99274 215.28291
109.74491 147.98817 215.41096
110.29054 147.98367 215.53748
111.05524 147.85028 214.69536
111.16422 148.10384 216.75357
111.71156 148.09955 216.8761
112.25867 148.09531 216.9971
113.01508 147.96225 216.14732
113.76638 147.82932 215.295
114.30792 147.82532 215.41046
115.25368 147.56372 213.58278
115.59016 147.68872 214.66562
115.9313 147.81375 215.74799
116.2771 147.9388 216.8299
117.01251 147.80635 215.9657
117.17275 148.06026 218.01897
117.90533 147.92795 217.15137
118.63287 147.79575 216.28136
119.35534 147.66364 215.40901
119.71217 147.78899 216.4846
120.07367 147.91437 217.55969
120.43987 148.03979 218.6342
120.98376 148.03659 218.7317
121.3569 148.16208 219.80467
122.07105 148.03036 218.92238
122.94593 147.77014 217.06009
123.48433 147.7672 217.15106
124.02257 147.76433 217.24063
124.56065 147.76151 217.32878
125.41069 147.50162 215.45683
126.09727 147.37039 214.56169
126.47647 147.49629 215.62465
127.00915 147.49371 215.7065
127.5417 147.49118 215.78696
127.64232 147.87419 218.80968
127.89884 148.12869 220.85159
128.58221 147.9978 219.94778
129.26062 147.86697 219.04192
129.93407 147.73622 218.13397
130.47073 147.73398 218.20691
130.87785 147.86021 219.26173
131.4167 147.85806 219.33228
131.83084 147.98438 220.38531
132.3719 147.98232 220.45345
133.03262 147.8519 219.53571
133.80576 147.59319 217.6313
134.56914 147.33453 215.72438
134.8727 147.58945 217.75627
135.40604 147.58765 217.81676
135.83157 147.71425 218.86176
136.26187 147.84088 219.90594
136.6969 147.96753 220.94931
137.23712 147.9659 221.00519
137.67923 148.09262 222.0466
138.12607 148.21939 223.08714
138.6709 148.21786 223.13945
139.21564 148.2164 223.19043
139.84872 148.08667 222.25223
140.39093 148.0853 222.30026
140.93306 148.08395 222.34694
141.6375 147.82611 220.41548
142.17468 147.82487 220.45912
142.5591 148.08022 222.47899
143.10098 148.07906 222.52032
143.57129 148.20619 223.54947
144.04636 148.33336 224.57764
144.65964 148.20406 223.62581
145.20372 148.20306 223.66199
145.68587 148.33034 224.6866
146.17278 148.45766 225.71017
146.77864 148.32854 224.75253
147.27028 148.45592 225.7737
147.81898 148.45511 225.80344
148.46741 148.19791 223.85086
149.01122 148.1972 223.87767
149.50993 148.32474 224.89388
150.05609 148.3241 224.91815
150.60222 148.3235 224.94106
151.07262 148.57935 226.94472
151.65895 148.45062 225.97404
152.24045 148.32193 225.00183
152.81711 148.1933 224.02817
153.36072 148.1929 224.04437
153.95595 147.93613 222.0764
154.4713 148.06401 223.0813
154.97043 148.32011 225.07649
155.51639 148.31987 225.08743
156.04613 148.44785 226.08868
156.56688 148.70407 228.08031
157.13142 148.57574 227.09566
157.68216 148.57565 227.10132
158.2263 148.70378 228.09737
158.7878 148.44739 226.11691
159.33258 148.7038 228.10204
159.88571 148.70386 228.10236
160.44495 148.96034 230.08479
161.00835 149.08867 231.07414
161.57657 149.21704 232.06207
162.1291 149.08908 231.06522
162.6895 149.08934 231.0587
163.23485 148.96144 230.0592
163.77539 148.83357 229.05838
164.37077 149.09035 231.03098
164.95352 149.21898 232.01051
165.51642 149.21944 231.99715
166.07933 149.21994 231.98236
166.64226 149.22047 231.9662
167.17332 149.09286 230.95749
167.69962 148.96527 229.94754
168.33125 149.22235 231.90956
168.85519 149.09483 230.89694
169.45741 149.2238 231.86494
169.97661 149.09636 230.84976
170.53737 149.09718 230.82411
171.04942 148.96982 229.80653
171.55672 148.84248 228.78783
172.16635 148.97166 229.74861
172.78085 149.10091 230.70775
173.4586 149.35843 232.65529
174.08524 149.48776 233.61096
174.71675 149.61716 234.56496
175.22192 149.49008 233.53809
175.72235 149.36302 232.51013
176.28844 149.36429 232.47037
176.92741 149.49387 233.41829
177.42079 149.36693 232.38664
178.14236 149.62489 234.32007
178.79358 149.75464 235.26282
179.2023 149.49953 233.23888
179.68633 149.37276 232.20239
180.34018 149.50264 233.1407
180.99893 149.63258 234.07718
181.57048 149.63426 234.02435
182.23665 149.76431 234.95732
182.71384 149.63776 233.91443
183.28564 149.63957 233.85732
184.06108 149.89816 235.77179
184.53372 149.77173 234.72508
185.10823 149.77368 234.66342
185.68285 149.77571 234.60033
186.25755 149.77779 234.53581
186.49088 149.3947 231.51433
187.40729 149.78207 234.4024
187.86366 149.65588 233.34892
188.4364 149.65814 233.27888
189.00925 149.66046 233.2074
189.70813 149.79128 234.11815
190.1553 149.66525 233.06007
190.85927 149.7962 233.96729
191.56821 149.92722 234.87236
192.41771 150.18681 236.75775
193.00101 150.1895 236.67615
193.8653 150.44926 238.55647
194.4537 150.45209 238.47119
195.18756 150.5835 239.36542
195.631 150.4579 238.2961
196.37 150.58946 239.18654
196.96144 150.59253 239.0948
197.55305 150.59566 239.00156
198.14484 150.59883 238.90674
198.89661 150.7307 239.78914
199.32892 150.60541 238.71254
199.59186 150.35149 236.65726
200.17949 150.35489 236.5571
200.93684 150.48705 237.43251
201.87119 150.74796 239.28214
202.46667 150.75162 239.17606
203.416 151.01276 241.01999
204.196 151.14529 241.88516
204.436 150.89169 239.8232
204.85062 150.76688 238.73592
205.63368 150.89963 239.59584
206.04385 150.7749 238.50626
206.64079 150.77902 238.38904
207.0441 150.65439 237.2977
207.44278 150.5298 236.20572
208.03554 150.5341 236.08466
208.62854 150.53848 235.96199
209.22179 150.54292 235.83769
210.22743 150.8053 237.65182
211.2431 151.06781 239.4622
211.63593 150.9436 238.36197
212.66434 151.20636 240.16637
213.70282 151.46928 241.96692
214.53305 151.60335 242.7963
214.92699 151.47946 241.68933
215.9859 151.74278 243.48032
216.60362 151.74811 243.33609
217.44974 151.88263 244.15514
217.83997 151.75903 243.04239
218.69162 151.89377 243.85678
219.31303 151.89946 243.70496
219.93477 151.90524 243.55138
220.55684 151.9111 243.39598
220.9364 151.78783 242.2774
221.802 151.92311 243.07985
222.17732 151.79996 241.95894
222.79831 151.80615 241.79701
223.67236 151.94179 242.59212
224.5517 152.07755 243.38411
225.17871 152.08408 243.21539
226.06619 152.22012 244.00171
226.43385 152.09741 242.87239
227.32706 152.23369 243.65361
227.9581 152.24063 243.47678
228.85953 152.37717 244.25212
230.03879 152.64342 245.97755
230.95343 152.7803 246.74551
231.59601 152.78773 246.55815
231.95911 152.66565 245.41759
232.88248 152.80292 246.17751
232.67171 152.42157 243.13498
233.02121 152.29959 241.99298
234.23578 152.56691 243.69522
235.46075 152.83446 245.39241
236.10646 152.84261 245.19115
236.45529 152.72099 244.0419
237.99896 153.11896 246.67264
238.34874 152.99756 245.51933
239.30368 153.13608 246.25255
239.03473 152.75485 243.21135
240.30051 153.02361 244.88228
241.57678 153.29259 246.54776
242.23387 153.30165 246.32745
242.89145 153.31081 246.10497
244.50922 153.71053 248.69579
244.20816 153.32944 245.65356
243.89255 152.94823 242.61446
244.21719 152.82741 241.45009
245.1972 152.96722 242.15529
246.1828 153.10721 242.85655
247.50891 153.37772 244.48694
248.17062 153.38766 244.24699
249.1729 153.52815 244.93613
249.49561 153.40784 243.76039
250.50397 153.54858 244.44316
251.17026 153.55891 244.19324
252.53745 153.83057 245.79614
253.91528 154.10245 247.39288
254.59326 154.11319 247.13219
254.19836 153.73184 244.09537
255.23007 153.8734 244.75658
255.90448 153.88429 244.49088
256.57938 153.89525 244.22278
257.62271 154.03717 244.87292
259.41266 154.4411 247.35771
259.72607 154.32141 246.15985
260.03479 154.20172 244.9617
260.71704 154.21303 244.67964
261.01895 154.09328 243.47984
261.69946 154.10461 243.19405
261.60858 153.85361 241.07945
262.6731 153.99615 241.70313
263.35208 154.00751 241.41119
70.834908 149.54825 206.65207
71.025452 149.67224 207.81334
72.380493 149.39561 206.23712
72.573067 149.51959 207.39543
72.77047 149.64349 208.55386
74.109352 149.36717 206.96509
75.061386 149.22438 206.28687
74.886589 149.48164 208.35817
75.09288 149.6055 209.51274
75.67263 149.5961 209.74739
75.885818 149.71992 210.90102
75.740089 149.97687 212.97659
76.326317 149.9675 213.20822
76.553574 150.09125 214.36182
76.429482 150.34799 216.44029
77.375587 150.20569 215.74287
78.667168 149.93059 214.11458
79.599777 149.78864 213.40829
80.526909 149.64682 212.69814
81.448563 149.50514 211.9841
81.342163 149.76201 214.05833
82.598785 149.48778 212.40784
82.837433 149.61194 213.54935
83.747276 149.47073 212.82388
84.651672 149.32968 212.09468
84.894073 149.45399 213.23224
85.14106 149.57832 214.36972
85.715904 149.57013 214.57004
86.290314 149.56203 214.76849
86.227829 149.81894 216.84248
87.753578 149.41365 214.22021
88.010979 149.53822 215.35263
88.272972 149.66283 216.48488
88.847771 149.65512 216.67487
90.033615 149.38293 214.97725
90.299362 149.50774 216.10565
91.471901 149.23587 214.40038
92.634087 148.96423 212.69009
93.194397 148.95714 212.86705
94.047577 148.81799 212.0954
93.44149 149.33951 216.05861
94.296387 149.20052 215.28424
94.86013 149.19371 215.45575
95.423492 149.187 215.62552
95.705627 149.31235 216.7442
97.105858 148.90991 214.05716
97.387268 149.03545 215.17244
98.493546 148.7653 213.42902
98.776718 148.89098 214.54163
99.064499 149.01668 215.65399
99.622894 149.01059 215.81116
100.18095 149.00459 215.96664
99.95546 149.39397 218.98935
100.77885 149.25633 218.18663
101.85312 148.98711 216.42326
102.66354 148.84975 215.61389
103.46873 148.71252 214.80161
103.77119 148.83871 215.90556
104.57084 148.70171 215.08879
104.87762 148.828 216.19084
105.43039 148.82277 216.33109
105.74396 148.94916 217.43184
106.77155 148.68102 215.64413
107.08701 148.80753 216.74232
107.63865 148.80261 216.87627
107.96092 148.92921 217.97313
108.74115 148.79298 217.13947
109.74043 148.52545 215.33748
110.28613 148.52087 215.46408
111.0509 148.38499 214.62242
111.15993 148.64328 216.68005
111.92178 148.50757 215.83476
112.25452 148.63458 216.92375
113.22056 148.36775 215.10544
113.7624 148.36362 215.22247
114.50868 148.22829 214.36801
115.4521 147.96182 212.54056
115.78618 148.08917 213.62265
115.92757 148.34775 215.67578
116.27342 148.47514 216.75746
117.2014 148.20905 214.92114
117.35923 148.46771 216.97337
118.08946 148.33295 216.1057
118.81463 148.19829 215.23563
119.35201 148.19482 215.33757
119.70887 148.32253 216.41295
119.89253 148.58131 218.46301
120.43666 148.578 218.56201
120.98061 148.57474 218.65958
121.35381 148.70258 219.73227
122.06802 148.56841 218.8504
123.10874 148.1723 216.01137
123.48144 148.30032 217.07983
124.18063 148.1664 216.19121
124.71635 148.16353 216.27902
125.25194 148.16072 216.36545
125.941 148.02702 215.47107
126.32266 148.15527 216.53413
127.00661 148.0217 215.63622
127.39285 148.15004 216.6973
127.92774 148.14749 216.77681
128.17946 148.40677 218.81741
128.71895 148.40433 218.89487
129.39499 148.27107 217.98903
129.93181 148.26874 218.0634
130.33667 148.39728 219.119
130.87569 148.39503 219.19093
131.41458 148.39285 219.26154
131.95337 148.3907 219.33073
132.36987 148.51941 220.38245
133.03065 148.38657 219.46509
133.68649 148.25378 218.54578
134.56731 147.85953 215.65511
134.87088 148.1192 217.68639
135.51437 147.9866 216.76163
135.93756 148.11557 217.80609
136.26018 148.37532 219.83554
136.48949 148.76581 222.85075
137.03458 148.76411 222.90717
137.3835 149.02393 224.93535
137.93326 149.02231 224.98952
138.57617 148.89005 224.0553
139.12338 148.88855 224.10652
139.84734 148.6257 222.18143
140.38959 148.62428 222.22948
140.93176 148.62292 222.27623
141.55505 148.49094 221.3335
142.0947 148.48967 221.37733
142.55792 148.61911 222.40834
143.09985 148.61792 222.44971
143.64174 148.61678 222.48972
144.11443 148.74632 223.51743
144.72534 148.61462 222.56575
145.26707 148.6136 222.60178
145.68492 148.8739 224.61545
146.17188 149.00359 225.63873
146.72069 149.00269 225.67119
147.26947 149.00183 225.7023
147.81821 149.00101 225.73206
148.41678 148.86961 224.77031
149.01053 148.73827 223.80693
149.4642 148.99879 225.81326
150.0128 148.99814 225.83765
150.56139 148.99753 225.8607
151.07208 149.12755 226.87309
151.623 149.12701 226.89357
152.20695 148.99593 225.92177
152.75543 148.99547 225.93947
153.33211 148.86447 224.96477
153.90396 148.73351 223.9886
154.44759 148.73318 224.00215
154.99118 148.73288 224.01439
155.53477 148.73264 224.02525
156.07835 148.73242 224.03485
156.59433 148.99342 226.02576
157.15408 148.8627 225.04138
157.70006 148.86261 225.047
158.23285 149.12372 227.0341
158.78362 149.1237 227.03711
159.33086 149.38489 229.02162
159.88643 149.38496 229.02196
160.4481 149.64624 231.00378
161.00307 149.51579 230.00993
161.56892 149.64656 230.99759
162.11909 149.5162 230.00104
162.67712 149.51646 229.99455
163.23517 149.51677 229.98671
163.77576 149.38652 228.98622
164.37119 149.6481 230.95818
164.97624 149.90971 232.92859
165.54158 149.91019 232.91513
166.10693 149.91071 232.90027
166.67233 149.91125 232.88408
167.20584 149.78125 231.87558
167.73456 149.65128 230.86581
168.33194 149.78256 231.83638
168.81679 149.52206 229.83342
169.45818 149.78404 231.79169
169.93347 149.52361 229.78639
170.53821 149.65506 230.75116
171.05031 149.52533 229.7339
171.6088 149.52625 229.7056
172.16731 149.52721 229.67592
172.83784 149.78949 231.62462
173.45966 149.92119 232.5816
174.08635 150.05295 233.53696
174.71791 150.18475 234.49062
175.15752 149.92464 232.47478
175.58755 149.66455 230.45822
176.21928 149.79648 231.40767
176.8559 149.92848 232.35542
177.34691 149.79916 231.32425
178.22144 150.32333 235.23396
178.87512 150.45551 236.17619
179.36874 150.32634 235.14063
179.85764 150.1972 234.10402
180.51636 150.32953 235.04156
181.00058 150.20047 234.00256
181.57217 150.20218 233.94969
182.14386 150.20395 233.89539
182.71564 150.20575 233.83971
183.18814 150.07684 232.79613
183.85944 150.2095 233.72401
184.43149 150.21146 233.66399
185.11023 150.34424 234.58823
185.57587 150.21552 233.53969
186.25964 150.3484 234.46051
186.60683 150.08896 232.42477
187.40948 150.35278 234.32701
187.86589 150.22423 233.2738
188.55977 150.35736 234.18773
189.13509 150.35974 234.11589
189.83646 150.49301 235.02597
190.28609 150.36465 233.96783
190.99254 150.49805 234.87434
191.70395 150.63153 235.77875
192.55595 150.896 237.66312
192.86568 150.63693 235.61763
193.58719 150.77061 236.5162
194.31367 150.9044 237.41261
194.75459 150.77638 236.34544
195.33853 150.77934 236.2578
196.22287 151.04431 238.12856
196.65941 150.91644 237.05759
197.40121 151.0506 237.94423
198.14804 151.18484 238.82855
198.74005 151.18816 238.73215
199.33224 151.19153 238.63419
199.75992 151.06392 237.55708
200.35004 151.06741 237.45644
201.10989 151.20204 238.33105
201.87479 151.33676 239.2032
202.64474 151.47159 240.07297
203.24292 151.47539 239.96475
203.84131 151.47925 239.85501
204.43988 151.48318 239.74362
204.85454 151.35603 238.65657
205.6377 151.49127 239.51611
206.23692 151.49542 239.39995
206.64493 151.36842 238.30946
207.24219 151.3727 238.19057
207.83966 151.37704 238.07005
208.23862 151.25021 236.9767
209.03534 151.38597 237.82414
209.63354 151.39055 237.69875
210.23201 151.3952 237.57172
211.03925 151.53127 238.4122
211.64066 151.53609 238.28133
212.45576 151.67238 239.1169
213.27603 151.80878 239.94971
214.1015 151.94531 240.77975
214.26981 151.68762 238.70767
215.54471 152.08727 241.46547
216.38327 152.22415 242.28755
217.45517 152.49268 244.07146
218.07605 152.49831 243.92308
218.93025 152.63557 244.73642
219.5542 152.64139 244.58388
220.1785 152.64731 244.42957
220.80312 152.65332 244.27345
221.1852 152.52776 243.15443
222.05336 152.66559 243.95581
222.43121 152.54016 242.83447
223.05476 152.54651 242.67178
223.42593 152.42119 241.54871
224.30292 152.55946 242.3409
224.66989 152.4343 241.21552
225.29243 152.44098 241.04616
225.65274 152.31592 239.9191
226.53865 152.45465 240.70189
227.16235 152.46162 240.52696
228.32649 152.73257 242.25771
229.50095 153.00374 243.98373
230.13577 153.01112 243.80032
231.04848 153.15063 244.56657
231.68663 153.15825 244.37856
232.60764 153.29805 245.13872
232.67932 153.04166 243.04723
233.6037 153.1817 243.80272
234.24359 153.18973 243.60681
234.88396 153.19785 243.40891
235.52478 153.20607 243.209
235.86868 153.08212 242.06152
237.40756 153.48744 244.69267
238.05478 153.49603 244.48506
239.31223 153.76949 246.16173
239.35068 153.51355 244.06374
240.3092 153.65489 244.79141
241.27327 153.79642 245.51538
241.92795 153.8056 245.2957
242.58313 153.81488 245.0739
244.19855 154.22202 247.66431
244.53986 154.099 246.49835
244.5517 153.84335 244.3956
244.55396 153.58765 242.29416
245.53664 153.7301 242.99792
246.85736 154.00548 244.63144
247.51865 154.0155 244.39349
247.84288 153.89276 243.22147
248.84274 154.03583 243.91096
249.50558 154.04611 243.66634
250.16891 154.05652 243.41946
251.52814 154.33299 245.02657
252.89801 154.60971 246.62756
254.27853 154.88669 248.2224
255.31442 155.03079 248.88574
254.92456 154.64238 245.84782
255.60109 154.65341 245.58324
256.27811 154.66452 245.31628
257.68652 154.94228 246.88945
258.3696 154.9536 246.61572
259.79425 155.23174 248.17795
260.1102 155.10983 246.97923
260.04584 154.85443 244.8631
260.72809 154.86591 244.58083
261.79156 155.01099 245.21111
262.86053 155.15616 245.83682
262.77728 154.90054 243.71953
264.23801 155.1795 245.25105
265.3183 155.32492 245.86514
70.433975 150.23969 207.4758
70.627022 150.36597 208.63797
71.598114 150.22023 207.97592
71.411713 150.48238 210.04948
72.379715 150.3367 209.38226
73.342316 150.19113 208.71086
73.923119 150.18149 208.95177
74.503578 150.17186 209.19067
75.08371 150.16228 209.42754
75.294739 150.28841 210.58194
75.876694 150.27887 210.81578
75.730927 150.54054 212.89082
76.3172 150.53102 213.12263
76.544487 150.65706 214.27602
76.776436 150.78308 215.42937
77.7201 150.63824 214.73152
78.658287 150.49355 214.02972
79.242531 150.48434 214.25146
80.518234 150.20461 212.61436
81.096573 150.19562 212.83026
81.333603 150.32195 213.97452
82.251984 150.17789 213.25621
82.157333 150.43945 215.33061
83.072342 150.29559 214.60748
84.312698 150.01682 212.94666
84.557648 150.1434 214.08495
85.458794 149.99997 213.35156
86.354477 149.85672 212.61458
86.28241 150.11841 214.68643
86.538193 150.24513 215.82155
87.745865 149.96732 214.13885
88.003326 150.09419 215.27107
88.265373 150.22108 216.40311
89.148514 150.07849 215.65155
90.332016 149.80135 213.95398
90.595306 149.92848 215.08139
91.464737 149.78633 214.3203
92.627068 149.5097 212.61087
93.187454 149.50249 212.78799
93.747452 149.49536 212.96335
93.725441 149.75735 215.03151
94.577972 149.61584 214.25685
94.853477 149.74341 215.37654
95.983643 149.46771 213.64737
95.979996 149.72983 215.71466
97.09951 149.45441 213.97908
97.656898 149.44791 214.14241
98.487396 149.30716 213.35153
98.77063 149.43513 214.46393
99.326965 149.42888 214.62219
100.149 149.28848 213.82422
100.70219 149.28242 213.97845
100.47177 149.679 216.99892
101.29034 149.53888 216.1953
102.35982 149.26477 214.4314
102.91171 149.25906 214.57913
103.4633 149.25342 214.72522
104.01459 149.24786 214.86975
104.81188 149.10837 214.05278
104.62854 149.50502 217.07498
105.42525 149.36568 216.25482
105.73888 149.49438 217.35533
106.53009 149.35526 216.53076
106.84805 149.48407 217.62935
107.63381 149.34514 216.80043
107.95615 149.47406 217.89703
108.73646 149.33534 217.06383
109.51162 149.19673 216.22791
110.28163 149.05823 215.38931
110.82716 149.05363 215.51448
111.15555 149.18288 216.60513
111.9175 149.04466 215.76025
112.25027 149.17401 216.849
113.00687 149.036 216.00006
113.75833 148.89807 215.14854
114.30002 148.89392 215.26418
115.04372 148.75621 214.40817
115.78235 148.61859 213.54962
115.92377 148.88191 215.6022
116.46461 148.87804 215.71194
117.00524 148.87424 215.82022
117.35561 149.00406 216.89969
117.89828 149.00037 217.00554
118.44077 148.99675 217.10994
118.98307 148.99319 217.21286
119.52518 148.98969 217.31438
119.88921 149.11974 218.38937
120.60888 148.98288 217.51303
121.15046 148.97958 217.61023
121.35064 149.24321 219.65851
121.89674 149.23999 219.75369
122.93999 148.83661 216.91614
123.4785 148.83356 217.00723
124.17776 148.69719 216.119
124.71354 148.69427 216.20689
125.09311 148.82475 217.27206
125.78466 148.6886 216.37846
126.16879 148.81918 217.44164
126.55763 148.94978 218.50415
127.24393 148.81381 217.60562
127.92525 148.67792 216.70499
128.03546 149.07524 219.72595
128.57741 149.07274 219.8038
129.11925 149.07027 219.88026
129.79524 148.93462 218.9734
130.20255 149.06552 220.02907
130.87347 148.92999 219.11879
131.53946 148.79454 218.2065
132.07588 148.79236 218.27545
132.61221 148.79024 218.34305
133.02864 148.92136 219.39308
133.56718 148.91931 219.45825
134.33553 148.651 217.55327
134.7565 148.78224 218.59985
135.29234 148.78036 218.66069
135.93581 148.64539 217.73494
136.36375 148.77675 218.77831
136.69356 149.04128 220.80659
137.03293 149.30582 222.83453
137.38187 149.57037 224.86211
137.93169 149.56874 224.91631
138.66789 149.30095 222.99576
139.21274 149.29942 223.04677
139.84592 149.16484 222.10927
140.56023 148.89725 220.18263
140.93042 149.16203 222.20413
141.47258 149.16068 222.24953
142.01468 149.15939 222.29361
142.55672 149.15813 222.33633
143.02473 149.28998 223.36606
143.64063 149.15576 222.41774
144.25163 149.02159 221.46777
144.79105 149.02051 221.50497
145.26608 149.15253 222.52988
145.74588 149.28456 223.55377
146.23047 149.41663 224.57661
146.77692 149.41571 224.60895
147.32333 149.41484 224.63994
147.81741 149.54701 225.65932
148.46593 149.2802 223.70801
148.96234 149.41246 224.72484
149.50861 149.41176 224.75049
150.01218 149.5441 225.76495
150.60104 149.41048 224.79771
151.14723 149.40988 224.81934
151.72884 149.27635 223.84914
152.23952 149.40884 224.85855
152.78563 149.40839 224.87619
153.35995 149.27498 223.90176
153.90363 149.27461 223.91664
154.40044 149.54024 225.91187
154.99092 149.27397 223.94243
155.53455 149.27371 223.95331
156.06195 149.40648 224.95389
156.60797 149.40631 224.96216
157.17676 149.14021 222.98701
157.70897 149.2731 223.98367
158.24599 149.40601 224.97903
158.79198 149.40601 224.98201
159.33444 149.67198 226.96588
159.88525 149.67204 226.96619
160.44215 149.93811 228.9474
161.00323 150.07123 229.9361
161.55342 149.93845 228.94124
162.10909 149.93866 228.93611
162.6774 150.07193 229.92073
163.22043 149.93925 228.92186
163.75865 149.80661 227.92171
164.37158 150.20596 230.88399
164.95442 150.33939 231.86288
165.51738 150.33987 231.84947
166.10748 150.47339 232.82542
166.6729 150.47395 232.8092
167.20645 150.34155 231.80098
167.73521 150.20921 230.79158
168.33264 150.3429 231.76183
168.85664 150.21063 230.7498
169.45895 150.34441 231.71712
170.02217 150.34523 231.69269
170.58542 150.34608 231.66689
171.09996 150.21396 230.64978
171.66089 150.2149 230.62135
172.22188 150.2159 230.59155
172.89485 150.483 232.53941
173.40236 150.35104 231.51717
174.08748 150.61826 233.46155
174.65588 150.61943 233.42577
175.09311 150.35454 231.41072
175.58881 150.22273 230.38368
176.22058 150.3571 231.33284
176.78441 150.35844 231.29179
177.3483 150.35983 231.24933
178.14523 150.76051 234.16968
178.71649 150.76202 234.12387
179.28781 150.76358 234.07668
179.85922 150.76517 234.02803
180.43071 150.76682 233.97798
181.00226 150.76851 233.9265
181.57391 150.77025 233.87361
182.0511 150.63892 232.8327
182.71745 150.77388 233.76352
183.19 150.64262 232.72026
183.96313 150.91087 234.63362
184.53764 150.91287 234.57332
185.21886 151.04808 235.49692
185.68697 150.91702 234.44843
186.26178 150.91916 234.38377
186.49513 150.52177 231.36414
187.29544 150.79042 233.26595
187.74948 150.6595 232.21333
188.44101 150.79507 233.12715
189.01396 150.79749 233.05557
189.96484 151.19969 235.93169
190.41695 151.06898 234.87352
191.12589 151.20485 235.77936
191.83978 151.34079 236.68301
192.55865 151.47681 237.58458
192.86841 151.21301 235.53972
193.73045 151.48248 237.41901
194.17368 151.35207 236.35324
194.75752 151.35503 236.26703
195.34151 151.35806 236.17934
196.22595 151.62787 238.04936
196.66252 151.49767 236.97867
197.4044 151.63428 237.8649
198.15131 151.771 238.74884
198.74338 151.77437 238.65236
199.17336 151.64436 237.57666
199.76335 151.64786 237.47749
200.35355 151.65141 237.3768
201.11348 151.78851 238.25099
201.87845 151.92572 239.12273
202.64848 152.06302 239.99208
203.06987 151.93336 238.90869
203.84518 152.07083 239.77397
204.2621 151.94128 238.68828
204.67438 151.81178 237.60193
205.45518 151.94949 238.46152
206.24109 152.08731 239.3186
206.84061 152.09161 239.20073
207.44037 152.09598 239.08125
208.23671 152.2341 239.93153
208.4418 151.97128 237.86653
209.24106 152.10956 238.71304
210.04546 152.24796 239.55692
210.64886 152.25273 239.42874
211.25255 152.2576 239.29892
211.64549 152.12875 238.19914
212.46069 152.26753 239.03429
212.84929 152.13881 237.93225
213.66992 152.2778 238.76294
214.05418 152.14922 237.65868
