ply
format ascii 1.0
comment PCL generated
element vertex 1596
property float x
property float y
property float z
element camera 0
property float view_px
property float view_py
property float view_pz
property float x_axisx
property float x_axisy
property float x_axisz
property float y_axisx
property float y_axisy
property float y_axisz
property float z_axisx
property float z_axisy
property float z_axisz
property float focal
property float scalex
property float scaley
property float centerx
property float centery
property int viewportx
property int viewporty
property float k1
property float k2
end_header
101.64442 178.53949 209.11981
102.20454 178.5275 209.27802
102.25789 179.04269 211.29613
102.82237 179.03085 211.45222
103.38654 179.01913 211.60658
104.19615 178.74417 210.82635
104.75722 178.73277 210.97661
105.79959 178.19493 209.25674
106.59342 177.92067 208.46744
106.91031 178.17299 209.5461
107.46523 178.16222 209.68825
108.01985 178.15158 209.82874
108.80261 177.87804 209.03018
109.58014 177.60472 208.22876
109.9055 177.85751 209.30162
110.67755 177.58455 208.49568
111.22583 177.57468 208.62672
111.55779 177.82774 209.69647
111.89442 178.08086 210.76576
112.65798 177.80856 209.95158
113.20769 177.79916 210.07671
113.75714 177.78992 210.20024
114.30634 177.78079 210.32217
114.85529 177.7718 210.4425
115.20518 178.02547 211.50546
115.3634 178.54167 213.51265
116.30679 178.00807 211.73926
116.47437 178.52438 213.74535
117.0295 178.51595 213.85931
117.5844 178.50763 213.97168
118.50723 177.97487 212.18796
118.87515 178.22914 213.24396
119.42694 178.22125 213.35112
120.15523 177.95132 212.50807
120.8784 177.68156 211.66252
121.59648 177.412 210.81451
121.97072 177.66682 211.86421
122.51657 177.65965 211.9628
123.06224 177.6526 212.05983
123.60771 177.64568 212.15536
123.99342 177.90085 213.20119
124.22668 178.418 215.1985
124.93364 178.14944 214.33813
125.17876 178.66672 216.33449
125.88292 178.39844 215.47067
126.72939 177.8685 213.65079
127.56592 177.33881 211.82785
128.10756 177.33289 211.91103
128.78909 177.06532 211.03783
129.19037 177.32138 212.07298
129.59636 177.57748 213.10741
130.00708 177.83366 214.14105
130.55284 177.82828 214.21761
131.09845 177.823 214.29268
131.51849 178.07942 215.32327
132.18925 177.81277 214.43842
132.73445 177.80783 214.50911
133.27953 177.80301 214.57837
133.70877 178.05981 215.60439
134.36929 177.7937 214.71248
134.69232 178.31215 216.69501
135.13336 178.56918 217.71814
135.68512 178.56485 217.78099
136.23677 178.56064 217.84235
136.68719 178.81793 218.86218
137.24106 178.8139 218.9209
137.98732 178.28729 217.05731
138.53612 178.28352 217.11264
139.17621 178.01852 216.2056
139.72238 178.01501 216.25783
140.35501 177.75027 215.34723
140.81447 178.00824 216.35796
141.19701 178.52756 218.3295
141.7477 178.52441 218.37642
142.22145 178.78262 219.38412
142.62558 179.30212 221.35318
143.1833 179.29926 221.39638
143.88008 178.77409 219.51259
144.43282 178.77145 219.55254
144.98547 178.76892 219.59106
145.53807 178.76648 219.62813
146.15048 178.50299 218.70036
146.6431 178.76193 219.69804
147.19553 178.7598 219.73085
147.74789 178.75778 219.76224
148.40056 178.23361 217.86421
148.90024 178.49292 218.85661
149.45004 178.49121 218.88364
149.95689 178.75067 219.87358
150.50903 178.74916 219.89787
150.94695 179.53099 222.81442
151.54192 179.26855 221.87151
152.06558 179.5284 222.85648
152.65565 179.26617 221.91051
153.1841 179.5262 222.89275
153.76927 179.26419 221.9438
154.27896 179.78546 223.88837
154.8828 179.2626 221.97137
155.42084 179.52301 222.9482
155.9637 179.78351 223.92366
156.53911 179.522 222.96733
157.09824 179.52164 222.97473
157.65735 179.52139 222.98073
158.20985 179.78227 223.95059
158.77556 179.52116 222.98843
159.33115 180.0433 224.92078
159.89577 180.30447 225.8864
160.46523 180.56577 226.85056
161.02852 180.30505 225.88263
161.58699 180.04443 224.91325
162.16132 180.30603 225.87303
162.72774 180.30667 225.8661
163.30937 180.56845 226.82291
163.89586 180.83035 227.77815
164.46719 180.8313 227.76675
164.99364 180.31021 225.82381
165.53529 180.05028 224.84462
166.09944 180.05151 224.82903
166.66362 180.05284 224.81197
167.29211 180.57646 226.72307
167.89578 180.83911 227.66769
168.46735 180.84076 227.64604
168.99954 180.58142 226.65843
169.56877 180.58325 226.63393
170.09381 180.3241 225.64371
170.66072 180.32614 225.61642
171.27678 180.58943 226.55174
171.79471 180.33055 225.5575
172.41574 180.59409 226.48962
173.09804 181.11891 228.38367
173.61374 180.86032 227.38512
174.18587 180.86301 227.34874
174.75806 180.86581 227.31091
175.33034 180.86873 227.27159
175.83421 180.6105 226.26794
176.54605 181.13611 228.15115
177.26767 181.66188 230.03217
177.92331 181.92653 230.94861
178.42752 181.66875 229.93898
179.00758 181.67233 229.89009
179.75385 182.1987 231.76308
180.16801 181.67989 229.78787
180.83629 181.94518 230.69569
181.41919 181.94925 230.64055
182.09496 182.21481 231.54463
182.68051 182.21912 231.48616
183.3638 182.48497 232.38644
183.95201 182.48953 232.32465
184.43787 182.23276 231.30156
185.12883 182.49902 232.19643
185.61008 182.24243 231.17076
186.30615 182.50897 232.06195
186.78281 182.25258 231.03372
187.59866 182.78098 232.87958
188.07317 182.5248 231.84853
188.66246 182.53032 231.77423
189.12996 182.27432 230.74095
189.9659 182.80339 232.57806
190.43126 182.54762 231.54193
191.02118 182.55363 231.46133
191.61127 182.55978 231.37912
192.20151 182.56604 231.29535
192.65535 182.31065 230.25453
193.38252 182.57898 231.12297
193.9733 182.58562 231.03436
194.99596 183.37802 233.80711
196.03346 184.17072 236.57597
196.63945 184.17792 236.48024
197.24564 184.18527 236.38283
197.85205 184.19278 236.28377
198.14639 183.67636 234.27831
198.43117 183.15997 232.27284
199.18942 183.42982 233.12195
199.62585 183.17566 232.06635
200.55536 183.70801 233.86192
201.32652 183.97844 234.70387
202.27364 184.51131 236.49301
203.05753 184.7822 237.32928
203.84654 185.05328 238.16293
204.28438 184.79999 237.09717
204.71754 184.54674 236.03061
205.51224 184.81836 236.85809
206.12656 184.82776 236.73596
206.74112 184.83731 236.61205
207.54643 185.10953 237.43236
208.35693 185.38196 238.24986
208.78185 185.12946 237.17471
209.59781 185.40225 237.98759
210.41901 185.67532 238.7977
211.04263 185.6859 238.66153
211.66656 185.69662 238.52357
212.70621 186.23311 240.26822
213.12549 185.98138 239.18382
213.75279 185.99263 239.03981
214.59554 186.26695 239.83449
215.22594 186.27853 239.68617
215.6366 186.02727 238.59665
216.48772 186.30219 239.38394
217.34412 186.57736 240.16817
218.20581 186.8528 240.94928
218.61285 186.60205 239.85339
219.24773 186.61464 239.69313
219.88295 186.62737 239.53096
220.2811 186.37689 238.43181
221.15443 186.65329 239.20079
222.0331 186.92996 239.96652
222.67223 186.94336 239.79591
223.31171 186.95691 239.62334
224.20142 187.23424 240.38051
224.84415 187.24815 240.20331
225.99689 187.78967 241.88472
226.90268 188.06778 242.63176
227.55399 188.08231 242.44638
227.94339 187.83307 241.3308
228.32816 187.58389 240.2146
228.70831 187.33472 239.09779
229.08386 187.08557 237.98045
229.7271 187.10057 237.78781
231.19519 187.90826 240.36656
231.84673 187.92371 240.1675
232.77846 188.20358 240.88927
233.71561 188.4837 241.60742
234.94302 189.02849 243.24324
235.31877 188.78018 242.11201
236.26962 189.06096 242.81979
236.93352 189.07738 242.60487
237.59776 189.09387 242.38773
237.96495 188.84573 241.25111
238.62744 188.86237 241.03052
239.59277 189.14395 241.72336
239.95349 188.8959 240.58278
241.23209 189.44275 242.18341
241.90105 189.45981 241.95235
242.57033 189.47693 241.71904
243.23996 189.49411 241.48357
244.86276 190.30707 243.97694
245.22046 190.0592 242.82484
246.21875 190.34198 243.48941
247.54761 190.89032 245.0575
248.88687 191.43895 246.61964
248.91541 190.92554 244.55278
250.26532 191.47438 246.10664
251.29024 191.75775 246.75056
251.98254 191.77541 246.48737
252.67505 191.79303 246.22194
254.05362 192.34235 247.75604
255.09702 192.62585 248.38402
256.14557 192.90938 249.00769
256.14761 192.39464 246.9333
256.84576 192.41177 246.6545
257.54395 192.42877 246.37343
257.88394 192.17928 245.19527
259.66171 192.99478 247.59227
261.09137 193.54404 249.088
261.7995 193.56033 248.79385
263.24411 194.10939 250.27881
264.32782 194.39177 250.86768
265.04291 194.40732 250.56371
264.62985 193.62245 247.59523
265.71518 193.90378 248.17654
266.42413 193.91801 247.8683
266.74911 193.66496 246.67387
267.45456 193.67822 246.36264
267.38223 193.15707 244.28561
268.08142 193.16916 243.97266
267.99258 192.64664 241.89851
66.716019 182.75394 207.37883
67.30822 182.74515 207.64613
68.290215 182.46674 207.0309
68.494537 182.72607 208.17598
69.088539 182.71584 208.43845
70.064629 182.43614 207.81493
71.415192 181.88719 206.30211
71.626411 182.14478 207.44269
72.217041 182.13303 207.69612
72.436478 182.38979 208.83646
73.03019 182.37738 209.08745
72.891235 182.90207 211.11818
73.126488 183.15765 212.25946
74.089745 182.87569 211.61517
76.124641 181.78802 208.28517
77.070381 181.50604 207.6299
78.011093 181.224 206.97076
79.649338 180.4052 204.5137
79.877396 180.65979 205.64076
79.764282 181.18237 207.66692
80.004921 181.43642 208.79517
80.591667 181.42215 209.02257
81.178329 181.40778 209.24805
82.100975 181.12534 208.5687
83.018417 180.84299 207.88556
83.268555 181.09644 209.00819
84.50914 180.54633 207.41359
85.08744 180.53191 207.62669
85.989014 180.24982 206.93031
86.243439 180.50305 208.04721
87.139519 180.22108 207.34521
87.082626 180.74171 209.37044
87.035568 181.26212 211.39735
87.620056 181.24757 211.60172
88.512619 180.96579 210.89124
89.399872 180.68416 210.17711
90.281807 180.40273 209.45938
91.459221 179.85434 207.82256
91.433159 180.37448 209.84592
92.008415 180.36047 210.03635
92.87661 180.07962 209.30693
92.867233 180.59956 211.33049
93.155823 180.85254 212.43581
94.020592 180.57201 211.7
94.31356 180.82506 212.80319
94.89196 180.81145 212.98409
95.74826 180.53139 212.24036
96.599228 180.25156 211.49324
97.444885 179.97194 210.74278
98.555954 179.42615 209.06393
99.388489 179.14705 208.30612
100.48145 178.60188 206.61852
101.03763 178.58952 206.78079
101.07202 179.10962 208.79726
101.63257 179.0974 208.95746
102.19281 179.0853 209.11592
101.9929 179.87135 212.06294
103.06157 179.32742 210.3584
103.62337 179.31564 210.51233
104.18488 179.30399 210.66452
104.74606 179.29248 210.815
105.54781 179.01534 210.0303
106.3443 178.73842 209.24258
106.89964 178.7274 209.38663
107.6881 178.4509 208.59361
108.00944 178.70576 209.66974
108.79238 178.42963 208.87212
109.57008 178.15372 208.07162
109.89553 178.40889 209.144
110.4467 178.39871 209.27745
110.99759 178.38867 209.40929
111.54822 178.37877 209.53946
111.6713 178.89948 211.54848
112.43749 178.62457 210.73578
112.9898 178.61502 210.86166
113.54184 178.60562 210.98596
114.29741 178.33127 210.16618
114.8465 178.32217 210.28671
115.19647 178.5782 211.34918
115.35474 179.09924 213.35516
116.29834 178.56061 211.58337
116.65744 178.81686 212.64316
117.02123 179.07318 213.70236
117.76283 178.79997 212.86882
118.6834 178.26221 211.08617
119.04897 178.51889 212.14119
119.59843 178.51094 212.24806
120.14767 178.50313 212.35338
121.0453 177.96619 210.56023
121.41739 178.2233 211.61046
121.96357 178.2159 211.71071
122.50955 178.20862 211.80943
123.05534 178.20148 211.90663
123.76299 177.92999 211.05162
124.14634 178.18756 212.09648
124.53439 178.44519 213.14064
125.08188 178.43852 213.23222
125.47691 178.6963 214.27461
125.87666 178.95416 215.31628
126.5759 178.68353 214.45102
127.41505 178.1488 212.62994
127.95924 178.14276 212.71362
128.78343 177.60843 210.88736
129.18478 177.86687 211.92198
129.59088 178.12537 212.95586
130.00169 178.38393 213.98892
130.54756 178.37845 214.06558
131.09329 178.37311 214.14079
131.76433 178.10382 213.25818
132.43034 177.83469 212.3735
133.09137 177.56572 211.48671
133.51111 177.82487 212.51237
134.0513 177.82014 212.57965
134.36479 178.3434 214.56122
134.79875 178.60278 215.58437
135.23746 178.86221 216.60661
135.7869 178.85785 216.66927
136.33623 178.85359 216.73045
136.7843 179.1133 217.74947
137.23715 179.37308 218.76753
137.98355 178.84148 216.90535
138.53246 178.83768 216.96075
139.17267 178.57018 216.05449
139.71895 178.5666 216.10678
140.35168 178.29938 215.19693
140.81123 178.55975 216.20706
141.27556 178.82019 217.21619
141.74463 179.08073 218.22435
142.14165 179.60503 220.19296
142.6227 179.86569 221.19922
143.18053 179.86279 221.24248
143.80786 179.59633 220.32217
144.43027 179.33002 219.40009
145.04774 179.06381 218.47621
145.53572 179.32498 219.47581
146.14824 179.05901 218.54877
146.69839 179.05675 218.58289
147.19347 179.31819 219.57866
147.74594 179.31613 219.61011
148.39873 178.78705 217.71346
148.85074 179.31233 219.6687
149.35773 179.57413 220.65942
149.86951 179.83603 221.64897
150.46709 179.57092 220.70973
150.94557 180.09654 222.66052
151.54065 179.83163 221.71828
152.09763 179.83038 221.73853
152.68539 179.5657 220.79318
153.23988 179.56465 220.81047
153.79436 179.56371 220.82639
154.32527 179.82635 221.80521
154.88213 179.82559 221.8183
155.42026 180.08844 222.79446
155.94693 180.61487 224.73381
156.52486 180.35092 223.77818
157.09795 180.08705 222.82104
157.65715 180.08679 222.82706
158.21635 180.08662 222.8316
158.77974 179.82309 221.87012
159.33301 180.3501 223.80112
159.89529 180.61372 224.76605
160.46553 181.14096 226.69421
161.03442 181.1413 226.6916
161.59541 180.87825 225.72289
162.16191 180.8788 225.71736
162.72844 180.87944 225.71039
163.29498 180.88019 225.70197
163.86154 180.88104 225.69211
164.46819 181.40901 227.60968
165.01718 181.14656 226.63242
165.56137 180.8842 225.65381
166.12804 180.88545 225.63815
166.72446 181.15033 226.58519
167.32576 181.41534 227.53062
167.96651 181.94402 229.43849
168.50604 181.68216 228.45271
169.08017 181.68394 228.42944
169.65434 181.68584 228.40472
170.14006 181.16071 226.45131
170.61615 180.6356 224.49686
171.22989 180.90137 225.43155
171.7455 180.64006 224.43808
172.3642 180.90607 225.3696
173.10057 181.69943 228.22536
173.67517 181.70207 228.19029
174.24983 181.70482 228.1537
174.82455 181.70767 228.11565
175.46544 181.9743 229.03844
175.90576 181.45001 227.07288
176.62015 181.98059 228.95453
177.27098 182.2476 229.8721
177.92674 182.51476 230.78781
178.43106 182.25456 229.77878
178.9306 181.99446 228.76865
179.67458 182.52576 230.64041
180.25737 182.52966 230.58821
180.92819 182.79747 231.49507
181.60399 183.06543 232.39993
182.28474 183.33354 233.30278
182.87527 183.33795 233.24373
183.46591 183.34248 233.18317
183.95662 183.08324 232.16168
184.44257 182.82407 231.13913
185.13365 183.09283 232.03322
185.50763 182.56992 230.04959
186.09161 182.57497 229.98203
186.78796 182.84416 230.87091
187.48932 183.11351 231.75761
187.9615 182.85495 230.72743
188.54848 182.8605 230.65334
189.01364 182.60213 229.62093
189.47408 182.34381 228.58757
190.18349 182.61383 229.46552
190.89793 182.88405 230.3412
191.4857 182.89024 230.25922
192.07364 182.89658 230.17564
192.66174 182.90303 230.09047
193.38907 183.17389 230.9581
193.69699 182.65204 228.96136
194.85892 183.71616 232.68629
195.74782 184.25195 234.50008
196.6467 184.78798 236.31068
197.25302 184.79543 236.21312
197.85956 184.80302 236.11391
198.15398 184.28178 234.10966
198.59743 184.02509 233.05666
199.19725 184.03299 232.95366
199.47028 183.51189 230.94817
200.56349 184.31384 233.69261
201.33482 184.58685 234.53368
202.1113 184.86006 235.37216
203.06619 185.39821 237.15668
203.85541 185.67189 237.98943
204.29333 185.41623 236.92416
204.72662 185.16063 235.85808
205.52148 185.43481 236.68471
205.95036 185.17946 235.61613
206.75067 185.45403 236.43826
207.55615 185.72882 237.25764
208.36684 186.00385 238.07425
208.79187 185.74899 236.9996
209.41016 185.75931 236.8679
210.02872 185.76978 236.73441
210.85037 186.04556 237.54172
211.47198 186.0564 237.40407
212.5094 186.5979 239.14769
213.13655 186.60912 239.00528
213.9767 186.88583 239.80141
214.60693 186.8974 239.65472
215.45514 187.17458 240.44542
215.86838 186.92102 239.35576
216.72217 187.19859 240.14151
217.8063 187.742 241.8616
218.44562 187.75452 241.7037
218.62521 187.23579 239.67142
219.49274 187.51424 240.44646
220.1306 187.52716 240.28339
220.29387 187.00858 238.24974
220.92744 187.02168 238.08405
222.04626 187.56685 239.78247
222.44063 187.31439 238.67926
223.3252 187.59409 239.43875
224.21509 187.87402 240.19487
225.36275 188.42039 241.87801
226.26584 188.70091 242.62671
227.17432 188.98169 243.37199
227.82828 188.9964 243.18562
227.6955 188.21213 240.21478
227.81299 187.69409 238.17297
228.4556 187.70895 237.9841
229.09859 187.72395 237.79318
229.46957 187.47247 236.6757
231.21036 188.55435 240.17645
231.58463 188.30319 239.05411
232.79395 188.85242 240.69786
233.16644 188.60144 239.57208
234.67398 189.41812 242.1283
235.04726 189.16737 240.99829
236.28572 189.71773 242.62485
236.65723 189.46713 241.49135
237.61404 189.75085 242.19214
238.27876 189.76758 241.97252
239.24387 190.05165 242.66646
240.21436 190.33595 243.35652
241.49533 190.88788 244.95671
242.17155 190.90515 244.7249
242.53802 190.65494 243.57861
243.21242 190.67227 243.34323
243.88715 190.68965 243.10565
245.19754 191.24252 244.68503
245.87793 191.2601 244.44118
247.2041 191.81342 246.01064
248.54068 192.367 247.57414
249.23203 192.38483 247.31981
249.26294 191.86652 245.2532
249.94971 191.88416 244.99619
250.63669 191.90176 244.73692
251.32385 191.91931 244.47537
252.69217 192.47342 246.0139
253.72775 192.75931 246.64603
254.76855 193.04523 247.27396
255.46643 193.06262 246.99945
256.16437 193.07986 246.72266
256.86234 193.09692 246.4436
257.91602 193.38252 247.05746
258.61652 193.39926 246.77292
259.67776 193.6846 247.3792
261.10727 194.23869 248.8732
261.81506 194.25485 248.57884
263.25952 194.80872 250.06212
264.71384 195.36246 251.53889
265.43109 195.37784 251.2337
265.39603 194.85449 249.15302
266.86456 195.40738 250.61685
267.19962 195.15222 249.42078
267.52911 194.89651 248.22485
267.85297 194.64017 247.02911
267.39389 193.84439 244.07137
267.70132 193.58667 242.87846
268.39667 193.59775 242.5648
66.708275 183.33797 207.19551
67.299919 183.32954 207.46275
68.281433 183.04898 206.84824
68.871895 183.03952 207.11119
69.847069 182.75809 206.49014
70.436096 182.74777 206.74873
71.404716 182.46558 206.12102
71.238907 182.99725 208.14661
72.205772 182.71436 207.51442
72.053276 183.24509 209.54195
72.28019 183.50403 210.68303
72.512398 183.76257 211.82445
73.113831 183.7496 212.07507
73.715439 183.73636 212.32384
75.393944 182.90984 209.89127
76.344582 182.62537 209.23903
76.936386 182.61169 209.47804
78.582222 181.78534 207.02654
78.817673 182.04231 208.15602
79.404434 182.02831 208.38741
79.647415 182.28484 209.51611
80.919037 181.72932 207.94432
81.164391 181.98558 209.07021
82.087013 181.70068 208.39189
83.004463 181.41585 207.70972
82.923378 181.94214 209.73589
84.166573 181.38696 208.144
85.073433 181.10225 207.45238
85.975044 180.81764 206.75702
86.5504 180.80325 206.96567
86.807068 181.0589 208.08109
86.752579 181.58441 210.10597
87.021378 181.83975 211.22208
87.916817 181.55533 210.51541
88.190147 181.81061 211.62947
89.080017 181.52638 210.91725
89.964592 181.24231 210.20137
91.144691 180.68884 208.5672
90.822746 181.48335 211.50577
91.403084 181.46913 211.69815
92.569756 180.91617 210.05414
93.144463 180.90222 210.24115
93.430573 181.15767 211.34518
94.292976 180.8746 210.60957
94.866768 180.86093 210.79105
95.440254 180.84735 210.97064
96.29171 180.56482 210.22635
97.137833 180.28252 209.47873
98.251938 179.73149 207.80418
98.814163 179.71857 207.97346
99.644356 179.43692 207.21591
100.73504 178.88675 205.5293
101.02554 179.14305 206.61763
101.32074 179.39935 207.70564
102.13724 179.11847 206.93741
102.69261 179.10635 207.09471
102.74103 179.63135 209.10901
103.80245 179.08252 207.40413
104.10857 179.33917 208.48701
104.66522 179.3275 208.63809
105.22157 179.31598 208.78749
105.77763 179.30458 208.93517
106.09496 179.56149 210.01457
106.65291 179.55031 210.1595
107.21057 179.53926 210.30273
107.53694 179.79639 211.37962
108.55353 179.24957 209.64825
109.33388 178.97104 208.84932
109.88545 178.9606 208.98465
110.43674 178.95032 209.11833
110.98777 178.94017 209.25037
111.32237 179.19794 210.31973
111.44797 179.72343 212.32808
112.2168 179.44589 211.51688
112.98045 179.16855 210.7029
113.73891 178.89146 209.8862
114.49219 178.61458 209.06679
114.83759 178.87292 210.12926
115.38655 178.86385 210.24838
115.5424 179.38974 212.25261
116.28979 179.11349 211.42577
116.45747 179.63947 213.42941
117.01286 179.63081 213.54373
117.56802 179.62228 213.65648
118.30711 179.34668 212.82176
118.67767 179.60565 213.8772
119.41141 179.33038 213.03836
120.14001 179.05531 212.19704
121.03786 178.51334 210.40541
121.41003 178.77281 211.45512
121.95633 178.76532 211.55554
122.33545 179.02495 212.60355
122.71927 179.28464 213.65089
123.26988 179.27747 213.74759
123.66066 179.53731 214.79317
124.21335 179.53035 214.88722
124.76584 179.52353 214.97975
125.31816 179.51685 215.07076
125.72044 179.77704 216.11227
126.71712 178.97034 213.34337
127.26404 178.96407 213.42905
127.95334 178.69122 212.56004
128.63759 178.41858 211.68884
129.17915 178.41272 211.76935
129.31488 179.20682 214.7112
129.86345 179.20114 214.78979
130.41187 179.19556 214.86693
130.70433 179.72318 216.85316
131.63376 178.91827 214.0611
132.30235 178.64659 213.17752
132.96594 178.37508 212.29184
133.62454 178.10373 211.40408
134.04666 178.36537 212.42805
134.36024 178.89348 214.40836
134.90515 178.88885 214.47343
135.23308 179.41708 216.45259
135.67662 179.67899 217.47337
136.22849 179.67465 217.53494
136.78024 179.67043 217.59503
137.23318 179.93259 218.61249
138.076 179.12978 215.79269
138.52873 179.39218 216.80727
139.07764 179.38841 216.86131
139.71545 179.11855 215.95412
140.26175 179.11502 216.00505
140.72382 179.37779 217.0148
141.10893 179.9068 218.98401
141.66225 179.90356 219.03128
142.13863 180.16655 220.03795
142.61978 180.42964 221.04362
143.1777 180.4267 221.08693
143.80515 180.15773 220.16734
144.49483 179.62283 218.28441
145.04527 179.62024 218.32288
145.59566 179.61774 218.35992
146.26575 179.08324 216.47134
146.81116 179.08098 216.50522
147.30147 179.34485 217.50009
147.8492 179.34279 217.53128
148.44705 179.0748 216.5984
148.89673 179.60498 218.55225
149.40138 179.8692 219.54222
149.91084 180.13353 220.53101
150.46561 180.13196 220.55547
150.98225 180.39647 221.54175
151.53937 180.39508 221.56345
152.12968 180.12784 220.6203
152.68431 180.12666 220.63905
153.21051 180.39157 221.61998
153.81944 179.85867 219.70866
154.32448 180.38971 221.65048
154.90256 180.12299 220.69983
155.41966 180.65424 222.63911
155.94644 181.18555 224.5771
156.5106 181.18507 224.58606
157.08621 180.91876 223.62965
157.64793 180.9185 223.63568
158.20966 180.91833 223.64027
158.77974 180.38638 221.71547
159.33311 180.91832 223.64516
159.89551 181.18439 224.60942
160.45966 181.18463 224.60825
161.02933 181.45093 225.56961
161.58005 180.91948 223.63762
162.13147 180.65408 222.6682
162.7036 180.92068 223.62524
163.2654 180.92143 223.61687
163.82721 180.92229 223.60709
164.42912 181.45517 225.52338
164.99583 181.45624 225.51059
165.58746 181.72337 226.46002
166.12935 181.45868 225.48065
166.72588 181.72603 226.427
167.35944 182.25949 228.33517
167.93358 182.26111 228.31487
168.47078 181.99681 227.32982
169.04259 181.99863 227.30664
169.61446 182.00055 227.28198
170.14211 181.73653 226.29291
170.61826 181.20657 224.33974
171.23212 181.47482 225.27377
171.74782 181.21109 224.28087
172.42061 181.74565 226.17416
173.15955 182.54642 229.02769
173.67786 182.28302 228.03024
174.19139 182.0197 227.03162
174.82745 182.2887 227.95547
175.40237 182.2917 227.91589
175.90886 182.02867 226.91328
176.62338 182.56419 228.7935
177.20097 182.56754 228.74922
177.85445 182.83719 229.66437
178.2782 182.30838 227.6954
178.77298 182.04584 226.68625
179.51224 182.58206 228.55701
180.0903 182.58598 228.50519
180.75639 182.85626 229.4117
181.51782 183.39299 231.27592
182.19629 183.6636 232.17827
182.87971 183.93436 233.07854
183.47047 183.93896 233.01785
184.06137 183.94366 232.95561
184.54985 183.68213 231.93341
185.2435 183.95346 232.82643
185.62001 183.42569 230.8438
186.20654 183.43085 230.77583
186.79321 183.43613 230.70634
187.49471 183.70801 231.59224
187.84985 183.18054 229.60593
188.43452 183.18619 229.53204
189.01933 183.19194 229.45657
189.47987 182.93123 228.42378
190.06256 182.93721 228.3455
190.90404 183.47656 230.1758
191.62367 183.7495 231.04842
192.21417 183.75595 230.96439
192.80486 183.76251 230.87872
193.39569 183.7692 230.79143
193.84521 183.50928 229.74927
194.72191 184.0498 231.56502
195.60855 184.59056 233.37767
196.50517 185.13159 235.18713
197.26048 185.40598 236.04156
197.71341 185.14676 234.99081
198.16165 184.8876 233.93918
198.76384 184.89551 233.83723
199.20517 184.63657 232.78355
199.47827 184.11063 230.77927
200.57172 184.92007 233.52145
201.34323 185.19565 234.36165
201.77809 184.93716 233.30249
202.7283 185.48029 235.08632
203.51279 185.75647 235.91914
203.94592 185.49838 234.8553
204.3744 185.24036 233.7907
205.16454 185.51706 234.61739
205.77423 185.52663 234.4958
206.38417 185.53635 234.37248
207.37546 186.08109 236.13651
208.18388 186.35867 236.95273
208.80203 186.36896 236.8226
209.42044 186.37939 236.69066
210.43994 186.9252 238.44186
211.06387 186.93604 238.30525
211.68811 186.94702 238.16684
212.31264 186.95818 238.02661
212.7272 186.70169 236.94426
213.77534 187.24875 238.68027
214.40326 187.26041 238.53392
215.24918 187.54013 239.32423
215.88022 187.55215 239.17354
216.95685 188.10036 240.89568
217.8186 188.38086 241.67676
218.23045 188.12537 240.58243
218.40765 187.60178 238.55197
219.04034 187.61458 238.39178
219.43835 187.35928 237.29547
219.83176 187.10402 236.19855
220.46051 187.11717 236.03387
221.5746 187.66733 237.73187
222.45403 187.94937 238.49365
223.33879 188.23169 239.25214
224.22888 188.51422 240.00725
225.12434 188.79706 240.75905
226.02516 189.08014 241.50743
226.41646 188.82599 240.39606
226.80313 188.57187 239.28403
226.92278 188.0489 237.24472
227.56265 188.06371 237.0583
228.47034 188.34763 237.79514
229.38338 188.63177 238.52841
230.02939 188.64709 238.3344
231.5006 189.47 240.90738
231.87741 189.21655 239.78465
232.52956 189.23236 239.58286
232.8996 188.97894 238.45828
234.11996 189.53375 240.09291
234.48825 189.2805 238.96489
235.72191 189.83582 240.59125
236.67346 190.12192 241.29475
237.63043 190.40822 241.99446
238.29524 190.42502 241.77454
239.56055 190.98148 243.38235
240.23111 190.99858 243.15639
241.20714 191.28564 243.84145
241.88091 191.30295 243.61018
242.55501 191.32028 243.37669
243.22943 191.33771 243.14101
244.21941 191.62531 243.81284
245.85022 192.45352 246.29834
247.17625 193.01187 247.86824
248.18987 193.30013 248.52518
249.53415 193.85892 250.08408
249.90518 193.60648 248.92143
249.94101 193.08333 246.85419
250.29987 192.83049 245.6917
251.32478 193.11884 246.33348
251.34094 192.59499 244.26704
252.36871 192.88324 244.90334
253.05865 192.90063 244.63605
254.43991 193.45981 246.16331
255.1351 193.47708 245.88956
256.53171 194.03635 247.40633
257.58527 194.32452 248.02142
258.64389 194.61263 248.6322
259.70752 194.90062 249.23869
260.77618 195.18851 249.8409
261.84976 195.47623 250.43878
262.56235 195.49231 250.14215
263.27472 195.5081 249.84334
264.72879 196.0666 251.31844
265.44565 196.08176 251.01311
265.78613 195.82486 249.81978
266.49969 195.83911 249.51131
267.21277 195.85287 249.20074
267.54169 195.59435 248.00555
267.86499 195.33519 246.81059
267.01651 194.25974 242.97487
267.71198 194.27103 242.66312
268.01297 194.00974 241.47145
67.095139 183.64771 206.13342
68.075432 183.36557 205.52116
68.662201 183.35703 205.78455
68.476212 183.89606 207.80745
69.453468 183.6124 207.18823
70.044556 183.60231 207.44795
70.636154 183.59177 207.70598
70.851532 183.85471 208.84731
71.82061 183.5695 208.21701
71.670189 184.10536 210.24414
73.006477 183.54576 208.72108
73.233276 183.8071 209.85971
73.829384 183.79437 210.10834
74.064171 184.05498 211.24649
75.381104 183.49469 209.70775
76.331589 183.20782 209.05643
76.92318 183.19431 209.29565
78.217621 182.63388 207.7421
78.804237 182.6201 207.97556
79.044533 182.87938 209.10458
78.946045 183.41156 211.13214
80.222733 182.85098 209.56407
80.472984 183.10965 210.69136
81.400627 182.82217 210.01599
82.32312 182.53473 209.33675
82.909256 182.5202 209.55696
83.823875 182.23283 208.87108
84.733292 181.94556 208.1814
85.637474 181.65837 207.48796
85.894264 181.9165 208.6048
86.793007 181.62941 207.90573
86.738396 182.15988 209.92937
87.320648 182.14528 210.13531
88.213654 181.85837 209.42879
88.792908 181.84389 209.63005
89.065941 182.10165 210.74173
89.950615 181.81503 210.0269
90.829979 181.52859 209.3085
90.510422 182.33044 212.24593
91.389221 182.04413 211.52376
92.556084 181.48611 209.88153
93.130875 181.47209 210.0688
93.70536 181.45815 210.25423
94.85125 180.90085 208.59993
95.136772 181.15887 209.6998
95.988686 180.87366 208.95836
96.835281 180.58865 208.21356
97.400726 180.57536 208.38747
97.965866 180.56216 208.55957
99.072372 180.00635 206.88271
99.363556 180.26482 207.97409
100.45695 179.7095 206.28996
100.75002 179.96812 207.37851
101.04777 180.22675 208.46678
101.86691 179.94321 207.70026
102.68077 179.65991 206.93057
102.72921 180.18976 208.94366
103.79086 179.63585 207.24048
104.09705 179.89487 208.32288
104.89974 179.61227 207.54353
105.69717 179.32993 206.76114
106.00745 179.58922 207.83974
106.56084 179.57791 207.98534
107.11395 179.56671 208.12921
107.66679 179.55563 208.27142
107.75725 180.08574 210.28114
108.77158 179.53391 208.55084
109.54964 179.25282 207.75223
109.87526 179.51271 208.82361
110.42668 179.50232 208.95749
110.75917 179.76233 210.02739
111.31253 179.75217 210.1586
111.65189 180.01231 211.22694
112.41844 179.73222 210.41609
113.17979 179.45238 209.60251
113.72964 179.44279 209.72665
114.48309 179.16333 208.90813
114.82858 179.42403 209.97008
115.37767 179.41486 210.08943
115.73006 179.6757 211.1498
116.08712 179.9366 212.20961
116.25732 180.46738 214.21252
116.8153 180.45857 214.32756
117.37305 180.44992 214.44098
118.11475 180.17169 213.60767
118.48787 180.43301 214.66306
119.4035 179.8855 212.87946
119.95546 179.87746 212.9856
120.68156 179.59999 212.14311
121.05873 179.86176 213.19319
121.77953 179.58461 212.34669
121.99417 180.11603 214.34302
122.71213 179.83917 213.49298
123.26286 179.83191 213.58984
123.65374 180.09413 214.63486
124.20655 180.0871 214.72905
124.75917 180.08017 214.82173
125.31161 180.07339 214.91289
125.86388 180.06674 215.00252
126.71088 179.52179 213.18718
127.25792 179.51544 213.27299
127.94736 179.24007 212.40483
128.63176 178.96487 211.53444
129.03574 179.22804 212.56831
129.17395 180.02942 215.50854
129.72508 180.02362 215.58763
130.14569 180.28697 216.61949
130.57101 180.5504 217.65054
131.37756 180.00699 215.81593
132.05118 179.73273 214.93379
132.84041 179.18971 213.09398
133.50157 178.9158 212.20734
133.92622 179.17982 213.23103
134.24229 179.71277 215.21034
134.56798 180.24574 217.18939
135.01173 180.50992 218.21104
135.46024 180.77419 219.23178
136.12067 180.50098 218.33638
136.67496 180.49667 218.39684
137.32788 180.22375 217.49767
138.07214 179.68225 215.63818
138.52496 179.94705 216.65213
139.07397 179.94324 216.70625
139.62291 179.93953 216.75893
140.17174 179.93594 216.81018
140.63632 180.2011 217.81955
141.18741 180.19771 217.86812
141.8177 179.92583 216.95529
142.21243 180.45985 218.92114
142.7657 180.45677 218.96559
143.31889 180.45381 219.00861
144.0112 179.91383 217.12868
144.69373 179.37402 215.24661
145.237 179.37141 215.28461
145.7179 179.63745 216.2825
146.38326 179.09804 214.39502
146.86644 179.36426 215.3902
147.24434 180.16756 218.30772
147.79459 180.16544 218.3391
148.39499 179.89497 217.40709
148.84715 180.43001 219.35971
149.30898 180.96512 221.31139
149.8663 180.96341 221.33743
150.46411 180.69336 220.3996
150.94276 181.22873 222.34775
151.5024 181.22733 222.36958
152.062 181.22603 222.38998
152.68321 180.68799 220.48331
153.18112 181.22372 222.42644
153.79257 180.68591 220.51662
154.32368 180.95343 221.49411
154.88074 180.95267 221.50726
155.40036 181.48878 223.44524
155.94594 181.75661 224.41878
156.51021 181.75612 224.42772
157.08591 181.48735 223.47198
157.65675 181.21869 222.51477
158.22275 180.95013 221.55608
158.78391 180.68167 220.5959
159.33321 181.48689 223.48752
159.89503 181.48703 223.48781
160.45686 181.48727 223.48662
161.01871 181.48764 223.48404
161.57263 181.21968 222.51671
162.11136 180.68343 220.58472
162.69153 181.22089 222.50433
163.2814 181.75845 224.42238
163.84573 181.75932 224.41251
164.43015 182.0287 225.36429
164.99696 182.02979 225.35149
165.58868 182.29941 226.30022
166.13068 182.03227 225.32152
166.72731 182.30209 226.26715
167.32884 182.57205 227.21121
167.93524 182.84212 228.15359
168.43553 182.30695 226.2066
169.00502 182.30876 226.18347
169.61642 182.57918 227.12128
170.14417 182.31274 226.13283
170.62041 181.77792 224.18102
171.23439 182.04865 225.11426
171.80173 182.05099 225.08392
172.36913 182.05347 225.05211
173.16217 183.13016 228.86534
173.7394 183.13287 228.82997
174.25545 182.86716 227.83182
174.8304 182.87009 227.79362
175.47153 183.14172 228.71497
175.98053 182.8763 227.7128
176.62666 183.14818 228.63078
177.27774 183.4202 229.54688
177.93378 183.69235 230.46106
178.36003 183.15871 228.49319
178.85735 182.89378 227.48445
179.51608 183.16631 228.39392
180.09425 183.17026 228.34198
180.76048 183.44307 229.24776
181.52206 183.98477 231.11052
182.29347 184.52664 232.97079
182.97948 184.79996 233.87006
183.67046 185.07339 234.76723
184.16621 184.80942 233.74641
184.75978 184.81433 233.68227
185.2485 184.55052 232.65907
185.62508 184.01793 230.6777
186.21173 184.02313 230.60962
186.68625 183.75958 229.58342
187.38545 184.03397 230.46883
187.73824 183.50165 228.48407
188.44017 183.77631 229.36603
189.02512 183.78214 229.29047
189.61021 183.7881 229.2133
190.32236 184.06323 230.08928
191.03955 184.33856 230.96301
191.89357 184.88318 232.78853
192.35486 184.62062 231.74992
192.94809 184.62729 231.66376
193.54153 184.63412 231.57602
193.99359 184.37186 230.53401
194.58493 184.37891 230.44336
195.46933 184.92467 232.25485
196.21483 185.20135 233.11168
196.96541 185.47826 233.96603
197.56732 185.48599 233.86729
198.16943 185.49385 233.76686
198.6131 185.23242 232.71494
199.2132 185.24054 232.61162
199.48637 184.70978 230.60858
200.74608 185.79626 234.29704
201.35175 185.8049 234.18777
201.78671 185.54404 233.12914
202.73715 186.09219 234.91136
203.69763 186.64066 236.69006
204.13333 186.38023 235.62625
204.56438 186.1199 234.56168
205.35715 186.39923 235.38695
205.96945 186.40897 235.26472
206.582 186.41882 235.14069
207.38539 186.69876 235.95874
208.00096 186.70898 235.8307
208.81229 186.98933 236.64366
209.62885 187.26994 237.45381
210.65103 187.82086 239.2028
211.4805 188.10199 240.00665
212.31519 188.38336 240.80757
212.73943 188.12456 239.72531
212.94873 187.59555 237.7028
213.99959 188.14775 239.43655
214.19963 187.61888 237.41261
215.04327 187.90118 238.20253
215.67198 187.91327 238.0522
216.74638 188.46652 239.77321
217.38071 188.47903 239.6179
218.243 188.7623 240.39607
218.42023 188.23389 238.36678
219.05307 188.24683 238.20633
219.68628 188.25992 238.04398
220.31981 188.27316 237.87968
221.19376 188.5574 238.64568
221.83049 188.57101 238.47687
222.95763 189.12668 240.16783
223.84756 189.41171 240.92393
224.49284 189.42593 240.74716
225.13849 189.44031 240.56836
226.03951 189.72601 241.31573
226.68839 189.74072 241.1322
227.07764 189.48431 240.01994
227.46228 189.22791 238.90704
228.10728 189.24295 238.71887
229.28764 189.80106 240.37769
230.2084 190.08801 241.10773
230.86203 190.10364 240.91112
231.79105 190.39102 241.6347
232.44797 190.40697 241.43317
233.38525 190.69479 242.15024
233.76289 190.43918 241.02371
234.70596 190.72736 241.73497
235.07932 190.47186 240.60582
236.31824 191.03241 242.22873
236.98239 191.04913 242.0128
237.64691 191.06595 241.79469
238.3118 191.08286 241.57443
239.87746 191.91664 244.09464
240.85327 192.20624 244.78084
241.52927 192.2236 244.55058
242.82104 192.78598 246.14142
243.50275 192.80359 245.90497
244.1848 192.82124 245.66631
245.18243 193.1116 246.33438
246.50323 193.67484 247.90648
247.83444 194.23833 249.47269
248.85318 194.52924 250.12671
249.87723 194.82025 250.77657
250.57864 194.83839 250.51787
250.94983 194.58344 249.35341
250.98315 194.05518 247.28606
251.67758 194.07294 247.02332
251.69604 193.54413 244.95714
252.38571 193.56161 244.69182
253.07553 193.57896 244.42429
254.11108 193.86961 245.05209
255.5 194.43376 246.57234
256.54834 194.7244 247.19067
257.60175 195.01498 247.80475
258.66022 195.30545 248.41455
260.08203 195.86957 249.91261
260.79211 195.88603 249.62132
262.22888 196.44994 251.10869
263.30963 196.73982 251.70026
264.3952 197.02948 252.28746
265.85663 197.5929 253.75766
266.20709 197.33386 252.56281
266.17603 196.80019 250.48291
267.27026 197.08838 251.05728
267.98792 197.10193 250.74448
267.93762 196.56639 248.66605
268.64902 196.57877 248.35144
268.58228 196.04181 246.27579
268.50473 195.50406 244.20273
269.2038 195.51439 243.88698
66.299652 184.78224 207.70049
66.500877 185.05115 208.84616
67.875633 184.48969 207.35669
67.694046 185.03395 209.38019
69.060112 184.47156 207.88309
69.271507 184.73819 209.02588
69.48848 185.00427 210.16919
69.710953 185.26982 211.313
71.061409 184.70593 209.80157
70.915558 185.24689 211.82936
72.25666 184.68243 210.31007
72.488136 184.94633 211.45013
73.817146 184.3815 209.922
73.690063 184.92081 211.95003
75.009369 184.35562 210.41405
76.31871 183.79044 208.87209
76.910088 183.77701 209.11147
77.501556 183.76337 209.34897
78.093063 183.74957 209.58461
78.338196 184.01129 210.71504
78.244514 184.5484 212.74323
79.184906 184.25839 212.07756
79.442581 184.51941 213.20718
80.714058 183.95383 211.63513
81.307816 183.93921 211.86038
82.232689 183.64917 211.18121
82.823669 183.63446 211.40166
84.066849 183.06929 209.81145
84.976105 182.7795 209.12091
85.237862 183.03996 210.23903
86.141701 182.75024 209.54283
86.72419 182.7356 209.75093
87.306458 182.72098 209.95714
87.888481 182.70636 210.16147
88.470268 182.69177 210.36388
89.051819 182.67722 210.56438
89.329597 182.93735 211.6754
89.913124 182.92281 211.87297
89.899445 183.45737 213.89684
90.783379 183.16837 213.1774
91.95546 182.60515 211.5386
92.826271 182.3166 210.81122
93.691765 182.02824 210.08034
94.551941 181.7401 209.34601
95.123398 181.7263 209.52722
95.975456 181.43851 208.78683
96.265411 181.69901 209.88414
97.111862 181.41153 209.13855
97.679596 181.39818 209.31168
98.788818 180.83722 207.63734
99.08255 181.09801 208.72899
100.17867 180.53757 207.04735
100.47428 180.79852 208.13615
100.77457 181.05946 209.22467
101.07956 181.32042 210.31282
101.90106 181.03436 209.54626
102.46384 181.022 209.70444
103.52821 180.46295 208.00369
104.08542 180.45093 208.157
104.88829 180.16576 207.37865
105.44241 180.15405 207.52785
105.75522 180.41568 208.60666
106.07271 180.67734 209.68506
107.103 180.11974 207.96532
107.42239 180.38161 209.04099
107.74646 180.64349 210.11623
108.76102 180.08661 208.38762
109.31313 180.07582 208.52505
109.6413 180.33804 209.59653
110.19533 180.32748 209.73126
110.74908 180.31706 209.86433
111.08633 180.57948 210.93324
111.64203 180.56931 211.06361
112.40875 180.28662 210.25369
113.17029 180.00418 209.44102
114.133 179.44942 207.68585
114.8817 179.16747 206.86717
115.0209 179.70308 208.86839
115.36869 179.96623 209.92876
115.91768 179.95708 210.04668
116.27238 180.2204 211.10545
116.44017 180.75604 213.10663
116.99582 180.74719 213.22134
117.55125 180.73846 213.33446
118.10645 180.72986 213.44597
118.47966 180.99355 214.50084
119.39549 180.44101 212.71886
120.12443 180.1608 211.87929
120.67385 180.15282 211.98355
121.22307 180.14497 212.08629
121.94157 179.8653 211.2402
122.32088 180.12967 212.28711
122.70489 180.3941 213.33339
123.41791 180.1149 212.48181
123.80643 180.37952 213.52586
124.35692 180.37242 213.61981
124.75241 180.63721 214.66205
125.45734 180.35861 213.80312
126.00729 180.3519 213.8925
126.70454 180.07364 213.02933
127.10667 180.33885 214.0667
127.65611 180.3325 214.15154
128.20538 180.32629 214.23489
128.61678 180.59178 215.26927
128.89763 181.12885 217.25571
129.58658 180.85143 216.3824
130.14012 180.84564 216.46045
130.69351 180.84 216.537
131.37227 180.56305 215.65784
132.1691 180.01486 213.82198
132.8354 179.73825 212.9382
133.4967 179.46182 212.05238
133.6899 180.2709 214.98645
134.01091 180.80865 216.96509
134.34154 181.34644 218.94344
134.89873 181.34171 219.00867
135.24371 181.87961 220.98575
136.01276 181.33261 219.13477
136.67078 181.05701 218.23839
137.32382 180.78156 217.34003
137.97191 180.50627 216.4397
138.52113 180.50229 216.49536
139.07027 180.49843 216.54958
139.61931 180.49467 216.60234
140.25485 180.21991 215.69501
140.7171 180.48749 216.70352
141.26585 180.48407 216.75197
141.89384 180.2097 215.83969
142.28624 180.74861 217.80403
142.83719 180.74551 217.84836
143.38805 180.74252 217.89124
144.07806 180.1976 216.01259
144.62393 180.19485 216.05226
145.16972 180.1922 216.0905
145.71547 180.18967 216.12732
146.38095 179.64529 214.24127
146.80676 180.18491 216.1967
147.2422 180.72456 218.15131
147.73993 180.99336 219.14389
148.29265 180.99133 219.17406
148.74976 181.53123 221.1256
149.30724 181.52939 221.15311
149.90761 181.25674 220.21754
150.5031 180.98422 219.2803
150.97942 181.52449 221.22704
151.50107 181.79395 222.21075
152.06078 181.79263 222.23117
152.65128 181.52054 221.28804
153.1801 181.79031 222.2677
153.81764 180.97672 219.39699
154.34642 181.24669 220.37378
154.90115 181.2459 220.38689
155.43715 181.51605 221.36098
155.9617 182.05717 223.29626
156.52365 182.05669 223.30516
157.0856 182.0563 223.31267
157.65656 181.7852 222.35616
158.22266 181.51418 221.39813
158.78391 181.24327 220.43864
159.33507 181.785 222.36559
159.89458 181.78514 222.36588
160.45409 181.78539 222.3647
161.02463 182.32744 224.28732
161.58107 182.05704 223.32065
162.12231 181.5159 221.39003
162.69225 181.78741 222.34569
163.26701 182.05905 223.29984
163.82904 182.05992 223.29001
164.41113 182.33177 224.24113
164.99809 182.60373 225.1907
165.58994 182.87581 226.13872
166.15933 182.87712 226.12289
166.75851 183.14943 227.06775
167.3304 183.15097 227.0489
167.93692 183.42352 227.99063
168.4373 182.88345 226.04495
169.00691 182.88531 226.0218
169.57655 182.88727 225.99716
170.10197 182.61841 225.00951
170.62259 182.34964 224.02057
171.18756 182.3519 223.99176
171.80412 182.62524 224.92271
172.42561 182.89871 225.85194
173.16483 183.71428 228.70125
173.80099 183.98804 229.62663
174.31958 183.71992 228.62897
174.89706 183.7229 228.59053
175.54074 183.99704 229.51096
176.05228 183.72922 228.50925
176.70096 184.00362 229.42627
177.3546 184.27814 230.34142
177.93735 184.28174 230.29509
178.36371 183.74323 228.32851
178.86111 183.47589 227.3204
179.43687 183.4798 227.27014
180.18381 184.02611 229.1358
180.8526 184.30145 230.04057
181.52635 184.57692 230.94331
182.20508 184.85257 231.84409
182.88879 185.12839 232.74283
183.4798 185.13309 232.68195
184.17105 185.40921 233.5768
184.86729 185.68547 234.46953
185.35855 185.4193 233.44666
185.73764 184.88187 231.46629
186.32684 184.88719 231.39784
186.80389 184.62126 230.37192
187.50569 184.89819 231.25621
188.09534 184.9039 231.18303
188.56552 184.63829 230.15329
189.15302 184.64423 230.07726
189.86516 184.92178 230.95399
190.45541 184.92798 230.87447
191.04584 184.93434 230.79335
191.76823 185.2124 231.66399
192.49568 185.49063 232.5323
193.09149 185.49744 232.44565
193.54837 185.23271 231.40509
194.14211 185.23976 231.31558
194.73602 185.24693 231.2244
195.62306 185.79773 233.03392
196.22226 185.80525 232.93872
197.12436 186.35652 234.74261
197.72885 186.36438 234.6433
198.33357 186.37238 234.54231
198.77979 186.10861 233.49048
199.38248 186.11687 233.38655
199.65817 185.58133 231.38434
200.92059 186.67783 235.06935
201.36035 186.41454 234.01205
201.9664 186.4234 233.90091
202.74609 186.70453 234.73457
203.88266 187.53018 237.45766
204.32092 187.26746 236.39392
204.75453 187.00479 235.32935
205.73318 187.55902 237.09787
206.16486 187.29663 236.0303
206.59186 187.03433 234.96194
207.39545 187.31686 235.7791
208.01115 187.32718 235.6508
208.62714 187.33768 235.52077
209.44142 187.62085 236.33049
210.4614 188.17679 238.07835
211.28857 188.46048 238.88176
212.12099 188.74442 239.68228
212.75076 188.75589 239.54042
212.96011 188.22208 237.5191
213.7984 188.50656 238.31294
214.21132 188.24567 237.22844
215.05518 188.53056 238.0174
215.46379 188.26987 236.93033
216.53595 188.82816 238.65021
217.16795 188.84076 238.49524
217.5726 188.58044 237.40372
217.97261 188.32018 236.31151
218.8333 188.60632 237.08548
219.22903 188.34625 235.99071
219.85774 188.35953 235.82745
220.72691 188.64629 236.5937
221.60141 188.9333 237.35674
222.48123 189.22058 238.11647
223.86154 190.05511 240.73186
224.50696 190.06946 240.55476
225.40532 190.35757 241.3038
226.05396 190.37228 241.12198
226.96054 190.66086 241.86485
227.09233 190.12836 239.82632
228.00214 190.41728 240.56439
228.12219 189.88477 238.52539
229.3028 190.44798 240.1824
229.95367 190.46353 239.98831
231.15005 191.02736 241.63672
231.8067 191.04329 241.43695
232.46371 191.05934 241.23511
233.68127 191.62402 242.87105
234.06146 191.36612 241.74419
234.72211 191.38257 241.53519
235.95836 191.94803 243.15921
236.62477 191.96481 242.94431
237.29152 191.98169 242.72719
238.54898 192.54794 244.3382
238.92381 192.29044 243.20082
239.89435 192.58238 243.8898
240.8703 192.87454 244.57491
241.54636 192.892 244.34436
242.83829 193.45941 245.93329
243.83035 193.75212 246.60654
244.82776 194.04498 247.27576
245.51518 194.06285 247.03271
246.83865 194.63118 248.60205
247.85211 194.9245 249.25909
248.87088 195.2179 249.91197
249.89496 195.51144 250.56076
250.26834 195.25409 249.39815
250.63687 194.99658 248.23511
251.00052 194.73886 247.0717
251.69489 194.75662 246.80869
251.71312 194.22278 244.74382
252.40268 194.2402 244.47823
253.09235 194.25749 244.21042
253.78206 194.27463 243.94034
255.1684 194.8436 245.45976
256.91571 195.68869 247.86777
257.61813 195.70558 247.58601
259.38818 196.55078 249.98039
260.81491 197.11984 251.47461
261.16879 196.85995 250.29031
262.24442 197.15234 250.88521
263.69089 197.72092 252.36443
264.77869 198.01291 252.94969
265.50015 198.02806 252.64417
266.22122 198.0428 252.3365
266.18961 197.50385 250.25812
267.66208 198.07086 251.71487
267.61929 197.5307 249.63672
268.33328 197.5433 249.323
269.43286 197.83215 249.88718
268.59293 196.73621 246.05339
268.90591 196.46997 244.85965
269.60681 196.47986 244.54286
67.081635 184.81006 205.76048
67.277214 185.08191 206.90297
68.646423 184.51596 205.41275
68.072441 185.34464 208.31128
69.051254 185.05664 207.69469
69.643898 185.04715 207.95546
69.857834 185.31607 209.09688
69.700569 185.86327 211.12219
70.676483 185.57347 210.49683
71.276077 185.5621 210.75308
71.506859 185.82907 211.89418
72.10965 185.81693 212.14799
73.440971 185.24725 210.6226
73.677628 185.51312 211.76047
74.637688 185.22162 211.11699
75.592865 184.92996 210.4696
76.543098 184.63818 209.81834
76.785385 184.90294 210.9509
77.730728 184.61087 210.29388
78.324608 184.59692 210.52885
78.574577 184.86096 211.65878
79.170982 184.84665 211.89095
79.428459 185.11024 213.02003
80.363625 184.81767 212.34955
80.959808 184.80304 212.576
81.555901 184.7883 212.80049
82.480637 184.49573 212.12042
84.05265 183.64783 209.62939
84.961922 183.35551 208.93988
85.223602 183.61847 210.05746
86.127472 183.32626 209.36232
86.709953 183.3116 209.57069
87.292213 183.29695 209.77718
87.563156 183.55963 210.89076
88.147476 183.54494 211.09431
88.73156 183.53027 211.29599
89.315392 183.51563 211.49573
89.597923 183.77811 212.60605
90.183723 183.76352 212.80289
91.361298 183.19507 211.16946
92.528526 182.62694 209.53085
93.685425 182.05911 207.88708
94.255051 182.04514 208.07143
94.824379 182.03125 208.25395
95.393417 182.01743 208.43463
95.962158 182.00371 208.61349
96.530594 181.99007 208.79054
97.374687 181.70007 208.0452
97.940018 181.68669 208.21785
98.505051 181.67342 208.3887
