ply
format ascii 1.0
comment PCL generated
element vertex 1596
property float x
property float y
property float z
element camera 0
property float view_px
property float view_py
property float view_pz
property float x_axisx
property float x_axisy
property float x_axisz
property float y_axisx
property float y_axisy
property float y_axisz
property float z_axisx
property float z_axisy
property float z_axisz
property float focal
property float scalex
property float scaley
property float centerx
property float centery
property int viewportx
property int viewporty
property float k1
property float k2
end_header
77.06073 114.29176 209.2005
77.995445 114.31363 208.49402
78.199867 114.2917 209.64713
79.488503 114.33549 208.00201
79.337196 114.29167 210.08592
79.550362 114.26976 211.23711
79.76812 114.24786 212.38824
79.990448 114.22595 213.53938
79.522842 114.16024 216.56549
79.414619 114.11644 218.65677
79.658218 114.09455 219.81044
80.585808 114.11646 219.08347
81.170685 114.11648 219.29393
82.759216 114.18221 216.67621
84.000046 114.22603 214.99423
85.560089 114.29176 212.36304
86.777496 114.33559 210.66945
87.659775 114.35751 209.91615
88.214432 114.35753 210.1058
89.088356 114.37946 209.34641
89.639687 114.37947 209.53165
89.875885 114.35759 210.66409
90.116669 114.33571 211.79643
90.052284 114.29192 213.87924
90.611916 114.29194 214.06079
91.17115 114.29196 214.24057
92.334511 114.33578 212.5127
92.588196 114.3139 213.64122
93.441071 114.33582 212.86049
93.993767 114.33583 213.03186
94.83844 114.35774 212.24548
94.228416 114.27014 216.23997
95.64962 114.33586 213.53587
96.485764 114.35777 212.74225
96.751701 114.33588 213.86356
97.022217 114.31398 214.98468
98.684952 114.4016 211.30324
98.402191 114.33589 214.34277
98.951675 114.33589 214.49925
99.770958 114.35779 213.69154
100.31732 114.35779 213.84413
100.86337 114.35778 213.9951
101.67184 114.37968 213.17989
102.21481 114.37967 213.32704
103.0153 114.40157 212.5067
104.06599 114.44536 210.71687
104.60069 114.44534 210.85744
105.13512 114.44533 210.99646
105.66926 114.44531 211.13399
106.20313 114.4453 211.26997
106.25046 114.40147 213.34399
106.7887 114.40145 213.47818
107.80313 114.44523 211.66899
108.33595 114.44521 211.79901
108.63516 114.42328 212.8997
109.16992 114.42325 213.02736
109.47597 114.40132 214.12685
109.78665 114.37939 215.226
110.10197 114.35744 216.3248
110.64311 114.35741 216.44824
111.62144 114.40118 214.61916
111.94096 114.37924 215.71466
112.69283 114.40111 214.85657
113.43962 114.42297 213.99593
114.18134 114.44484 213.13283
114.71143 114.4448 213.24545
115.03719 114.42285 214.33537
115.56932 114.42281 214.44566
116.49979 114.46657 212.59512
116.82984 114.44462 213.68179
116.97015 114.40076 215.74873
116.92802 114.335 218.79732
116.71069 114.24732 222.82898
114.45415 113.91868 237.66591
113.19368 113.69955 247.60246
111.61694 113.43661 259.51248
111.89676 113.39274 261.59714
112.7184 113.41458 260.73026
115.46021 113.67741 249.03331
117.79855 113.89642 239.29393
120.59887 114.18116 226.58902
121.65853 114.24683 223.72766
122.2075 114.24677 223.82042
122.75634 114.24671 223.91174
123.46553 114.26856 223.01491
123.5374 114.20277 226.06458
124.09065 114.20271 226.1525
125.10355 114.26839 223.27518
125.80013 114.29023 222.37082
126.34334 114.29018 222.45305
127.03243 114.31203 221.54489
127.8602 114.35579 219.64522
128.537 114.37764 218.73254
129.20886 114.39949 217.81783
130.14853 114.46516 214.9203
131.2076 114.55276 211.0287
132.3788 114.66226 206.14218
133.39667 114.74986 202.24254
134.14172 114.79362 200.32259
134.87706 114.83739 198.40016
135.35887 114.83734 198.45996
135.60159 114.79346 200.50371
135.85387 114.74959 202.54745
136.68912 114.81528 199.62527
136.94846 114.77139 201.66745
137.54697 114.79326 200.72836
138.03313 114.79321 200.78151
138.30911 114.74932 202.82191
138.79994 114.74928 202.87318
139.59145 114.81497 199.93907
140.07494 114.81492 199.98721
140.74924 114.8587 198.04375
141.41385 114.90249 196.09822
141.79692 114.88052 197.13756
142.18475 114.85857 198.17615
142.57733 114.8366 199.21404
143.05807 114.83656 199.25487
143.53879 114.83651 199.29451
144.09804 114.85838 198.33635
144.50005 114.83643 199.37033
145.05441 114.8583 198.40945
145.46114 114.83634 199.44147
145.94162 114.8363 199.47528
146.28888 114.79242 201.50304
146.7099 114.77046 202.5325
147.19746 114.77042 202.56329
147.80377 114.81422 200.59691
148.28648 114.81419 200.62503
148.82373 114.83607 199.65375
149.30397 114.83604 199.67941
149.73441 114.81409 200.70247
150.16962 114.79214 201.72456
150.6096 114.77018 202.74574
151.05437 114.74823 203.76596
151.58426 114.77012 202.78729
152.10934 114.79202 201.80725
152.55884 114.77007 202.82413
153.14503 114.8358 199.84314
153.62508 114.83578 199.8584
154.1051 114.83575 199.87253
154.55934 114.8138 200.88492
155.04175 114.81379 200.89677
155.46123 114.748 203.90608
155.95081 114.74798 203.91577
156.44038 114.74796 203.9243
156.92996 114.74794 203.93161
157.44228 114.79177 201.93839
157.95396 114.85752 198.94414
158.43152 114.85751 198.94788
158.90491 114.83557 199.95018
159.3831 114.81364 200.95137
159.86609 114.7917 201.95142
160.3569 114.74785 203.95004
160.8519 114.72592 204.94771
161.35172 114.70399 205.9442
161.82565 114.74783 203.94031
162.32788 114.7259 204.93439
162.81989 114.7259 204.9276
163.3119 114.72589 204.91962
163.78412 114.74782 203.91086
164.31822 114.70397 205.89958
164.81268 114.70397 205.888
165.28015 114.72589 204.87585
165.77225 114.7259 204.86195
166.26437 114.7259 204.84686
166.79076 114.70399 205.82976
167.28534 114.70399 205.81221
167.77994 114.70399 205.79352
168.35742 114.66016 207.77139
168.90071 114.63824 208.74886
169.44884 114.61633 209.72495
169.8559 114.66019 207.70381
170.35545 114.6602 207.67889
170.85504 114.66022 207.65276
171.243 114.70408 205.629
171.73785 114.70409 205.60071
172.29341 114.68218 206.56917
172.79076 114.68221 206.53833
173.41904 114.63837 208.50153
174.05699 114.59455 210.46289
174.63435 114.57265 211.42508
175.21655 114.55075 212.38568
175.95375 114.48501 215.33856
176.47302 114.48503 215.29881
176.99236 114.48505 215.25784
177.75858 114.41932 218.20468
178.45459 114.3755 220.15288
179.07321 114.35361 221.10303
179.69672 114.33172 222.05142
180.1413 114.35367 221.00703
180.67545 114.35369 220.95706
181.30637 114.3318 221.90088
181.84306 114.33183 221.84805
182.37984 114.33186 221.79391
183.02061 114.30997 222.73282
183.34727 114.35385 220.68761
183.99063 114.33196 221.6236
184.75005 114.28815 223.55128
185.5192 114.24435 225.47656
186.53 114.15671 229.38539
187.79697 114.02523 235.27606
188.48897 114.00335 236.19968
189.3091 113.95955 238.1134
190.01337 113.93767 239.03268
190.46652 113.95963 237.96681
190.91498 113.98158 236.90016
191.3587 114.00353 235.83267
191.79773 114.02549 234.76439
192.50742 114.00361 235.67581
192.94185 114.02557 234.60532
193.22908 114.06944 232.54451
194.08649 114.02563 234.44049
194.659 114.02567 234.3559
195.38139 114.00379 235.25832
196.26094 113.96 237.1467
197.61406 113.85045 241.9953
198.52049 113.80666 243.87656
199.7556 113.71902 247.72867
200.84837 113.65332 250.58954
202.28436 113.54377 255.41879
203.57805 113.45615 259.25662
204.72217 113.39043 262.10422
205.53796 113.36856 262.97778
206.53273 113.32476 264.83331
208.41927 113.17139 271.60587
209.98235 113.06185 276.40329
211.02621 113.01806 278.24496
212.08 112.97426 280.08304
211.84119 113.08387 275.04147
210.63583 113.30305 265.09357
209.00027 113.56605 253.19055
208.08008 113.74139 245.22076
207.51282 113.8729 239.2178
207.7095 113.91676 237.13879
207.49536 114.00443 233.1013
208.07433 114.00445 232.98195
208.85904 113.98256 233.83946
209.64883 113.96066 234.6944
210.44374 113.93876 235.54668
211.66942 113.87303 238.35005
212.26416 113.87305 238.2197
212.85916 113.87306 238.08772
213.45442 113.87307 237.95413
214.27252 113.85117 238.79358
214.64574 113.87309 237.68207
215.46927 113.85117 238.51714
216.29796 113.82926 239.34941
216.89948 113.82926 239.20645
217.50128 113.82926 239.06187
218.34062 113.80734 239.8868
219.18517 113.78543 240.70882
219.79276 113.78542 240.55795
220.4007 113.78541 240.40538
221.25598 113.76349 241.21985
221.86699 113.76347 241.0632
222.47833 113.76346 240.9048
223.09001 113.76344 240.74467
223.70206 113.76342 240.58279
224.05508 113.78532 239.4536
224.66536 113.78529 239.28886
225.276 113.78526 239.12236
225.88699 113.78524 238.95406
227.03673 113.74138 240.70964
227.65341 113.74135 240.53638
228.81873 113.69748 242.28421
229.99429 113.65362 244.02734
230.90112 113.63166 244.80579
231.81326 113.6097 245.58087
232.44678 113.60966 245.39406
232.79425 113.63153 244.24751
233.42613 113.63148 244.05762
233.47559 113.67527 241.95314
233.80948 113.69714 240.80534
234.13884 113.71899 239.65717
235.06146 113.69703 240.41667
235.98953 113.67506 241.17267
236.92303 113.65308 241.92519
237.24924 113.67494 240.77077
238.80638 113.60913 243.41945
239.44492 113.60907 243.21112
240.71161 113.56517 244.89919
241.35614 113.56511 244.68518
242.31998 113.54313 245.41661
242.64667 113.56499 244.2509
243.61656 113.543 244.97652
243.93927 113.56486 243.80835
245.24406 113.52096 245.47212
245.23395 113.56474 243.35735
246.21597 113.54276 244.07104
246.53076 113.56461 242.89787
246.84106 113.58647 241.72438
247.14685 113.60834 240.55051
248.48001 113.56445 242.19254
249.47733 113.54247 242.89087
251.17822 113.47666 245.45889
251.84026 113.47662 245.21123
253.56502 113.41081 247.76625
253.52258 113.45461 245.64323
254.54794 113.43266 246.32086
254.85559 113.45456 245.13011
255.88715 113.43262 245.80121
256.55756 113.4326 245.53789
257.22858 113.4326 245.27228
257.90009 113.4326 245.00429
258.19781 113.45454 243.80693
259.24478 113.43264 244.46124
260.29736 113.41075 245.11115
261.35559 113.38888 245.75653
261.26572 113.43278 243.62889
261.9404 113.43285 243.34665
262.61554 113.43294 243.06198
72.303658 114.85672 206.18399
72.099091 114.81749 208.26831
72.289589 114.79776 209.43224
71.719376 114.73907 212.44362
72.304482 114.73883 212.68509
72.511536 114.71912 213.8503
73.473404 114.7384 213.1619
74.429749 114.75768 212.46939
76.120567 114.81595 209.91519
77.060799 114.83526 209.21263
77.995522 114.85458 208.50607
78.199936 114.83492 209.65923
79.848442 114.89323 207.08119
79.694618 114.8541 209.16423
79.905266 114.83447 210.31448
80.120491 114.81484 211.46472
80.690094 114.8147 211.6783
79.870186 114.7366 215.64024
79.759445 114.69749 217.7307
80.342758 114.69736 217.94409
80.925606 114.69724 218.15552
81.507988 114.69713 218.36504
83.093994 114.7555 215.74628
84.332314 114.79438 214.06331
85.560173 114.83327 212.37491
86.777573 114.87216 210.68121
87.659843 114.89156 209.92787
88.214508 114.89146 210.11749
88.76873 114.89137 210.30536
89.322548 114.89127 210.49144
89.561241 114.87167 211.62476
90.116722 114.87158 211.80815
90.052345 114.83249 213.89104
90.611969 114.8324 214.07257
91.171204 114.83231 214.25232
92.032295 114.85172 213.47736
92.28846 114.83212 214.6067
93.441109 114.87104 212.87213
93.993805 114.87095 213.04349
94.546127 114.87086 213.21313
93.938576 114.79276 217.20859
95.362251 114.85118 214.50505
95.915939 114.85109 214.67044
96.186821 114.8315 215.79324
96.742264 114.83141 215.95605
98.684967 114.92885 211.31462
98.402222 114.87024 214.35426
99.224289 114.88966 213.54881
99.770966 114.88956 213.70299
100.31734 114.88948 213.85555
100.86337 114.88939 214.00652
101.4091 114.8893 214.1559
102.21481 114.90871 213.33838
103.0153 114.92813 212.51797
104.32137 114.98656 209.76143
105.10655 115.00598 208.93402
105.63606 115.00589 209.07178
106.16531 115.0058 209.20802
106.44869 114.9862 210.31195
106.49358 114.94708 212.38542
107.27004 114.9665 211.54861
108.04136 114.98592 210.70909
108.57173 114.98582 210.83852
108.86849 114.96622 211.93866
109.16989 114.94661 213.0385
109.47594 114.927 214.13802
109.78662 114.90739 215.23723
110.10194 114.88778 216.33606
110.64307 114.88768 216.45952
111.40268 114.9071 215.6059
111.72463 114.88748 216.70201
112.69278 114.92641 214.86771
113.43958 114.94583 214.00702
113.97231 114.94573 214.12158
114.71138 114.96515 213.25645
115.44539 114.98457 212.3889
115.97266 114.98447 212.4982
116.89827 115.02341 210.64655
117.02662 114.98428 212.71255
116.19247 114.84753 219.68272
115.58408 114.73032 225.677
114.05685 114.51548 236.58385
111.64711 114.20303 252.41019
110.79242 114.04674 260.38889
110.70544 113.96853 264.44098
111.71684 114.00745 262.59396
114.31529 114.22209 251.88811
117.03531 114.45625 240.18665
119.17928 114.63186 231.4277
121.4497 114.827 221.67444
122.32951 114.86595 219.79649
122.70347 114.84633 220.87363
123.40797 114.86575 219.97731
124.1075 114.88518 219.07883
124.48588 114.86555 220.15263
124.86896 114.84593 221.22586
125.86977 114.90442 218.34648
126.40344 114.90432 218.4286
126.937 114.90423 218.50934
127.61644 114.92366 217.59967
128.43454 114.96262 215.69852
128.96051 114.96253 215.77417
129.90269 115.02103 212.87814
130.83029 115.07954 209.97879
131.87729 115.15757 206.08536
132.77338 115.21608 203.17914
133.91315 115.31366 198.28696
134.39511 115.31358 198.34914
134.877 115.3135 198.41011
135.35881 115.31342 198.46989
135.72102 115.29381 199.52112
136.08798 115.2742 200.57172
136.91841 115.33273 197.64883
137.39749 115.33265 197.70357
137.98637 115.35211 196.76335
138.46291 115.35204 196.81546
138.72926 115.3129 198.85493
139.10783 115.29329 199.89972
139.69164 115.31276 198.95425
140.17271 115.31269 199.00215
140.74918 115.33216 198.0536
141.50682 115.39071 195.1125
141.9781 115.39064 195.15596
142.44934 115.39058 195.19827
142.7489 115.35144 197.23169
143.22485 115.35138 197.27211
143.61974 115.33179 198.30789
144.17659 115.35126 197.34947
144.5762 115.33167 198.38333
145.12816 115.35115 197.4222
145.60388 115.3511 197.45685
146.14854 115.37058 196.49287
146.4886 115.33145 198.52023
146.90242 115.31186 199.54929
147.44456 115.33135 198.58173
147.98189 115.35085 197.61269
148.34343 115.31172 199.63678
148.87828 115.33121 198.6653
149.40829 115.35072 197.69241
149.83394 115.33113 198.71524
150.31172 115.33109 198.73846
150.78949 115.33105 198.76057
151.22464 115.31147 199.78041
151.70476 115.31143 199.80029
152.22264 115.33094 198.81992
152.66493 115.31136 199.83659
153.21095 115.35042 197.85449
153.71677 115.36993 196.87025
154.16142 115.35036 197.88356
154.61087 115.3308 198.89587
155.08847 115.33076 198.90759
155.52412 115.29166 200.91739
155.98793 115.27209 201.92656
156.48889 115.29161 200.9353
156.97127 115.2916 200.94254
157.46501 115.31112 199.94885
157.96292 115.35019 197.95419
158.43808 115.35017 197.9579
158.91742 115.36971 196.96065
159.38841 115.35015 197.96187
159.86421 115.3306 198.96196
160.34782 115.2915 200.96069
160.8302 115.2915 200.95865
161.32823 115.2524 202.955
161.80521 115.27194 201.95087
162.31525 115.23285 203.94476
162.78984 115.2524 202.93831
163.29448 115.23285 203.93005
163.74448 115.27194 201.92172
164.25154 115.2524 202.91107
164.73882 115.25241 202.89967
165.2261 115.25242 202.88707
165.68399 115.27197 201.87393
166.20073 115.25244 202.85837
166.72232 115.23291 203.84149
167.21208 115.23293 203.82413
167.70189 115.23294 203.80556
168.27458 115.19386 205.78377
168.76923 115.19389 205.76263
169.31015 115.17436 206.73909
169.75864 115.19392 205.71683
170.2534 115.19395 205.69215
170.69475 115.21352 204.66789
171.18718 115.21355 204.64093
171.56316 115.25266 202.61658
172.1115 115.23315 203.58548
172.60164 115.23318 203.55511
173.22272 115.19412 205.51888
173.78561 115.17461 206.48332
174.56412 115.09648 210.43822
175.07127 115.09651 210.40187
175.80367 115.03793 213.35529
176.31812 115.03796 213.3159
176.91252 115.01846 214.27191
177.67633 114.95988 217.2191
178.45464 114.90131 220.16383
178.89908 114.9209 219.12198
179.42827 114.92094 219.07509
179.95753 114.92099 219.02689
180.29826 114.96013 216.98666
180.91956 114.94064 217.93143
181.54575 114.92115 218.87445
182.17682 114.90166 219.8157
182.81281 114.88218 220.75516
183.24098 114.90178 219.70447
183.88193 114.88229 220.64078
184.52779 114.86282 221.57521
185.06497 114.86288 221.51448
186.18213 114.76525 226.41768
187.32347 114.66763 231.31673
187.88504 114.66769 231.24908
188.56992 114.64822 232.17221
189.25974 114.62875 233.09334
189.82645 114.62882 233.02089
190.26282 114.64843 231.95572
190.82735 114.64851 231.88075
191.25671 114.66811 230.81372
192.09442 114.62911 232.7168
192.52162 114.64873 231.64729
192.94412 114.66833 230.57703
193.79668 114.62934 232.47379
194.36436 114.62942 232.38994
195.08194 114.60996 233.29317
195.95663 114.57097 235.18237
196.84117 114.53198 237.06862
197.57851 114.51253 237.96448
198.7991 114.43448 241.81912
200.0392 114.35644 245.66913
200.80603 114.33699 246.55576
202.07794 114.25894 250.39748
203.03116 114.21997 252.2635
203.99426 114.181 254.12628
204.79327 114.16156 255.00119
206.83194 114.0054 262.76254
208.01561 113.94691 265.5968
209.9389 113.8103 272.35968
211.89639 113.67368 279.11459
212.77161 113.65426 279.96725
213.27492 113.67388 278.85345
212.62799 113.81068 271.85031
210.98053 114.04511 259.94736
209.27496 114.27953 248.05417
208.70064 114.39678 242.05081
207.49539 114.57262 233.11334
207.66818 114.61175 231.03603
208.85905 114.55325 233.85155
209.64886 114.53381 234.70651
210.44376 114.51437 235.55885
211.66943 114.45587 238.3624
212.26419 114.45596 238.23207
212.85918 114.45604 238.1001
213.67459 114.43659 238.9418
214.49512 114.41715 239.78075
215.09579 114.41724 239.64281
215.69675 114.41732 239.50319
216.52788 114.39787 240.33495
216.89948 114.41748 239.21899
217.50127 114.41756 239.0744
218.34061 114.39812 239.89937
219.42485 114.35915 241.69214
220.27705 114.33971 242.51073
220.88988 114.33978 242.35693
221.25595 114.35938 241.23259
221.86697 114.35946 241.07596
222.47832 114.35954 240.91759
222.83557 114.37914 239.79057
223.44514 114.3792 239.62935
224.05505 114.37928 239.46637
224.66531 114.37936 239.30164
225.54021 114.35991 240.09937
226.42039 114.34046 240.894
227.30588 114.32101 241.68544
228.19667 114.30157 242.47371
229.36691 114.2626 244.22023
230.54742 114.22364 245.96208
231.18011 114.22372 245.77908
232.09473 114.20427 246.55351
232.73071 114.20434 246.36597
232.79416 114.24344 244.26076
233.1371 114.26302 243.11377
233.47551 114.28261 241.96632
233.80939 114.30219 240.8185
234.13875 114.32178 239.67026
235.06139 114.30233 240.42986
235.68805 114.3024 240.23264
236.61906 114.28295 240.98596
237.55551 114.26351 241.73578
238.80627 114.22456 243.43289
239.44479 114.22462 243.22456
240.71152 114.18567 244.9128
241.35602 114.18575 244.69876
242.31987 114.16631 245.43028
242.9679 114.16638 245.21132
243.2926 114.18597 244.04431
243.61279 114.20557 242.87695
244.91507 114.16663 244.54175
245.5652 114.16671 244.31436
246.54974 114.14729 245.02724
247.20343 114.14738 244.79465
247.51875 114.16698 243.61929
247.48816 114.20609 241.50388
248.47986 114.18668 242.2063
249.47717 114.16728 242.90472
251.17809 114.10887 245.47293
252.19165 114.08948 246.16127
253.21083 114.07009 246.84547
253.52243 114.08973 245.65735
254.18869 114.08986 245.40199
254.49382 114.10951 244.2122
255.88702 114.07065 245.81546
256.55743 114.07081 245.55217
257.22845 114.07098 245.28656
257.89996 114.07115 245.0186
258.94641 114.05184 245.67535
259.62158 114.05204 245.40164
259.91782 114.07175 244.20056
260.97345 114.05247 244.84706
260.49649 114.11121 241.79752
260.77893 114.13096 240.5956
260.66705 114.17022 238.47272
71.913185 115.38206 207.11523
72.098976 115.36459 208.2791
71.904236 115.33006 210.36574
71.336586 115.27847 213.37828
71.92424 115.27809 213.6208
72.133842 115.26065 214.78708
73.098251 115.27735 214.09966
74.057137 115.29408 213.40813
75.750496 115.34495 210.8548
76.693268 115.36169 210.15317
77.630539 115.37845 209.44754
77.837479 115.36107 210.60172
79.128639 115.39493 208.95737
79.337219 115.37756 210.10861
79.195572 115.34312 212.19463
79.768143 115.34284 212.41109
79.990486 115.32549 213.56227
79.522881 115.27398 216.58864
79.759399 115.25663 217.74158
80.000481 115.23929 218.89441
80.585838 115.23903 219.10675
81.507927 115.25587 218.3759
83.093956 115.30688 215.75696
84.332268 115.34083 214.07388
85.56012 115.37478 212.38541
86.450333 115.39164 211.63641
87.010429 115.39142 211.82953
87.892265 115.40829 211.07434
88.7687 115.42518 210.31563
89.639702 115.44206 209.5535
89.8759 115.42476 210.68602
90.116676 115.40746 211.81844
90.052292 115.37306 213.90143
90.611923 115.37286 214.08295
91.171143 115.37266 214.26271
91.729973 115.37246 214.44073
92.288399 115.37226 214.61705
93.441048 115.40627 212.88237
94.288574 115.42318 212.09833
94.838409 115.42299 212.26721
94.518257 115.37149 215.30518
95.936989 115.42262 212.59999
96.485741 115.42243 212.76387
97.034119 115.42225 212.92616
97.302162 115.40496 214.04665
99.239944 115.49032 209.40352
98.6772 115.4217 213.40315
98.951614 115.40441 214.5209
99.230637 115.38712 215.6384
99.781921 115.38695 215.79233
100.59808 115.40388 214.98064
101.14627 115.4037 215.13068
101.69414 115.40353 215.27916
102.49955 115.42046 214.46001
103.81051 115.47164 211.70462
104.34767 115.47147 211.84578
105.13503 115.48842 211.01746
105.91719 115.50537 210.18637
106.20303 115.48808 211.29094
106.25035 115.45367 213.36513
107.02927 115.47063 212.52887
107.80302 115.48759 211.68993
108.33584 115.48742 211.81992
109.10175 115.50438 210.97621
109.63162 115.50422 211.10269
109.93279 115.48693 212.2011
110.23859 115.46965 213.29918
110.77263 115.46948 213.42242
111.08528 115.45219 214.51929
111.62131 115.45203 214.64014
112.1571 115.45187 214.75957
112.90654 115.46885 213.90082
113.65089 115.48582 213.03955
114.18118 115.48566 213.15356
114.91783 115.50264 212.28792
115.64941 115.51962 211.4198
116.17424 115.51946 211.52858
117.09743 115.55357 209.67633
116.23917 115.43349 216.64336
114.8315 115.262 226.55807
113.0882 115.05622 238.44344
111.40293 114.85043 250.33864
109.77567 114.64462 262.24344
110.05347 114.61017 264.33121
111.43446 114.67854 260.52054
113.69519 114.8326 251.78687
116.08957 115.00382 242.05963
118.26034 115.15792 233.30652
120.04216 115.27775 226.5139
121.4496 115.3633 221.68439
122.49716 115.41458 218.82068
123.19939 115.43159 217.92528
124.05956 115.46573 216.04123
124.58891 115.46559 216.12799
125.27621 115.4826 215.22612
125.64722 115.46532 216.29744
126.32944 115.48234 215.39212
126.70503 115.46507 216.46152
127.38218 115.48208 215.55276
128.20039 115.51624 213.65285
129.00885 115.55042 211.75015
129.94875 115.60174 208.85493
130.73526 115.63592 206.94655
131.64841 115.68725 204.04504
132.41302 115.72143 202.13115
133.03636 115.73847 201.20586
133.65479 115.75551 200.2787
134.01486 115.73825 201.33328
134.50397 115.73814 201.39517
135.11491 115.7552 200.46346
135.72095 115.77225 199.52994
136.20499 115.77214 199.58762
137.26237 115.85781 194.67781
137.73424 115.85772 194.7317
138.20602 115.85762 194.78444
138.67775 115.85753 194.83601
138.9393 115.82313 196.87508
139.2104 115.78873 198.91397
139.69156 115.78864 198.96301
140.17264 115.78855 199.01093
140.7491 115.80562 198.06233
141.32069 115.82269 197.11212
141.97804 115.85693 195.16454
142.44928 115.85685 195.20688
142.92047 115.85677 195.24802
143.3916 115.8567 195.28804
143.8627 115.85663 195.32692
144.33374 115.85655 195.36462
144.65234 115.82216 197.39508
145.20189 115.83925 196.43373
145.6752 115.83919 196.46822
146.14848 115.83912 196.5015
146.48854 115.80473 198.52892
146.96655 115.80467 198.56026
147.44452 115.80461 198.59042
148.04123 115.83887 196.62326
148.45734 115.82166 197.64908
149.04198 115.85593 195.67891
149.51262 115.85588 195.70409
149.98323 115.85583 195.7281
150.40643 115.83862 196.74971
150.87939 115.83857 196.77158
151.30975 115.82136 197.79126
151.78508 115.82132 197.81093
152.26038 115.82127 197.82948
152.73566 115.82124 197.84688
153.21092 115.82121 197.86314
153.71674 115.83833 196.87888
154.16139 115.82114 197.89221
154.66238 115.83827 196.90552
155.11182 115.82108 197.91672
155.58702 115.82104 197.92726
156.06221 115.82102 197.93665
156.55357 115.83817 196.94521
157.01257 115.82098 197.95203
157.49911 115.83813 196.95824
157.98087 115.85528 195.96324
158.44466 115.8381 196.96671
158.91742 115.83808 196.96925
159.38841 115.82091 197.97052
159.8642 115.80373 198.97063
160.34782 115.76939 200.96945
160.8302 115.76939 200.96741
161.32823 115.73505 202.96388
161.80521 115.75221 201.95967
162.31525 115.71788 203.95369
162.78984 115.73505 202.94716
163.29448 115.7179 203.93896
163.74448 115.75224 201.93053
164.22932 115.75224 201.92033
164.66495 115.78659 199.90987
165.14503 115.78661 199.89746
165.59572 115.80379 198.88449
166.10527 115.78664 199.86919
166.61964 115.76949 200.8526
167.13885 115.75235 201.83466
167.66287 115.73521 202.81538
168.23317 115.7009 204.79376
168.76926 115.68376 205.77165
169.21771 115.70096 204.75055
169.66141 115.71815 203.7285
170.20239 115.70103 204.70261
170.64134 115.71822 203.67841
171.07553 115.73543 202.65331
171.4467 115.7698 200.62912
171.99023 115.75268 201.59839
172.34949 115.78705 199.57257
173.02641 115.7356 202.53476
173.58209 115.71848 203.49973
174.28314 115.66705 206.45792
174.85333 115.64993 207.41948
175.57851 115.5985 210.37354
176.08577 115.59856 210.33473
176.75282 115.56429 212.28802
177.51183 115.51286 215.23572
178.28532 115.46143 218.181
178.81204 115.4615 218.13557
179.42833 115.44441 219.08473
179.86569 115.46165 218.04089
180.29832 115.47888 216.99622
180.82291 115.47895 216.94589
181.44669 115.46187 217.88918
182.1769 115.42763 219.82539
182.81287 115.41055 220.76488
183.24106 115.4278 219.71419
183.882 115.41072 220.65053
184.41669 115.4108 220.59137
185.06505 115.39374 221.52429
185.95026 115.34235 224.44148
186.9684 115.27382 228.34851
187.52274 115.27391 228.28172
188.32359 115.2397 230.19804
188.88297 115.2398 230.12788
189.44244 115.23991 230.05635
189.74115 115.27431 228.00079
190.29602 115.27442 227.92709
191.12154 115.24022 229.83334
191.95682 115.20602 231.73686
192.5217 115.20614 231.65761
192.94421 115.2234 230.58731
193.9417 115.17206 233.47348
194.36444 115.18933 232.40031
194.7825 115.2066 231.32642
195.50021 115.18957 232.22826
196.53207 115.13824 235.10356
196.79355 115.17266 233.03787
198.00206 115.10419 236.89465
199.06824 115.05287 239.76013
200.31334 114.98441 243.608
201.91135 114.88165 249.42285
202.52394 114.88179 249.31851
203.13672 114.88194 249.21259
203.92361 114.86493 250.08966
205.42105 114.77934 254.901
206.58531 114.72806 257.73889
208.67046 114.59105 265.48895
211.34555 114.40263 276.17868
213.32996 114.28279 282.92709
215.34857 114.16296 289.66727
215.11023 114.24885 284.62155
213.88104 114.42043 274.67383
212.01613 114.64342 261.79239
210.48471 114.83213 250.88188
208.09744 115.08938 236.06248
207.87135 115.15808 232.02559
208.85913 115.12395 233.8622
209.8569 115.08982 235.69522
210.65424 115.07283 236.54712
211.88234 115.02158 239.35025
212.47952 115.02173 239.21939
213.07697 115.02188 239.0869
213.89481 115.00491 239.9281
214.94037 114.97079 241.74132
215.09587 115.00522 239.65384
215.69682 115.00538 239.51425
216.75787 114.97128 241.31911
216.89955 115.00569 239.23007
217.50136 115.00585 239.08549
218.34068 114.98888 239.91051
219.18523 114.97192 240.73267
219.79283 114.97208 240.58182
220.64534 114.95512 241.39873
221.25603 114.95528 241.24387
221.86703 114.95545 241.0872
222.22643 114.97275 239.96127
222.58122 114.99004 238.83485
223.44521 114.97308 239.64058
224.05511 114.97325 239.47762
224.66537 114.97342 239.3129
225.54028 114.95647 240.1107
226.15373 114.95664 239.94174
227.03674 114.93969 240.73393
227.92506 114.92274 241.52292
229.09283 114.88868 243.27026
230.27087 114.85462 245.01294
231.45921 114.82056 246.75087
232.09479 114.82075 246.56526
232.44675 114.83805 245.41907
232.50772 114.87247 243.31451
233.13715 114.87265 243.1254
233.47554 114.88995 241.97794
233.80942 114.90726 240.83006
234.43518 114.90745 240.6367
235.06142 114.90763 240.44145
235.68808 114.90783 240.24423
236.61908 114.89091 240.99765
237.24918 114.89111 240.79575
238.49747 114.85709 242.49377
239.13348 114.85728 242.28629
240.39769 114.82327 243.97543
241.0397 114.82349 243.76224
242.00105 114.80659 244.49466
242.32523 114.82391 243.32974
243.2926 114.80703 244.0563
243.61282 114.82436 242.88895
244.58624 114.80748 243.6096
244.90247 114.82481 242.43976
245.88199 114.80795 243.15448
246.53064 114.80818 242.92369
246.84094 114.82552 241.75012
247.14673 114.84287 240.57619
248.13593 114.82603 241.27962
248.78424 114.82629 241.04111
250.1311 114.79237 242.67436
251.48862 114.75845 244.30162
252.85678 114.72455 245.92287
253.52246 114.72484 245.6698
254.54782 114.70805 246.34755
254.8555 114.72546 245.15678
255.88704 114.70869 245.82797
256.5575 114.70901 245.5647
257.22849 114.70936 245.2991
257.90002 114.70971 245.03114
259.32083 114.6759 246.6151
259.99854 114.67628 246.34038
260.29733 114.69376 245.13821
261.35556 114.67708 245.78374
261.26569 114.71165 243.65591
261.16614 114.74624 241.52997
261.4465 114.76376 240.32672
71.912918 115.92689 207.12448
72.098709 115.91168 208.28841
72.28923 115.89648 209.45241
72.101723 115.86666 211.54027
72.304138 115.85148 212.70549
72.88884 115.85096 212.94487
73.848167 115.8651 212.25536
74.429443 115.8646 212.48965
75.750267 115.89343 210.86409
77.060524 115.92227 209.23247
77.995255 115.93648 208.52582
78.562073 115.93604 208.74715
79.488327 115.95026 208.03358
79.694374 115.93517 209.1839
79.905014 115.92009 210.33423
80.120255 115.90501 211.48454
80.689857 115.90461 211.69809
80.217224 115.86019 214.72269
80.448708 115.84512 215.87379
80.684761 115.83006 217.02483
81.265091 115.82967 217.23535
82.182167 115.84397 216.50262
83.428482 115.87296 214.82397
84.996483 115.91664 212.19682
85.889641 115.93097 211.45049
86.777359 115.94531 210.70056
87.010262 115.93028 211.83852
87.892113 115.94463 211.08327
88.129143 115.92961 212.21938
88.687943 115.92928 212.4071
89.24633 115.92896 212.59306
89.804298 115.92864 212.77727
89.742401 115.89893 214.86111
90.611755 115.91331 214.09192
91.170982 115.91301 214.27168
91.427536 115.898 215.40282
91.988457 115.8977 215.5799
93.143585 115.9268 213.84592
93.698761 115.92651 214.01801
94.545906 115.94092 213.23221
94.518097 115.91122 215.31409
95.936829 115.95505 212.60878
96.485573 115.95477 212.77267
97.316422 115.96919 211.97578
97.861984 115.96892 212.13568
99.239784 116.01278 209.41212
98.952103 115.96838 212.45059
99.224045 115.95339 213.56767
99.230476 115.9237 215.64723
99.781761 115.92343 215.80115
100.3327 115.92316 215.95349
100.88336 115.9229 216.10419
101.43369 115.92264 216.25333
102.49937 115.95182 214.46873
103.55497 115.98102 212.67993
104.34751 115.99549 211.85437
105.38535 116.02469 210.05798
106.4131 116.0539 208.25757
106.69404 116.03893 209.36095
106.9796 116.02397 210.46407
107.75117 116.03846 209.62595
108.27936 116.03823 209.75623
108.57147 116.02326 210.85674
109.33495 116.03777 210.01239
109.63147 116.0228 211.11113
109.93262 116.00784 212.20959
110.23843 115.99288 213.30771
110.77247 115.99265 213.43094
110.86395 115.96295 215.50298
111.62115 115.97747 214.64868
111.94066 115.96251 215.74434
112.69253 115.97703 214.88606
113.43932 115.99155 214.02528
114.18103 116.00608 213.16203
114.91767 116.02061 212.29631
115.85338 116.04989 210.44933
115.9724 116.0202 212.51625
116.10094 115.99049 214.5838
114.46748 115.82806 225.47481
112.304 115.62138 239.31752
110.78423 115.45891 250.22826
109.50718 115.31117 260.16605
109.21408 115.23717 265.20044
110.6074 115.29594 261.39355
113.07484 115.44324 251.68253
115.49364 115.59055 241.96091
117.33149 115.69362 235.18097
118.78523 115.76719 230.36229
120.38721 115.85553 224.55299
121.44944 115.89961 221.69305
122.66477 115.95846 217.84349
123.69527 116.00255 214.97542
124.87404 116.06141 211.11702
125.2308 116.04648 212.18871
125.75035 116.04631 212.27255
125.95843 116.01662 214.33047
126.32931 116.00169 215.40048
126.70489 115.98676 216.46992
127.53047 116.01612 214.57233
128.49229 116.06025 211.68279
129.43953 116.10439 208.78979
130.23099 116.13377 206.8833
131.15147 116.17793 203.98392
132.05739 116.22208 201.08128
132.81477 116.25148 199.16632
133.43088 116.26611 198.24004
134.04208 116.28075 197.31189
134.39491 116.26584 198.36557
134.75249 116.25094 199.41867
135.23671 116.25081 199.47873
135.72084 116.25069 199.53761
136.32198 116.26534 198.60228
137.1476 116.30953 195.67859
137.73413 116.32419 194.73921
138.20593 116.32407 194.79192
138.67766 116.32396 194.84351
138.93919 116.2943 196.88263
139.21031 116.26463 198.92159
139.59122 116.24974 199.96552
140.27039 116.27919 198.02345
140.84444 116.29387 197.07458
141.50665 116.32333 195.12857
142.06857 116.33801 194.17625
142.62563 116.35269 193.22235
143.0062 116.33781 194.25928
143.30811 116.30817 196.29193
143.86261 116.32285 195.33438
144.41226 116.33755 194.37527
144.80466 116.32269 195.40865
145.34941 116.33739 194.4469
145.81793 116.3373 194.481
146.21741 116.32244 195.51149
146.55507 116.2928 197.53882
147.03067 116.29272 197.56998
147.44446 116.27787 198.59801
147.98178 116.29259 197.62888
148.51427 116.3073 196.65834
149.04192 116.32203 195.68636
149.56474 116.33675 194.71298
150.03296 116.33669 194.73691
150.45377 116.32185 195.75845
150.9693 116.33659 194.78131
151.39487 116.32175 195.8008
151.90556 116.33649 194.82121
152.33589 116.32165 195.83865
152.80637 116.32161 195.85587
153.24385 116.30678 196.87132
153.74728 116.32153 195.88692
154.18954 116.3067 196.90024
154.66235 116.30666 196.91301
155.13516 116.30663 196.92462
155.58699 116.29182 197.93478
156.08076 116.30658 196.94444
156.56972 116.32134 195.95293
157.02632 116.30653 196.95976
157.51047 116.3213 195.9659
157.99879 116.35086 193.97098
158.46436 116.35085 193.97458
158.92993 116.35083 193.97708
159.39372 116.33604 194.97836
159.86295 116.30645 196.97842
160.33875 116.29166 197.97743
160.81392 116.29165 197.97543
161.30476 116.26207 199.97202
161.78476 116.26207 199.96767
162.29001 116.2325 201.96182
162.78984 116.21772 202.95488
163.29449 116.20293 203.9467
163.74449 116.23253 201.93822
164.22934 116.23254 201.92802
164.68959 116.24735 200.91705
165.14505 116.26216 199.90506
165.59573 116.27697 198.89204
166.07347 116.27699 198.87743
166.58545 116.26224 199.86093
167.10225 116.24747 200.84312
167.58485 116.24751 200.82486
168.19177 116.20318 203.80251
168.68163 116.20322 203.7816
169.12529 116.21805 202.7607
169.61281 116.21809 202.73756
170.1514 116.20335 203.71182
170.58795 116.21819 202.6877
171.13141 116.20345 203.65936
171.44675 116.24786 200.63678
171.92964 116.24791 200.60802
172.28648 116.27754 198.58229
172.83011 116.26282 199.54924
173.24287 116.27766 198.51956
174.07242 116.2038 203.47354
174.70807 116.17429 205.43289
175.35338 116.1448 207.39037
176.08583 116.10052 210.34276
176.75288 116.07103 212.29614
177.42963 116.04154 214.24745
178.03134 116.02684 215.20045
178.63794 116.01215 216.15173
179.07043 116.02702 215.10959
179.49818 116.04189 214.0666
180.01549 116.04198 214.01823
180.53287 116.04208 213.9686
181.14943 116.0274 214.91263
181.87241 115.99794 216.84969
182.60509 115.96848 218.78441
183.1348 115.96859 218.72841
183.8821 115.93915 220.659
184.19447 115.96882 218.61246
184.72444 115.96893 218.55252
185.48645 115.93949 220.47755
186.37657 115.89529 223.39301
187.03967 115.88063 224.32027
187.83087 115.85121 226.23782
188.63184 115.82179 228.15283
189.18649 115.82193 228.08192
189.61081 115.83684 227.01825
190.16327 115.83698 226.94487
190.85112 115.82235 227.86082
191.81927 115.77818 230.75545
192.24164 115.7931 229.68654
192.6593 115.80801 228.61687
193.65198 115.76385 231.50388
194.0699 115.77879 230.43138
194.48312 115.79371 229.35817
195.34818 115.76434 231.24902
196.06845 115.74973 232.14909
196.63669 115.74989 232.05946
197.68335 115.70576 234.92967
198.74467 115.66164 237.79608
199.65642 115.63229 239.67229
201.41144 115.52913 246.47488
202.18588 115.51455 247.35727
202.62228 115.5295 246.26712
203.05402 115.54446 245.17625
204.18658 115.50037 248.02151
205.15508 115.47105 249.8788
206.67715 115.39746 254.68274
208.95827 115.26485 263.41205
211.46936 115.11749 273.11395
214.97173 114.89638 287.71469
216.06506 114.8671 289.54019
215.4281 114.97063 282.53281
214.17 115.11842 272.58859
212.66533 115.28094 261.6723
209.70282 115.54671 243.90822
208.27768 115.69444 233.99286
209.06482 115.6799 234.85004
210.065 115.65062 236.68262
210.86478 115.63609 237.53403
211.66968 115.62156 238.38281
212.69495 115.59229 240.20537
213.29483 115.59251 240.07233
213.67482 115.60749 238.96231
214.71796 115.57823 240.77618
214.87102 115.60795 238.68919
215.46951 115.60818 238.55017
216.52811 115.57893 240.35568
216.89972 115.59392 239.23969
217.50151 115.59415 239.09511
218.34085 115.57967 239.92018
219.42508 115.55043 241.7131
220.03514 115.55068 241.56166
220.64551 115.55093 241.40849
221.2562 115.55119 241.25362
222.1167 115.53671 242.06523
222.22658 115.56644 239.97099
222.58139 115.58143 238.84457
223.44536 115.56696 239.65033
224.05527 115.56722 239.48737
224.92734 115.55276 240.28764
225.80469 115.5383 241.08484
226.42061 115.53857 240.91521
227.0369 115.53885 240.7438
227.92523 115.52441 241.53284
229.093 115.49524 243.28027
230.27104 115.46609 245.02301
231.18031 115.45165 245.80089
231.8134 115.45195 245.61601
232.1629 115.46696 244.47052
232.50787 115.48198 243.3246
233.1373 115.48228 243.13548
233.47571 115.4973 241.98801
234.10352 115.4976 241.79582
235.02817 115.48321 242.55666
235.36046 115.49823 241.40565
235.98962 115.49855 241.20767
237.22699 115.46945 242.91293
237.55569 115.48448 241.75764
238.80646 115.4554 243.45497
239.75635 115.44103 244.19687
241.02554 115.41196 245.88445
240.72351 115.45642 242.82402
242.32005 115.41267 245.45271
242.32539 115.44242 243.34007
242.96893 115.44278 243.12073
243.28662 115.45784 241.95415
243.92868 115.45821 241.73149
244.57126 115.45859 241.50673
245.88214 115.42958 243.16489
246.53081 115.42997 242.93413
247.51894 115.41568 243.64192
247.82977 115.43077 242.46614
248.82401 115.41649 243.16779
248.78442 115.44628 241.05154
250.48029 115.40266 243.62189
251.4888 115.38841 244.31226
253.21103 115.34482 246.8687
253.87924 115.34528 246.61467
254.90714 115.33108 247.29152
255.21735 115.34623 246.09972
255.88724 115.34673 245.83879
256.19098 115.36189 244.64532
257.2287 115.34774 245.30994
258.27206 115.3336 245.97018
259.6954 115.30481 247.55319
260.37567 115.30537 247.27742
260.67703 115.3206 246.07422
261.3558 115.32119 245.79469
260.88141 115.36575 242.74382
260.7793 115.39567 240.61887
261.0571 115.41094 239.41666
70.351112 116.42286 210.81462
70.547127 116.40991 211.98286
71.518326 116.42142 211.30571
71.335915 116.39628 213.39575
71.923584 116.39558 213.63826
72.888451 116.40714 212.9528
73.847786 116.41872 212.26324
74.80162 116.43031 211.56956
75.749916 116.44192 210.87189
77.427643 116.47803 208.31024
77.994919 116.47743 208.53349
78.199333 116.46461 209.68674
79.487999 116.48853 208.04123
80.051392 116.48797 208.25768
79.904694 116.46291 210.34193
80.472237 116.46236 210.55644
80.689537 116.44956 211.7058
80.911415 116.43677 212.85515
80.793129 116.41172 214.94304
80.684448 116.38667 217.0327
81.6045 116.39841 216.30278
82.519066 116.41018 215.56911
83.762878 116.43422 213.88948
85.328392 116.47056 211.26132
86.219048 116.48236 210.51407
86.777069 116.48189 210.70813
87.009979 116.46915 211.8461
87.569633 116.4687 212.03741
87.489479 116.44367 214.12183
88.370476 116.45551 213.36295
89.246063 116.46736 212.6006
89.804016 116.46693 212.78482
90.361572 116.4665 212.96725
90.918716 116.46608 213.14795
91.170708 116.45336 214.27925
91.125008 116.42835 216.36354
91.688393 116.42794 216.54141
92.548706 116.43983 215.76283
93.403664 116.45174 214.981
94.545639 116.47594 213.23969
94.807716 116.46325 214.36464
96.223969 116.49979 211.65849
96.485321 116.48711 212.78011
97.598633 116.51135 211.02396
97.86174 116.49867 212.14304
99.23954 116.53526 209.41939
98.951843 116.49795 212.45798
99.496399 116.49759 212.61302
99.770493 116.48492 213.72922
100.31685 116.48456 213.88174
100.59768 116.47189 214.99681
100.8831 116.45921 216.11165
101.43343 116.45887 216.26079
102.2413 116.47086 215.4422
103.04396 116.48285 214.62073
104.09434 116.50718 212.82904
105.13463 116.53152 211.03323
106.16483 116.55587 209.23338
106.6938 116.55556 209.3681
106.73624 116.53057 211.44116
107.51025 116.5426 210.60362
108.04088 116.5423 210.73448
108.57125 116.54199 210.86389
109.10136 116.54169 210.99184
109.40033 116.52905 212.09119
109.70393 116.51641 213.19025
110.01217 116.50377 214.28897
110.32504 116.49113 215.38737
110.42142 116.46615 217.46054
110.96475 116.46586 217.58307
111.72414 116.47792 216.72786
112.69231 116.50234 214.89331
113.22768 116.50207 215.00978
114.3898 116.53886 212.19136
115.33057 116.5633 210.34673
116.0573 116.5754 209.47751
115.97219 116.53806 212.52336
115.90147 116.50072 215.57085
113.48307 116.31504 230.38416
111.13731 116.12933 245.21059
110.01605 116.01776 254.16191
109.12781 115.91855 262.13834
109.0267 115.86878 266.19153
111.5307 115.99215 256.48871
114.16833 116.12791 245.7919
116.033 116.21423 239.01814
118.04105 116.31293 231.25256
119.83516 116.39928 224.46301
121.25002 116.46091 219.63585
122.47034 116.51017 215.78839
123.67116 116.55944 211.93622
124.85249 116.60873 208.07941
125.68848 116.63327 206.19119
126.03316 116.62069 207.26094
126.54063 116.62048 207.34283
126.73663 116.59552 209.39888
126.78891 116.55818 212.44327
127.00641 116.53322 214.50012
127.67873 116.54539 213.59056
128.49213 116.56997 211.68976
129.43938 116.60693 208.79668
130.51321 116.65629 204.91028
131.42888 116.69327 202.01012
132.46634 116.74264 198.11615
133.08255 116.75486 197.19102
133.56229 116.75469 197.25528
134.17108 116.76692 196.3268
134.39478 116.74198 198.37207
134.87666 116.74183 198.43304
135.48038 116.75407 197.50035
136.07919 116.7663 196.56589
136.43893 116.75377 197.61572
137.26215 116.7908 194.69167
137.73401 116.79066 194.74557
138.20581 116.79053 194.79831
138.67754 116.79039 194.84987
139.04414 116.77786 195.89465
139.31284 116.75294 197.93344
139.79158 116.75281 197.98227
140.46594 116.77748 196.03964
141.0352 116.78976 195.0903
141.59958 116.80204 194.13933
142.24973 116.82673 192.19095
142.71375 116.82661 192.2326
143.09192 116.81411 193.26938
143.47484 116.8016 194.30542
143.94353 116.8015 194.34407
144.41217 116.80139 194.38161
144.80457 116.78889 195.41501
145.34933 116.8012 194.45323
145.81784 116.80111 194.48734
146.28632 116.80102 194.52029
146.68817 116.78853 195.54984
147.09479 116.77604 196.57854
147.56796 116.77596 196.6084
148.04109 116.77587 196.63713
148.57118 116.78821 195.66641
149.09644 116.80054 194.69426
149.66904 116.82529 192.7222
150.18224 116.83763 191.74716
150.64322 116.83756 191.76959
151.10419 116.8375 191.79089
151.52255 116.82504 192.81012
151.98587 116.82498 192.8293
152.41139 116.81252 193.84659
152.84169 116.80006 194.86292
153.2438 116.77519 196.87767
153.74724 116.78756 195.89325
154.1895 116.77511 196.9066
154.66232 116.77507 196.91937
155.13513 116.77503 196.931
155.62892 116.78741 195.94176
156.0993 116.78738 195.95108
156.58588 116.79977 194.95947
157.04007 116.78733 195.96631
157.52184 116.79972 194.97237
158.00775 116.82452 192.97736
158.46436 116.8121 193.98088
158.92992 116.81209 193.98337
159.39549 116.81208 193.98476
159.86169 116.79966 194.98494
160.33572 116.77483 196.98393
160.80307 116.78725 195.98203
161.28911 116.76242 197.97868
161.77454 116.75002 198.97426
162.27739 116.7252 200.96849
162.75981 116.72521 200.96184
163.25966 116.71281 201.95378
163.70485 116.73766 199.94527
164.16269 116.75008 198.93552
164.61574 116.76252 197.9247
165.06401 116.77496 196.91286
165.50749 116.7874 195.90002
165.97801 116.78743 195.8856
166.4828 116.77505 196.8694
167.02902 116.75027 198.85114
167.50684 116.75031 198.83304
168.10895 116.71312 201.811
168.63785 116.70076 202.78928
169.0791 116.71322 201.76842
169.56422 116.71327 201.74539
170.1004 116.70092 202.71979
170.53456 116.71339 201.6958
171.01979 116.71345 201.66925
171.44681 116.72592 200.64331
171.86906 116.7384 199.61646
172.28654 116.75088 198.58875
172.76472 116.75095 198.55794
173.17509 116.76343 197.52837
173.93198 116.71388 201.48524
174.56282 116.68916 203.44504
175.20334 116.66443 205.40291
175.93097 116.6273 208.35577
176.59323 116.60258 210.30957
177.18288 116.59028 211.26483
177.77739 116.57798 212.21846
178.2897 116.57808 212.1743
178.62306 116.603 210.13704
179.13069 116.6031 210.09082
179.63837 116.60322 210.04335
180.14612 116.60333 209.99464
180.95129 116.56625 212.92964
181.771 116.52917 215.862
182.50127 116.50451 217.79704
183.13492 116.49224 218.73555
183.66472 116.49238 218.67822
184.08345 116.50491 217.62589
184.61101 116.50506 217.56624
185.13866 116.5052 217.50526
185.90317 116.48056 219.42877
186.43582 116.48071 219.36462
187.09178 116.46847 220.29141
187.62704 116.46863 220.22432
188.41847 116.44401 222.13922
188.95876 116.44417 222.06882
189.89772 116.40717 224.97021
190.58075 116.39495 225.88684
191.40639 116.37035 227.79184
191.82152 116.38293 226.72389
192.37445 116.38311 226.64496
193.21738 116.35852 228.5434
193.92273 116.34633 229.44997
194.78281 116.32175 231.34303
195.65268 116.29719 233.2332
196.22321 116.29739 233.14465
196.63686 116.30999 232.06714
197.36467 116.29782 232.96317
198.09747 116.28565 233.85698
199.16382 116.24873 236.72122
201.07826 116.14993 244.5112
202.18607 116.11303 247.36546
202.96553 116.10089 248.24548
203.57607 116.10114 248.13843
203.83403 116.12614 246.06125
204.6189 116.11402 246.93568
206.31491 116.04003 252.72449
208.59119 115.92895 261.45502
210.5392 115.84263 268.21078
215.53751 115.5584 290.67032
217.40186 115.4845 296.42056
217.16861 115.54667 291.3717
216.12817 115.65829 282.40341
215.04424 115.76991 273.44202
211.10762 116.05461 250.77351
209.29333 116.20327 238.89615
209.47607 116.22827 236.81506
210.06522 116.22855 236.69057
210.65462 116.22884 236.56448
211.66989 116.20441 238.39084
212.26465 116.2047 238.2605
212.85965 116.205 238.12854
213.67505 116.19294 238.9704
214.49561 116.18089 239.80949
214.87125 116.19356 238.69725
215.24228 116.20621 237.58455
216.52835 116.16948 240.36386
216.89995 116.18214 239.2478
217.50174 116.18246 239.10321
218.34109 116.17045 239.92834
219.66504 116.13374 242.69212
220.27753 116.13408 242.54005
220.89035 116.13441 242.38628
221.25644 116.1471 241.26187
222.11696 116.13511 242.07356
222.47879 116.1478 240.9469
223.09047 116.14815 240.7868
223.95938 116.13617 241.59132
224.83354 116.1242 242.39276
225.45119 116.12457 242.22606
226.33347 116.1126 243.02191
226.68759 116.12531 241.88724
227.30634 116.12569 241.71515
228.46881 116.10142 243.46587
229.36739 116.08949 244.25032
229.99472 116.08988 244.07065
230.90152 116.07796 244.84927
231.81367 116.06604 245.62457
231.87915 116.09109 243.52032
232.22166 116.10382 242.37511
233.13757 116.09192 243.14401
233.47598 116.10465 241.99651
234.10378 116.10508 241.80432
235.32484 116.08089 243.52016
235.65964 116.09364 242.36838
236.29129 116.09408 242.16963
237.53114 116.06992 243.87419
237.86235 116.08267 242.71808
239.1156 116.05853 244.41464
240.37933 116.0344 246.10599
241.02583 116.03488 245.89322
241.67285 116.03536 245.67839
242.95804 116.01127 247.35695
242.64703 116.04865 244.29565
243.29308 116.04915 244.07547
243.93964 116.04965 243.85318
244.58672 116.05017 243.6288
244.90294 116.06298 242.45888
246.21634 116.03894 244.11623
246.86752 116.03948 243.88455
247.85817 116.02776 244.59149
248.51297 116.02831 244.35463
249.16829 116.02888 244.11554
249.47769 116.04173 242.93629
250.82962 116.01778 244.56783
251.84067 116.00611 245.25728
253.56544 115.96993 247.81288
254.23621 115.97056 247.55791
255.62576 115.94668 249.16704
255.94104 115.95959 247.97325
256.61603 115.96026 247.71036
257.29156 115.96094 247.44511
257.96762 115.96163 247.17751
258.64429 115.96233 246.90756
260.07019 115.93857 248.48962
260.3761 115.95155 247.28665
260.67746 115.96454 246.08339
261.35623 115.9653 245.80388
260.88184 116.00278 242.75293
260.77972 116.02803 240.62791
261.05756 116.04106 239.42567
70.740883 116.98718 209.90039
71.322144 116.98631 210.14589
72.288261 116.99525 209.46657
72.100777 116.9748 211.55455
72.683372 116.97397 211.79494
