ply
format ascii 1.0
comment PCL generated
element vertex 1596
property float x
property float y
property float z
element camera 0
property float view_px
property float view_py
property float view_pz
property float x_axisx
property float x_axisy
property float x_axisz
property float y_axisx
property float y_axisy
property float y_axisz
property float z_axisx
property float z_axisy
property float z_axisz
property float focal
property float scalex
property float scaley
property float centerx
property float centery
property int viewportx
property int viewporty
property float k1
property float k2
end_header
192.98901 71.704849 238.03743
193.5827 71.701447 237.95306
194.45767 71.31002 239.80891
195.05652 71.306427 239.72075
195.36472 71.690765 237.69066
195.81122 71.881073 236.63029
196.40329 71.877319 236.53853
196.99553 71.873489 236.44519
197.58795 71.869576 236.35031
198.3381 71.671524 237.22209
198.93332 71.667442 237.12367
199.69112 71.469177 237.9911
200.12431 71.659058 236.92207
200.88736 71.460602 237.78549
201.65549 71.262039 238.64644
202.25655 71.25753 238.53918
203.03238 71.058746 239.39561
203.81329 70.85984 240.24954
204.41986 70.855049 240.13652
204.84479 71.044434 239.05789
205.63367 70.84523 239.9055
206.24094 70.840179 239.78752
207.22681 70.446419 241.59293
207.83942 70.441162 241.47064
208.45227 70.435814 241.34668
209.26189 70.236008 242.18205
209.8777 70.230461 242.05418
210.29237 70.419243 240.96461
211.11011 70.219086 241.79337
211.52042 70.407745 240.70139
211.9261 70.596352 239.60873
212.53838 70.590393 239.47336
213.15092 70.584351 239.33624
213.97986 70.383629 240.15422
214.81398 70.182777 240.9693
215.87431 69.787155 242.73718
216.05093 70.169914 240.68062
216.66989 70.16333 240.53365
217.06078 70.351349 239.43097
217.90872 70.149887 240.23431
218.7619 69.948257 241.03465
219.85609 69.551697 242.78412
220.48404 69.544548 242.6263
221.11232 69.537292 242.46664
221.9841 69.335075 243.25537
222.86116 69.132706 244.04092
223.24734 69.320007 242.92551
224.38062 68.922409 244.65433
225.27112 68.719566 245.431
226.16693 68.516563 246.20442
226.29419 68.898514 244.13582
227.19324 68.695274 244.90472
227.83472 68.686974 244.72542
228.47659 68.678566 244.54417
228.85101 68.865227 243.4175
229.76157 68.661438 244.17581
230.40463 68.652725 243.98866
231.04813 68.643906 243.79953
232.24765 68.24437 245.48956
232.61667 68.430618 244.35512
233.54669 68.226074 245.09834
234.19684 68.216782 244.89967
234.84743 68.207382 244.69896
235.49846 68.197891 244.49622
236.73544 67.797256 246.16336
236.80182 68.178604 244.08452
238.34744 67.582024 246.67873
239.30798 67.376404 247.39882
239.36572 67.757629 245.31688
240.32967 67.551773 246.03191
241.60687 67.150009 247.67427
241.34314 67.726952 244.65976
242.0032 67.71656 244.43642
242.97899 67.510223 245.13948
243.32465 67.695541 243.98328
243.66573 67.880859 242.82663
244.0022 68.0662 241.66954
244.98483 67.859482 242.36217
245.97293 67.652618 243.0508
246.96651 67.445618 243.7354
248.29849 67.042328 245.3383
249.64101 66.638809 246.93526
249.98013 66.823807 245.76482
250.99564 66.616272 246.43309
251.33054 66.801285 245.25995
252.00635 66.789978 245.00412
253.03065 66.582245 245.6626
254.06042 66.374405 246.31686
255.09564 66.166473 246.96686
256.13629 65.958466 247.61252
256.46588 66.143539 246.42845
257.15152 66.132095 246.15578
257.47415 66.317345 244.97008
258.52374 66.109299 245.60339
259.57867 65.901222 246.23232
261.00989 65.496338 247.76433
262.82507 64.894516 250.19633
264.27966 64.48941 251.71417
264.60886 64.67498 250.51219
264.93314 64.860741 249.31
265.63611 64.849716 249.00981
264.79428 65.626984 245.1028
265.48721 65.616409 244.80232
265.78888 65.803123 243.60066
66.868843 73.128532 213.11856
67.470604 73.137085 213.38164
68.845932 73.534599 211.83981
67.905609 72.765884 215.70688
68.512352 72.774902 215.96614
69.119011 72.784042 216.22334
69.725533 72.793274 216.47855
69.58374 72.414169 218.54535
71.309708 73.006165 216.07491
71.913208 73.015579 216.32292
73.249458 73.413246 214.74899
74.211403 73.61673 214.07991
75.168053 73.820183 213.40674
76.119362 74.023567 212.72957
77.421692 74.420822 211.1344
77.652145 74.236252 212.27823
77.536064 73.857895 214.33803
77.778557 73.673523 215.4828
78.025764 73.489212 216.62753
77.933983 73.111237 218.69102
78.534348 73.120789 218.91667
80.150406 73.711266 216.37804
80.742508 73.720634 216.59688
81.334251 73.729973 216.81372
82.256752 73.932785 216.1051
83.173843 74.135483 215.3927
83.75946 74.144608 215.60184
84.668274 74.347084 214.88287
85.571693 74.549423 214.16022
86.469719 74.751633 213.4339
87.046288 74.760399 213.63278
87.308929 74.575836 214.75949
88.198303 74.777725 214.02495
89.082298 74.979477 213.28682
89.654861 74.987946 213.47739
90.530602 75.189438 212.73309
91.40097 75.390785 211.98532
91.668854 75.205894 213.10345
91.941368 75.021004 214.22136
92.512062 75.029068 214.4028
92.791298 74.844116 215.5195
93.07515 74.659149 216.63594
93.649712 74.667046 216.81354
94.50753 74.867691 216.04997
94.797752 74.682571 217.16333
95.09256 74.497437 218.27643
95.944336 74.697746 217.50604
96.243401 74.512497 218.61707
97.089508 74.71257 217.84167
97.930298 74.912491 217.06314
98.765808 75.112259 216.28142
99.33223 75.119301 216.44174
100.15965 75.318802 215.6545
100.4641 75.133118 216.75725
101.2859 75.332367 215.96527
101.59465 75.146561 217.06599
102.41089 75.345589 216.2693
102.97291 75.352066 216.41879
103.2881 75.166077 217.51651
103.36386 74.787704 219.56435
104.41553 75.178642 217.80855
104.2614 74.607918 220.80734
105.06841 74.80632 219.99873
105.87023 75.004593 219.18723
106.43507 75.010506 219.32649
107.22896 75.208527 218.5099
108.24451 75.598572 216.73575
108.80117 75.604156 216.86836
109.35756 75.60965 216.99942
110.13319 75.807144 216.17236
110.68662 75.812454 216.29968
111.02519 75.625626 217.38307
111.36842 75.438766 218.466
111.92599 75.443871 218.58972
112.48332 75.448891 218.71191
112.8356 75.261871 219.7923
113.3949 75.266754 219.91191
114.15392 75.46347 219.06911
114.71031 75.468163 219.1851
115.26651 75.472786 219.29953
116.01509 75.669182 218.45012
116.37822 75.481781 219.52386
116.93377 75.486176 219.63373
117.67442 75.682281 218.77832
118.22712 75.686493 218.88472
118.41874 75.307114 220.91902
119.15393 75.50296 220.05815
119.88406 75.698685 219.1949
120.60914 75.894318 218.32925
120.98775 75.706451 219.39426
121.87589 76.093567 217.55788
122.42244 76.097244 217.653
122.80538 75.90921 218.71445
123.19302 75.72113 219.77527
123.90249 75.916229 218.89827
124.29465 75.72805 219.95699
124.99895 75.922989 219.07629
125.39566 75.734695 220.13289
125.94593 75.737915 220.21869
126.34961 75.54953 221.27351
126.90201 75.552635 221.3568
127.17107 75.172653 223.38107
128.00639 75.558647 221.51901
128.42163 75.370079 222.56984
129.11024 75.5644 221.67548
129.53006 75.375725 222.72414
130.4726 75.952805 219.88034
130.63799 75.381119 222.87268
131.31642 75.575157 221.97125
131.74542 75.386276 223.01549
132.29898 75.388763 223.08478
132.735 75.199799 224.12708
133.40575 75.393555 223.21906
133.95897 75.395859 223.2841
134.73242 75.78083 221.39706
135.28061 75.783005 221.45871
135.93404 75.976456 220.54314
136.58255 76.169846 219.62563
137.12563 76.171829 219.68259
137.47243 75.791115 221.69142
138.02017 75.793007 221.74612
138.47455 75.603546 222.77652
138.84282 75.22274 224.78333
139.48599 75.415771 223.85703
140.03824 75.417458 223.90662
140.75764 75.801628 221.9989
141.38612 75.994461 221.06714
141.93092 75.995956 221.11201
142.47565 75.997406 221.1555
142.87234 75.616318 223.15511
143.42178 75.617683 223.19623
143.97115 75.618996 223.23595
144.5872 75.811478 222.29504
145.0697 75.621452 223.31134
145.68083 75.813828 222.36736
146.16806 75.623718 223.3812
146.60292 75.242355 225.37389
146.99266 74.669762 228.34576
147.55371 74.670731 228.37659
148.06483 74.480469 229.38628
148.58073 74.290161 230.39484
149.23663 74.67337 228.46066
149.84021 74.865326 227.50528
150.43893 75.057228 226.54832
150.95709 74.866714 227.55142
151.5155 74.867348 227.57239
152.04083 74.676743 228.57301
152.63222 74.868446 227.61024
153.19055 74.868927 227.62708
153.74886 74.869354 227.64255
154.33055 75.060898 226.67534
154.82339 74.48774 229.63199
155.40506 74.679184 228.66203
155.94952 74.488266 229.65343
156.51257 74.488449 229.66209
157.07561 74.488594 229.66934
157.66559 75.062164 226.73065
158.21483 74.871048 227.7166
158.76888 74.679893 228.70117
159.32774 74.488678 229.68445
159.89014 74.679741 228.70319
160.45686 74.297272 230.66519
161.01686 74.488235 229.68117
161.56419 74.870316 227.71425
162.11218 75.061188 226.72751
162.68071 74.869682 227.70245
163.239 74.869293 227.69449
163.81479 74.677696 228.66652
164.4352 74.103699 231.59981
165.02547 73.911987 232.56882
165.59586 73.911392 232.55502
166.16628 73.910751 232.53984
166.70721 74.101242 231.54211
167.21143 74.48288 229.56212
167.8434 74.099716 231.50487
168.37479 74.29007 230.50323
168.94057 74.289185 230.48119
169.50638 74.288254 230.45772
170.07222 74.28727 230.43285
170.59174 74.477448 229.42612
171.15527 74.476364 229.39856
171.71886 74.475235 229.3696
172.28249 74.474052 229.33923
172.84616 74.472824 229.30746
173.46832 74.280304 230.25412
174.03452 74.278961 230.21939
174.60078 74.277557 230.18327
175.23274 74.084862 231.12508
175.73349 74.274612 230.10678
176.37041 74.081802 231.04538
177.0851 73.697647 232.96106
177.50835 74.078522 230.96002
178.07742 74.076797 230.91519
178.64658 74.07502 230.86896
179.13329 74.264488 229.8432
179.61525 74.453918 228.81645
180.35452 74.069351 230.72163
180.83424 74.258682 229.69223
181.58575 73.873962 231.5934
182.15784 73.871849 231.53828
183.02103 73.295609 234.41191
183.60056 73.293343 234.35318
184.38383 72.908279 236.24544
185.07265 72.714485 237.15923
185.76639 72.520615 238.071
186.13783 72.900864 236.05444
186.83423 72.706863 236.96294
187.53555 72.512779 237.86938
188.35818 72.127167 239.74834
188.83437 72.315796 238.70172
189.427 72.312912 238.62817
190.01976 72.309967 238.55312
190.36064 72.689919 236.52977
190.69197 73.069855 234.50615
191.27547 73.066757 234.42781
192.12564 72.680565 236.29271
192.71428 72.677307 236.21068
193.57928 72.290894 238.0705
194.45415 71.904343 239.9274
195.05292 71.900826 239.83931
195.50647 72.088829 238.77899
195.95535 72.276787 237.71785
196.39952 72.464699 236.65591
196.9917 72.460938 236.56268
197.42896 72.648743 235.49876
198.01904 72.644852 235.40277
198.76929 72.449203 236.27359
199.36218 72.445145 236.17409
199.62563 72.82444 234.13797
200.54854 72.436798 235.97032
201.48138 72.048996 237.79941
202.07993 72.044594 237.69269
203.02777 71.656525 239.51596
203.98557 71.268311 241.3358
204.41507 71.455429 240.25752
204.83992 71.642487 239.17854
205.44443 71.637634 239.06282
205.86243 71.824585 237.98195
206.84329 71.435783 239.78938
207.45093 71.430664 239.6682
208.05881 71.425453 239.54535
208.86343 71.228195 240.38234
209.67322 71.030807 241.21664
209.6826 71.601318 238.20621
210.69672 71.211716 239.99712
211.10207 71.398102 238.90584
211.71152 71.392365 238.77284
212.11008 71.578629 237.67979
213.14487 71.188477 239.45961
213.97366 70.990295 240.27817
214.80768 70.791962 241.0939
215.42592 70.78569 240.95062
216.04445 70.77932 240.80554
216.43741 70.965103 239.7037
216.82578 71.150841 238.6013
217.44034 71.144241 238.45209
218.28847 70.945206 239.25432
219.6133 70.361313 241.95869
220.23868 70.354301 241.8017
220.8644 70.347198 241.64284
221.73358 70.147552 242.43288
222.36246 70.140213 242.2697
222.9917 70.132782 242.10468
224.37283 69.547661 244.7841
225.26321 69.347382 245.56146
225.90341 69.339516 245.38814
226.2861 69.52417 244.26613
226.92461 69.516136 244.08965
227.56351 69.507996 243.91124
228.2028 69.499756 243.7309
229.11032 69.298676 244.49257
229.7529 69.290192 244.3076
230.66869 69.088799 245.06323
231.31456 69.080086 244.87358
232.23862 68.878387 245.62303
232.3273 69.255264 243.54796
233.53745 68.860382 245.23222
234.1875 68.851219 245.0338
234.83798 68.841965 244.8333
235.77914 68.639557 245.56805
237.01843 68.243896 247.23567
236.79207 68.813622 244.2195
238.03976 68.417648 245.8806
238.99768 68.214638 246.60225
239.05289 68.591171 244.52034
240.01419 68.387939 245.23694
240.98099 68.184555 245.94977
241.33276 68.367699 244.7972
241.67998 68.550842 243.64417
242.65314 68.347115 244.34886
242.99625 68.530182 243.19321
243.33476 68.713257 242.03716
243.6687 68.896324 240.88069
245.29933 68.305046 243.4261
246.28986 68.100723 244.11462
247.61621 67.702576 245.72289
248.62021 67.497932 246.4024
249.96512 67.099396 247.99976
250.64468 67.088242 247.74911
251.32471 67.077049 247.49619
251.31915 67.453583 245.40274
252.34045 67.248474 246.06529
253.36723 67.043266 246.7236
254.04887 67.031967 246.46146
255.08405 66.826599 247.11221
256.12463 66.621155 247.75868
256.45428 66.803886 246.57434
257.13992 66.792557 246.30188
257.46262 66.975464 245.11588
258.51221 66.769958 245.74997
259.56714 66.564423 246.37965
260.99835 66.16452 247.91301
262.81345 65.570114 250.34689
264.64401 64.975571 252.772
264.97592 65.158714 251.56865
265.30289 65.342056 250.36504
265.62488 65.525597 249.16119
265.16953 66.098526 246.15385
265.08771 66.477203 244.05133
265.77829 66.466881 243.74985
68.052994 74.284363 210.54756
68.647278 74.292778 210.80716
69.628296 74.493286 210.16281
68.683167 73.734245 214.02966
68.903267 73.55127 215.19073
69.886597 73.752151 214.54149
70.488136 73.761261 214.79434
70.341423 73.386894 216.85991
71.690735 73.779678 215.29399
71.55378 73.405594 217.3597
72.89254 73.798332 215.78552
73.493103 73.807724 216.02821
74.816162 74.200287 214.44385
75.769966 74.401184 213.76695
77.074768 74.793503 212.17149
77.661575 74.802765 212.40114
77.896828 74.620621 213.54529
78.136818 74.438538 214.68941
78.381538 74.256531 215.83345
78.630959 74.07457 216.97746
78.885094 73.892677 218.12134
80.498474 74.475693 215.57996
81.088005 74.484901 215.79768
82.01078 74.685211 215.09027
82.597076 74.694305 215.30313
83.183006 74.703362 215.51401
84.094612 74.903374 214.79713
85.000816 75.103256 214.07655
85.901627 75.303009 213.35228
86.797043 75.502625 212.62434
87.37104 75.51123 212.82217
87.631149 75.328934 213.94833
88.206894 75.337448 214.14326
88.782272 75.345894 214.33632
89.357254 75.354263 214.52754
90.235382 75.553238 213.78336
91.409149 75.942726 212.10132
91.676994 75.760147 213.21976
92.245483 75.768143 213.40202
92.520058 75.58551 214.51926
92.799255 75.40287 215.63625
93.371605 75.41069 215.8147
94.229675 75.608864 215.05223
94.798813 75.616486 215.22633
95.367584 75.624016 215.39867
95.936005 75.631462 215.56923
96.504074 75.638824 215.73804
96.798126 75.455811 216.84792
97.63916 75.65329 216.0704
98.206169 75.660385 216.23401
99.039078 75.857574 215.45093
99.602951 75.864479 215.61037
100.16647 75.871292 215.76811
100.47087 75.687904 216.87122
101.29257 75.884644 216.07854
101.34736 75.511093 218.12802
102.16595 75.707626 217.3313
102.73034 75.71402 217.48132
103.04794 75.530365 218.58002
103.61417 75.536621 218.72736
104.18011 75.542786 218.873
104.26753 75.169098 220.92154
105.31109 75.554832 219.15941
105.87614 75.56073 219.30014
106.4409 75.566544 219.43924
107.46394 75.951813 217.66736
108.4769 76.336899 215.89149
109.03104 76.342361 216.02339
109.58489 76.34774 216.15373
110.57744 76.732384 214.36848
111.12589 76.737549 214.49455
111.24493 76.363373 216.53529
111.79778 76.368423 216.65938
112.14069 76.183807 217.7411
112.48825 75.999146 218.82236
113.04527 76.003998 218.94287
113.80441 76.198288 218.10101
114.1586 76.013458 219.17923
114.91241 76.20755 218.33325
115.46607 76.212067 218.4471
116.01953 76.216507 218.55942
116.3826 76.031441 219.63354
117.12579 76.225159 218.77951
117.86391 76.418747 217.92303
118.23125 76.233505 218.99358
118.60326 76.048218 220.06355
119.15793 76.052223 220.16731
119.88797 76.245476 219.30345
120.43983 76.249313 219.40379
120.99152 76.253098 219.50262
121.71129 76.44606 218.63258
122.42603 76.638931 217.76024
122.80892 76.453232 218.82207
123.35748 76.456711 218.91463
123.90588 76.460129 219.00572
124.45413 76.46347 219.09538
125.15592 76.655922 218.21376
125.55016 76.469963 219.27034
126.09793 76.473106 219.35568
126.49914 76.287056 220.41055
127.04906 76.290085 220.49336
127.31566 75.914848 222.51813
128.00931 76.106865 221.62677
128.42448 75.920639 222.67804
128.9787 75.923447 222.75581
129.53279 75.926178 222.83217
130.34573 76.306946 220.96028
130.76765 76.120514 222.00684
131.31897 76.123062 222.07857
131.74791 75.936531 223.12325
132.42122 76.12796 222.21783
132.85478 75.941345 223.26025
133.40805 75.943665 223.32664
133.96121 75.945923 223.3916
134.73459 76.32605 221.50357
135.28271 76.328178 221.56519
135.83075 76.330246 221.6254
136.48161 76.521194 220.70764
137.12755 76.712067 219.78798
137.37624 76.147217 222.77475
137.92633 76.149078 222.82965
138.47633 76.150871 222.88318
138.84456 75.774841 224.89087
139.48767 75.965439 223.96404
140.12589 76.15596 223.03539
140.6756 76.157562 223.08333
141.30643 76.347961 222.15129
141.85358 76.349442 222.1963
142.40067 76.350868 222.23993
142.79974 75.974556 224.24063
143.35152 75.975891 224.28191
143.90324 75.977188 224.32178
144.58841 76.356079 222.40079
145.07086 76.168427 223.4175
145.68195 76.358383 222.47305
146.10959 75.981827 224.46754
146.60394 75.79406 225.4809
146.99365 75.228645 228.45412
147.55466 75.229599 228.48491
148.11562 75.230507 228.51433
148.67654 75.231361 228.54234
149.32758 75.609756 226.60698
149.88361 75.610504 226.632
150.43962 75.611206 226.65562
151.03345 75.800644 225.69659
151.51608 75.423691 227.68015
152.04137 75.235489 228.68118
152.63271 75.424774 227.71796
153.16277 75.236465 228.7164
153.74925 75.425659 227.75023
154.3309 75.614807 226.78255
154.8447 75.237595 228.75877
155.42392 75.426636 227.78831
155.96593 75.238106 228.78012
156.51273 75.049515 229.77068
157.07573 75.049667 229.77789
157.65668 75.427277 227.81981
158.20169 75.049789 229.78824
158.76051 74.861038 230.77332
159.32767 75.049744 229.793
159.89001 75.238403 228.81126
160.45364 75.0495 229.79221
161.00574 75.426834 227.82573
161.5482 75.804123 225.85789
162.10159 75.803833 225.85275
162.68036 75.425972 227.8101
163.22351 75.614365 226.82022
163.79684 75.425171 227.79279
164.43468 74.669601 231.70935
165.00259 74.669075 231.69704
165.59525 74.479713 232.66507
166.16562 74.479095 232.64986
166.76553 74.289627 233.61485
167.2426 74.855255 230.6523
167.84259 74.665695 231.61447
168.37393 74.853668 230.61241
168.93967 74.852798 230.59038
169.50542 74.851883 230.56694
170.07123 74.850922 230.54207
170.54433 75.227524 228.554
171.10539 75.226471 228.52658
171.66652 75.225365 228.49777
172.22769 75.224213 228.46754
172.84491 75.03418 229.41638
173.52542 74.655258 231.34378
174.09398 74.653931 231.30894
174.72583 74.463715 232.25264
175.36256 74.27343 233.19464
175.86807 74.4608 232.17557
176.4393 74.459259 232.1349
177.08347 74.268799 233.07208
177.43138 74.833786 230.09103
177.9203 75.020988 229.06752
178.32437 75.397049 227.06422
178.8839 75.395287 227.0174
179.35858 75.582367 225.99088
180.17789 75.013763 228.87572
180.83224 74.822891 229.80211
181.58368 74.443024 231.70427
182.25029 74.251999 232.62665
183.01881 73.871948 234.52431
183.69769 73.680763 235.44258
184.48331 73.300529 237.33557
185.07022 73.298164 237.27318
185.87054 72.917755 239.16167
186.46251 72.915245 239.09575
187.0546 72.912674 239.02834
187.53288 73.099052 237.98409
188.23911 72.907333 238.88898
188.59406 73.282669 236.86748
189.18179 73.279861 236.7946
189.64609 73.466064 235.74608
190.23164 73.46315 235.67044
190.68895 73.649246 234.61986
191.27237 73.646217 234.54155
192.12247 73.264877 236.40752
192.71101 73.261688 236.3255
193.57593 72.88015 238.18637
194.31017 72.687637 239.07246
195.04941 72.495026 239.9563
195.5029 72.680687 238.8956
195.95171 72.866302 237.83408
196.24561 73.241104 235.80136
196.83528 73.237419 235.7086
197.27003 73.422913 234.64467
197.54262 73.797623 232.61079
198.28548 73.604507 233.48334
199.03337 73.411278 234.35355
199.45673 73.596558 233.28543
200.54433 73.024498 236.08682
201.64671 72.452255 238.88408
202.2476 72.447906 238.77705
203.19777 72.064743 240.60091
204.15788 71.681412 242.42139
204.58977 71.866173 241.34232
205.017 72.050888 240.26251
205.80811 71.856659 241.11084
206.23093 72.041252 240.02866
206.83824 72.036308 239.90926
207.82898 71.652252 241.71422
208.24763 71.836632 240.62798
209.0546 71.641853 241.4651
209.66779 71.63652 241.33801
210.07986 71.820709 240.2482
210.69113 71.815216 240.11826
211.09642 71.99929 239.02664
211.91447 71.803993 239.8532
212.52655 71.798248 239.71808
213.35251 71.602692 240.53958
214.39969 71.21727 242.31602
215.45697 70.831665 244.08847
216.08249 70.825417 243.94363
216.70828 70.819092 243.79698
217.10854 71.002487 242.69308
217.27588 71.37571 240.63364
217.89526 71.369171 240.4834
218.51495 71.362526 240.33136
219.13498 71.355789 240.17755
219.75534 71.348953 240.02191
220.37604 71.342026 239.8645
220.99707 71.334999 239.70523
221.86401 71.137825 240.49472
222.48822 71.130569 240.33118
223.86423 70.552902 243.01357
225.25543 69.974953 245.69017
226.15097 69.777061 246.46497
226.79391 69.769203 246.28922
227.69766 69.571007 247.05815
228.34389 69.562912 246.87787
228.99051 69.55471 246.6956
229.10193 69.927048 244.62242
229.74438 69.918701 244.43767
230.38727 69.910263 244.25092
230.75529 70.092133 243.11989
231.952 69.702621 244.81311
232.31837 69.884323 243.67883
233.24564 69.684952 244.42424
233.8931 69.67598 244.22678
234.54099 69.666901 244.02727
235.18932 69.65773 243.82571
236.13077 69.457794 244.55914
236.4873 69.639084 243.4165
237.43463 69.438904 244.14418
238.38741 69.238541 244.86819
238.43759 69.610428 242.78709
239.39377 69.409851 243.5061
240.35541 69.209106 244.22134
240.70212 69.390045 243.07018
241.35698 69.38002 242.84901
241.69708 69.560905 241.69612
242.35034 69.550751 241.47154
242.68378 69.731606 240.31694
243.01266 69.91246 239.16196
244.31277 69.519875 240.78485
245.95123 68.935867 243.32721
247.2749 68.542786 244.93765
248.60913 68.149483 246.54224
250.28928 67.564651 249.06335
250.63344 67.744942 247.89053
251.65381 67.542496 248.55841
251.65082 67.91423 246.4632
253.36555 67.32869 248.96295
253.35582 67.700493 246.86601
254.38799 67.497757 247.52084
255.07254 67.486519 247.25563
255.75748 67.475281 246.98811
255.72647 67.847412 244.89072
256.76776 67.644547 245.53328
257.08795 67.82515 244.34799
258.13498 67.622238 244.98389
259.18738 67.419289 245.61537
260.24512 67.216309 246.24242
262.05505 66.629425 248.68024
263.88052 66.042374 251.10933
264.20743 66.223251 249.90776
264.52945 66.404282 248.70599
265.61371 66.201324 249.31059
265.15863 66.766953 246.30183
265.4657 66.948608 245.09953
265.76776 67.130508 243.89709
68.845108 75.235809 208.87199
69.434448 75.244125 209.12921
70.797188 75.631607 207.57944
69.844688 74.882172 211.44501
70.820564 75.08036 210.79381
71.412163 75.089157 211.04422
71.250526 74.719315 213.10631
70.724854 74.160362 216.07854
70.957176 73.980286 217.23715
70.825424 73.611084 219.30579
71.436394 73.620514 219.55444
72.410988 73.819145 218.88902
73.380249 74.017731 218.21948
74.344154 74.21624 217.5459
75.658997 74.603745 215.95319
76.963417 74.991089 214.35446
77.554962 75.000328 214.58388
78.494896 75.198494 213.89328
78.737099 75.018768 215.0367
79.671303 75.21682 214.34021
79.576759 74.84832 216.40242
80.846336 75.235046 214.77922
81.097237 75.055374 215.91849
82.019928 75.253128 215.21036
82.606171 75.2621 215.423
83.192047 75.271027 215.6337
83.777534 75.279907 215.84247
84.68615 75.477264 215.12206
85.268372 75.485992 215.32607
86.168701 75.683128 214.59917
87.063629 75.880127 213.86865
87.32621 75.70018 214.99599
88.837326 76.273697 212.39685
89.407608 76.281937 212.58806
90.283501 76.478409 211.84416
91.154015 76.674728 211.09682
92.320152 77.05912 209.41113
92.281982 76.690567 211.46313
92.845398 76.698364 211.64362
93.114944 76.517975 212.75958
93.098099 76.14949 214.81339
93.090828 75.781067 216.86852
93.951263 75.976723 216.10614
94.522804 75.984253 216.28081
95.093987 75.991699 216.45369
95.664795 75.999062 216.62483
96.511353 76.194221 215.85164
97.078987 76.201385 216.01849
98.188553 76.584091 214.29561
99.019211 76.778809 213.51285
99.844582 76.973381 212.72696
100.40094 76.980072 212.88417
100.69572 76.798981 213.9865
101.25389 76.805527 214.14105
101.55542 76.624344 215.24211
101.60771 76.255508 217.29173
102.17234 76.261887 217.44324
102.48772 76.080612 218.54327
102.80772 75.8993 219.64296
103.37633 75.905472 219.79077
104.42771 76.286514 218.03273
104.51265 75.917542 220.08142
105.5536 76.298309 218.31758
106.11611 76.304077 218.45755
106.91005 76.497147 217.64133
107.69879 76.690079 216.82231
108.93597 77.257553 214.089
109.26076 77.075562 215.17595
110.03398 77.268097 214.34865
110.80206 77.46051 213.51866
111.34798 77.465561 213.64404
111.46453 77.0961 215.68507
112.22696 77.288223 214.84933
112.35526 76.918716 216.89005
112.49309 76.54921 218.93135
113.05003 76.55397 219.05173
113.60674 76.558655 219.17056
113.76341 76.189087 221.21141
114.71945 76.567795 219.40359
115.27548 76.572243 219.51782
116.02388 76.763641 218.66725
116.76719 76.954941 217.81415
117.50542 77.146133 216.95857
118.0533 77.150223 217.06531
118.60098 77.154251 217.17056
118.78766 76.784325 219.20564
119.33983 76.788239 219.30885
119.8918 76.792084 219.41055
120.27048 76.608963 220.47778
120.99521 76.799561 219.60953
121.7149 76.990051 218.73892
122.26373 76.993599 218.83432
122.64899 76.810249 219.89697
123.19992 76.813675 219.98984
123.90923 77.003845 219.11172
124.4574 77.007126 219.20131
125.31281 77.383881 217.3488
125.70456 77.200241 218.4054
126.3987 77.390053 217.51924
126.94142 77.393051 217.60231
127.48401 77.395981 217.68396
127.60173 76.838753 220.68066
128.15131 76.841599 220.76054
128.42728 76.471031 222.78473
128.84711 76.287109 223.83565
129.53546 76.476471 222.93872
130.34831 76.852371 221.06586
130.89726 76.854919 221.13864
131.44609 76.857407 221.20999
131.75034 76.48661 223.22955
132.30377 76.488998 223.29872
132.7397 76.304741 224.34186
133.41031 76.493599 223.43279
133.85085 76.30925 224.47365
134.73671 76.871094 221.60867
135.28479 76.873184 221.67023
135.93808 77.061752 220.75362
136.58647 77.250252 219.83505
137.12944 77.252151 219.89192
137.47617 76.880981 221.90251
137.92813 76.696274 222.93492
138.29158 76.325043 224.94443
138.84628 76.326782 224.99695
139.40089 76.328461 225.04807
140.04146 76.516556 224.11914
140.76074 76.891068 222.20946
141.47031 77.265495 220.29762
141.93381 77.080475 221.32149
142.55481 77.268318 220.38541
142.94902 76.896759 222.38663
143.42438 76.711624 223.40735
143.90448 76.526443 224.42703
144.52284 76.714088 223.48532
145.00766 76.528824 224.50262
145.62109 76.716354 223.55782
146.11064 76.530998 224.57269
146.60493 76.345612 225.58646
147.04932 75.97377 227.58012
147.60786 75.974701 227.61075
148.11649 75.789185 228.62122
148.67735 75.790024 228.64919
149.32834 76.163605 226.71291
149.88432 76.164337 226.73792
150.48055 76.35141 225.77986
151.03406 76.352051 225.802
151.55211 76.166267 226.8046
152.07494 75.980438 227.80605
152.63319 75.980934 227.82423
153.19142 75.9814 227.84103
153.74963 75.981812 227.85648
154.30783 75.98217 227.87054
154.82399 75.609756 229.84772
155.40556 75.796394 228.87683
155.94994 75.61026 229.86914
156.4991 75.424072 230.86015
157.06445 75.42421 230.86742
157.63878 75.610657 229.89087
158.19514 75.424332 230.87779
158.76048 75.424332 230.88089
159.32759 75.610641 229.90009
159.88924 75.983276 227.93544
160.45042 75.796768 228.91682
161.00006 76.169312 226.94946
161.54008 76.541809 224.98074
162.10129 76.355171 225.95802
162.67999 75.982101 227.91631
163.22311 76.168106 226.92599
163.81387 75.794937 228.88135
164.45407 75.048965 232.7997
165.02435 75.048447 232.78735
165.64406 74.675125 234.73792
166.21919 74.6745 234.72264
166.79436 74.673828 234.70593
167.30571 75.045883 232.72388
167.8418 75.231522 231.72261
168.37311 75.417107 230.72014
168.93878 75.41626 230.6981
169.50449 75.415359 230.6747
170.02628 75.600822 229.66835
170.5433 75.78624 228.66089
171.05556 75.971619 227.65224
171.56303 76.156967 226.64243
172.11934 76.155838 226.61253
172.73169 75.968239 227.56207
173.46573 75.407715 230.47144
174.09265 75.219978 231.41736
174.72444 75.032181 232.36159
175.42676 74.657883 234.28432
175.93463 74.842865 233.26466
176.50821 74.841354 233.22385
177.00899 75.02626 232.20184
177.35448 75.584091 229.21964
177.84094 75.768936 228.19589
178.40274 75.767242 228.15031
178.88213 75.952011 227.12433
179.52661 75.763718 228.0549
180.35066 75.202324 230.94078
181.00978 75.013885 231.86722
181.67381 74.825363 232.79179
182.34277 74.636765 233.71448
183.11363 74.261559 235.61284
183.79485 74.072815 236.53137
184.48099 73.883987 237.44795
185.17207 73.695084 238.36252
185.97475 73.319519 240.25171
186.56906 73.317047 240.18559
187.16348 73.314514 240.11797
187.64415 73.498535 239.073
188.35272 73.309258 239.97816
188.71005 73.679825 237.95552
189.05785 74.050362 235.93256
189.64322 74.047562 235.85854
190.22873 74.044708 235.78302
190.68597 74.228462 234.73201
191.26933 74.225487 234.65378
192.11932 73.849022 236.52074
192.70782 73.845886 236.43883
193.43454 73.65596 237.32802
194.16628 73.465927 238.21503
194.90302 73.275803 239.09976
195.35403 73.459137 238.03905
195.94814 73.455643 237.94872
196.242 73.825691 235.91516
196.67896 74.008911 234.85201
197.11124 74.192078 233.78809
197.53883 74.375214 232.72343
198.28162 74.18457 233.59657
199.02942 73.99382 234.46735
199.61749 73.989876 234.36726
200.7074 73.425095 237.16975
201.47279 73.234009 238.0329
202.24326 73.042809 238.89359
203.19331 72.664536 240.71852
203.97638 72.473099 241.57375
204.40575 72.655556 240.49474
205.0123 72.65094 240.38043
205.61906 72.646255 240.26443
206.22606 72.641479 240.14679
206.8333 72.636627 240.02753
207.63234 72.444588 240.87006
208.04848 72.626671 239.78395
208.65645 72.621567 239.65968
209.46356 72.429214 240.49571
209.6718 72.798279 238.44464
210.27808 72.792946 238.31581
210.47217 73.161972 236.26448
211.28278 72.969246 237.09326
212.09854 72.776398 237.91925
212.91949 72.58342 238.74248
213.96164 72.202972 240.52112
215.01389 71.822342 242.29582
215.8553 71.628899 243.10936
216.25519 71.810089 242.00691
216.87628 71.803833 241.85977
217.04112 72.172348 239.80013
217.8887 71.978477 240.60542
218.5083 71.971954 240.45355
219.12823 71.965332 240.2999
219.27223 72.33371 238.23853
219.88791 72.32695 238.08249
220.26086 72.507706 236.97296
221.36578 72.125519 238.71609
222.23294 71.930786 239.50443
223.60631 71.360542 242.18912
224.99484 70.790016 244.86803
226.14319 70.40696 246.59261
226.78604 70.399231 246.41705
227.42929 70.391403 246.23958
228.33575 70.195633 247.00655
228.98227 70.187569 246.82448
228.82587 70.74308 243.80553
229.73601 70.546982 244.56593
230.37878 70.538681 244.37939
231.02197 70.530266 244.1909
232.22098 70.145714 245.88457
232.58978 70.325104 244.74924
233.23671 70.31636 244.55402
233.88406 70.307526 244.35677
234.53186 70.298584 244.15749
235.1801 70.289551 243.95616
236.41406 69.903961 245.62781
236.47787 70.271202 243.54735
237.42508 70.073586 244.27577
238.07758 70.064133 244.06541
238.12524 70.431351 241.98434
239.0788 70.233383 242.70491
240.03778 70.035263 243.42169
240.38196 70.213943 242.2711
240.72154 70.392616 241.12006
241.68694 70.194168 241.82881
242.3401 70.184158 241.60446
242.99371 70.174088 241.37794
243.6478 70.163925 241.14929
244.95282 69.776276 242.7717
245.94058 69.577148 243.46262
247.59441 69.00029 245.99916
248.26541 68.989639 245.7563
249.60751 68.601181 247.35718
250.62231 68.401428 248.03001
251.30222 68.390503 247.77756
251.29675 68.757538 245.68253
252.66333 68.368546 247.26579
252.64859 68.735672 245.16998
253.67563 68.535583 245.82756
254.70813 68.335396 246.48083
255.39053 68.32431 246.21457
255.71518 68.502472 245.03165
256.75641 68.30217 245.67496
256.7135 68.669769 243.57712
258.12369 68.280075 245.12605
259.54437 67.890266 246.66852
260.23383 67.879234 246.38611
262.41705 67.110306 249.73384
264.24503 66.53064 252.16371
264.19614 66.898666 250.05479
264.89929 66.887726 249.75758
265.98618 66.687241 250.36185
265.14777 67.435242 246.44788
265.45502 67.614502 245.24522
265.75726 67.793991 244.04243
69.2453 75.990234 208.09348
70.221436 76.185577 207.44749
71.192451 76.380974 206.79738
70.621803 75.828278 209.75963
70.829468 75.649887 210.91602
71.800201 75.845596 210.25996
71.636162 75.48053 212.32185
70.360176 74.555023 217.11125
70.595139 74.377357 218.27122
70.834938 74.199814 219.43124
71.079575 74.022377 220.59126
71.329033 73.845062 221.75122
73.028442 74.414597 219.2569
73.636101 74.423958 219.49814
74.955917 74.806557 217.90619
76.265305 75.188995 216.30823
77.213089 75.38475 215.62183
78.50412 75.766891 214.013
78.746353 75.589508 215.15671
79.680489 75.785004 214.4595
79.927063 75.607635 215.60117
81.194 75.989334 213.97578
81.442383 75.811943 215.11444
82.362465 76.007111 214.40468
82.946144 76.01593 214.6162
83.529449 76.024696 214.82579
84.112373 76.033417 215.03343
84.694916 76.042068 215.23917
85.277069 76.050674 215.44299
86.177292 76.245255 214.71539
87.072128 76.439697 213.98416
87.648117 76.448029 214.18056
89.15654 77.014084 211.5789
89.724258 77.022179 211.76906
90.597534 77.216049 211.02367
91.161995 77.223961 211.20935
92.027031 77.417587 210.45786
92.289803 77.239563 211.5753
92.853142 77.247238 211.7556
93.122643 77.069153 212.87187
93.105782 76.705414 214.92647
93.386993 76.527336 216.04308
93.958809 76.534821 216.21936
94.246742 76.356682 217.33469
95.101349 76.549561 216.56656
95.393524 76.371315 217.67986
95.690292 76.193039 218.79286
96.265259 76.200172 218.96176
97.653244 76.763412 216.29535
98.757385 77.141022 214.56813
99.85128 77.518433 212.83636
100.40755 77.525009 212.99339
100.70227 77.346222 214.09607
101.26035 77.352661 214.25046
101.30554 76.988556 216.30054
101.36028 76.624489 218.35162
101.92726 76.630783 218.50366
102.24506 76.451843 219.60469
102.81389 76.457993 219.75401
103.38241 76.46405 219.90169
104.19214 76.65509 219.09511
104.04044 76.105835 222.09846
105.32277 76.666733 219.38092
105.88765 76.672424 219.52136
106.68393 76.862999 218.70515
107.47502 77.053444 217.88611
108.71449 77.613586 215.15182
109.266 77.618835 215.2829
109.81725 77.623993 215.41238
110.8071 77.998779 213.62437
111.13596 77.818909 214.70818
111.25492 77.454208 216.75058
112.0197 77.643852 215.91478
112.56969 77.648621 216.03653
112.70505 77.283829 218.07814
113.25947 77.288483 218.19785
113.81364 77.29306 218.31606
114.16772 77.112885 219.39497
114.7239 77.117325 219.51062
115.27985 77.121696 219.62473
116.22072 77.495232 217.80981
116.77137 77.49942 217.91991
117.32181 77.503525 218.02853
118.05732 77.692139 217.17041
118.4221 77.511536 218.24124
118.61118 77.146362 220.2776
119.1657 77.150223 220.38116
119.72005 77.154007 220.48322
120.1011 76.973236 221.55128
120.6575 76.976906 221.6508
121.38196 77.164955 220.7805
121.76978 76.984032 221.8454
122.16228 76.80307 222.90965
122.72041 76.806473 223.00368
123.43691 76.994209 222.12624
123.99229 76.997467 222.21692
125.00857 77.553757 219.39381
125.70763 77.741196 218.50928
126.40169 77.928543 217.62256
127.09076 78.115799 216.73366
127.77485 78.302979 215.84261
127.8877 77.752876 218.8399
128.29323 77.571358 219.89198
128.70348 77.389801 220.94336
128.98412 77.023941 222.96764
129.66997 77.210831 222.06985
130.48032 77.581871 220.19568
130.89973 77.400131 221.24271
131.4485 77.402557 221.31403
131.87494 77.220734 222.35918
132.30609 77.038864 223.40352
132.85936 77.041153 223.47119
133.52748 77.227554 222.56131
133.96556 77.045547 223.60233
134.84892 77.600143 220.73564
135.50226 77.786331 219.81987
136.04536 77.788292 219.87947
136.48547 77.606087 220.91515
137.13129 77.792084 219.99449
137.37991 77.241547 222.98392
137.83424 77.059219 224.01698
138.2933 76.876862 225.04909
138.84796 76.878555 225.10158
139.49095 77.064285 224.17374
140.12904 77.249954 223.24408
140.76224 77.435547 222.31264
141.47174 77.805153 220.39981
141.9352 77.622498 221.4241
142.55615 77.807922 220.48753
142.95032 77.441132 222.48964
143.42563 77.258362 223.51077
143.83656 76.891525 225.51137
144.45728 77.076736 224.56934
145.07312 77.261902 223.62558
145.62216 77.262993 223.66112
146.17117 77.26403 223.6953
146.72012 77.265022 223.7281
147.05025 76.529922 227.68515
147.60875 76.530838 227.71576
148.16721 76.531708 227.745
148.67816 76.348526 228.75459
149.28401 76.533295 227.7993
149.88503 76.718018 226.84236
150.44093 76.718689 226.86597
150.99681 76.719315 226.88818
151.51723 76.535919 227.89133
152.07545 76.536453 227.91089
152.63367 76.536949 227.92906
153.19185 76.537399 227.94585
153.75002 76.537796 227.96129
154.33157 76.72213 226.99268
154.84529 76.354492 228.97072
155.42441 76.538727 227.9993
155.95013 76.171013 229.97482
156.49925 75.987213 230.96628
157.07594 76.17131 229.99069
157.63884 76.171402 229.99652
158.19516 75.987473 230.9839
158.75629 75.803505 231.96991
159.32751 76.171387 230.00577
159.89041 76.171295 230.00606
160.45636 75.987183 230.9879
161.01076 76.354935 229.01958
161.54768 76.906616 226.06705
162.101 76.906342 226.06187
162.66698 76.722046 227.03824
163.20764 76.90567 226.0475
163.79596 76.5373 228.00381
164.4138 75.984909 230.94128
164.97922 75.984406 230.92905
165.56935 75.799866 231.89807
166.16434 75.61528 232.86551
166.70512 75.798615 231.86649
167.20923 76.165894 229.88379
167.8067 75.981171 230.84698
168.29883 76.348381 228.86191
168.85963 76.347549 228.84009
169.42049 76.34668 228.81688
169.98137 76.345764 228.7923
170.49594 76.528809 227.7845
171.00574 76.711815 226.77553
171.51077 76.894783 225.76543
172.06462 76.893692 225.73566
172.73051 76.524483 227.66718
173.40608 76.155205 229.59674
174.15216 75.601822 232.50537
174.7863 75.416443 233.44991
175.3597 75.41507 233.41199
175.93317 75.413628 233.37265
176.43623 75.596222 232.35146
177.00742 75.594696 232.30942
177.42815 75.961273 230.30591
177.91698 76.143738 229.28157
178.48114 76.142082 229.23582
178.96289 76.324471 228.20923
179.60973 76.138611 229.14011
180.34879 75.768555 231.04817
180.91811 75.76667 230.99632
181.57967 75.580597 231.92162
182.3407 75.210327 233.82333
183.1115 74.839951 235.72267
183.69325 74.837799 235.66386
184.47873 74.467262 237.55881
185.06552 74.464989 237.49652
185.75905 74.278465 238.40985
186.23943 74.460251 237.36755
186.82655 74.457802 237.30078
187.29991 74.639503 236.2563
188.00116 74.452713 237.16281
188.3512 74.818558 235.1402
188.81284 75.000137 234.09267
189.26976 75.181671 233.04425
189.97391 74.994629 233.94449
190.42627 75.176071 232.89374
191.13553 74.988876 233.79034
192.11627 74.432983 236.63243
192.70468 74.429916 236.55057
193.43134 74.242447 237.44032
194.3035 73.870529 239.30064
195.04256 73.682861 240.18556
195.49594 73.863846 239.12408
195.94464 74.044792 238.0618
196.23846 74.410095 236.02739
196.67535 74.590973 234.96388
197.10759 74.77182 233.8996
197.53513 74.952614 232.83455
198.27782 74.76445 233.70824
199.18787 74.391701 235.5489
199.77831 74.387802 235.44855
200.70332 74.014816 237.28358
201.46863 73.826218 238.14728
202.06694 73.822052 238.04088
202.83995 73.633255 238.90009
203.79497 73.259766 240.72353
204.22185 73.439911 239.64464
204.82587 73.43541 239.53085
205.61436 73.246201 240.38084
206.03461 73.426163 239.29842
206.63933 73.421417 239.17973
207.62738 73.047203 240.9873
207.84947 73.411682 238.93739
208.4549 73.406693 238.81374
209.06059 73.401611 238.6884
209.46521 73.58123 237.59947
209.66144 73.945595 235.54846
210.05437 74.125153 234.45877
210.85997 73.934982 235.28922
211.67073 73.74469 236.11691
212.70021 73.369385 237.90111
213.95578 72.808998 240.64012
215.00787 72.433304 242.41591
215.84918 72.242386 243.23006
216.24899 72.421272 242.12726
216.6442 72.600113 241.02386
216.80653 72.963943 238.96399
217.88225 72.587578 240.72577
218.50175 72.581169 240.57405
219.1216 72.574661 240.42056
219.50366 72.753197 239.3118
220.36226 72.561371 240.10812
220.98309 72.554588 239.9492
221.3588 72.73291 238.83691
222.22583 72.540726 239.62589
223.84943 71.792587 243.26247
224.98734 71.414719 244.99274
225.88016 71.221954 245.76955
227.03613 70.843689 247.49133
227.68175 70.83596 247.31337
228.32776 70.828125 247.13345
228.97418 70.820198 246.9516
229.35324 70.997635 245.82228
229.72777 71.175034 244.69244
230.37044 71.166862 244.50612
230.73834 71.344162 243.37448
231.93469 70.96463 245.0701
232.58109 70.956131 244.87704
233.22794 70.947525 244.68204
234.16032 70.753136 245.42531
234.81052 70.744308 245.22546
235.46114 70.735382 245.02359
236.40482 70.540565 245.75764
236.7637 70.717247 244.61365
237.41566 70.708038 244.40558
238.06807 70.698738 244.1954
238.11572 71.061226 242.11357
239.06912 70.865845 242.83485
240.02802 70.670296 243.55237
240.68225 70.660637 243.33382
241.33693 70.650894 243.11311
241.99207 70.641083 242.89027
242.33002 70.817345 241.73553
242.66339 70.993607 240.5804
243.31488 70.983627 240.35286
244.61722 70.601028 241.9774
245.93008 70.218216 243.59616
247.25349 69.835159 245.20917
248.58742 69.451904 246.81625
250.60248 68.695549 250.26443
251.28694 68.684738 250.01266
251.97186 68.673866 249.75864
251.97148 69.036079 247.66089
252.99762 68.838608 248.32385
252.28958 69.574234 244.38878
253.66449 69.190079 245.96584
254.34393 69.179169 245.70309
255.3793 68.981506 246.35384
255.34592 69.344147 244.25583
256.38458 69.146439 244.90092
257.06552 69.135536 244.62888
258.47818 68.750809 246.17804
259.16486 68.739883 245.89928
260.22263 68.541985 246.52785
262.03244 67.969971 248.96928
263.48187 67.584869 250.49438
263.80652 67.76104 249.2933
264.88815 67.563065 249.90283
265.59158 67.552307 249.60345
265.52301 67.916138 247.49518
265.4444 68.280258 245.38893
266.13797 68.270035 245.08687
68.47023 76.185562 210.01634
69.840706 76.563156 208.46944
70.427704 76.571465 208.7233
70.246429 76.210709 210.78448
70.456757 76.034744 211.94229
71.430061 76.227966 211.28664
70.892235 75.683273 214.25832
70.369446 75.13887 217.23434
70.233093 74.77916 219.30463
70.475502 74.604004 220.46602
71.089066 74.613281 220.71532
71.702362 74.622597 220.96254
72.676636 74.816177 220.29361
73.645554 75.009689 219.62056
74.965294 75.387299 218.02737
76.274597 75.764755 216.42819
77.924591 76.326141 213.90501
79.21048 76.703224 212.293
79.101585 76.34407 214.35507
80.376686 76.720955 212.73528
80.959267 76.729782 212.95346
81.541473 76.738571 213.16971
81.451332 76.379593 215.23146
82.371338 76.572205 214.52098
82.624001 76.39711 215.65787
82.881294 76.222046 216.79463
83.469177 76.230713 217.00389
84.056686 76.239334 217.21117
84.964722 76.431519 216.48743
85.867348 76.623581 215.75999
86.448669 76.631927 215.95979
87.342995 76.823746 215.22601
88.542847 77.198929 213.55606
89.423897 77.390427 212.81432
90.299561 77.581787 212.06905
90.866447 77.589615 212.25537
92.034782 77.964081 210.56816
92.894341 78.155006 209.81259
93.156685 77.979202 210.92859
93.423653 77.803406 212.04436
93.695229 77.627579 213.15994
93.682953 77.268555 215.21512
93.966232 77.092728 216.33101
94.254105 76.916885 217.44666
94.827599 76.924133 217.61993
95.122192 76.748215 218.73428
95.697433 76.755318 218.90475
96.272316 76.762329 219.0735
97.389023 77.135208 217.35049
98.495483 77.507889 215.62285
99.325577 77.697449 214.8371
100.15038 77.886864 214.04823
100.7087 77.893272 214.20413
101.26672 77.899605 214.35832
101.0556 77.35743 217.35838
101.11276 76.998108 219.41093
101.93347 77.187073 218.61299
102.00233 76.827721 220.66548
102.57353 76.833786 220.81532
103.38837 77.022438 220.01106
104.19801 77.210953 219.20384
104.0463 76.668854 222.20847
105.32846 77.222397 219.48936
105.89325 77.227982 219.6297
106.45776 77.23349 219.76836
107.25121 77.421448 218.94931
108.71973 78.156784 215.25739
109.27116 78.161926 215.38832
110.04418 78.349457 214.55983
111.03146 78.719292 212.77023
111.57477 78.724136 212.89481
111.90332 78.546516 213.97739
112.44859 78.551231 214.09944
112.784 78.373512 215.18063
112.91688 78.013443 217.2225
113.46877 78.01799 217.3416
113.81815 77.840179 218.42136
114.37202 77.844589 218.53792
114.92567 77.84893 218.65295
115.47912 77.853203 218.76645
116.41743 78.221825 216.95001
117.15569 78.408104 216.09482
117.70119 78.412109 216.20233
118.43173 78.59819 215.34274
118.7916 78.419884 216.41299
118.79539 77.877289 219.41588
119.16948 77.698944 220.48592
119.72375 77.702667 220.58789
120.10476 77.524231 221.65628
120.66109 77.527832 221.75574
121.38547 77.713409 220.88487
121.93903 77.716843 220.98093
122.4924 77.72023 221.07552
123.04562 77.723541 221.16864
123.9157 78.090759 219.31943
124.46375 78.093918 219.40883
125.31897 78.46093 217.55434
125.86186 78.463928 217.64012
126.55344 78.648804 216.75247
127.09361 78.651672 216.83502
127.77763 78.836388 215.94344
128.03201 78.475327 217.96898
128.43507 78.296143 219.02109
128.84285 78.116928 220.07248
129.12103 77.755814 222.09727
129.67252 77.758377 222.1731
130.35335 77.942734 221.27271
130.77513 77.763336 222.32047
131.32625 77.765739 222.39201
131.87726 77.768082 222.46216
132.42816 77.770363 222.53088
132.97896 77.772598 222.59819
133.64459 77.956543 221.68752
134.19276 77.958649 221.75175
134.96109 78.324219 219.86029
135.71967 78.689713 217.96632
136.25787 78.69162 218.02531
136.79601 78.693481 218.08296
137.33405 78.695297 218.13924
137.67589 78.333618 220.15105
138.02728 77.971924 222.16246
138.295 77.428513 225.15234
138.84959 77.430168 225.20482
139.40411 77.431786 225.25584
140.13057 77.796707 223.34633
140.76372 77.979874 222.41438
141.55434 78.526321 219.52061
142.01534 78.346024 220.54512
142.55746 78.347366 220.58826
143.02556 78.166992 221.61064
143.42686 77.804939 223.61279
143.83775 77.442871 225.61424
144.39168 77.444031 225.65285
145.00987 77.626785 224.70877
145.56129 77.627853 224.74443
146.17216 77.810486 223.79715
146.77818 77.99308 222.84822
147.16055 77.449158 225.82507
147.66191 77.26844 226.83734
148.21791 77.269287 226.86642
148.67894 76.906876 228.85858
149.23969 76.907639 228.88515
149.84305 77.089935 227.92786
150.36107 76.909012 228.93407
150.95956 77.091217 227.97385
151.51778 77.091797 227.99475
152.10899 77.273911 227.03148
152.63412 77.092804 228.03247
153.22049 77.274826 227.06628
153.7762 77.275208 227.08165
154.35532 77.457138 226.1125
154.88757 77.275864 227.10823
155.44325 77.276123 227.11945
155.98271 77.094757 228.11258
156.51318 76.731781 230.08768
157.08743 76.913483 229.11159
157.64787 76.913574 229.1174
158.20831 76.913605 229.12186
158.76459 76.732025 230.10828
159.33096 77.095123 228.14322
159.88901 77.095032 228.14351
160.45314 76.731743 230.10919
161.0051 77.094711 228.14001
161.54744 77.457634 226.16949
162.10069 77.457367 226.16432
162.66664 77.275482 227.14113
163.20726 77.456696 226.14996
163.79552 77.09314 228.10718
164.4332 76.366356 232.02919
165.02327 76.184265 233.00005
165.61818 76.002136 233.96938
166.19081 76.001541 233.95415
166.73398 76.182495 232.95461
167.20851 76.726593 229.98811
167.73729 76.907471 228.98624
168.26129 77.088303 227.98314
168.81966 77.087502 227.96143
169.37805 77.086647 227.93835
169.93649 77.085754 227.91388
170.44861 77.266426 226.90576
170.95596 77.447067 225.89648
171.50972 77.44603 225.86815
172.00993 77.626587 224.85649
172.72934 77.080566 227.77083
173.40486 76.71611 229.70129
174.15086 76.169937 232.61133
174.78496 75.986992 233.55632
175.35831 75.985641 233.51843
175.93172 75.98423 233.47914
176.43475 76.164444 232.45755
176.93303 76.344635 231.43488
177.42657 76.524765 230.41118
177.99303 76.523193 230.3667
178.55956 76.521553 230.3208
178.96118 76.88327 228.31371
179.60796 76.699844 229.24507
180.25963 76.516342 230.17459
180.82649 76.514503 230.12303
181.66986 75.967415 233.00706
182.33868 75.783707 233.93073
183.01242 75.599922 234.85246
183.79048 75.234314 236.75056
184.57829 74.868607 238.64621
184.95903 75.229919 236.62814
185.7567 74.864059 238.51979
186.34607 74.86171 238.45432
186.8241 75.041092 237.41037
187.29739 75.220459 236.36545
187.99858 75.036118 237.27249
188.34859 75.397202 235.24904
188.81017 75.576431 234.20113
189.26704 75.75563 233.1523
