ply
format ascii 1.0
comment PCL generated
element vertex 1597
property float x
property float y
property float z
element camera 0
property float view_px
property float view_py
property float view_pz
property float x_axisx
property float x_axisy
property float x_axisz
property float y_axisx
property float y_axisy
property float y_axisz
property float z_axisx
property float z_axisy
property float z_axisz
property float focal
property float scalex
property float scaley
property float centerx
property float centery
property int viewportx
property int viewporty
property float k1
property float k2
end_header
142.67691 160.6832 218.44598
143.14113 160.86734 219.46747
143.61011 161.05154 220.48798
143.94531 161.6076 223.4677
144.16121 162.53551 228.4077
144.72342 162.53391 228.44563
145.28558 162.53238 228.48216
145.96695 162.15915 226.5558
146.75302 161.41426 222.66563
147.57455 160.4836 217.79193
148.26717 159.92479 214.87787
148.89528 159.55193 212.94301
149.41858 159.55087 212.96921
149.94183 159.54987 212.99414
150.50781 159.36307 212.03609
151.02859 159.3622 212.0583
151.66312 158.80385 209.13365
152.24763 158.43141 207.1891
152.82248 158.05905 205.24297
153.35698 157.87259 204.27734
153.88664 157.6862 203.31033
154.41145 157.49985 202.34192
154.90797 157.49939 202.35448
155.48868 156.75571 198.43637
155.97552 156.75537 198.44627
156.46237 156.75508 198.45497
156.96303 156.56903 197.47997
157.45885 156.38303 196.50369
157.91386 156.94034 199.45636
158.41628 156.56863 197.49512
158.89651 156.75443 198.48036
159.37979 157.12608 200.44701
159.8708 156.94035 199.46469
160.36003 156.94049 199.46371
160.85474 157.1265 200.44414
161.33853 156.94092 199.45821
161.82779 156.94122 199.45363
162.34245 157.3132 201.41284
162.85167 157.49942 202.38824
163.33069 157.31407 201.39749
163.84474 157.50041 202.37036
164.29665 157.12932 200.3949
164.76367 156.94411 199.40076
165.14441 156.20143 195.45886
165.65375 156.38797 196.42702
166.13594 156.38873 196.41174
166.65256 156.57541 197.37727
167.10043 156.39043 196.37764
167.62193 156.57721 197.34059
168.10666 156.57819 197.32045
168.50336 156.2075 195.33594
168.93689 156.02271 194.33214
169.46336 156.20972 195.29008
169.89215 156.02502 194.28413
170.31616 155.84038 193.27725
170.73538 155.65576 192.26944
171.26686 155.843 193.22237
171.68135 155.65849 192.21248
172.09106 155.47403 191.20172
172.62752 155.66144 192.1508
173.16885 155.84894 193.0984
173.64449 155.85056 193.06442
174.12018 155.85222 193.02924
174.52052 155.668 192.01323
174.99393 155.66977 191.97585
175.46739 155.67162 191.9373
175.94092 155.67351 191.89755
176.32945 155.48946 190.87773
176.8007 155.49147 190.83585
177.27203 155.49353 190.79272
177.65111 155.3096 189.7702
178.12018 155.31177 189.72495
178.49216 155.12794 188.70076
178.95895 155.13022 188.65335
179.22185 154.76039 186.6503
179.78841 154.94885 187.57802
180.14621 154.7652 186.5506
180.71779 154.9538 187.47542
181.07092 154.77023 186.44618
181.53343 154.77283 186.39218
181.99602 154.7755 186.33701
182.45871 154.77823 186.28062
182.80014 154.59485 185.24806
183.26062 154.59769 185.18964
183.97363 154.97302 187.07872
184.43918 154.97603 187.01727
185.03589 155.16534 187.92831
185.63757 155.35475 188.83748
186.10831 155.35797 188.77171
186.30247 154.98869 186.75929
186.90938 155.17834 187.66412
187.52127 155.36809 188.56702
187.84688 155.18524 187.52469
188.46388 155.37517 188.42436
188.78491 155.19243 187.38033
189.25412 155.19612 187.30626
189.41278 154.82706 185.29077
189.87741 154.83084 185.21501
190.66264 155.20764 187.07666
191.45775 155.58461 188.93542
192.09767 155.77522 189.82281
192.91014 156.15248 191.67613
193.39259 156.1568 191.59119
193.70282 155.97461 190.53772
194.18317 155.97906 190.45061
194.84097 156.17023 191.32852
195.32413 156.17487 191.23836
195.80743 156.17957 191.14687
196.29095 156.18437 191.05409
196.9617 156.37596 191.92441
197.44803 156.38095 191.82849
197.93456 156.38602 191.73123
198.42128 156.39117 191.63261
199.10504 156.58324 192.49515
199.39536 156.40173 191.43137
199.88269 156.40717 191.32872
200.37027 156.41266 191.22472
200.85803 156.41824 191.11931
201.34604 156.42392 191.01257
201.83427 156.42969 190.90446
202.32274 156.43555 190.79495
202.81143 156.4415 190.68407
203.30035 156.44754 190.57178
204.01088 156.64078 191.41519
204.50276 156.64702 191.29953
205.44743 157.02771 193.0943
206.17348 157.22142 193.92995
206.67351 157.22806 193.80824
207.64113 157.60931 195.59331
208.14664 157.61621 195.46745
208.6524 157.62321 195.34015
209.15846 157.63031 195.21133
209.66483 157.63751 195.08104
210.17145 157.64481 194.94923
210.92685 157.83969 195.76627
211.43655 157.84723 195.63078
212.19998 158.04242 196.44279
212.96869 158.23779 197.25192
213.74265 158.43335 198.05815
214.26103 158.44141 197.91447
214.77972 158.44958 197.76923
215.56459 158.64561 198.56798
216.08644 158.65404 198.41884
216.33783 158.47476 197.32397
217.13115 158.67122 198.11578
217.37823 158.49207 197.01913
218.45551 158.87677 198.74815
218.70081 158.69778 197.64902
219.22473 158.70685 197.49013
219.74901 158.71603 197.32962
220.5619 158.91344 198.10635
220.5079 158.54654 196.06552
221.32402 158.74419 196.83812
222.14552 158.94205 197.60747
222.97241 159.14009 198.37352
223.80467 159.33833 199.13623
224.94562 159.72517 200.82968
225.4854 159.73541 200.65154
226.33388 159.93425 201.40408
227.18777 160.13329 202.15315
228.04709 160.33252 202.89876
229.22768 160.7206 204.57069
230.10037 160.92026 205.30832
231.29938 161.30887 206.97047
231.86206 161.32021 206.77277
232.75108 161.52046 207.49951
233.64555 161.72092 208.22256
235.53848 162.4884 211.71547
238.11908 163.63438 217.04625
240.73048 164.78107 222.36395
242.6955 165.55028 225.82492
245.02234 166.50914 230.19699
247.37495 167.46863 234.55743
249.40717 168.23944 237.98718
251.80885 169.20009 242.32481
253.88509 169.97197 245.73347
254.92058 170.17606 246.38416
255.60516 170.19083 246.11552
255.93123 170.0161 244.93062
255.8911 169.6517 242.83249
256.93317 169.85606 243.47174
258.71384 170.43994 245.92824
259.77185 170.64465 246.55653
261.20697 171.03929 248.08914
262.65259 171.43413 249.61508
263.3551 171.44931 249.32109
262.91983 170.89453 246.30806
263.99701 171.0995 246.91696
263.54166 170.54416 243.90785
262.68408 169.79828 240.00072
262.97488 169.62247 238.80359
264.8291 170.20744 241.20648
70.978249 162.73419 203.23351
72.334534 162.33749 201.68581
72.517654 162.51822 202.83621
71.935616 163.08353 205.79208
72.516472 163.07144 206.04152
73.097229 163.05928 206.28899
73.300385 163.2393 207.44034
73.883408 163.22699 207.68492
74.093887 163.40678 208.83549
75.048897 163.20233 208.16815
75.998627 162.99796 207.49669
76.213539 163.1776 208.64339
76.795494 163.16524 208.87801
78.096504 162.76921 207.28436
78.672821 162.75699 207.51299
79.248856 162.74481 207.73965
79.824577 162.73267 207.96437
80.050468 162.91219 209.10422
80.281113 163.09164 210.24403
80.860931 163.07953 210.46478
81.440384 163.06749 210.68358
82.358887 162.86407 209.97943
83.608841 162.46947 208.34955
84.848328 162.07513 206.71399
86.077347 161.68109 205.07285
85.978752 162.05219 207.12479
87.196938 161.65851 205.47624
87.75618 161.64734 205.67513
88.315056 161.63625 205.87216
88.554329 161.81627 206.99556
89.748367 161.42339 205.33156
89.675217 161.79446 207.38211
90.546753 161.59283 206.64183
91.103745 161.58223 206.82965
91.96701 161.38094 206.08318
92.520729 161.37057 206.26656
93.074066 161.36032 206.44817
93.627037 161.35016 206.62798
93.586327 161.7213 208.67757
94.143539 161.71126 208.85542
94.700386 161.70134 209.03152
95.546021 161.50107 208.26772
95.526299 161.87224 210.31735
96.937057 161.29149 207.66986
97.769135 161.09177 206.897
98.316681 161.08252 207.06207
98.863892 161.07338 207.22545
99.959183 160.68396 205.5018
100.50072 160.67513 205.66035
100.23413 161.23676 208.64958
100.78244 161.22803 208.80692
101.5947 161.02936 208.01707
102.40167 160.83089 207.22417
102.68469 161.01253 208.32204
103.48605 160.81435 207.52446
103.77338 160.99612 208.62044
103.8134 161.3678 210.66508
104.61134 161.16998 209.86194
104.91008 161.35193 210.95636
105.21346 161.53389 212.05045
106.2476 161.14676 210.2896
106.79242 161.13922 210.42891
107.33694 161.13181 210.56667
108.11584 160.93489 209.7494
108.88953 160.73813 208.92935
109.65802 160.54153 208.10652
110.19405 160.53464 208.23615
110.95462 160.33835 207.40845
111.04294 160.7106 209.44719
112.02043 160.32513 207.65891
112.33551 160.50806 208.73935
112.87025 160.50166 208.86131
113.40474 160.49536 208.9818
114.14908 160.29987 208.14157
114.88828 160.10452 207.29878
115.41716 160.09856 207.41365
115.74306 160.28194 208.48785
116.47423 160.08696 207.63902
117.00244 160.0813 207.7495
116.94418 160.64317 210.74545
117.47929 160.63762 210.85449
118.20472 160.44305 209.99875
118.73697 160.43771 210.10437
119.08337 160.62152 211.17279
119.61766 160.61633 211.27599
120.33252 160.42224 210.41251
120.86398 160.41727 210.51233
121.04348 160.79028 212.54291
121.57944 160.78543 212.64075
122.45728 160.40286 210.80316
123.1566 160.20932 209.92982
123.68474 160.2048 210.02206
124.54015 159.82266 208.17635
124.90179 160.00717 209.2336
125.26814 160.19173 210.2903
125.79562 160.18753 210.37689
126.47694 159.99466 209.49225
126.85013 160.1794 210.54591
127.52629 159.98671 209.65771
127.90405 160.17157 210.70937
128.43079 160.16779 210.78903
128.53183 160.73012 213.78252
128.92615 160.91508 214.83253
129.46219 160.91147 214.90947
130.26726 160.53065 213.0394
130.53387 160.90445 215.05908
131.32901 160.52385 213.18491
131.8597 160.52057 213.25562
132.26538 160.70592 214.29901
132.6758 160.89133 215.34166
133.45107 160.51114 213.45944
133.86368 160.69666 214.49963
134.51143 160.50522 213.5885
134.92868 160.69087 214.62659
135.57138 160.49957 213.71213
135.99327 160.68535 214.74803
136.63094 160.49423 213.83034
136.95438 160.86856 215.8407
137.48875 160.86604 215.89694
137.92477 161.05202 216.92897
138.55725 160.86121 216.00534
138.90453 161.2357 218.01276
139.71645 160.66823 215.13043
140.33661 160.47766 214.20158
140.6933 160.85233 216.20586
141.14336 161.03864 217.23112
141.76086 160.84828 216.29803
142.29456 160.84636 216.34209
142.82817 160.84451 216.38483
143.36172 160.84271 216.42619
143.82352 161.02931 217.44574
144.15152 161.59262 220.4236
144.29333 162.72087 226.34059
144.72188 163.09589 228.33827
145.22206 163.28264 229.355
145.90591 162.90456 227.42973
146.63727 162.33827 224.522
147.46371 161.39552 219.65091
148.16122 160.82944 216.73851
148.69427 160.82828 216.76657
149.22728 160.82718 216.79329
149.85056 160.44962 214.85651
150.42142 160.26039 213.89917
150.98743 160.07123 212.94031
151.62442 159.50563 210.01715
152.24692 158.94011 207.09216
152.78873 158.75116 206.12851
153.3257 158.56229 205.16344
153.88611 158.18521 203.21526
154.41098 157.99646 202.24734
154.90756 157.996 202.25992
155.46727 157.43089 199.32553
155.97522 157.24231 198.35355
156.44589 157.43024 199.34424
156.9352 157.43001 199.35178
157.43588 157.24158 198.37602
157.91377 157.42969 199.36319
158.41623 157.05315 197.40288
158.89651 157.24135 198.38766
159.38162 157.4296 199.37125
159.87027 157.24147 198.3894
160.3602 157.42982 199.37057
160.85497 157.61824 200.35052
161.34668 157.61848 200.34712
161.83839 157.61879 200.34253
162.34283 157.80737 201.31874
162.8521 157.99602 202.29367
163.31364 157.62003 200.32141
163.80544 157.62054 200.31192
164.2749 157.43286 199.31937
164.73956 157.24525 198.32571
165.1451 156.68118 195.36746
165.65448 156.87016 196.33514
166.16872 157.05919 197.30145
166.65341 157.06003 197.2849
167.10132 156.87265 196.28572
167.62288 157.06186 197.2482
168.06604 156.87459 196.2468
168.46037 156.49908 194.26329
168.89154 156.31189 193.26004
169.36679 156.31305 193.23672
169.84209 156.31424 193.21223
170.31741 156.31549 193.18655
170.73669 156.12849 192.17917
171.2097 156.12985 192.15128
171.68277 156.13127 192.12218
172.15588 156.13274 192.0919
172.62904 156.13426 192.06044
173.23862 156.51254 193.98724
173.78731 156.70255 194.93265
174.19489 156.5159 193.91769
174.59769 156.3293 192.9019
175.07356 156.33112 192.86432
175.38899 155.95621 190.8679
175.86017 155.95813 190.82832
176.24634 155.7717 189.80916
176.80273 155.96214 190.74561
177.27411 155.96423 190.70242
177.65324 155.77794 189.68033
178.21712 155.9686 190.61253
178.59157 155.78239 189.58852
179.06085 155.78471 189.54082
179.42821 155.59862 188.51518
179.89523 155.60104 188.46535
180.14865 155.2265 186.46185
180.72031 155.41756 187.38614
181.07349 155.23163 186.35732
181.53606 155.23427 186.30327
182.11525 155.42555 187.22314
182.58043 155.42834 187.16643
182.92432 155.24261 186.134
183.38728 155.24551 186.07518
184.10281 155.62575 187.96297
184.57085 155.62881 187.90112
185.17007 155.82062 188.81131
185.77426 156.0125 189.7196
186.11156 155.8271 188.68083
186.30576 155.45303 186.6693
186.91275 155.64516 187.57359
187.52472 155.83737 188.47594
187.85039 155.65218 187.43401
188.3194 155.65579 187.36237
188.78854 155.65947 187.28947
189.25784 155.66324 187.21535
189.5719 155.47821 186.17035
190.19684 155.67096 187.06339
190.82681 155.86383 187.95435
191.62447 156.24573 189.81171
192.26691 156.43883 190.69807
192.5793 156.25418 189.64719
193.05695 156.25851 189.56299
193.36237 156.07394 188.5108
193.83792 156.07843 188.4245
194.31363 156.08298 188.33688
194.96928 156.27669 189.21338
195.62999 156.47052 190.08765
196.11115 156.47537 189.99522
196.77954 156.66943 190.86543
197.2635 156.67447 190.76988
197.93964 156.86879 191.636
198.42645 156.87404 191.53731
198.91345 156.87935 191.43723
199.40068 156.88477 191.33583
199.88811 156.89026 191.23305
200.37576 156.89584 191.12892
200.86362 156.90152 191.02341
201.56082 157.09668 191.87595
202.05161 157.10255 191.76715
202.32858 156.9191 190.69868
203.03384 157.11461 191.54541
203.52531 157.12076 191.43243
204.01703 157.12701 191.31805
204.509 157.13338 191.20229
205.45384 157.51901 192.99593
206.18002 157.71527 193.83098
206.91136 157.91165 194.66333
207.64792 158.10823 195.49306
208.15352 158.11523 195.36708
208.42076 157.93257 194.2872
208.68335 157.74994 193.20712
209.18484 157.75717 193.07794
209.93268 157.95438 193.89777
210.18872 157.77194 192.81512
210.94209 157.96944 193.63066
211.44724 157.97711 193.49483
212.20865 158.17493 194.30531
212.97531 158.37291 195.11292
213.74725 158.57108 195.9176
214.52449 158.76944 196.71936
215.57288 159.15817 198.46317
216.09483 159.16672 198.31387
216.34627 158.98511 197.21933
217.13974 159.18414 198.01045
217.66272 159.19301 197.85631
218.18604 159.20198 197.70053
218.70972 159.21107 197.54314
219.23375 159.22028 197.38408
219.75812 159.22957 197.22337
220.28287 159.23898 197.06102
220.51718 159.05788 195.95938
221.33345 159.25812 196.73129
221.85928 159.26782 196.56387
222.68381 159.46841 197.33002
223.81453 159.85999 199.02725
225.259 160.4427 201.65305
225.80139 160.45313 201.47386
226.65253 160.6546 202.22484
227.81995 161.04727 203.90343
228.99782 161.44023 205.57678
229.87025 161.6424 206.31551
230.42972 161.65361 206.12219
231.63144 162.04732 207.78221
232.19673 162.05884 207.58337
233.08841 162.26175 208.30847
234.64258 162.84753 210.87968
236.54338 163.62514 214.36751
239.13196 164.78615 219.69215
241.41525 165.75639 224.08153
243.04697 166.34412 226.61702
245.71783 167.50708 231.90552
248.41959 168.67078 237.18042
250.4597 169.45175 240.6049
252.17172 170.04144 243.10194
253.54808 170.4397 244.67445
254.22723 170.45444 244.4099
254.90678 170.46924 244.14299
255.22772 170.29208 242.96036
255.90546 170.30688 242.68979
256.94763 170.51382 243.32822
258.72845 171.10524 245.78285
259.41736 171.1203 245.5011
261.22174 171.71222 247.94157
261.91885 171.72743 247.65189
262.99304 171.935 248.26585
262.55499 171.37286 245.25526
263.24768 171.38785 244.96057
263.17148 171.01762 242.85783
262.69812 170.45451 239.8555
263.37836 170.46896 239.55925
264.84299 170.86874 241.05968
71.359818 163.09641 202.20981
72.713547 162.69479 200.66225
72.506264 163.07288 202.7121
72.309135 163.45068 204.76448
72.887367 163.43858 205.01302
73.085434 163.62115 206.16383
73.288506 163.80357 207.31482
73.496498 163.98584 208.46602
73.709427 164.16795 209.61734
73.927261 164.34993 210.76875
75.251991 163.94836 209.19165
75.10714 164.32468 211.25066
76.783478 163.72897 208.75383
77.724884 163.52222 208.0741
78.660942 163.3156 207.39037
79.591629 163.1091 206.70265
80.164856 163.09689 206.92659
80.737762 163.08473 207.14857
81.310364 163.0726 207.36861
81.882629 163.06053 207.5867
82.454552 163.04852 207.80284
83.36557 162.84268 207.09663
83.93428 162.83084 207.30797
84.837021 162.62531 206.59509
86.066223 162.22621 204.9552
85.96759 162.6021 207.00635
86.859138 162.39699 206.2841
87.09668 162.57921 207.41006
87.98246 162.37437 206.68225
88.224281 162.55667 207.80626
89.421021 162.15871 206.14439
89.664619 162.34113 207.26553
89.912857 162.52356 208.38657
90.784164 162.31946 207.64519
91.343361 162.30878 207.83229
91.902191 162.29819 208.01755
92.158943 162.48082 209.13464
93.018707 162.27731 208.38268
93.279701 162.46008 209.4978
93.839523 162.44987 209.67668
94.690674 162.24683 208.91692
96.114883 161.65817 206.27855
95.803467 162.22705 209.26424
96.927757 161.8317 207.55688
97.759987 161.62939 206.78471
98.028397 161.81276 207.89069
98.578194 161.80345 208.05499
99.676155 161.40897 206.3333
100.22029 161.39998 206.49274
99.956184 161.96877 209.48134
100.77389 161.76735 208.69528
101.5863 161.56613 207.90611
102.39341 161.3651 207.11389
103.19525 161.16425 206.31862
103.47801 161.34831 207.41455
103.7654 161.53241 208.51019
104.05741 161.71655 209.60556
104.35406 161.90074 210.70062
104.90236 161.89273 210.8456
105.2058 162.07703 211.93938
106.24012 161.68491 210.17966
106.78504 161.67728 210.31917
107.56682 161.47766 209.50478
107.87402 161.66232 210.59337
108.6503 161.46298 209.77458
109.42139 161.26382 208.95299
109.95997 161.25679 209.08337
110.72313 161.05795 208.2569
111.03634 161.24304 209.33949
111.79407 161.04445 208.50876
111.89418 161.42151 210.54645
112.64895 161.22316 209.71211
112.97341 161.40851 210.79141
113.93291 161.01868 208.99422
114.467 161.01248 209.1118
115.41133 160.62303 207.30835
115.53451 161.0004 209.34248
116.06792 160.99451 209.4556
116.799 160.7971 208.6059
116.93864 161.17456 210.63918
117.28085 161.36047 211.71066
118.00883 161.16338 210.85602
118.54362 161.15793 210.96223
119.07819 161.15257 211.067
119.7958 160.95587 210.20605
120.32755 160.95071 210.30742
120.8591 160.94565 210.40732
121.03864 161.32344 212.43706
121.57469 161.31851 212.53497
122.2816 161.12234 211.66498
122.81487 161.11761 211.75957
123.34795 161.11298 211.85275
124.0446 160.91714 210.97676
124.57492 160.9127 211.06665
124.78732 161.2908 213.09238
125.47862 161.09526 212.21124
126.1649 160.89987 211.32796
126.84618 160.70457 210.44246
127.37328 160.70056 210.52496
128.04697 160.50549 209.63554
128.42706 160.69278 210.68582
128.67001 161.0712 212.70668
128.92252 161.44963 214.72758
129.59566 161.25488 213.83261
130.12921 161.2513 213.90787
130.39832 161.62985 215.92699
131.06621 161.43536 215.02715
131.72914 161.241 214.12526
132.26221 161.23772 214.19498
132.67268 161.42548 215.23723
133.44806 161.04041 213.35602
133.97836 161.03735 213.42126
134.50856 161.03439 213.4852
134.81308 161.41333 215.49796
135.56865 161.02866 213.60895
135.9906 161.2168 214.64444
136.52281 161.21411 214.70319
136.64249 161.97496 218.6653
137.38559 161.59064 216.76949
137.92236 161.58813 216.82465
138.55493 161.39485 215.90154
138.90224 161.77414 217.90808
139.80528 161.00858 214.0498
140.4231 160.81557 213.12123
140.69122 161.38583 216.10225
141.22511 161.38374 216.14906
141.75893 161.38173 216.19453
142.21373 161.57054 217.21709
142.67329 161.7594 218.23869
143.35997 161.37607 216.32281
143.89352 161.3743 216.3629
144.28845 161.75409 218.36003
144.5592 162.51537 222.31523
144.9137 163.08592 225.29085
145.40669 163.27507 226.30666
146.02374 163.08286 225.36174
146.63593 162.89075 224.41513
147.35284 162.31729 221.50661
148.05525 161.74394 218.59592
148.59317 161.74275 218.62427
149.13107 161.74162 218.65125
149.8044 161.16853 215.73505
150.37775 160.97687 214.77827
150.98656 160.5946 212.83919
151.62363 160.02176 209.91747
152.2462 159.44901 206.9939
152.75496 159.44829 207.01183
153.2944 159.25697 206.04732
153.85728 158.87508 204.10014
154.43636 158.3026 201.17014
154.90712 158.49277 202.16403
155.46689 157.92044 199.23109
155.99355 157.53879 197.27806
156.44563 157.91977 199.24979
156.93498 157.91953 199.25731
157.43573 157.7287 198.28206
157.91367 157.91919 199.26875
158.40959 157.72849 198.29102
158.89235 157.91908 199.27533
159.37991 158.10976 200.25848
159.87102 157.9192 199.27708
160.36342 158.10999 200.25778
160.86066 158.30081 201.23724
161.33908 157.91978 199.2706
161.83873 158.11073 200.24762
162.34322 158.30173 201.22336
162.83743 158.30215 201.21629
163.2791 157.73068 198.26347
163.78606 157.92186 199.23553
164.2755 157.92244 199.22488
164.76495 157.92308 199.21303
165.20012 157.54245 197.23735
165.71439 157.73386 198.20444
166.20152 157.73465 198.18896
166.65427 157.54483 197.19127
167.10223 157.35506 196.19255
167.58464 157.35602 196.17368
168.02544 157.16635 195.17281
168.41739 156.78603 193.19032
168.84619 156.59644 192.18761
169.31909 156.5976 192.16441
169.79202 156.59882 192.14
170.265 156.60008 192.11443
170.68192 156.41068 191.10764
171.21109 156.60278 192.05975
171.74515 156.79495 193.01038
172.22072 156.79645 192.9799
172.69637 156.798 192.94824
173.24023 156.99039 193.89467
173.7184 156.99207 193.86046
174.12361 156.80304 192.84613
174.52405 156.61404 191.83098
174.99756 156.61588 191.79353
175.31062 156.23618 189.7982
175.77943 156.2381 189.75879
176.24832 156.2401 189.71817
176.80478 156.433 190.6541
177.27623 156.43512 190.6109
177.6554 156.24646 189.58925
178.12459 156.24869 189.54387
178.49666 156.0601 188.52055
178.96359 156.06245 188.47304
179.32857 155.87396 187.44806
179.89769 156.06732 188.37447
180.15114 155.688 186.37186
180.72287 155.88152 187.29564
181.07611 155.69321 186.26723
181.53873 155.69589 186.21313
182.118 155.88965 187.13248
182.58324 155.89249 187.0757
182.92719 155.70436 186.04367
183.39021 155.70732 185.98479
184.10583 156.09244 187.87157
184.44525 155.90448 186.83655
185.04214 156.09874 187.74655
185.644 156.29309 188.65463
186.25082 156.48755 189.56082
186.44748 156.1087 187.54982
187.05698 156.30331 188.45322
187.52823 156.30685 188.38361
187.85394 156.11929 187.34207
188.32303 156.12297 187.27034
188.79225 156.12671 187.19739
189.26161 156.13054 187.1232
189.73111 156.13443 187.04774
190.35858 156.32968 187.93982
190.99109 156.52504 188.82982
191.79129 156.91187 190.68571
192.43628 157.1075 191.57112
192.58359 156.72913 189.55307
192.8913 156.54214 188.50211
193.36676 156.54662 188.41699
193.84241 156.55118 188.3306
194.49553 156.74727 189.20824
195.15372 156.94348 190.08368
195.63477 156.94833 189.99246
196.116 156.95326 189.89995
196.7845 157.14984 190.76959
197.07901 156.96336 189.71092
197.75281 157.16016 190.57695
198.23724 157.16544 190.47861
198.72191 157.17082 190.37895
198.80811 156.79289 188.35594
199.49005 156.99011 189.21509
199.76868 156.80399 188.15193
200.45595 157.00143 189.00732
201.14836 157.19905 189.86032
201.8459 157.39682 190.71085
202.33453 157.40285 190.60109
203.25641 157.79279 192.40442
203.75043 157.79907 192.29076
204.24471 157.80547 192.17567
204.73923 157.81195 192.0592
205.68668 158.20258 193.85114
205.95784 158.01726 192.77626
206.68686 158.21616 193.6086
207.18735 158.2231 193.48515
207.68811 158.23015 193.36026
208.18915 158.23727 193.23387
208.44934 158.05228 192.15479
208.94846 158.05959 192.02608
209.69395 158.25931 192.84589
209.94759 158.07451 191.76425
210.69861 158.27451 192.57974
211.20139 158.28226 192.44446
212.21643 158.67505 194.20227
212.98325 158.87558 195.0092
213.75534 159.07632 195.81322
214.5327 159.27724 196.61429
215.31537 159.47833 197.41237
216.10333 159.67963 198.20744
216.35486 159.4957 197.11325
217.14847 159.6973 197.90364
217.94742 159.89908 198.69099
218.47333 159.90823 198.53429
218.9996 159.91748 198.37595
219.80957 160.11978 199.15535
219.76736 159.74336 197.11565
220.29221 159.7529 196.95308
220.52658 159.56947 195.85176
221.04965 159.57918 195.68665
221.57307 159.58897 195.51985
222.6936 159.98529 197.22078
223.82452 160.3819 198.91675
225.5726 161.16541 202.47385
226.11761 161.17599 202.29364
227.2798 161.5735 203.9744
228.76337 162.16473 206.58055
229.63554 162.3694 207.32039
230.1972 162.38071 207.12782
231.39621 162.77933 208.78932
232.9267 163.37187 211.37245
233.50218 163.38373 211.16985
235.05618 163.97694 213.74117
236.62576 164.57057 216.30513
238.21092 165.1646 218.86163
240.14529 165.95294 222.33313
242.10034 166.74181 225.79518
244.07605 167.53117 229.24759
246.75494 168.7092 234.52979
249.80844 170.08209 240.71707
252.20529 171.06747 245.05307
253.23256 171.27649 245.70972
253.91391 171.29138 245.44621
254.24171 171.11197 244.26553
254.56482 170.9325 243.08452
254.88318 170.75294 241.90315
256.28156 171.15686 243.45697
257.32629 171.36646 244.09357
258.74316 171.7708 245.63547
259.43207 171.786 245.35345
260.86481 172.19066 246.88437
261.55933 172.20592 246.59546
262.63098 172.416 247.20969
262.56961 172.04141 245.10602
263.26221 172.05647 244.81108
263.18582 171.68141 242.70923
262.71219 171.11096 239.70828
263.78198 171.3206 240.31187
264.8569 171.53023 240.9109
70.170074 164.24373 204.77814
71.531418 163.83699 203.23524
72.107071 163.82509 203.48674
71.9123 164.2077 205.53928
72.875641 163.99826 204.88654
73.073601 164.18323 206.03699
73.276535 164.36804 207.18765
73.109413 164.7498 209.24431
73.324806 164.93423 210.39633
73.54509 165.11855 211.54848
74.872444 164.71191 209.97377
75.094864 164.89615 211.12294
77.133675 164.09613 207.71695
77.353073 164.2804 208.86107
77.934494 164.26787 209.09221
78.870338 164.0587 208.40726
79.800827 163.84967 207.71835
80.376305 163.83733 207.94156
80.951469 163.82504 208.1628
81.870865 163.61635 207.46411
82.442841 163.60422 207.68051
83.014488 163.59213 207.89494
84.259712 163.18756 206.26581
84.825607 163.17572 206.47452
85.723053 162.96777 205.75865
85.956306 163.15225 206.88626
86.847992 162.94456 206.16478
87.085556 163.12912 207.29044
87.971466 162.92169 206.5634
88.213333 163.10631 207.68707
89.727058 162.50745 205.09846
90.282455 162.49643 205.28957
90.837494 162.4855 205.47881
91.701416 162.27896 204.73563
91.946434 162.46396 205.85187
91.891846 162.84457 207.90027
92.148651 163.02954 209.01706
93.008568 162.82346 208.26584
92.67614 163.39951 211.25011
93.535301 163.19363 210.49527
94.389099 162.98798 209.73705
95.526779 162.58716 208.03835
94.933586 163.35844 211.96208
96.349808 162.76268 209.31966
97.187164 162.55772 208.54971
97.460632 162.74332 209.65686
98.015503 162.7338 209.82286
99.392944 162.13913 207.1622
99.939659 162.12997 207.32259
99.947372 162.51093 209.36745
100.76522 162.30695 208.58209
101.84215 161.90822 206.84911
102.38504 161.89954 207.00208
103.18701 161.69614 206.20752
103.46985 161.88254 207.3031
103.75731 162.06895 208.39842
104.04939 162.25542 209.49345
104.34612 162.44193 210.58817
105.14157 162.23914 209.78409
105.19803 162.62042 211.82678
106.23253 162.22331 210.06824
106.77756 162.21556 210.2079
107.79666 161.81889 208.44237
107.86674 162.20038 210.48241
108.87541 161.80408 208.71127
109.41438 161.79681 208.84334
109.72573 161.98407 209.92812
110.49149 161.78264 209.10286
111.02964 161.77571 209.23029
111.56754 161.76888 209.35616
111.67015 162.15067 211.39359
112.64255 161.75554 209.60335
112.75448 162.13741 211.63992
113.29628 162.13092 211.76077
114.25323 161.73628 209.96268
115.20015 161.34184 208.16087
115.32582 161.72395 210.19466
116.06213 161.52388 209.3481
116.79333 161.32396 208.49902
117.12848 161.51219 209.57011
117.27529 161.89444 211.60255
118.19397 161.50089 209.78622
118.7264 161.49538 209.89207
119.25863 161.48996 209.99646
119.60741 161.6785 211.06313
120.32249 161.4794 210.20085
120.85413 161.47427 210.3009
121.03371 161.85683 212.32974
121.39636 162.04559 213.39336
122.27688 161.65315 211.55836
122.81023 161.64835 211.65308
123.3434 161.64363 211.74635
124.04016 161.44531 210.87091
124.40923 161.63446 211.92865
124.6241 162.01732 213.95389
125.31794 161.81927 213.07376
126.00676 161.62137 212.19139
126.69056 161.42357 211.30685
127.36935 161.22589 210.42017
127.89639 161.22189 210.50137
128.27898 161.41153 211.55161
128.52438 161.79471 213.57198
128.77936 162.17792 215.59235
129.45502 161.98067 214.69827
129.99109 161.97699 214.77393
130.39484 162.16687 215.82036
131.06284 161.96991 214.92105
131.72586 161.77304 214.01971
132.13408 161.96313 215.06265
132.79202 161.76645 214.1579
133.32494 161.76328 214.22493
133.97539 161.5668 213.3165
134.50565 161.56378 213.38049
134.92302 161.75417 214.41772
135.56589 161.55795 213.50435
135.98788 161.74847 214.53943
136.52017 161.74573 214.59824
136.63988 162.5162 218.5585
137.28236 162.32028 217.63965
137.91992 162.12445 216.71893
138.45668 162.12198 216.7728
138.8999 162.31281 217.80197
139.8941 161.3443 212.96873
140.50958 161.14886 212.04048
140.68912 161.91956 215.99725
141.1393 162.11063 217.02167
141.75696 161.91537 216.0896
142.13286 162.29976 218.08972
142.74799 162.10464 217.15472
143.3582 161.90962 216.21803
143.89182 161.90784 216.25816
144.28679 162.2924 218.25435
144.69136 162.67703 220.24991
144.97658 163.44795 224.20287
145.46722 163.6395 225.21811
145.96265 163.83112 226.23227
146.52008 163.82965 226.26581
147.1871 163.44203 224.33865
147.84442 163.05452 222.40959
148.49203 162.66708 220.47865
149.0824 162.47284 219.52588
149.80339 161.69939 215.63109
150.37679 161.50529 214.67484
151.02602 160.92511 211.75635
151.62282 160.5381 209.81641
152.17442 160.34422 208.85536
152.68806 160.34349 208.87347
153.23239 160.14975 207.90961
153.77187 159.95607 206.94434
154.35825 159.37634 204.01595
154.85976 159.37585 204.02866
155.42441 158.79626 201.09723
155.9373 158.60284 200.12628
156.4129 158.79559 201.11613
156.90714 158.79533 201.12376
157.41277 158.60208 200.14903
157.90457 158.60194 200.15416
158.40295 158.40881 199.17693
158.88817 158.60184 200.16081
159.38174 158.40881 199.18109
159.8705 158.21585 198.20016
160.36359 158.6021 200.16159
160.85541 158.60229 200.15941
161.33936 158.4095 199.17485
161.84935 158.79591 201.13254
162.34361 158.79628 201.12668
162.83788 158.79671 201.11958
163.29712 158.41107 199.14922
163.80653 158.60466 200.12076
164.27611 158.41219 199.12909
164.79037 158.6059 200.09808
165.228 158.22046 198.12329
165.74474 158.41431 199.08981
166.23433 158.41512 199.07428
166.72395 158.41599 199.05753
167.13998 158.03075 197.0786
167.58562 157.83862 196.07919
168.02646 157.64656 195.0788
168.41847 157.26143 193.0972
168.84732 157.06944 192.09497
169.32027 157.07062 192.07172
169.74197 156.87874 191.06749
170.2663 157.07315 192.0217
170.73936 157.07449 191.99492
171.21249 157.0759 191.96695
171.80756 157.46365 193.89636
172.34897 157.65834 194.84482
172.76372 157.46678 193.83386
173.37827 157.85478 195.75841
173.86131 157.85651 195.7238
174.19838 157.47191 193.73112
174.52585 157.08734 191.73795
175.07727 157.28241 192.67853
175.31252 156.7047 189.70607
175.78139 156.70667 189.66661
176.42055 157.09518 191.58087
176.89439 157.09729 191.5386
177.36832 157.09946 191.49515
177.74995 156.90842 190.47369
178.31639 157.10399 191.40459
178.59616 156.71976 189.40489
178.96596 156.52884 188.38103
179.43303 156.5313 188.33229
180.00464 156.72714 189.25792
180.26054 156.34303 187.25595
180.72546 156.34566 187.20389
181.07875 156.15497 186.17592
181.54144 156.1577 186.12173
182.00423 156.16051 186.06641
182.58609 156.3568 186.98372
183.0515 156.35976 186.9257
183.51701 156.36276 186.86644
184.1089 156.55933 187.77895
184.57707 156.56248 187.71696
185.17645 156.75922 188.62607
185.91437 157.14958 190.50525
186.2542 156.95947 189.46696
186.58929 156.76941 188.42815
187.06049 156.77293 188.35968
187.38855 156.58295 187.31944
187.71187 156.39301 186.27867
188.1786 156.39671 186.20724
188.79601 156.59415 187.10405
189.41843 156.7917 187.99883
189.89043 156.79567 187.92291
190.52045 156.99344 188.81403
191.15546 157.19131 189.70306
191.7955 157.38931 190.59
192.27542 157.39366 190.50778
192.58792 157.20428 189.45767
192.89571 157.01495 188.4071
193.54372 157.21335 189.28766
193.84695 157.02411 188.2354
194.67754 157.4166 190.07732
195.33827 157.61536 190.95174
196.00407 157.81424 191.82388
196.3056 157.62532 190.76685
197.16379 158.01842 192.5984
197.46324 157.82965 191.53917
197.95003 157.83496 191.44159
198.43701 157.84036 191.34265
199.12109 158.03996 192.20338
199.01288 157.46318 189.21973
199.69739 157.66295 190.07774
199.97852 157.4745 189.01445
200.66837 157.6745 189.8687
201.15417 157.68042 189.76212
201.85184 157.88071 190.61201
202.1265 157.69252 189.54485
203.04607 158.0874 191.34763
203.53772 158.09375 191.23439
204.02963 158.10019 191.11975
204.52179 158.10674 191.00369
205.46695 158.50232 192.7951
205.50687 158.12012 190.76733
206.23109 158.32149 191.60023
206.72675 158.32846 191.47786
207.45889 158.53014 192.30605
207.71887 158.34271 191.22876
208.21535 158.34999 191.10204
208.71211 158.35736 190.97383
209.45526 158.5596 191.79361
209.70648 158.37242 190.71298
210.45517 158.57494 191.52847
211.20912 158.77763 192.34119
211.96832 158.9805 193.15099
212.73279 159.18356 193.95792
213.76352 159.58179 195.7074
214.27757 159.59024 195.56303
215.05791 159.79387 196.36115
215.84354 159.99768 197.15623
216.09261 159.8114 196.06306
216.88388 160.0155 196.8535
217.95639 160.41505 198.58202
218.48242 160.42433 198.42514
218.72791 160.23839 197.32693
219.53552 160.44321 198.1064
219.49084 160.06198 196.06828
219.7249 159.87613 194.96895
220.5361 160.08131 195.74266
221.64606 160.48225 197.4489
221.87869 160.29668 196.34532
223.00192 160.69806 198.04417
224.13554 161.09976 199.73808
225.58301 161.69749 202.3595
226.12811 161.70822 202.17905
227.2905 162.11076 203.85857
228.77431 162.7095 206.46291
230.27361 163.30865 209.06029
230.84041 163.32021 208.86577
232.04465 163.72397 210.52419
233.90146 164.52023 214.03029
234.80817 164.72855 214.75043
236.04645 165.13327 216.39156
237.62384 165.73456 218.95091
238.5545 165.94363 219.65695
240.4917 166.742 223.12514
242.78578 167.73734 227.50488
245.44437 168.92975 232.79327
248.13379 170.12292 238.06813
251.19789 171.5134 244.24753
252.91249 172.11815 246.74211
253.59602 172.13318 246.47968
253.57707 171.75476 244.38434
254.25632 171.76978 244.1192
254.93593 171.78485 243.85175
255.25681 171.60301 242.66965
256.2962 171.81506 243.3098
256.97687 171.8302 243.03532
258.02454 172.04242 243.66768
258.70831 172.05762 243.38747
260.50787 172.66443 245.82623
261.94858 173.07426 247.3502
262.64587 173.08965 247.05759
263.34332 173.10497 246.76257
263.65887 172.92278 245.56236
263.58484 172.54291 243.46031
263.50067 172.16272 241.36031
264.5755 172.375 241.96088
264.87091 172.19194 240.76019
68.980003 165.40602 207.34143
69.568245 165.39395 207.60062
70.544327 165.18192 206.95804
70.744781 165.36943 208.11313
72.09845 164.95757 206.56241
71.921196 165.34453 208.61778
72.509277 165.33197 208.86714
72.347076 165.71848 210.92503
72.939972 165.70569 211.17255
73.532715 165.69287 211.41803
74.492714 165.48062 210.75307
75.082512 165.46782 210.99348
77.121521 164.65785 207.58995
77.700684 164.64526 207.82227
77.565025 165.03105 209.87762
78.858223 164.62013 208.28098
79.436569 164.6076 208.50737
79.66494 164.79411 209.64729
80.592354 164.58264 208.95425
82.203598 163.97351 206.42245
82.431015 164.16016 207.5565
83.342262 163.94917 206.85184
84.2481 163.73834 206.14337
84.814056 163.72638 206.35233
85.711624 163.51585 205.63725
85.944908 163.70267 206.76453
86.509796 163.69093 206.96779
86.749908 163.87776 208.09404
87.316582 163.86613 208.29445
87.882881 163.8546 208.49295
89.082504 163.4465 206.83456
89.643021 163.43526 207.0276
90.203171 163.4241 207.2188
91.381577 163.01671 205.54799
91.32235 163.4021 207.59567
91.881378 163.39125 207.78139
92.138229 163.57852 208.89786
92.699013 163.56784 209.08076
92.962616 163.75519 210.19609
93.819427 163.54678 209.44121
94.670883 163.33859 208.68292
95.806259 162.93279 206.98471
95.497299 163.51604 209.96843
96.624466 163.1106 208.26436
97.459488 162.90311 207.4944
97.451202 163.28867 209.5401
98.006195 163.27902 209.70631
99.383865 162.6769 207.04741
99.658829 162.86511 208.14984
99.938423 163.05333 209.25201
101.02332 162.64938 207.52408
101.56913 162.64043 207.67961
102.37654 162.43427 206.88876
102.91922 162.42557 207.04027
103.46156 162.41701 207.19016
103.7491 162.60576 208.28513
104.04126 162.79454 209.37981
104.33805 162.98337 210.47421
105.38074 162.58093 208.72206
105.19015 163.16406 211.71263
106.22482 162.76196 209.95529
107.00964 162.55713 209.14445
107.78924 162.35245 208.33078
107.85936 162.73871 210.36996
108.86821 162.33742 208.59998
109.40727 162.33006 208.73224
109.7187 162.51962 209.8166
110.48459 162.31567 208.99203
111.02284 162.30862 209.11961
111.56084 162.3017 209.24564
111.88104 162.49156 210.32614
112.42097 162.4848 210.44966
112.74803 162.67479 211.52881
113.28992 162.66821 211.64981
113.83157 162.66174 211.7693
114.57827 162.45883 210.92847
114.91416 162.64911 212.00366
115.65549 162.44647 211.15878
116.39171 162.24397 210.31134
116.73181 162.43448 211.38307
117.0766 162.62505 212.45433
117.80727 162.4229 211.60141
118.72101 162.02455 209.78371
119.25332 162.01906 209.88823
119.78544 162.01364 209.99127
120.31737 162.00833 210.09286
121.0275 161.80685 209.22882
121.20468 162.19421 211.25633
121.56494 162.38538 212.31915
122.44317 161.98801 210.48477
122.97417 161.98315 210.57918
123.33877 162.17453 211.63852
124.03564 161.97371 210.76366
124.72747 161.77301 209.88655
124.77861 162.35677 212.87772
125.47012 162.15625 211.99776
125.8485 162.34793 213.05244
126.38321 162.34364 213.13768
126.91777 162.33945 213.22151
127.59895 162.13934 212.33435
127.98644 162.3313 213.38493
128.52057 162.32735 213.46454
128.91507 162.51939 214.51337
129.58841 162.31969 213.61951
130.12212 162.31598 213.6949
130.5235 162.50822 214.74062
131.18916 162.30881 213.84154
131.7225 162.30533 213.91278
132.1308 162.49777 214.95526
132.66632 162.49445 215.02403
133.32181 162.29539 214.11818
133.97235 162.09645 213.21031
134.38745 162.28915 214.24821
134.92012 162.28613 214.31117
135.56308 162.08746 213.39835
135.98514 162.28035 214.433
136.51749 162.27756 214.49187
136.84349 162.66626 216.49983
137.27979 162.85928 217.53197
137.91742 162.661 216.61174
138.45425 162.65848 216.66568
138.80408 163.04733 218.67064
139.61873 162.45801 215.79297
140.15289 162.4557 215.84259
140.51456 162.84473 217.84459
140.88582 163.2338 219.8461
141.59219 162.84045 217.93785
142.05194 163.03401 218.95995
142.74609 162.64085 217.04799
143.28226 162.63896 217.08971
143.89008 162.44157 216.15199
144.3544 162.63539 217.16904
144.75661 163.02481 219.1635
145.03946 163.80537 223.11443
145.52776 163.99933 224.12906
145.90154 164.58438 227.10034
146.34697 164.97395 229.0921
146.96648 164.77701 228.14557
147.63353 164.38461 226.21803
148.24088 164.18782 225.26801
148.98611 163.40459 221.3777
149.80237 162.23045 215.52574
150.33307 162.22943 215.54977
151.02513 161.4465 211.65295
151.58406 161.25012 210.69397
152.13814 161.05382 209.73351
152.62114 161.24855 210.73189
153.20105 160.8569 208.78844
153.71472 160.85626 208.80402
154.30598 160.26929 205.87721
154.83585 160.07332 204.90962
155.36086 159.87741 203.94066
155.89969 159.4861 201.98982
156.39639 159.48578 201.99872
156.90691 159.29007 201.02579
157.40118 159.28986 201.03218
157.89546 159.28972 201.03734
158.39632 159.09418 200.06061
158.88818 159.09415 200.06332
159.38181 158.89871 199.08409
159.87126 158.8988 199.08434
160.36377 159.09441 200.06409
160.8611 159.29007 201.04262
161.34752 159.09486 200.05852
161.8497 159.29065 201.03455
162.34401 159.29102 201.02869
162.82323 159.09598 200.04099
163.28011 158.70552 198.07161
163.78717 158.90154 199.04268
164.27672 158.90213 199.03203
164.7663 158.9028 199.02013
165.22873 158.70802 198.02669
165.74553 158.90427 198.99269
166.20319 158.70961 197.99696
166.69046 158.71049 197.98029
167.14093 158.51593 196.98238
167.58662 158.32143 195.98344
168.02751 158.12695 194.98351
168.46362 157.93254 193.98257
168.89494 157.73816 192.98067
169.37036 157.73936 192.95729
169.79453 157.54509 191.95337
170.32132 157.74194 192.90695
170.79686 157.74332 192.88
171.27246 157.74475 192.8519
171.87001 158.13737 194.78015
172.41391 158.3345 195.72795
172.76534 157.94499 193.7388
173.31175 158.14224 194.68401
173.79245 158.144 194.64957
174.20018 157.9502 193.63594
174.52768 157.56082 191.64369
175.07918 157.75836 192.58379
175.39473 157.36905 190.59009
175.70068 156.97977 188.59602
176.25238 157.17747 189.5325
176.89653 157.57094 191.44415
177.28056 157.37747 190.4241
177.75221 157.37973 190.37962
178.22392 157.38205 190.33394
178.59853 157.18872 189.3112
178.96835 156.99542 188.28778
179.53754 157.19366 189.21432
180.00719 157.19623 189.16408
180.47691 157.19885 189.11263
180.94673 157.20155 189.05998
181.30492 157.00851 188.03186
181.77252 157.01132 187.97708
182.12363 156.81839 186.94742
182.58899 156.8213 186.8905
183.05447 156.82431 186.83241
183.39619 156.6315 185.80034
183.98575 156.83051 186.7126
184.45154 156.83371 186.65086
185.0486 157.0329 187.55975
185.78418 157.42813 189.43822
186.25761 157.43161 189.37183
186.59277 157.23917 188.33342
187.06403 157.24277 188.26489
187.39215 157.05042 187.22505
187.71553 156.85809 186.18471
188.18233 156.86188 186.1132
188.79984 157.06178 187.00943
189.26933 157.06573 186.93506
189.89442 157.26585 187.82764
190.52452 157.46611 188.71819
191.15964 157.66647 189.60661
191.79979 157.86697 190.493
192.27979 157.87138 190.41071
192.75995 157.87589 190.3271
193.07024 157.6842 189.27652
193.72079 157.88512 190.15604
194.20146 157.88986 190.06854
194.85968 158.091 190.94412
195.52295 158.29228 191.81744
196.37357 158.69006 193.65201
196.68002 158.49886 192.59439
197.35609 158.70052 193.46141
197.46848 158.31299 191.44008
198.14737 158.51485 192.30388
198.44241 158.32387 191.24333
199.12662 158.52597 192.10344
199.21779 158.13855 190.08119
200.1067 158.53745 191.89754
200.18851 158.15009 189.8746
200.67419 158.15601 189.76929
201.1601 158.16202 189.6626
201.64622 158.16811 189.55452
202.1326 158.17429 189.44505
202.83575 158.37735 190.29047
203.54407 158.58057 191.13333
204.03607 158.58713 191.01857
204.75227 158.79062 191.85687
205.47363 158.99429 192.6926
205.74246 158.80428 191.61905
206.46928 159.00822 192.4507
207.20131 159.21234 193.27969
207.93854 159.41663 194.10599
208.20349 159.22693 193.0278
208.70502 159.23439 192.89964
208.96313 159.0448 191.8204
209.70891 159.2496 192.63889
209.71405 158.86293 190.60965
210.46286 159.06799 191.42447
211.21695 159.27322 192.23648
211.9763 159.47867 193.04562
212.99945 159.88167 194.7975
213.77182 160.08751 195.60011
214.5495 160.29355 196.39981
214.80046 160.10477 195.30946
215.85223 160.50865 197.04736
215.83041 160.12244 195.01247
216.61934 160.32907 195.8029
217.68954 160.7336 197.53093
218.2132 160.74295 197.37459
218.45624 160.55464 196.27748
219.26152 160.76199 197.05699
219.21436 160.37595 195.02049
219.73441 160.38564 194.85909
220.83669 160.79135 196.5681
221.94934 161.19737 198.27228
222.4805 161.20758 198.10269
223.60893 161.61411 199.79866
225.04872 162.21907 202.42245
226.80743 163.02264 205.97157
227.3627 163.03372 205.7876
228.53534 163.4415 207.46242
229.71844 163.84959 209.13206
230.59846 164.0596 209.8678
231.48393 164.26979 210.59993
233.33057 165.07571 214.10904
235.19778 165.88217 217.60921
236.43834 166.2919 219.25008
238.01558 166.90063 221.8096
239.27972 167.31104 223.43834
239.89197 167.32419 223.2166
241.83957 168.13277 226.67863
243.80786 168.94186 230.13112
246.81323 170.3483 236.3327
248.83052 171.15862 239.76294
251.55626 172.36754 245.0186
252.92722 172.78076 246.59357
253.61079 172.79593 246.33086
253.24026 172.21349 243.32156
254.27106 172.42787 243.97092
255.3073 172.64241 244.61592
255.63068 172.45828 243.43307
256.6727 172.67297 244.07137
257.72012 172.88779 244.70525
258.77295 173.10272 245.33473
259.46179 173.11813 245.05215
261.2666 173.73254 247.48683
262.71249 174.14754 249.00729
263.03781 173.96333 247.80785
262.97864 173.57909 245.70485
263.2915 173.39445 244.50606
263.59937 173.20961 243.30713
263.12775 172.62453 240.30801
264.19995 172.83926 240.90891
264.88489 172.85384 240.60747
68.575516 166.17848 208.10559
69.166161 166.16634 208.36607
70.144707 165.95175 207.72536
69.962234 166.3439 209.78152
71.320984 165.92696 208.23436
71.528862 166.11655 209.38841
71.741737 166.30595 210.54266
71.584457 166.69722 212.60179
72.554993 166.48228 211.94586
73.15023 166.46933 212.19264
74.112801 166.25449 211.52951
75.070068 166.03973 210.8623
77.471695 165.01807 206.55138
78.048317 165.00545 206.7829
78.267357 165.19446 207.92441
79.200798 164.98022 207.24005
79.776634 164.96764 207.46568
80.002441 165.15656 208.60431
80.580223 165.14398 208.827
81.847008 164.72873 207.21397
82.419075 164.71637 207.43085
83.330429 164.50279 206.72697
84.236382 164.28938 206.01929
84.46785 164.47845 207.14917
85.036041 164.46638 207.35738
84.944901 164.85648 209.40869
85.517426 164.84445 209.61493
85.440681 165.23438 211.66786
86.661369 164.82065 210.02165
87.232796 164.80888 210.22215
88.754532 164.19487 207.63989
89.63205 163.98271 206.90619
90.504158 163.77075 206.16893
91.061516 163.75961 206.35767
91.004791 164.14975 208.40535
91.566429 164.1387 208.5921
91.825844 164.32826 209.70909
92.389221 164.3174 209.89305
92.952232 164.30664 210.0752
94.103531 163.89531 208.3866
94.660797 163.88486 208.56354
95.796371 163.47403 206.86661
95.487389 164.0645 209.84892
96.899094 163.45389 207.20856
97.449921 163.44397 207.37691
97.721024 163.63423 208.48267
98.550507 163.42448 207.70847
100.19783 162.61501 204.10928
100.1935 163.00558 206.15051
100.46819 163.19623 207.25092
101.54831 162.78734 205.5228
102.08928 162.77835 205.67708
102.6299 162.76947 205.82974
102.91071 162.96043 206.9256
103.19615 163.15143 208.02121
103.74078 163.14282 208.1703
104.03301 163.33392 209.26463
104.57947 163.3255 209.41113
105.37275 163.11765 208.60774
105.18214 163.70798 211.59695
106.217 163.30089 209.84082
106.52253 163.49234 210.93095
107.54446 163.08566 209.16843
107.61708 163.47665 211.20737
108.62857 163.07033 209.43916
109.1702 163.06284 209.5722
109.48416 163.2547 210.65681
110.0277 163.24738 210.78728
110.79346 163.04099 209.96181
111.55404 162.83478 209.13362
111.87431 163.02696 210.21376
112.62947 162.82101 209.38135
112.95415 163.01337 210.45955
113.7039 162.80769 209.62297
114.24074 162.80118 209.74152
114.98267 162.59581 208.90028
115.71946 162.39058 208.05644
116.2507 162.38445 208.16943
116.78174 162.37839 208.28091
117.11703 162.5713 209.35124
117.45699 162.76427 210.42113
117.80164 162.95726 211.49049
118.52733 162.75275 210.63574
119.24792 162.54839 209.77856
119.59683 162.74162 210.84447
120.31215 162.53751 209.98343
121.20082 162.13484 208.15631
121.37561 162.52699 210.18246
121.73351 162.72052 211.24443
122.60942 162.31825 209.41077
123.13808 162.31334 209.50481
123.33408 162.70564 211.52921
123.86725 162.70087 211.62126
124.56162 162.49767 210.74516
124.61522 163.08859 213.73534
125.30927 162.88556 212.85638
125.84422 162.88112 212.94312
126.37901 162.87677 213.02847
127.06286 162.67407 212.14369
127.74171 162.47151 211.25674
127.98249 162.86423 213.27599
128.37477 163.05856 214.32545
128.91127 163.05463 214.4041
129.44762 163.05075 214.48131
129.98384 163.04697 214.55714
130.51993 163.04327 214.63158
131.1857 162.84137 213.73306
131.71912 162.83784 213.80437
132.00252 163.2309 215.81862
132.66306 163.02927 214.9153
133.31863 162.82774 214.00999
133.85159 162.82452 214.07578
134.38443 162.8214 214.14015
134.91718 162.81833 214.20319
135.56021 162.6172 213.29094
135.87434 163.0106 215.29938
136.30363 163.20589 216.33302
136.63451 163.59935 218.34058
137.17644 163.59662 218.3978
137.71826 163.59396 218.45364
138.26001 163.59137 218.5081
138.70819 163.78693 219.5369
139.4343 163.38837 217.63695
139.97337 163.386 217.68704
140.42615 163.58176 218.71214
