ply
format ascii 1.0
comment PCL generated
element vertex 1596
property float x
property float y
property float z
element camera 0
property float view_px
property float view_py
property float view_pz
property float x_axisx
property float x_axisy
property float x_axisz
property float y_axisx
property float y_axisy
property float y_axisz
property float z_axisx
property float z_axisy
property float z_axisz
property float focal
property float scalex
property float scaley
property float centerx
property float centery
property int viewportx
property int viewporty
property float k1
property float k2
end_header
140.54199 106.22123 185.55719
140.89172 106.15206 186.59573
141.34404 106.15239 186.6409
141.70085 106.08321 187.67796
141.96939 105.9445 189.70758
142.42876 105.94481 189.75006
142.79984 105.8756 190.78513
143.26151 105.87589 190.82556
143.63969 105.80667 191.85898
144.10367 105.80694 191.89735
144.56758 105.80719 191.93462
145.03146 105.80744 191.97073
145.64291 105.94666 190.01602
146.1019 105.94689 190.04953
146.69884 106.08609 188.09154
147.21954 106.15578 187.12714
147.60701 106.08649 188.15234
147.93745 105.94771 190.17239
148.39626 105.94788 190.20035
148.79803 105.87857 191.22311
149.14999 105.73976 193.24115
149.61591 105.73991 193.26611
149.98222 105.60109 195.28265
150.4055 105.53175 196.30206
150.83356 105.46239 197.32056
151.35155 105.532 196.34477
151.86472 105.6016 195.36763
152.37308 105.67118 194.38918
152.8766 105.74075 193.40941
153.37531 105.81032 192.42836
153.77747 105.67144 194.43736
154.21739 105.60203 195.44832
154.66211 105.53262 196.4583
155.1116 105.46318 197.4673
155.5659 105.39375 198.47522
156.04355 105.39379 198.48468
156.48886 105.25486 200.48792
156.9713 105.25488 200.49516
157.44237 105.18541 201.49876
157.9272 105.18542 201.50371
158.39232 104.97697 204.50017
158.88852 105.04644 203.50525
159.37816 105.04642 203.5067
159.86842 104.97691 204.50458
160.35744 105.04634 203.5061
160.84166 105.11578 202.50644
161.32892 105.11572 202.50319
161.81618 105.11565 202.49879
162.30345 105.11558 202.49321
162.79073 105.11549 202.48643
163.29546 105.04592 203.47592
163.82481 104.90686 205.46155
164.40826 104.62882 209.44046
164.93704 104.55922 210.42589
165.5247 104.35063 213.4044
166.00906 104.41998 212.3927
166.52048 104.41982 212.377
166.99768 104.48915 211.36304
167.50674 104.48898 211.34492
167.93776 104.62778 209.33194
168.52495 104.48862 211.30502
169.07794 104.41893 212.27985
169.58952 104.41872 212.2567
170.10114 104.4185 212.23233
170.71487 104.27929 214.19926
171.23137 104.27905 214.17218
171.80376 104.2093 215.13983
172.67226 103.79208 221.08536
173.56963 103.37482 227.02789
174.43283 103.02704 231.97177
175.45103 102.54022 238.90363
176.50294 102.05339 245.83188
177.23721 101.91402 247.78085
177.69046 102.05266 245.74797
178.05907 102.26079 242.71959
178.25836 102.60793 237.70172
178.43365 102.95508 232.68434
178.58498 103.30223 227.6675
179.2205 103.23232 228.61519
179.948 103.09288 230.55487
180.6852 102.95341 232.49234
181.24826 102.95297 232.44092
181.90572 102.88299 233.3812
182.56807 102.81299 234.31964
182.93791 102.95155 232.27826
183.5013 102.95105 232.2213
184.27266 102.81148 234.14719
184.94739 102.74142 235.07881
185.4095 102.8104 234.02522
185.97804 102.80984 233.96213
186.43311 102.87881 232.90651
186.88345 102.94776 231.85007
187.21066 103.08625 229.80225
187.89079 103.0161 230.72487
188.32938 103.08502 229.66565
189.01454 103.01484 230.58488
189.83269 102.87508 232.49144
190.53014 102.80484 233.40631
191.36542 102.66503 235.30782
192.21046 102.52519 237.20659
193.06528 102.38533 239.10252
193.64966 102.38457 239.02029
194.37669 102.31422 239.92392
195.10869 102.24384 240.82536
195.6983 102.24303 240.73799
195.98848 102.38135 238.67657
196.57355 102.38049 238.58693
197.00414 102.44922 237.51027
197.27299 102.58752 235.44774
197.69179 102.65622 234.37001
198.42967 102.58571 235.26031
199.00824 102.58478 235.16437
199.58699 102.58383 235.06693
200.33505 102.51324 235.95113
201.25969 102.37302 237.81567
202.0202 102.30238 238.69472
202.60934 102.30133 238.58957
203.3775 102.23064 239.46426
203.60689 102.3688 237.39363
204.37785 102.29807 238.26479
204.59552 102.43622 236.19333
205.18076 102.43507 236.08134
205.95718 102.36425 236.94695
206.54526 102.36305 236.83139
206.74188 102.50116 234.75797
207.32553 102.49993 234.64024
208.11011 102.429 235.4982
208.29036 102.56708 233.42354
209.07782 102.49609 234.27782
210.49443 102.21602 238.05643
211.08896 102.21465 237.92877
211.89664 102.14355 238.77412
212.70944 102.07241 239.61676
213.96292 101.86182 242.40373
214.13026 101.99975 240.32094
215.17871 101.85878 242.12836
215.78702 101.85722 241.98816
215.94055 101.9951 239.90375
216.31456 102.06325 238.79062
216.9164 102.06162 238.64714
217.51852 102.05997 238.50192
217.88362 102.12806 237.38614
218.96346 101.98682 239.17484
219.56894 101.98508 239.02396
220.66411 101.84373 240.80556
221.02802 101.91171 239.68355
221.63693 101.90987 239.52692
223.00229 101.69858 242.26408
223.61926 101.69666 242.10197
224.23657 101.6947 241.93813
225.37306 101.55305 243.69894
225.99603 101.55103 243.53018
226.35501 101.6188 242.39771
226.97623 101.61672 242.22595
227.59784 101.6146 242.05238
228.21985 101.61244 241.87701
229.11646 101.54038 242.65891
230.0184 101.46826 243.43753
230.64655 101.466 243.25513
231.55673 101.39378 244.02783
231.90407 101.46136 242.88472
232.53346 101.45898 242.69666
233.16327 101.45659 242.50665
233.79355 101.45415 242.31476
234.71828 101.38172 243.07417
235.0554 101.44917 241.92519
235.68701 101.44663 241.72746
236.92204 101.30409 243.42955
238.16751 101.16148 245.12653
238.81049 101.1588 244.91968
240.07187 101.01605 246.60779
240.09785 101.15334 244.49991
240.11435 101.29063 242.39326
240.43782 101.35788 241.23393
241.07574 101.35507 241.01939
241.71414 101.35222 240.8028
243.32498 101.1391 243.41452
244.62489 100.99597 245.0764
245.93536 100.85276 246.73265
247.58789 100.63936 249.3241
248.92203 100.49599 250.96808
249.5937 100.49281 250.72815
250.60498 100.41946 251.42415
250.93872 100.48637 250.24159
251.95612 100.41293 250.93124
251.9393 100.55001 248.81061
251.9129 100.68711 246.69147
252.22864 100.75402 245.50734
253.60245 100.61026 247.12045
253.91675 100.67713 245.93274
254.58577 100.67377 245.67523
255.25534 100.67038 245.41542
255.92543 100.66698 245.15332
256.22919 100.73384 243.96127
257.26724 100.66012 244.6221
258.31088 100.58636 245.27855
259.36014 100.51256 245.93062
260.41498 100.43873 246.5782
261.47546 100.36487 247.22133
262.5415 100.29098 247.85992
262.84372 100.35783 246.65327
264.3031 100.21352 248.20418
264.99353 100.20998 247.91191
69.932747 103.59804 211.16489
71.294807 103.73658 209.57507
72.646317 103.87508 207.9789
72.455963 103.74198 210.06174
73.41626 103.81256 209.37962
75.126541 104.01884 206.84654
74.945198 103.8858 208.92752
73.282967 103.48145 214.71254
73.871498 103.48419 214.94878
73.356827 103.28349 217.96552
73.952065 103.28624 218.20071
74.909393 103.35678 217.50432
78.021179 103.83397 211.22099
78.237396 103.76883 212.37369
80.58786 104.11024 207.93179
82.560226 104.38377 204.41176
83.112404 104.38625 204.61955
85.748398 104.79506 199.21387
88.353767 105.20371 193.79512
89.901489 105.40911 191.1749
90.754059 105.47904 190.42354
92.950485 105.81965 185.91286
93.112541 105.75412 187.03062
93.279243 105.6886 188.14853
93.78035 105.69071 188.32495
93.299202 105.4899 191.32722
93.482262 105.42438 192.44635
93.992218 105.42648 192.62131
95.141388 105.56375 190.9045
95.645592 105.56578 191.07451
97.40863 105.83812 187.45592
97.902115 105.84007 187.61943
99.01487 105.9771 185.8846
100.42465 106.18165 183.19577
101.81915 106.38611 180.50061
102.29133 106.38788 180.65155
103.06303 106.45715 179.84949
103.82947 106.52638 179.04436
103.70585 106.39304 181.09567
103.88427 106.32722 182.19472
104.35728 106.32887 182.33917
104.255 106.19554 184.39301
104.73235 106.19717 184.53606
104.92683 106.13132 185.63458
105.40602 106.1329 185.77553
105.6073 106.06702 186.87335
106.63863 106.20346 185.09407
107.6598 106.33984 183.31055
108.67082 106.47617 181.52283
109.40397 106.54503 180.69209
110.13192 106.61385 179.85863
110.59187 106.61522 179.98492
110.27044 106.41438 182.9994
110.47932 106.34834 184.08885
110.69284 106.2823 185.17828
110.65804 106.14886 187.23276
110.63277 106.01544 189.28845
110.86516 105.94939 190.37894
111.34785 105.95068 190.50229
111.5871 105.88459 191.59193
112.55324 106.02054 189.77667
112.79445 105.95441 190.8642
113.74789 106.09029 189.0432
114.2245 106.09145 189.1586
115.16283 106.22724 187.33142
115.40558 106.16105 188.41422
116.10516 106.22946 187.55331
117.02332 106.36514 185.71764
117.4891 106.36619 185.82422
118.39221 106.5018 183.98262
118.85272 106.5028 184.08559
119.09914 106.43649 185.16183
119.56171 106.43746 185.26282
120.02408 106.43841 185.36256
120.27969 106.37207 186.43715
120.74414 106.37299 186.53491
121.41016 106.44114 185.65433
121.67253 106.37477 186.72672
122.33336 106.44288 185.84264
122.60026 106.37647 186.91359
123.44792 106.51178 185.047
124.09613 106.57983 184.15683
124.73933 106.64784 183.26454
125.19278 106.64861 183.35063
125.6461 106.64935 183.43552
126.27917 106.7173 182.53783
126.90726 106.78523 181.63806
127.35532 106.78592 181.71854
127.97587 106.85381 180.81514
128.59146 106.92168 179.90976
129.03429 106.92232 179.9859
129.14626 106.78855 182.02879
129.75664 106.85637 181.11913
130.04099 106.78979 182.177
130.48819 106.79037 182.24939
130.77957 106.72378 183.30614
131.07567 106.65717 184.36249
131.3765 106.59055 185.41847
131.97897 106.65828 184.50075
132.43045 106.65881 184.56816
132.88185 106.65933 184.63441
133.47435 106.72701 183.71185
133.92313 106.7275 183.7755
134.37183 106.72799 183.83797
134.68645 106.6613 184.88806
134.87424 106.52744 186.92671
135.20074 106.46075 187.97614
135.65874 106.46119 188.0354
135.99231 106.39447 189.08345
136.45253 106.3949 189.14072
137.27122 106.59674 186.22516
137.72408 106.59714 186.27925
138.06215 106.53038 187.32336
138.74184 106.66504 185.39268
139.19206 106.6654 185.44318
139.64221 106.66575 185.49251
140.0923 106.66608 185.54074
140.54233 106.66642 185.58786
140.89204 106.5996 186.62659
141.24651 106.53279 187.66464
141.60571 106.46597 188.7021
141.9697 106.39913 189.73888
142.33841 106.3323 190.77496
142.80013 106.33258 190.81653
143.26178 106.33285 190.85699
143.80679 106.40022 189.90205
144.18494 106.33336 190.93448
144.64644 106.3336 190.97154
145.10791 106.33382 191.00746
145.71693 106.46828 189.05225
146.10211 106.40137 190.08075
146.69905 106.5358 188.12242
147.21973 106.6031 187.15782
147.67139 106.60329 187.18753
148.06122 106.53635 188.21194
148.5152 106.53652 188.23956
148.85518 106.40247 190.25832
149.20473 106.2684 192.27652
149.66823 106.26855 192.30138
150.03214 106.13448 194.3181
150.5004 106.13461 194.34094
150.92365 106.06762 195.35938
151.43683 106.13483 194.38322
151.86482 106.06784 195.39958
152.37317 106.13504 194.42097
152.84131 106.13512 194.43816
153.34241 106.20231 193.45702
153.77754 106.13528 194.46912
154.24564 106.13535 194.48293
154.68794 106.0683 195.493
155.13503 106.00125 196.50204
155.60788 106.00129 196.51257
156.08073 106.00132 196.52194
156.55357 106.00135 196.53018
157.02641 106.00137 196.53728
157.4765 105.86717 198.53859
157.94514 105.80008 199.54118
158.41203 105.66587 201.54037
158.8885 105.53166 203.53845
159.37813 105.53164 203.53992
159.86839 105.46451 204.53793
160.36043 105.46446 204.53705
160.84703 105.53152 203.53723
161.32886 105.59856 202.53624
161.8161 105.5985 202.53183
162.31599 105.53133 203.52391
162.80566 105.53125 203.51712
163.29536 105.53117 203.50914
163.82472 105.39687 205.49509
164.38593 105.19545 208.47716
164.88766 105.19534 208.46538
165.41644 105.12811 209.44974
165.92062 105.12798 209.43546
166.42484 105.12783 209.41997
166.89482 105.19479 208.40611
167.4333 105.12753 209.38531
167.89854 105.19447 208.3692
168.48332 105.06007 210.34268
169.07774 104.92567 212.31458
169.54308 104.99258 211.29477
170.00363 105.05949 210.27397
170.6636 104.85794 213.23792
171.23114 104.7906 214.20724
171.80351 104.72325 215.17509
172.67198 104.3203 221.12161
173.63 103.85023 228.06104
174.43253 103.58147 232.00983
175.31979 103.24557 236.95168
176.36687 102.77542 243.88136
177.02605 102.70796 244.83575
177.3994 102.90898 241.80797
177.83347 103.04288 239.77475
178.1805 103.2439 236.74608
178.51317 103.44491 233.71716
178.74918 103.71305 229.69368
179.3895 103.64554 230.64114
180.1218 103.51087 232.58075
180.68477 103.51047 232.53069
181.1559 103.57718 231.48576
181.81094 103.50961 232.42644
182.27742 103.5763 231.37921
182.64003 103.71013 229.33824
183.39926 103.57537 231.26711
184.06425 103.50774 232.20132
184.73415 103.44009 233.13362
185.30019 103.43958 233.0722
185.86632 103.43906 233.0094
186.31895 103.50568 231.9539
186.88287 103.50512 231.88858
187.44688 103.50456 231.82181
188.011 103.50398 231.75366
188.57523 103.50339 231.6841
189.2652 103.43562 232.60291
189.9601 103.36782 233.51971
190.52948 103.36718 233.4453
191.36472 103.23218 235.34712
192.07445 103.16432 236.25768
192.78914 103.09644 237.16614
193.36865 103.09573 237.08463
194.23338 102.96062 238.97665
194.67305 103.02706 237.90431
195.40276 102.9591 238.80484
195.83788 103.02551 237.73026
196.57269 102.95751 238.62706
196.84866 103.09109 236.56461
197.42917 103.09027 236.47276
197.69092 103.22384 234.40959
198.42877 103.15577 235.30006
198.84302 103.22211 234.22002
199.58604 103.15398 235.10674
200.16493 103.15307 235.00783
201.08713 103.01767 236.87317
201.6712 103.01671 236.7704
202.60829 102.88125 238.63016
203.19759 102.88023 238.52348
203.60582 102.94645 237.43414
204.19305 102.9454 237.3248
204.59439 103.01159 236.23372
204.99106 103.07777 235.14201
205.76505 103.0094 236.00829
206.73749 102.87373 237.85088
206.93652 103.00713 235.77667
207.72084 102.93867 236.63634
208.51025 102.87019 237.49345
208.8985 102.93625 236.39435
209.2821 103.0023 235.29466
210.70108 102.73185 239.07344
211.29803 102.73055 238.94533
212.10812 102.6619 239.79034
212.92332 102.59322 240.63268
213.96144 102.45719 242.44597
214.12878 102.59042 240.3629
214.95454 102.52165 241.19809
215.56038 102.52018 241.05849
215.71146 102.65337 238.97437
215.85303 102.78655 236.89082
216.44994 102.78503 236.74854
217.28201 102.71611 237.57428
218.11926 102.64716 238.39714
218.96173 102.57816 239.21713
219.5672 102.57651 239.0663
220.66231 102.44005 240.8483
221.02618 102.50572 239.72615
221.63507 102.50397 239.56955
222.74835 102.36738 241.34195
223.36282 102.36556 241.18056
223.97765 102.36372 241.0174
225.11165 102.22697 242.77931
225.7321 102.22505 242.61124
226.35292 102.2231 242.44136
226.97414 102.22112 242.26971
227.32645 102.28657 241.13551
227.94594 102.28453 240.96086
228.56583 102.28246 240.78439
229.46278 102.21288 241.56465
230.08595 102.21074 241.3838
231.27277 102.07355 243.11533
231.6176 102.13885 241.97282
232.24448 102.13661 241.78557
232.58273 102.20187 240.64148
233.79108 102.06449 242.3595
234.71576 101.99459 243.11914
235.64587 101.92464 243.87532
236.28241 101.92221 243.6761
237.52238 101.78459 245.37708
238.46881 101.71449 246.1226
239.11423 101.71193 245.91502
240.06909 101.64173 246.6541
240.71797 101.6391 246.44164
240.73946 101.77169 244.33308
241.06789 101.83665 243.17195
241.39182 101.90161 242.01045
242.03271 101.8989 241.79309
243.32202 101.7608 243.46094
244.62186 101.62264 245.12323
245.93228 101.48441 246.77994
247.25325 101.34609 248.43098
248.25082 101.27542 249.13618
248.91743 101.27242 248.89813
249.58458 101.2694 248.65785
249.56917 101.40186 246.54053
250.57645 101.33104 247.23415
251.24274 101.32794 246.98811
251.56042 101.39262 245.80519
252.5769 101.32169 246.48927
253.95319 101.18291 248.10187
254.27 101.24753 246.91307
254.94153 101.24432 246.65469
255.61363 101.24108 246.39403
255.92191 101.30569 245.20218
256.22565 101.37031 244.01006
256.89426 101.36706 243.74437
257.56339 101.36379 243.47636
258.60754 101.29262 244.13075
259.28021 101.28932 243.85699
260.33301 101.21809 244.50356
261.39136 101.14684 245.14558
262.07065 101.14352 244.86256
263.13763 101.07224 245.49663
264.21021 101.00093 246.12608
70.32605 104.22095 210.2883
72.073448 104.41997 207.7776
73.034477 104.48798 207.09929
73.224419 104.42504 208.25984
74.179596 104.49303 207.57538
75.507034 104.62645 205.9632
74.947983 104.43266 208.96805
74.031097 104.17352 212.90277
74.984657 104.24151 212.21022
74.829971 104.11327 214.29671
75.415085 104.11584 214.52779
76.724762 104.24915 212.89751
79.103836 104.57849 208.46927
78.955009 104.45024 210.5508
81.300339 104.77942 206.10602
82.915192 104.97781 203.51685
83.464813 104.98015 203.72365
85.750839 105.30903 199.25133
88.011269 105.63778 194.76784
89.219109 105.77055 193.08527
90.756317 105.96853 190.45905
92.615356 106.2317 186.88657
92.779922 106.16847 188.00533
92.949112 106.10526 189.12425
93.452705 106.10727 189.30148
92.974068 105.91358 192.30508
93.809174 105.9808 191.53812
94.316612 105.98278 191.71217
95.783028 106.18033 189.04884
96.282211 106.18223 189.21712
98.35498 106.51 184.64922
98.528656 106.44663 185.75795
99.946213 106.64391 183.07251
101.04115 106.77596 181.33006
102.43062 106.9731 178.63274
102.59544 106.90962 179.733
103.36465 106.97639 178.9299
103.53378 106.91289 180.02887
103.41264 106.78427 182.08124
103.59352 106.72076 183.18117
104.35895 106.78744 182.37151
104.54414 106.72391 183.47006
105.30398 106.79051 182.65605
105.4935 106.72695 183.75322
106.2478 106.7935 182.93486
106.71925 106.79496 183.07216
107.74068 106.92649 181.28964
108.47928 106.99293 180.46283
109.21267 107.05933 179.63326
109.67313 107.06068 179.76222
110.39859 107.12701 178.92787
110.59322 107.0633 180.01613
110.2718 106.86958 183.03105
110.48067 106.80586 184.12062
110.94963 106.80712 184.24554
110.91235 106.67841 186.29967
110.88462 106.54969 188.35503
111.11455 106.48595 189.44501
111.59476 106.48716 189.5677
111.83154 106.42339 190.65683
112.7952 106.55447 188.84059
113.27225 106.55563 188.95862
114.22076 106.68663 187.13608
114.69246 106.68772 187.25026
115.16394 106.6888 187.36311
115.40667 106.62493 188.44608
116.10625 106.69089 187.58496
116.80072 106.75682 186.72142
117.26892 106.75781 186.82852
118.17444 106.8886 184.98714
118.8537 106.95444 184.11644
119.1001 106.89047 185.19283
119.56265 106.89138 185.29378
120.02501 106.89227 185.39348
120.2806 106.82828 186.46822
120.74503 106.82914 186.56598
121.61276 106.95972 184.70789
122.072 106.96055 184.80214
122.53107 106.96135 184.89516
122.79553 106.89729 185.96574
123.44872 106.96292 185.07756
124.09691 107.02852 184.18724
124.55292 107.02926 184.27495
125.19353 107.09483 183.3808
125.64683 107.09553 183.46568
126.09999 107.09622 183.54933
126.73048 107.16173 182.64986
127.35599 107.2272 181.74831
127.97652 107.29267 180.84474
128.59209 107.35811 179.93918
129.03491 107.35872 180.0153
129.31224 107.2945 181.07437
129.75723 107.29508 181.14865
129.88104 107.16604 183.19156
130.33064 107.1666 183.2643
130.62444 107.10235 184.32158
131.07623 107.10289 184.39243
131.37704 107.03862 185.44852
132.12794 107.16872 183.54385
132.57701 107.16922 183.61087
133.16959 107.2345 182.68927
133.61606 107.23497 182.75365
134.06241 107.23544 182.81694
134.50867 107.23589 182.8791
134.95485 107.23633 182.94011
135.13782 107.10721 184.97839
135.58864 107.10763 185.03784
136.03938 107.10803 185.09615
136.36572 107.04367 186.14342
136.8187 107.04406 186.1998
137.39113 107.10921 185.2643
137.72446 107.04482 186.30911
138.17722 107.04517 186.36206
138.74219 107.11028 185.42235
139.19241 107.11062 185.47279
139.64255 107.11095 185.52214
140.19769 107.17602 184.578
140.54265 107.11157 185.61749
140.7921 106.98238 187.64919
141.2468 106.98267 187.69455
141.606 106.91821 188.73216
141.96997 106.85374 189.76907
142.42932 106.854 189.81155
142.97684 106.91901 188.85889
143.43367 106.91926 188.89891
143.97388 106.98424 187.94337
144.3472 106.91973 188.97556
144.80389 106.91995 189.01222
145.18433 106.85542 190.04277
145.71715 106.92037 189.0822
146.10231 106.85583 190.11086
146.69923 106.98549 188.15221
147.15332 106.98567 188.18314
147.60736 106.98584 188.21297
148.06137 106.98601 188.2417
148.51535 106.98616 188.26933
148.85533 106.85685 190.28841
149.25946 106.79227 191.3105
149.72055 106.7924 191.33521
150.13184 106.7278 192.35547
150.50052 106.59846 194.37163
150.92375 106.53385 195.39021
151.47951 106.66341 193.41692
151.90511 106.59879 194.43333
152.41103 106.6636 193.45444
152.91214 106.7284 192.47427
153.44141 106.85792 190.49541
153.86934 106.79326 191.50748
154.27386 106.66388 193.51607
154.71376 106.59921 194.52621
155.15845 106.53453 195.53539
155.60793 106.46985 196.54353
156.08076 106.46987 196.55292
156.5536 106.46989 196.56114
157.02643 106.46992 196.56824
157.49925 106.46992 196.57419
157.97208 106.46992 196.57901
158.43173 106.34048 198.57846
158.90518 106.27574 199.57893
159.38165 106.14627 201.57616
159.86772 106.0168 203.57227
160.36038 105.95204 204.56926
160.84698 106.01672 203.56927
161.33662 106.01667 203.56601
161.81604 106.08133 202.56374
162.3033 106.08126 202.55814
162.79056 106.08119 202.55139
163.27785 106.08111 202.54346
163.78496 106.01629 203.53206
164.31912 105.88674 205.51703
164.78903 105.95136 204.50783
165.28117 105.95125 204.49509
165.77335 105.95113 204.48116
166.26553 105.951 204.466
166.75774 105.95086 204.44969
167.35988 105.75653 207.42389
167.89838 105.69164 208.40207
168.48314 105.56202 210.37589
169.07755 105.43238 212.3481
169.49663 105.56166 210.33128
170.05208 105.49673 211.30388
170.71443 105.30233 214.2682
171.28436 105.23738 215.23759
171.85912 105.17242 216.20544
172.8465 104.6543 224.14519
173.75104 104.26563 230.08923
174.55836 104.0064 234.03839
175.38495 103.74716 237.98492
176.43442 103.29368 244.91559
177.02571 103.29336 244.87456
177.39906 103.48727 241.8463
177.75804 103.68117 238.8177
178.18015 103.81032 236.78368
178.5128 104.00421 233.75429
178.74881 104.26286 229.73016
179.5585 104.06824 232.6664
180.29559 103.93836 234.60593
180.77386 104.00272 233.56158
181.33931 104.00233 233.50993
181.90485 104.00191 233.45692
182.27699 104.13101 231.41611
182.73872 104.19534 230.3678
183.3988 104.13013 231.30403
184.06378 104.06492 232.2384
184.84001 103.93491 234.16309
185.40845 103.93443 234.10143
185.8658 103.9987 233.04669
186.31844 104.06297 231.99107
186.88232 104.06245 231.92574
187.44633 104.06192 231.85899
188.01044 104.06137 231.79086
188.57465 104.06082 231.7213
189.26459 103.99546 232.64032
189.83142 103.99487 232.56761
190.39838 103.99427 232.49353
191.09833 103.92886 233.40703
191.80321 103.86343 234.31844
192.65076 103.73319 236.21609
193.22784 103.73252 236.13492
193.9476 103.66703 237.03998
194.52737 103.66633 236.95554
195.25464 103.6008 237.8566
195.68732 103.66487 236.78226
196.41971 103.5993 237.67961
196.69324 103.72818 235.61719
197.11427 103.79221 234.54031
197.37117 103.92107 232.47762
198.26604 103.79061 234.35376
198.67786 103.85461 233.27397
199.41844 103.78894 234.16127
199.99489 103.78808 234.06284
200.91463 103.65751 235.92892
201.49628 103.6566 235.82664
202.25449 103.59083 236.70496
203.01775 103.52502 237.58093
203.42352 103.58891 236.4919
204.00833 103.58793 236.38306
204.59334 103.58693 236.27269
205.17853 103.5859 236.16077
205.76393 103.58485 236.04733
206.54295 103.51891 236.9113
207.1312 103.51782 236.79427
207.71967 103.51671 236.67563
208.30835 103.51558 236.55545
208.89728 103.51442 236.4337
209.28085 103.57816 235.33388
210.49181 103.38223 238.13742
211.29674 103.31609 238.98529
212.10678 103.24991 239.83054
212.92197 103.1837 240.67307
214.1778 102.98759 243.46057
214.12737 103.18105 240.40334
214.73047 103.17969 240.26602
215.33383 103.1783 240.12701
215.48244 103.30679 238.04317
215.85152 103.37033 236.93097
216.68082 103.30392 237.75917
217.51529 103.23748 238.5845
217.88036 103.30095 237.46848
218.9601 103.16946 239.25793
219.56554 103.16789 239.10716
220.66061 103.03631 240.88956
221.27158 103.03468 240.73407
222.13246 102.96801 241.54308
222.99858 102.90131 242.34901
223.36101 102.9646 241.22217
223.71886 103.02788 240.09485
224.85034 102.89604 241.85776
225.46831 102.89423 241.69044
226.08664 102.89239 241.52129
226.70532 102.89052 241.35034
227.05515 102.95368 240.21672
227.67215 102.95176 240.04283
228.56374 102.88474 240.82658
229.46066 102.81766 241.60709
229.80464 102.88072 240.46823
230.98894 102.74847 242.2009
231.33127 102.81149 241.05901
231.38251 102.93961 238.96088
231.71329 103.00262 237.81892
232.91415 102.87019 239.53963
234.12535 102.73769 241.25536
234.75394 102.73545 241.06049
235.68198 102.66801 241.81573
236.91693 102.53534 243.51869
237.85832 102.4678 244.26604
238.49872 102.46539 244.06013
239.44855 102.39775 244.80109
240.09241 102.39528 244.59032
240.42282 102.45799 243.43033
240.74872 102.5207 242.26994
241.38907 102.51815 242.0547
242.35138 102.45033 242.78209
243.31918 102.38245 243.50569
244.29253 102.31452 244.22546
245.60037 102.18126 245.88347
246.58731 102.11323 246.59462
247.57979 102.04514 247.30183
248.24133 102.04233 247.06566
248.90343 102.03948 246.82729
249.22452 102.10195 245.64911
249.54111 102.16441 244.47058
250.19978 102.16151 244.22743
250.50989 102.22396 243.04726
251.87039 102.09027 244.66827
253.24158 101.95651 246.28323
253.91 101.95349 246.02821
254.57898 101.95046 245.77087
255.2485 101.9474 245.51129
255.55426 102.00978 244.32037
256.22229 102.00671 244.0571
257.26028 101.93816 244.71848
257.56 102.00053 243.52359
258.60413 101.93195 244.17825
259.27679 101.92883 243.90457
259.94998 101.9257 243.62856
260.62366 101.92258 243.35016
261.29779 101.91946 243.06934
261.97241 101.91634 242.78618
263.03729 101.84768 243.41913
70.71917 104.83897 209.40984
72.463989 105.03056 206.89746
73.422462 105.09599 206.21783
72.844269 104.90924 209.22078
73.801987 104.97468 208.53712
75.509644 105.16614 206.00179
74.575439 104.91646 209.93192
73.288506 104.60386 214.79411
74.617203 104.73229 213.1765
74.832634 104.67174 214.3364
75.052696 104.6112 215.49628
77.089882 104.86546 212.00685
79.466347 105.18257 207.57671
79.672432 105.12194 208.72574
81.65773 105.37596 205.21088
82.565208 105.44112 204.48764
82.417587 105.31754 206.56467
84.711098 105.63425 202.09425
86.978996 105.95085 197.61267
88.194351 106.0787 195.93245
90.078842 106.33222 192.37004
92.617447 106.71137 186.92003
92.782005 106.65045 188.03889
93.283455 106.65236 188.21686
93.124969 106.52859 190.27708
93.303383 106.46767 191.39633
94.135963 106.53236 190.62827
94.318604 106.47142 191.74596
95.784958 106.66164 189.08209
96.601395 106.72621 188.30406
98.042046 106.91631 185.6286
98.218193 106.85526 186.73827
99.638184 107.04523 184.0531
100.42825 107.10963 183.2606
101.82265 107.29948 180.56435
102.29477 107.30106 180.71521
103.06641 107.36534 179.91269
103.53539 107.36687 180.05984
103.70915 107.30568 181.15901
103.59512 107.18178 183.21252
104.36051 107.24596 182.40266
104.54568 107.18474 183.50134
105.02051 107.18619 183.64357
105.21249 107.12495 184.74159
106.52933 107.31435 182.00789
106.7207 107.25306 183.1031
107.74209 107.37971 181.32021
108.48066 107.44367 180.49321
109.21402 107.5076 179.66342
109.40672 107.44624 180.7538
110.39989 107.57273 178.95779
110.85732 107.57395 179.08337
110.53344 107.38734 182.09805
110.99773 107.38853 182.22296
111.46176 107.38972 182.34653
111.41956 107.2657 184.39964
111.63747 107.20427 185.48792
112.10809 107.20541 185.60941
112.33286 107.14397 186.6969
112.31909 107.01994 188.75226
113.27782 107.14616 186.93446
113.51166 107.08467 188.02042
114.22186 107.14828 187.1667
114.69353 107.14931 187.28084
115.16499 107.15031 187.39368
115.1792 107.02625 189.44827
116.10725 107.15229 187.61545
116.57808 107.15324 187.72438
117.04869 107.15419 187.83202
118.17538 107.34264 185.01706
118.63829 107.34354 185.1205
119.10101 107.34441 185.22269
119.56354 107.34527 185.32362
120.2349 107.4086 184.4474
120.48805 107.34694 185.52173
120.95004 107.34774 185.61894
121.81531 107.4735 183.76001
122.27209 107.47427 183.85373
122.53186 107.41255 184.92467
123.18518 107.47576 184.03754
123.64149 107.47649 184.12764
124.09764 107.47719 184.21652
124.7408 107.54034 183.32387
125.37897 107.60347 182.42911
125.82982 107.60413 182.51349
126.46043 107.66722 181.61499
127.08606 107.73029 180.71445
127.53166 107.7309 180.79442
128.14977 107.79394 179.89024
128.59268 107.79452 179.96751
129.03549 107.79509 180.04362
129.31281 107.73322 181.10284
129.7578 107.73376 181.17708
129.88161 107.60945 183.22028
130.33119 107.60998 183.29301
130.62497 107.54808 184.35043
131.23003 107.611 183.43504
131.52843 107.54908 184.49091
132.42534 107.73679 181.59859
133.01559 107.79965 180.67758
133.60092 107.86251 179.7547
134.04013 107.86295 179.81805
134.47923 107.86337 179.88031
134.78188 107.80139 180.93011
135.22322 107.8018 180.99048
135.53291 107.7398 182.03908
135.84735 107.6778 183.08719
136.16652 107.61579 184.13481
136.49043 107.55378 185.18196
136.81908 107.49176 186.22859
137.39149 107.5545 185.29291
137.6077 107.43008 187.32901
138.06287 107.43042 187.38226
138.63023 107.49313 186.44264
138.97296 107.43107 187.48534
139.42792 107.43137 187.5352
139.98787 107.49405 186.59142
140.44028 107.49434 186.63878
140.79239 107.43225 187.67802
141.24709 107.43253 187.72339
141.60628 107.37042 188.76111
142.15631 107.43304 187.81075
142.5202 107.37093 188.84669
143.15353 107.4959 186.89951
143.69138 107.55849 185.94475
144.22437 107.62106 184.98846
144.59045 107.55892 186.02019
145.03993 107.55912 186.05624
145.41316 107.49696 187.08638
145.86494 107.49715 187.12044
146.2453 107.43498 188.14888
146.7684 107.49751 187.18526
147.22008 107.49767 187.21602
147.67172 107.49783 187.2457
148.06152 107.43563 188.27039
148.5155 107.43578 188.29802
148.79848 107.24886 191.3138
149.20502 107.18665 192.33618
149.6685 107.18678 192.36102
150.08217 107.12454 193.38156
150.50063 107.06231 194.4012
150.92386 107.00006 195.41992
151.43703 107.06251 194.44344
151.86501 107.00025 195.46013
152.37334 107.06268 194.48119
152.84146 107.06276 194.49834
153.37552 107.18752 192.51938
153.80824 107.12523 193.53174
154.27393 107.12529 193.54544
154.68803 107.00065 195.55348
155.15849 107.00069 195.56508
155.60796 106.93838 196.57338
156.0808 106.93841 196.58272
156.55362 106.93842 196.59097
157.02644 106.93844 196.59807
157.49925 106.93845 196.60403
157.97206 106.93845 196.60884
158.43173 106.81375 198.60858
158.90935 106.81374 198.61116
159.38518 106.75137 199.61064
159.86644 106.62666 201.60704
160.35126 106.62663 201.60614
160.83609 106.62659 201.60408
161.32091 106.62653 201.60085
161.80576 106.62648 201.59648
162.27797 106.68876 200.59294
162.77547 106.62634 201.5842
163.27776 106.56392 202.5742
163.78487 106.50149 203.56296
164.2968 106.43905 204.55045
164.78893 106.43895 204.53886
165.22701 106.56354 202.53078
165.74379 106.50108 203.51456
166.23357 106.50095 203.49953
166.72337 106.50082 203.48331
167.32309 106.31364 206.45802
167.89822 106.1888 208.43375
168.48299 106.06393 210.40787
169.12122 105.87672 213.37749
169.58893 105.9389 212.35727
170.10052 105.93871 212.3329
170.71423 105.81381 214.30081
171.28415 105.75126 215.27034
171.74721 105.81341 214.24539
172.72975 105.31433 222.18661
173.56883 105.0023 227.13568
174.43198 104.69026 232.08194
175.18829 104.50291 235.03352
176.29839 104.00375 242.96149
176.95514 103.94109 243.91637
177.39874 104.06551 241.88326
177.83279 104.18993 239.84944
178.25729 104.31434 237.81493
178.59235 104.50112 234.78488
178.83076 104.75026 230.75999
179.64284 104.56281 233.69646
180.46942 104.37534 236.63037
180.86299 104.49972 234.5914
181.43083 104.49934 234.53957
181.90443 104.56133 233.49274
182.27658 104.68569 231.45164
182.7383 104.74767 230.4032
183.49991 104.62249 232.33249
184.16727 104.55968 233.26677
184.94591 104.43446 235.1915
185.40797 104.4964 234.1375
185.97649 104.49593 234.07443
186.54509 104.49545 234.00999
186.88182 104.61975 231.96152
187.4458 104.61925 231.89482
187.88908 104.68114 230.83598
188.5741 104.61822 231.75716
189.1384 104.61768 231.68623
189.83084 104.55473 232.60367
190.39778 104.55416 232.5296
191.23059 104.42876 234.43245
191.80258 104.42816 234.35484
192.51241 104.36514 235.26433
193.22717 104.30209 236.17169
194.08945 104.17661 238.06473
194.52667 104.23837 236.99249
195.25392 104.17527 237.89372
195.83636 104.17458 237.80597
196.57117 104.11143 238.70316
196.84709 104.23557 236.64009
197.42757 104.23484 236.54831
197.6893 104.35897 234.48454
198.42711 104.29576 235.3754
198.84134 104.35743 234.29509
199.25089 104.41908 233.21411
199.82489 104.41827 233.1161
200.74219 104.29253 234.98299
201.49536 104.22923 235.86388
202.07716 104.22836 235.76007
203.01682 104.10253 237.61856
203.60382 104.10162 237.51083
204.19104 104.10069 237.4016
204.77844 104.09974 237.29079
205.36606 104.09877 237.17842
205.95386 104.09779 237.06454
206.73528 104.03429 237.92822
207.32594 104.03326 237.81073
207.71857 104.0947 236.7135
208.30724 104.09364 236.59335
208.89612 104.09255 236.47162
209.27969 104.15396 235.37169
210.4906 103.96528 238.1757
211.08507 103.96412 238.04817
212.10553 103.83788 239.86923
212.92068 103.77414 240.71196
214.17645 103.58528 243.49997
214.34621 103.70909 241.41577
214.95172 103.7078 241.27792
215.78259 103.64394 242.11076
215.93607 103.76772 240.02547
216.08006 103.89149 237.94083
216.91177 103.82755 238.76863
217.51381 103.82616 238.62357
218.11617 103.82474 238.47687
218.71881 103.82329 238.32845
219.32176 103.82182 238.17831
220.41434 103.69512 239.96167
221.26994 103.63099 240.77385
222.13078 103.56681 241.58305
222.99689 103.50259 242.38921
223.61375 103.50096 242.22729
224.23096 103.49931 242.06357
224.84854 103.49762 241.89809
225.46648 103.49591 241.7308
226.34911 103.43152 242.52414
227.23703 103.36709 243.31429
227.05325 103.55328 240.25711
227.67023 103.55147 240.0833
228.56177 103.48695 240.86725
228.90532 103.54776 239.73013
229.24432 103.60856 238.59259
230.42365 103.48123 240.3271
231.04507 103.47926 240.14331
231.66695 103.47727 239.95769
232.57826 103.41253 240.72537
233.495 103.34773 241.48972
234.71112 103.22015 243.20432
235.34465 103.21802 243.00798
236.27762 103.15309 243.76187
236.91455 103.15088 243.56084
237.85591 103.08587 244.30843
238.49628 103.0836 244.10258
239.13712 103.08129 243.89474
240.08987 103.01616 244.63306
240.42027 103.0766 243.47298
240.74615 103.13704 242.3125
241.38647 103.13463 242.09732
242.0273 103.13219 241.88011
242.66862 103.12973 241.66083
243.31046 103.12724 241.43945
244.61072 102.99899 243.10049
245.92154 102.87066 244.75589
246.90897 102.80516 245.46512
247.90195 102.73962 246.17041
248.90051 102.67403 246.87169
249.56311 102.67131 246.63121
249.8822 102.73151 245.45164
250.54338 102.72876 245.20766
250.85599 102.78894 244.02644
251.86734 102.72319 244.71291
252.88431 102.65741 245.39522
253.90689 102.59158 246.07336
254.57584 102.58871 245.81612
255.6071 102.52282 246.48671
255.55109 102.64595 244.36559
256.21912 102.64304 244.10242
257.25708 102.57709 244.76405
257.92871 102.57416 244.49518
258.97534 102.50816 245.14908
259.65057 102.5052 244.87447
260.32629 102.50224 244.59747
260.62036 102.56238 243.39613
262.06387 102.43321 244.9572
262.35635 102.49336 243.75214
263.034 102.49042 243.46555
70.331268 105.33078 210.36676
72.078613 105.51498 207.85487
72.654282 105.51722 208.09688
72.081215 105.3376 211.10237
73.043999 105.4005 210.42059
75.134407 105.64518 206.96286
74.202789 105.40504 210.89459
72.918427 105.10441 215.75859
73.50946 105.10672 215.99562
73.364952 104.98792 218.08665
72.865089 104.80857 221.10872
74.554916 104.99255 218.55452
77.66893 105.41857 212.26837
78.602524 105.48132 211.5584
80.950233 105.78609 207.11279
82.919891 106.03024 203.58954
83.819344 106.09281 202.86136
85.755363 106.33681 199.32208
87.670807 106.58072 195.77354
88.881088 106.70361 194.09109
90.420708 106.88689 191.46469
92.282127 107.13055 187.89168
92.449181 107.07194 189.01157
92.62085 107.01332 190.13158
92.797142 106.9547 191.25171
92.97805 106.89608 192.37195
93.813095 106.95827 191.60451
94.320488 106.96002 191.77846
95.786789 107.14291 189.11406
96.285919 107.1446 189.28223
97.729012 107.32737 186.60709
97.907646 107.26864 187.71767
99.020279 107.39095 185.98169
99.50798 107.39253 186.1403
101.21461 107.63543 182.49542
101.69168 107.63693 182.64783
102.76813 107.75906 180.89458
103.23956 107.76051 181.04248
104.00555 107.82224 180.23531
103.88904 107.70304 182.28833
104.36198 107.70444 182.43263
104.54716 107.64553 183.5314
105.30693 107.70717 182.71698
105.77895 107.7085 182.85703
106.53072 107.77009 182.03754
106.99965 107.77137 182.17406
107.74342 107.83289 181.34962
108.48196 107.89438 180.52242
109.21529 107.95583 179.69244
109.94344 108.01725 178.85971
111.1969 108.19909 176.09972
111.38414 108.14 177.18617
111.05534 107.96048 180.19997
111.25681 107.90139 181.2878
111.46292 107.84229 182.37564
111.42072 107.723 184.42902
111.88913 107.72408 184.55116
112.3573 107.72514 184.67201
113.07085 107.78637 183.82401
113.29291 107.72722 184.90967
114.00108 107.7884 184.05779
114.22758 107.72923 185.14206
114.9304 107.79036 184.28638
115.39474 107.79131 184.39871
115.6279 107.7321 185.48085
115.63721 107.61274 187.53458
116.56036 107.73392 185.70027
117.02629 107.73482 185.80803
117.492 107.73569 185.91454
118.17628 107.79667 185.04584
118.85548 107.85762 184.17479
119.10187 107.79832 185.2514
119.77583 107.85924 184.37679
120.23572 107.86002 184.47592
120.48885 107.80069 185.55038
121.15498 107.86154 184.67046
121.81608 107.92238 183.78828
122.27284 107.9231 183.882
122.53259 107.86372 184.95308
123.1859 107.92449 184.06578
123.45018 107.86509 185.13539
124.09833 107.92583 184.24471
124.92863 108.04662 182.37138
125.37962 108.04726 182.45694
126.19508 108.168 180.57849
126.64095 108.16859 180.66078
127.08667 108.16918 180.7419
127.53226 108.16975 180.82187
127.97771 108.17031 180.9007
128.42305 108.17085 180.97835
128.70049 108.11134 182.03885
129.14798 108.11187 182.11462
129.59538 108.11238 182.18924
129.88213 108.05284 183.24792
130.3317 108.05334 183.32062
130.78116 108.05382 183.39221
131.23051 108.05428 183.46263
131.83063 108.11477 182.54518
132.57423 108.23527 180.63875
133.16206 108.29572 179.71721
133.74498 108.35616 178.79384
134.18176 108.35657 178.85681
134.61844 108.35696 178.9187
134.91866 108.29733 179.96831
135.35757 108.29771 180.02834
135.66486 108.23807 181.07674
135.84772 108.11841 183.11449
136.04015 107.99875 185.15236
136.49078 107.9991 185.2095
136.81943 107.93943 186.25627
137.27232 107.93977 186.31146
137.72513 107.94009 186.36552
138.17787 107.9404 186.41847
138.63055 107.9407 186.47029
139.08315 107.941 186.521
139.53569 107.94128 186.57057
139.88309 107.88157 187.61169
140.44055 107.94183 186.66637
140.79265 107.8821 187.70575
141.14951 107.82237 188.74449
141.51109 107.76263 189.78261
142.06351 107.82286 188.83234
142.52043 107.82309 188.87456
143.06554 107.88329 187.92137
143.51994 107.88351 187.96117
144.14114 108.00368 186.01041
144.59067 108.00388 186.04756
145.04013 108.00406 186.08363
145.48955 108.00424 186.11859
146.01273 108.06439 185.15698
146.38828 108.00459 186.18524
146.90657 108.06472 185.22112
147.35342 108.06487 185.25154
147.80025 108.06502 185.28088
148.18526 108.00518 186.30542
148.57503 107.94534 187.32918
148.91258 107.82553 189.34871
149.36888 107.82565 189.37427
149.77298 107.76579 190.39554
150.23163 107.7659 190.41901
150.64287 107.70603 191.43845
151.01392 107.58619 193.45415
151.47969 107.58628 193.47459
151.90527 107.5264 194.49133
152.37341 107.52647 194.50963
152.84154 107.52654 194.52679
153.34261 107.58657 193.54517
153.77773 107.52666 194.55775
154.27397 107.58668 193.57372
154.71385 107.52676 194.58418
155.1819 107.52679 194.5957
155.64993 107.52682 194.60614
156.11797 107.52685 194.61539
156.56981 107.4669 195.62161
157.04022 107.46691 195.62866
157.51064 107.46692 195.6346
157.98103 107.46691 195.63939
158.43829 107.34698 197.6394
158.91768 107.40693 196.64378
159.3887 107.34694 197.64339
159.86453 107.28695 198.64186
160.34821 107.16698 200.63739
160.8252 107.22691 199.63715
161.30521 107.22687 199.63396
161.79547 107.16685 200.62776
162.27791 107.16679 200.62222
162.77539 107.10676 201.61362
163.27768 107.04671 202.60381
163.80461 106.9267 204.5907
164.27448 106.98658 203.58238
164.73956 107.04646 202.57298
165.19986 107.10632 201.56252
165.68481 107.10622 201.54881
166.20161 107.04613 202.5316
166.72324 106.98605 203.51306
167.32297 106.806 206.48825
167.9371 106.62595 209.46169
168.48283 106.56583 210.43867
169.07721 106.44573 212.41147
169.58876 106.44557 212.38835
170.14899 106.38542 213.36104
170.71405 106.32527 214.33221
171.28395 106.26511 215.30191
171.80284 106.26492 215.27344
172.72954 105.84486 222.21921
173.56859 105.54475 227.16901
174.30562 105.36458 230.1236
175.18803 105.06442 235.06804
176.29811 104.58431 242.99718
176.95485 104.52406 243.95219
177.47112 104.58375 242.91435
177.98264 104.64344 241.87546
178.41193 104.76311 239.84029
178.67192 105.00275 235.81447
178.99501 105.18241 232.78358
179.98128 104.88214 237.70934
180.64326 104.82181 238.65402
181.04164 104.94145 236.61438
181.52237 105.00109 235.56813
181.90405 105.12072 233.52722
182.08275 105.36034 229.49881
182.63876 105.35997 229.44397
183.4995 105.17958 232.36685
184.16685 105.11918 233.30128
184.94547 104.99875 235.22638
185.5163 104.99832 235.16449
186.0872 104.99789 235.10117
186.54462 105.05745 234.04471
186.88135 105.17702 231.99599
187.56372 105.11653 232.92046
188.0094 105.17607 231.86119
188.69679 105.11556 232.78223
189.26349 105.11506 232.711
189.95834 105.05452 233.62833
190.39723 105.11401 232.56432
191.09714 105.05345 233.47812
191.53143 105.11292 232.41191
192.2364 105.05232 233.32222
192.94633 104.99171 234.23042
193.66122 104.93108 235.13652
194.38107 104.87042 236.04042
195.25325 104.7497 237.92944
195.68591 104.8091 236.85484
196.26608 104.80844 236.76604
196.69177 104.86781 235.68958
196.95575 104.98724 233.62666
197.52911 104.98654 233.53456
198.26448 104.92577 234.42596
198.84058 104.92504 234.33055
199.25011 104.98436 233.24942
200.16235 104.86346 235.11894
200.91292 104.80261 236.00197
201.49452 104.80182 235.89972
202.25272 104.74092 236.77844
203.37357 104.55984 239.61885
203.96542 104.55898 239.51025
204.74115 104.49801 240.38127
205.33582 104.4971 240.26915
205.93069 104.49619 240.15541
206.33481 104.55535 239.06041
206.92767 104.5544 238.94403
207.52074 104.55343 238.82607
207.91577 104.61255 237.72824
208.30617 104.67166 236.62981
209.09818 104.61052 237.48546
209.48415 104.6696 236.38486
210.48947 104.54829 238.21257
211.29434 104.48706 239.06085
212.10434 104.42581 239.90646
213.13477 104.30438 241.72408
214.1752 104.18292 243.53789
214.34494 104.30203 241.45343
214.95044 104.30082 241.31563
215.33113 104.35975 240.20366
215.47972 104.47884 238.11925
215.84875 104.53774 237.00684
216.67799 104.47629 237.83542
217.51242 104.41479 238.66116
217.87744 104.47365 237.54492
218.95709 104.35191 239.33507
219.56248 104.35052 239.18439
220.41283 104.2889 239.99973
221.0213 104.28746 239.845
221.87965 104.22578 240.655
222.74326 104.16405 241.46202
223.35764 104.16253 241.30078
223.97238 104.16098 241.13779
224.58745 104.1594 240.97298
225.20291 104.1578 240.80644
226.34735 104.03566 242.56319
226.96844 104.03399 242.39166
226.7822 104.2131 239.33478
227.39667 104.2114 239.1617
228.28572 104.14939 239.94661
228.62679 104.20792 238.81009
229.24243 104.20614 238.63153
230.14008 104.14404 239.40874
231.04309 104.08188 240.18266
231.66492 104.08001 239.99704
232.5762 104.01778 240.765
233.49289 103.95551 241.52951
235.00296 103.77251 244.19839
235.93542 103.71014 244.95447
236.87332 103.64773 245.70705
237.21375 103.706 244.55293
238.15756 103.64351 245.29993
238.49396 103.70174 244.14342
239.13477 103.69958 243.93562
239.77606 103.69738 243.72581
240.41786 103.69516 243.51399
241.06015 103.69291 243.30009
241.38402 103.75106 242.13832
242.02481 103.74876 241.92117
242.99004 103.686 242.6461
243.30792 103.74409 241.48067
244.60812 103.6208 243.14207
245.58743 103.55792 243.85632
246.5723 103.495 244.5667
247.56274 103.43202 245.27313
248.89774 103.3085 246.91441
249.2188 103.36646 245.73605
249.87939 103.36389 245.49434
250.54054 103.3613 245.25043
251.20222 103.35869 245.00424
251.86446 103.35606 244.75583
252.52725 103.35341 244.50517
253.90393 103.22961 246.11678
254.93208 103.16632 246.79089
255.24234 103.22419 245.60014
255.54808 103.28206 244.40907
255.84927 103.33994 243.21767
257.25403 103.21596 244.80786
257.92566 103.2132 244.53908
258.59778 103.21043 244.26793
259.64746 103.147 244.91869
261.08228 103.0229 246.48811
260.99939 103.14143 244.36247
261.67609 103.13865 244.08078
261.96603 103.19656 242.87669
263.03088 103.13309 243.51019
69.552834 105.76917 212.24126
70.917358 105.88775 210.65088
71.886009 105.94809 209.97507
71.700836 105.83381 212.06111
72.666153 105.89415 211.38014
74.381363 106.07083 208.84685
73.830002 105.89842 211.85611
72.548248 105.60974 216.72183
73.511879 105.67007 216.03265
73.367371 105.55595 218.12395
72.867523 105.38372 221.14641
74.919777 105.61842 217.6615
78.031189 106.02739 211.3732
79.319656 106.14568 209.72987
81.662239 106.43822 205.28149
83.626793 106.67256 201.75566
84.171326 106.6745 201.96034
85.757423 106.85064 199.35542
86.983185 106.96864 197.67992
88.198456 107.08661 195.99895
89.74305 107.26256 193.37384
91.272156 107.43845 190.74158
91.446724 107.38215 191.86426
92.622704 107.49991 190.16284
92.469223 107.38557 192.22536
92.325371 107.27126 194.2897
93.814896 107.44693 191.63577
94.322258 107.44858 191.80968
95.468758 107.56616 190.09048
95.970367 107.56776 190.25945
97.730667 107.80118 186.63722
97.909286 107.74475 187.74791
98.712097 107.80421 186.96062
99.202263 107.80569 187.12001
100.60652 107.98096 184.4259
101.08855 107.98238 184.57985
102.16991 108.09962 182.82785
102.94365 108.15891 182.02425
103.7121 108.21815 181.21765
103.89046 108.16158 182.31714
104.07346 108.105 183.4167
104.54853 108.10629 183.56032
105.0233 108.10757 183.70247
105.49776 108.10883 183.8432
106.53201 108.22579 182.06601
106.72336 108.16914 183.16144
107.46956 108.22819 182.33755
108.21055 108.2872 181.51085
108.94632 108.34619 180.68138
109.6769 108.40514 179.84917
111.19804 108.63755 176.12691
111.64806 108.63861 176.25038
111.57715 108.52402 178.30011
111.77368 108.46724 179.38676
112.2303 108.46826 179.5083
111.92775 108.29586 182.52577
112.39124 108.29687 182.64661
112.85449 108.29785 182.76613
113.56312 108.35661 181.91669
114.02344 108.35755 182.03297
114.96498 108.47403 180.21021
115.18167 108.41717 181.29218
115.63887 108.41806 181.40398
115.86246 108.36118 182.4852
116.32166 108.36204 182.59506
116.32364 108.24738 184.64729
117.01338 108.30598 183.78334
117.47441 108.30679 183.88997
117.71404 108.24986 184.96886
118.17711 108.25066 185.0735
118.63998 108.25144 185.17688
119.10266 108.2522 185.27902
119.77661 108.31068 184.40421
120.23649 108.31141 184.50331
120.48961 108.25441 185.57791
121.15572 108.31283 184.69783
121.81679 108.37122 183.81551
122.07426 108.31419 184.88741
122.53328 108.31485 184.98036
122.99214 108.3155 185.07211
123.45085 108.31613 185.16263
123.90939 108.31676 185.25194
124.55495 108.37505 184.35944
125.01077 108.37564 184.44588
125.83106 108.49158 182.56802
126.46164 108.54982 181.66919
126.90977 108.55036 181.75076
127.35777 108.5509 181.83112
127.80563 108.55142 181.91035
128.25337 108.55193 181.98843
128.70099 108.55243 182.06534
129.1485 108.55292 182.14108
129.43294 108.49574 183.20062
129.88261 108.49621 183.27448
130.17406 108.43901 184.33293
130.78162 108.49711 183.41875
131.23096 108.49755 183.48912
131.83105 108.55562 182.57152
132.42622 108.61368 181.65204
133.16248 108.72936 179.74309
133.74538 108.78738 178.81956
134.04094 108.73013 179.87085
134.48003 108.73049 179.93304
134.78265 108.67322 180.98314
135.09 108.61594 182.03276
135.4021 108.55865 183.08194
135.71892 108.50137 184.13066
136.16722 108.50169 184.18861
136.61545 108.50201 184.24542
136.94167 108.44471 185.29201
137.39215 108.44501 185.34689
137.84254 108.44531 185.40067
138.17818 108.38798 186.44504
