ply
format ascii 1.0
comment PCL generated
element vertex 1597
property float x
property float y
property float z
element camera 0
property float view_px
property float view_py
property float view_pz
property float x_axisx
property float x_axisy
property float x_axisz
property float y_axisx
property float y_axisy
property float y_axisz
property float z_axisx
property float z_axisy
property float z_axisz
property float focal
property float scalex
property float scaley
property float centerx
property float centery
property int viewportx
property int viewporty
property float k1
property float k2
end_header
239.56157 86.228683 243.11334
240.51869 86.094666 243.84117
241.1669 86.088448 243.62462
241.49872 86.210114 242.4662
242.78421 85.947853 244.12419
243.43643 85.941422 243.90048
244.08914 85.934921 243.67464
245.39621 85.672272 245.31932
246.05493 85.665604 245.08739
246.38223 85.786957 243.91876
247.03944 85.780197 243.68335
247.3602 85.90152 242.51306
248.01593 85.894669 242.2742
249.01419 85.759567 242.964
250.01804 85.624359 243.64978
250.68033 85.61731 243.40236
251.34312 85.610207 243.15274
252.35858 85.474762 243.82793
253.73428 85.210876 245.42505
254.76341 85.075203 246.09084
255.07854 85.196236 244.90395
256.11371 85.060455 245.5631
257.15445 84.924583 246.21791
257.83331 84.917114 245.94719
258.8826 84.78112 246.59422
260.30991 84.516533 248.15593
262.12286 84.12326 250.62915
262.44125 84.244171 249.42563
262.75494 84.365143 248.2218
263.06393 84.486176 247.01768
262.98294 84.735954 244.89948
262.89212 84.98587 242.78317
263.57208 84.97847 242.49211
72.16832 90.955688 204.22617
72.350616 90.835365 205.38358
73.695305 91.093506 203.79944
72.346413 90.468857 208.61382
73.687973 90.727005 207.02464
74.640846 90.859009 206.34628
75.212624 90.864944 206.582
75.037819 90.618889 208.65405
75.613998 90.62487 208.88786
75.82177 90.504906 210.04088
75.303177 90.133148 213.03844
75.525391 90.013306 214.19353
77.19413 90.396957 211.65163
78.131416 90.528755 210.95226
78.707863 90.53466 211.17513
79.283875 90.540535 211.39607
80.209846 90.672142 210.6869
79.391205 90.17498 214.61932
80.318848 90.306534 213.90723
80.898262 90.312317 214.12222
82.157791 90.569382 212.47151
83.069069 90.700668 211.748
84.645401 91.083084 209.15331
85.208023 91.088547 209.35521
85.770241 91.093956 209.55522
85.676598 90.848244 211.62622
85.917793 90.728088 212.76158
86.486275 90.733429 212.95869
87.694748 90.989647 211.27594
88.257385 90.994827 211.46768
89.450027 91.250801 209.77618
90.006866 91.255829 209.96262
90.253098 91.135429 211.08961
90.503914 91.015015 212.21649
91.369759 91.145256 211.45525
91.624763 91.024773 212.58022
91.884361 90.904282 213.705
93.041817 91.159576 211.99048
93.303123 91.038986 213.11256
93.861809 91.043602 213.28654
94.420113 91.048164 213.45879
95.265869 91.177856 212.67987
95.250252 90.931938 214.74837
96.375687 91.186646 213.0143
96.649643 91.065826 214.13069
97.206131 91.070099 214.2944
98.03772 91.199402 213.50334
99.137009 91.453682 211.75529
99.414528 91.332664 212.86647
100.23275 91.4617 212.06689
100.78013 91.465637 212.22023
101.06406 91.344498 213.32861
101.3526 91.223343 214.43671
102.16214 91.352112 213.62857
102.96645 91.480774 212.81752
103.51225 91.484421 212.96286
104.5594 91.737854 211.18671
104.85133 91.616455 212.28821
105.1479 91.495033 213.38936
105.44907 91.373589 214.49025
105.75486 91.252121 215.59082
106.30384 91.25547 215.72797
107.32475 91.508423 213.93622
107.86828 91.511635 214.06909
108.41154 91.514801 214.20041
109.18333 91.6427 213.36475
109.72363 91.645737 213.49245
110.03983 91.523987 214.58522
110.58209 91.526939 214.71048
110.90511 91.405121 215.80196
111.44934 91.40799 215.92476
112.20744 91.535522 215.07726
113.1721 91.787666 213.25783
113.49909 91.66568 214.34444
114.45113 91.917671 212.51941
114.57576 91.670937 214.57457
114.91185 91.548859 215.65886
115.25259 91.42675 216.74272
116.58331 91.927734 212.96391
117.11586 91.930138 213.07146
117.84041 92.057098 212.20415
118.37014 92.059402 212.30836
118.71236 91.937088 213.3855
119.05923 91.814743 214.46217
119.77576 91.941498 213.5878
120.48726 92.068192 212.71109
120.66084 91.821213 214.76062
121.01917 91.698761 215.83389
121.72774 91.825317 214.95255
122.26094 91.827316 215.04642
122.79399 91.829269 215.13887
123.65791 92.08017 213.27332
124.02271 91.957535 214.34093
124.23154 91.710411 216.38708
123.81689 90.965393 222.35155
123.27532 90.095985 229.29919
122.61406 89.102188 237.23106
121.68935 87.859581 247.12886
120.66427 86.492645 258.01358
119.98454 85.374695 266.94193
120.92934 85.625504 265.07571
121.58167 85.627396 265.17065
123.34515 86.624527 257.40424
125.06984 87.621506 249.63077
127.02393 88.867142 239.88406
128.1396 89.366264 236.03001
129.23584 89.865303 232.17191
130.43951 90.488632 227.32573
131.12123 90.61438 226.41264
132.04205 90.988808 223.52814
132.82869 91.238815 221.62541
134.19157 92.110542 214.79373
134.60233 91.987366 215.84132
135.35493 92.237198 213.9306
135.98785 92.36264 213.00357
136.40076 92.23938 214.0475
136.71326 91.99176 216.07727
137.24078 91.99279 216.13298
137.86856 92.118111 215.20018
138.7852 92.616333 211.30344
139.58701 92.990189 208.3911
140.18808 93.115372 207.45186
140.96567 93.489128 204.53471
141.64046 93.738533 202.6033
142.13379 93.739304 202.64688
142.54361 93.615761 203.67795
143.20137 93.865067 201.74142
143.77081 93.990044 200.79202
144.33537 94.11499 199.84102
144.89508 94.239914 198.88847
145.66429 94.737625 194.96535
146.13803 94.738197 194.99905
146.745 94.987289 193.05156
147.27808 95.112083 192.09245
147.74448 95.112579 192.12221
148.09198 94.864532 194.13174
148.62015 94.98925 193.16887
149.03423 94.865425 194.18608
149.45308 94.741577 195.20242
149.92651 94.741974 195.22685
150.49475 94.990845 193.26788
150.91832 94.866943 194.28099
151.43188 94.991516 193.31052
151.94063 95.116066 192.33868
152.40672 95.116348 192.35706
152.80202 94.868118 194.35753
153.33888 95.116837 192.3904
153.83551 95.241295 191.41359
154.29915 95.241493 191.42734
154.78854 95.365906 190.44807
155.27313 95.490295 189.46754
155.71094 95.366188 190.46985
156.15353 95.242058 191.47113
156.63329 95.366386 190.48715
157.10823 95.490692 189.50197
157.55562 95.366508 190.49997
158.01677 95.366531 190.50471
158.4845 95.490784 189.51608
158.93907 95.366531 190.51082
159.40024 95.366501 190.51219
159.86076 95.490685 189.52019
160.32256 95.366371 190.51158
160.78371 95.36628 190.5096
161.25272 95.241928 191.49873
161.70607 95.366028 190.5023
162.15462 95.490112 189.50479
162.59837 95.614182 188.50621
163.07222 95.489746 189.49083
163.53105 95.489532 189.48218
164.01215 95.365051 190.46442
164.4734 95.364792 190.45348
164.93468 95.364517 190.44142
165.36652 95.488464 189.43643
165.8573 95.363899 190.41394
166.31865 95.363564 190.3985
166.74335 95.487457 189.3904
167.24141 95.362823 190.36429
167.70284 95.362419 190.34549
168.20816 95.237732 191.31686
168.62578 95.361542 190.30453
169.0873 95.361076 190.28236
169.54884 95.360588 190.25908
170.06393 95.235809 191.22545
170.58386 95.111 192.19044
171.10863 94.98616 193.15402
171.63826 94.861298 194.11617
172.10962 94.860687 194.08662
172.51553 94.984337 193.06584
172.91666 95.107971 192.04424
173.31303 95.231583 191.02182
173.77737 95.230896 190.98814
174.24178 95.230179 190.95337
174.62868 95.353737 189.92822
175.25067 95.10437 191.86937
175.88237 94.85495 193.80858
176.35422 94.854126 193.76862
176.73894 94.977592 192.73906
177.29808 94.852402 193.68513
177.77011 94.851501 193.64166
178.05342 95.099243 191.62154
178.71439 94.849625 193.55118
179.38507 94.59996 195.4787
179.86221 94.598953 195.43004
180.23538 94.722267 194.39343
180.81671 94.596848 195.32915
181.2941 94.595749 195.27692
181.66028 94.719009 194.23747
182.02173 94.842239 193.19743
182.49454 94.841072 193.14218
182.84892 94.964264 192.10059
183.44041 94.838661 193.02809
184.03683 94.713013 193.9538
184.88966 94.338501 196.84615
185.3726 94.337173 196.78366
185.85564 94.3358 196.71999
186.33879 94.334412 196.65504
186.95744 94.208549 197.57185
187.71889 93.958199 199.46936
188.34985 93.832245 200.38196
188.98578 93.70623 201.29265
189.91682 93.331245 204.16447
190.27251 93.454071 203.10805
190.32364 93.825836 200.08943
191.12209 93.575172 201.97403
191.77559 93.448936 202.87576
191.96252 93.696175 200.83636
192.61871 93.569862 201.73512
193.27991 93.443497 202.63179
194.11053 93.192543 204.50485
194.45039 93.31514 203.44072
195.29346 93.064056 205.3091
195.97464 92.937469 206.19719
196.48671 92.935394 206.10629
196.64575 93.182442 204.06129
197.33231 93.05571 204.9445
198.02388 92.928925 205.82547
198.53662 92.926689 205.72914
199.79474 92.425919 209.52969
200.88376 92.049644 212.35103
201.79642 91.797913 214.19452
202.71899 91.546089 216.03464
203.45547 91.418846 216.8987
204.39552 91.166855 218.7325
205.74733 90.665375 222.50609
206.91551 90.28846 225.30299
207.89278 90.03614 227.12466
209.92114 89.160072 233.79318
211.14127 88.782738 236.57448
212.58939 88.280518 240.31998
214.70395 87.403831 246.96498
219.25087 85.154289 264.24799
222.78391 83.528183 276.6723
225.04358 82.650505 283.27921
225.9859 82.521515 284.0787
225.79456 83.016624 280.0466
222.8213 85.010025 264.43604
219.53732 87.128708 247.87785
218.0513 88.248764 239.04932
217.94693 88.619644 236.00969
218.06819 88.865646 233.93468
219.1499 88.611916 235.70876
220.24176 88.35807 237.47859
220.84897 88.354027 237.32253
221.45651 88.349915 237.16473
222.31674 88.220749 237.96471
222.92743 88.216499 237.80272
224.05298 87.96212 239.55539
224.92906 87.832657 240.34607
225.81042 87.703094 241.13354
226.69708 87.573433 241.91783
227.58908 87.443665 242.69891
227.94724 87.564041 241.56712
229.11702 87.30896 243.29718
229.19894 87.554382 241.20894
230.10242 87.424278 241.97966
230.45227 87.544464 240.84315
231.07957 87.539398 240.65744
231.99174 87.409027 241.4203
232.9093 87.278549 242.17967
233.83226 87.147964 242.93562
234.46872 87.142563 242.7399
235.40002 87.01178 243.48961
236.33676 86.880875 244.23576
236.97957 86.875237 244.0325
237.62283 86.869522 243.82722
238.26657 86.863739 243.61989
238.91077 86.857895 243.41052
239.86482 86.726532 244.14172
240.51248 86.72052 243.92743
241.16064 86.714462 243.71103
241.4924 86.833847 242.55243
242.7778 86.576569 244.21126
243.7518 86.444717 244.9261
244.08255 86.563942 243.76199
245.06262 86.431908 244.47086
245.71878 86.425415 244.23997
246.37544 86.418861 244.00694
246.69815 86.537949 242.83772
247.01636 86.657036 241.66815
247.66949 86.650368 241.43037
249.00719 86.39209 243.05289
250.01094 86.25946 243.73914
250.3261 86.378403 242.56253
251.33592 86.245628 243.24243
251.99916 86.238647 242.99068
253.01758 86.105713 243.66318
253.68436 86.098625 243.40591
253.99188 86.217468 242.22183
255.01935 86.084351 242.88446
256.41721 85.825134 244.46532
257.45834 85.691841 245.11829
258.87494 85.432388 246.68738
260.67465 85.046722 249.16942
262.11505 84.787003 250.72438
262.43344 84.90564 249.52071
261.98697 85.276703 246.4841
261.90823 85.521729 244.36668
261.81964 85.766876 242.25117
262.10901 85.885895 241.05067
262.78387 85.878693 240.76196
71.783348 91.376694 205.21544
71.968246 91.258713 206.37413
72.929619 91.388199 205.70451
71.202667 90.651947 211.43794
72.171089 90.781548 210.7675
73.134117 90.911102 210.09288
74.091713 91.040604 209.41417
73.924553 90.799355 211.4899
74.878914 90.928833 210.80609
75.091751 90.811203 211.96138
74.943802 90.570137 214.03923
75.531532 90.57608 214.27191
76.839722 90.82888 212.65344
78.137398 91.081558 211.02901
78.358414 90.963943 212.1783
79.28978 91.093071 211.47256
79.51503 90.975441 212.61986
79.744919 90.857834 213.76709
81.015266 91.110092 212.1232
81.589584 91.115692 212.33621
82.503738 91.244499 211.61505
83.750168 91.496422 209.95702
84.650902 91.625015 209.22748
84.880768 91.507172 210.3642
85.445435 91.512482 210.565
85.354317 91.271507 212.63737
85.923164 91.276764 212.83621
86.81427 91.405045 212.09473
87.379784 91.410179 212.28899
88.26255 91.538292 211.54124
89.455093 91.789314 209.84897
89.699196 91.671234 210.97713
89.947876 91.553146 212.10518
90.508842 91.557991 212.28957
91.67981 91.808617 210.58356
92.235008 91.813309 210.76277
92.789818 91.817947 210.94026
93.641975 91.945381 210.16931
94.19352 91.949883 210.34258
94.451927 91.831512 211.46237
94.714912 91.71312 212.58202
95.558121 91.840271 211.80188
95.540009 91.599052 213.87015
96.380005 91.726067 213.08588
96.653923 91.607544 214.20248
97.210358 91.61171 214.36609
98.041862 91.738495 213.57458
99.141052 91.987862 211.82584
99.689041 91.991806 211.98232
101.04079 92.363586 209.27048
101.58071 92.367363 209.42165
101.85721 92.248482 210.5282
102.13832 92.129578 211.63449
102.9404 92.255798 210.82394
102.97009 92.014267 212.88736
103.26259 91.895294 213.99219
104.3121 92.143837 212.21602
104.60645 92.024765 213.31833
104.65952 91.783188 215.38191
105.20901 91.78656 215.52209
105.9992 91.912331 214.69797
106.30714 91.793137 215.79781
107.32796 92.041199 214.00536
108.10509 92.166748 213.17354
108.41466 92.047409 214.26936
108.95762 92.050446 214.39908
109.50032 92.053421 214.52728
110.04278 92.056351 214.65396
110.58499 92.059235 214.77913
111.12695 92.062065 214.90283
111.45216 91.942535 215.99356
112.42429 92.189896 214.17656
112.96313 92.192574 214.29523
113.0833 91.950638 216.3528
113.83335 92.075516 215.49884
114.37396 92.078064 215.61363
114.71245 91.958321 216.69867
115.0556 91.838547 217.78329
116.1916 92.207672 214.97644
116.72897 92.21003 215.0849
117.45833 92.334557 214.2182
117.80312 92.21463 215.29747
118.33991 92.216858 215.40163
118.69162 92.09687 216.47948
119.59542 92.343353 214.63007
120.3093 92.467613 213.75343
120.6629 92.347511 214.82748
121.1964 92.349533 214.92409
121.9025 92.473633 214.04195
122.60358 92.597687 213.15755
122.96382 92.477455 214.22733
123.65976 92.60141 213.33932
123.37219 91.992737 218.3233
122.78737 91.139938 225.26875
121.91978 90.043053 234.17801
120.93979 88.824203 244.073
120.62164 88.093719 250.05179
120.48333 87.485336 255.0526
120.36906 86.876984 260.05548
120.42494 86.390701 264.0787
122.08112 87.246826 257.30048
122.99672 87.492676 255.42769
124.73595 88.470573 247.6554
126.57289 89.570358 238.89294
128.09808 90.425964 232.08984
128.93106 90.671432 230.19946
129.62503 90.794846 229.29042
130.8214 91.406181 224.44176
131.49583 91.529488 223.52739
132.40936 91.896698 220.64105
133.42793 92.385826 216.76624
134.5443 92.996841 211.90216
135.06258 92.997971 211.96327
135.91788 93.364929 209.06464
136.53871 93.48793 208.13591
137.04709 93.488953 208.19209
137.55539 93.489937 208.24699
138.06363 93.490898 208.30061
138.57178 93.491829 208.35298
139.2757 93.736595 206.42868
139.87439 93.85939 205.49013
140.37512 93.860229 205.53804
141.14786 94.226791 202.61952
141.81781 94.471405 200.68707
142.22043 94.350235 201.71901
142.62781 94.22905 202.75014
143.36421 94.595459 199.82359
143.77147 94.474228 200.85233
144.33601 94.596771 199.901
144.96954 94.841179 197.95834
145.66486 95.207443 195.02382
146.20761 95.329887 194.06735
146.81216 95.574188 192.11909
147.34282 95.696579 191.1595
147.80679 95.69706 191.1891
148.27072 95.697525 191.21753
148.73463 95.697952 191.24486
149.14388 95.576492 192.2621
149.61012 95.576897 192.28726
150.02652 95.455399 193.3026
150.58992 95.699493 191.3428
150.96365 95.456093 193.34749
151.47479 95.57827 192.37659
151.98111 95.700424 191.40434
152.40698 95.578827 192.41446
152.83766 95.457222 193.4236
153.37209 95.701172 191.45578
153.8663 95.823235 190.47861
154.32751 95.823425 190.49228
154.8145 95.94545 189.5126
155.27327 95.945595 189.524
155.69008 95.702003 191.51895
156.13506 95.580261 192.52055
156.61719 95.702202 191.53632
157.08073 95.702271 191.54332
157.54428 95.702316 191.54921
158.01678 95.824196 190.56146
158.4845 95.94606 189.57254
158.93906 95.824196 190.56755
159.40373 96.067863 188.58386
159.86006 96.067818 188.58411
160.31943 95.945892 189.57581
160.78362 95.823944 190.56635
161.24477 95.823837 190.56325
161.70592 95.823708 190.55902
162.15445 95.945412 189.56123
162.59819 96.067101 188.56239
163.05458 96.06691 188.5549
163.51099 96.066704 188.5463
163.96739 96.066475 188.53659
164.44849 95.944366 189.51801
164.90735 95.944092 189.50603
165.33676 96.065674 188.50079
165.82512 95.943497 189.4787
166.28404 95.943169 189.46336
166.74298 95.942825 189.4469
167.24103 95.82058 190.42111
167.7439 95.698318 191.394
168.20773 95.697899 191.37401
168.62534 95.819336 190.3614
169.08682 95.818886 190.33923
169.54836 95.818413 190.31595
170.06342 95.69603 191.28264
170.63921 95.451729 193.23891
171.16637 95.329292 194.20267
171.69836 95.206825 195.16495
172.10901 95.328125 194.14478
172.58041 95.327507 194.11407
172.91602 95.570671 192.10182
173.38269 95.570023 192.06915
173.84941 95.569336 192.03535
174.31619 95.568642 192.00037
174.70549 95.689835 190.97479
175.24991 95.567169 191.92702
175.79921 95.444473 192.87773
176.26862 95.44368 192.83798
176.7381 95.442856 192.79709
177.11806 95.56395 191.76649
177.67723 95.441139 192.71175
178.05251 95.562195 191.67932
178.61664 95.439331 192.62177
179.28488 95.194466 194.55019
179.86121 95.071526 195.48911
180.33838 95.070511 195.43927
180.81566 95.069481 195.38826
181.293 95.068413 195.33604
181.65916 95.189308 194.29636
182.0206 95.310188 193.25604
182.49338 95.309052 193.20081
183.08475 95.185898 194.12981
183.43919 95.306709 193.08678
184.28224 94.939453 195.9825
185.01411 94.694153 197.89064
185.49944 94.692848 197.8279
185.98486 94.691513 197.76392
186.47038 94.690155 197.6987
186.95602 94.688759 197.63225
187.57959 94.565285 198.54747
188.2081 94.441757 199.4608
189.12688 94.074059 202.33656
190.06029 93.706276 205.209
190.41837 93.826744 204.15196
190.77173 93.947205 203.09435
191.42506 93.823441 203.99773
191.9286 93.821732 203.91867
191.80359 94.308456 199.91833
192.29773 94.306717 199.83824
192.95403 94.182808 200.73605
193.61531 94.058846 201.63179
194.11473 94.056984 201.54703
194.95288 93.81076 203.41689
195.8009 93.564468 205.28372
196.31049 93.562454 205.19331
196.4671 93.804787 203.14819
197.15115 93.680511 204.03223
197.65881 93.678398 203.93819
198.16666 93.676239 203.84285
199.41983 93.185127 207.64558
200.50394 92.816124 210.46884
201.6028 92.447021 213.28786
202.52289 92.200066 215.12915
203.25688 92.075294 215.99409
203.99596 91.950455 216.8566
204.94101 91.703255 218.68857
205.89603 91.455956 220.51709
206.86102 91.208565 222.34203
208.87704 90.349419 229.01538
210.50616 89.734726 233.74007
212.37305 88.997505 239.42717
214.48502 88.137711 246.07494
218.15729 86.420975 259.49112
222.11871 84.581421 273.85773
225.70807 82.986221 286.27139
226.88297 82.737259 288.03616
227.15692 82.977943 285.93265
225.11937 84.443153 274.17532
221.86008 86.520988 257.60605
219.22308 88.231804 243.94772
218.41827 88.962997 238.01338
218.78444 89.081741 236.89966
219.146 89.20047 235.78539
219.99283 89.074066 236.59421
220.59752 89.070137 236.43889
221.45239 88.943581 237.24232
222.31253 88.816925 238.04271
222.92316 88.812775 237.88083
224.04863 88.563316 239.63426
225.1843 88.313736 241.38319
226.06805 88.186668 242.17044
226.69247 88.18219 241.99797
227.58438 88.054947 242.7795
228.21205 88.050323 242.6026
229.11215 87.922897 243.37828
229.46858 88.040863 242.24326
230.09744 88.036049 242.0607
230.44727 88.153946 240.92403
231.35643 88.026199 241.68994
231.98657 88.021172 241.50171
232.90402 87.893234 242.26155
233.53751 87.888062 242.06866
234.46329 87.759926 242.82234
235.10013 87.754593 242.62479
235.73743 87.749199 242.4252
236.67453 87.620789 243.16983
237.31523 87.615234 242.96547
237.95639 87.609619 242.75909
238.59805 87.603928 242.55069
239.24016 87.598183 242.34024
239.57092 87.715439 241.18559
240.21149 87.709579 240.97186
240.85255 87.703667 240.75606
241.81345 87.574554 241.47777
242.77985 87.445335 242.19568
243.4274 87.439186 241.97188
244.72923 87.186569 243.61998
246.0416 86.933792 245.26237
246.3688 87.050621 244.09338
247.02594 87.044159 243.85834
248.02049 86.914352 244.55447
248.34167 87.031097 243.38161
249.34232 86.901123 244.07153
250.34851 86.771049 244.75735
250.66618 86.887695 243.57965
251.32889 86.880913 243.33035
251.9921 86.874084 243.0788
253.7197 86.496773 245.60536
254.39151 86.489792 245.34634
255.06381 86.482773 245.08499
256.09885 86.352158 245.74516
256.40985 86.468658 244.55528
257.8183 86.214325 246.13062
258.49759 86.207161 245.85788
259.92221 85.952637 247.42235
261.35745 85.697998 248.98026
261.67078 85.814423 247.7785
260.83917 86.302155 243.82651
261.51813 86.294991 243.54295
261.04187 86.659256 240.51349
261.71387 86.652206 240.22838
262.77652 86.521332 240.85324
71.789192 91.923775 205.29144
71.585793 91.686813 207.36385
72.549706 91.813766 206.69482
70.44223 90.970764 213.34685
71.41571 91.097847 212.67807
72.383781 91.224892 212.00511
73.346436 91.351891 211.328
73.557495 91.236557 212.48647
74.514359 91.363495 211.80321
74.729744 91.248192 212.9597
74.584351 91.011864 215.03911
75.537521 91.138733 214.34875
76.845642 91.386551 212.72946
77.785355 91.51326 212.03012
78.008896 91.397949 213.18059
78.942734 91.524551 212.47531
79.170494 91.409233 213.62378
79.402885 91.29393 214.77216
80.675667 91.541252 213.12839
81.93795 91.788422 211.47896
82.509285 91.793831 211.68896
84.093323 92.161575 209.09668
84.656273 92.166824 209.30017
84.886116 92.051285 210.43707
85.450745 92.056458 210.63773
85.687279 91.940887 211.77357
86.253571 91.945999 211.97141
86.496788 91.830399 213.10617
87.384895 91.95607 212.36153
87.949936 91.961021 212.55383
89.144875 92.207108 210.86165
89.078773 91.970779 212.93301
89.952744 92.09613 212.1769
90.513657 92.100845 212.36118
91.989708 92.467041 209.70975
92.23967 92.351105 210.83351
92.794411 92.355621 211.01088
93.646492 92.480537 210.2395
93.902748 92.364494 211.36044
94.163597 92.248436 212.48123
95.009575 92.373146 211.70316
95.562431 92.377388 211.87193
95.25898 92.020523 214.89157
96.101379 92.145035 214.10762
96.097366 91.908524 216.17747
96.658676 91.912613 216.34245
97.770477 92.157211 214.59819
98.872055 92.401672 212.84941
99.692932 92.52578 212.05132
101.04457 92.890236 209.33846
102.11554 93.134338 207.5764
102.12399 92.897537 209.63902
102.66322 92.901108 209.78693
103.46031 93.024796 208.97466
103.22935 92.667801 211.99654
103.2661 92.430984 214.06085
104.31554 92.674637 212.28394
104.60985 92.557877 213.38651
104.6629 92.321014 215.45059
105.21233 92.324295 215.5907
105.76147 92.327522 215.72925
106.07182 92.210655 216.82996
107.09502 92.45385 215.03738
107.87452 92.576927 214.20578
108.41769 92.579926 214.33694
109.18933 92.702866 213.5005
109.72954 92.70575 213.62807
110.04565 92.588623 214.72131
111.03063 92.831329 212.91086
111.3487 92.714119 214.00169
111.67143 92.596893 215.09212
112.64105 92.839378 213.2739
112.96575 92.722076 214.36191
113.08589 92.484856 216.42003
113.62912 92.487396 216.53671
113.96778 92.370018 217.62349
114.51301 92.372482 217.73775
115.05802 92.374893 217.85056
116.19396 92.736763 215.04274
116.73128 92.739059 215.15112
117.46059 92.86113 214.28404
118.18484 92.983131 213.4146
118.52942 92.865486 214.49272
118.87866 92.747818 215.57034
119.77998 92.989456 213.71982
120.49138 93.111252 212.84236
120.84253 92.993477 213.91624
121.37355 92.99543 214.01236
122.24994 93.236816 212.15176
122.7758 93.238678 212.24423
122.96567 93.00106 214.29234
123.16506 92.763428 216.34076
122.72169 92.046982 222.30669
121.50394 90.732101 233.17471
120.49751 89.537048 243.06985
119.38351 88.222427 253.95177
119.85654 88.104668 255.03166
119.8813 87.627884 259.05447
120.81662 87.86908 257.18881
121.59598 87.990547 256.30206
123.37646 88.949478 248.53651
124.27026 89.190437 246.65994
125.84877 90.029495 239.86517
127.12036 90.629181 235.0309
128.36769 91.22876 230.19179
129.19579 91.469398 228.30014
130.01413 91.709984 226.40576
130.94954 92.070114 223.52403
131.74594 92.310585 221.62405
132.77661 92.790184 217.75087
133.78789 93.269707 213.87398
134.6626 93.629585 210.97928
135.52275 93.989395 208.08159
136.36838 94.349152 205.18092
137.19945 94.708847 202.27734
137.69334 94.709808 202.33188
138.2923 94.830292 201.39796
138.68092 94.711639 202.43729
139.17459 94.712524 202.48813
139.66821 94.713379 202.53777
140.25725 94.833748 201.59795
140.74832 94.834549 201.6449
141.23932 94.83532 201.69064
141.90683 95.075127 199.75737
142.3929 95.075844 199.80025
142.87891 95.076538 199.84192
143.52701 95.316246 197.90338
144.0081 95.316887 197.94228
144.48914 95.317505 197.98001
145.11784 95.557114 196.03638
145.66542 95.677193 195.08112
146.13911 95.677734 195.11479
146.81267 96.036758 192.17549
147.27907 96.037247 192.20638
147.80725 96.157211 191.24518
148.33058 96.277153 190.28255
148.79207 96.277573 190.30971
149.1989 96.158478 191.32709
149.71492 96.278351 190.36066
150.1265 96.159225 191.37602
150.59026 96.159569 191.3988
151.00899 96.040405 192.41226
151.5177 96.160194 191.44095
152.02158 96.279953 190.46832
152.48283 96.280212 190.48648
152.94408 96.280457 190.50351
153.4053 96.28067 190.51944
153.89709 96.400345 189.54189
154.35588 96.400528 189.5555
154.78886 96.281219 190.56047
155.27341 96.400826 189.57936
155.71117 96.281479 190.58226
156.13515 96.042633 192.57678
156.63344 96.281662 190.59953
157.09457 96.281723 190.60651
157.55569 96.281769 190.61235
158.03476 96.520737 188.63148
158.49107 96.520744 188.63506
158.94321 96.40126 189.63034
159.40369 96.520706 188.63887
159.85938 96.640121 187.6463
160.31329 96.640053 187.64546
160.77264 96.520493 188.63632
161.22897 96.520386 188.63327
161.6853 96.520264 188.6291
162.12901 96.639587 187.63107
162.58296 96.639427 187.62473
163.05438 96.519768 188.60995
163.51076 96.519569 188.60135
163.96716 96.519348 188.59164
164.47289 96.280151 190.5659
164.93413 96.279884 190.55386
165.36592 96.399078 189.54831
165.8248 96.398781 189.53409
166.31796 96.278976 190.511
166.74263 96.398125 189.5023
167.24065 96.278275 190.47681
167.70203 96.277893 190.45804
168.16345 96.277496 190.43814
168.62489 96.277069 190.41711
169.08636 96.276627 190.39499
169.54788 96.276169 190.3717
170.06291 96.156181 191.3387
170.58279 96.036171 192.30431
171.10751 95.916138 193.26849
171.6371 95.796074 194.23126
172.04532 95.915009 193.21092
172.51428 95.914413 193.1804
172.91537 96.03331 192.15823
173.38203 96.032677 192.12558
173.77602 96.151543 191.10162
174.24036 96.150864 191.06688
174.62723 96.269699 190.04118
175.16922 96.149445 190.99396
175.71609 96.02916 191.94518
176.18307 96.028389 191.90564
176.65012 96.027596 191.86496
177.11722 96.026779 191.82312
177.67636 95.90638 192.76866
178.05162 96.02507 191.73595
178.71252 95.785049 193.66684
179.28392 95.664558 194.60776
179.86021 95.544029 195.547
180.44141 95.42347 196.48453
180.81462 95.542038 195.4462
181.40079 95.421417 196.38084
181.76935 95.539948 195.34062
182.24684 95.538864 195.28607
182.60832 95.657356 194.24428
183.20207 95.536613 195.17334
183.55893 95.655067 194.12973
184.28101 95.414627 196.04092
184.8871 95.293777 196.96484
185.49814 95.172874 197.88698
186.11409 95.051926 198.80724
186.60201 95.050598 198.74173
187.22542 94.929581 199.65854
187.85379 94.808517 200.57343
188.48709 94.687408 201.48637
188.98271 94.685944 201.41486
189.91365 94.325378 204.28854
190.26929 94.443512 203.23161
190.62021 94.56163 202.17412
191.27106 94.440308 203.07819
191.92691 94.318939 203.98026
191.95906 94.676422 200.95908
192.45558 94.674728 200.87862
193.11426 94.553253 201.77637
193.77792 94.431717 202.67206
194.11287 94.54966 201.60823
194.95096 94.308273 203.47871
195.79892 94.066818 205.34621
196.13434 94.184647 204.27843
196.2885 94.422256 202.23323
196.79111 94.42025 202.14151
197.47528 94.298401 203.02454
197.79681 94.416138 201.95406
199.23132 93.814835 206.73416
200.12421 93.572937 208.58415
201.02699 93.330956 210.43086
201.9397 93.088882 212.27425
202.47034 93.086494 212.16776
203.00116 93.084053 212.05986
203.93398 92.841774 213.89502
204.67342 92.719315 214.75496
205.62372 92.476852 216.58368
207.62497 91.634628 223.26234
209.44998 90.912125 228.96198
211.51759 90.069473 235.62329
213.61964 89.226593 242.27542
216.41006 88.023521 251.8239
219.47005 86.700134 262.32761
223.02983 85.136368 274.75211
225.75233 84.052307 283.29245
226.24178 84.168335 282.15759
225.34549 85.004639 275.2276
223.4847 86.32135 264.44339
220.39482 88.238739 248.84764
218.41457 89.55603 238.08894
218.78067 89.672478 236.97498
218.89975 89.909027 234.89784
219.49913 89.905289 234.74561
220.34621 89.781334 235.55309
221.19855 89.657295 236.35754
222.30844 89.412971 238.11917
223.17377 89.288727 238.91689
224.30159 89.044174 240.67036
225.43964 88.799484 242.41937
226.58792 88.554672 244.16388
227.21722 88.550278 243.99016
228.11398 88.425522 244.77072
228.47696 88.54129 243.63713
229.37946 88.416367 244.41252
229.7383 88.532043 243.27657
230.36958 88.527321 243.09346
231.00128 88.522537 242.90843
231.63339 88.517685 242.72147
232.26593 88.512772 242.53259
232.89888 88.50779 242.34177
233.53229 88.502747 242.14902
234.16612 88.497635 241.95432
234.50606 88.612961 240.80957
235.73199 88.366699 242.50629
236.36966 88.361374 242.30484
237.00781 88.35598 242.10143
237.95074 88.229942 242.8409
238.89914 88.103798 243.57671
239.54367 88.098167 243.36559
240.18871 88.092476 243.15237
240.83423 88.086716 242.93715
241.16339 88.201599 241.77901
241.48807 88.31646 240.62051
242.45187 88.189827 241.33975
242.77251 88.304619 240.17876
244.06918 88.05703 241.82939
245.7058 87.688484 244.41081
246.36234 87.682236 244.1781
247.01939 87.675934 243.94319
248.68774 87.306931 246.50734
249.01392 87.421356 245.33246
249.67757 87.414856 245.08911
250.6862 87.287338 245.77448
251.00638 87.401695 244.59567
251.32199 87.516052 243.41649
251.98517 87.509384 243.16512
253.35803 87.260559 244.76572
254.38443 87.13269 245.43399
255.05667 87.125839 245.17279
256.09164 86.997818 245.83344
257.1322 86.86972 246.48979
258.17831 86.741547 247.14175
258.86017 86.734512 246.86818
260.28723 86.484978 248.43245
261.35001 86.356613 249.07108
261.66333 86.470757 247.86917
260.83185 86.948929 243.91597
261.5108 86.941917 243.63258
261.03467 87.299042 240.60226
262.09436 87.170746 241.23108
262.76929 87.163849 240.94267
71.794922 92.470764 205.36588
71.979919 92.357391 206.52498
72.555496 92.36293 206.76933
70.448204 91.536804 213.42354
71.421669 91.661331 212.75429
72.011574 91.667053 212.99896
72.601143 91.672775 213.24156
73.190346 91.678497 213.48215
73.77919 91.684212 213.72064
74.367645 91.689911 213.95712
74.955719 91.695602 214.19157
76.269218 91.938499 212.57552
77.211823 92.062698 211.87868
78.148941 92.186813 211.1779
78.725281 92.192322 211.40038
79.301201 92.197792 211.62088
79.526421 92.08474 212.76857
80.104027 92.090172 212.98611
81.026443 92.214012 212.27072
81.600677 92.219345 212.48346
82.514702 92.343048 211.76137
83.423248 92.466652 211.03558
84.326355 92.590172 210.30605
84.558685 92.476936 211.44403
85.125778 92.48201 211.64543
85.364792 92.368752 212.78235
85.933525 92.373749 212.98097
86.501854 92.378708 213.17767
87.710022 92.620056 211.49261
88.272507 92.624863 211.68396
88.834579 92.629623 211.87349
89.083603 92.516174 213.00371
89.647362 92.520851 213.19046
90.518349 92.643593 212.4313
91.689133 92.884338 210.72377
92.244209 92.888794 210.90279
93.099083 93.011246 210.13351
93.948593 93.133621 209.36092
94.202332 93.019852 210.48128
94.46067 92.906075 211.60147
95.01384 92.910263 211.77185
95.566635 92.914398 211.94055
95.263184 92.564636 214.961
95.822678 92.568718 215.12854
95.821129 92.336922 217.19963
96.384857 92.340927 217.36522
97.223633 92.462746 216.57504
98.330048 92.702332 214.82698
98.88533 92.706116 214.9854
100.24426 93.063324 212.27359
101.58807 93.420364 209.55605
101.86449 93.306107 210.66299
102.14553 93.191826 211.7697
103.20562 93.430801 209.99947
103.48849 93.316429 211.1037
103.26953 92.966576 214.12811
104.56965 93.323051 211.38965
104.61315 93.090889 213.45328
105.15791 93.094101 213.5936
105.45897 92.979599 214.69514
106.00561 92.982719 214.83302
106.55199 92.985802 214.9693
107.5702 93.224083 213.17488
107.87752 93.109421 214.27208
108.6518 93.229942 213.43736
109.64966 93.467972 211.63364
109.73238 93.235603 213.69382
110.27229 93.238365 213.81978
111.25475 93.476181 212.0081
111.7893 93.478828 212.12997
111.89059 93.246368 214.18871
112.85771 93.483978 212.36928
113.17995 93.368988 213.45699
113.29762 93.136475 215.51511
113.42484 92.903969 217.57382
113.97023 92.906403 217.68951
114.51541 92.908791 217.80371
114.86092 92.793686 218.88928
115.99922 93.148323 216.08102
116.73353 93.26799 215.21602
117.46278 93.387604 214.34862
117.8075 93.272331 215.42839
118.53152 93.391846 214.55714
119.06563 93.393898 214.65929
119.782 93.513306 213.78383
120.67339 93.750023 211.92943
121.19968 93.751938 212.026
121.901 93.87117 211.14368
122.42455 93.873009 211.23705
122.77761 93.757462 212.30743
122.79955 93.407242 215.33487
122.33939 92.705063 221.30104
121.74506 91.885628 228.25034
120.22058 90.362419 241.08392
119.55001 89.425865 249.02425
118.91798 88.489395 256.96924
119.70502 88.608559 256.08817
120.03413 88.375839 258.14932
121.41264 88.964005 253.33691
122.62071 89.434799 249.5015
124.38419 90.374535 241.73106
125.11973 90.49337 240.83443
126.40587 91.081139 236.00221
127.66774 91.668808 231.16508
128.50316 91.904686 229.27522
129.3288 92.140503 227.38264
130.27393 92.493492 224.50267
131.4581 93.080849 219.64943
132.36923 93.433693 216.76231
133.26578 93.786476 213.87206
134.14778 94.139198 210.97865
135.01521 94.491867 208.0822
135.63857 94.610092 207.15567
136.59409 95.079834 203.26711
137.20039 95.197983 202.33612
137.90935 95.433258 200.41609
138.50346 95.551323 199.48134
138.98996 95.552193 199.53261
139.37607 95.435867 200.57076
139.86484 95.436691 200.61986
140.44904 95.554642 199.67926
141.02837 95.672562 198.73698
141.51212 95.673294 198.78204
142.08411 95.791153 197.83672
142.56534 95.791847 197.87914
143.04651 95.792511 197.92038
143.68976 96.027428 195.98085
144.16603 96.028046 196.01935
144.64224 96.028633 196.05669
145.19225 96.146332 195.10245
145.7374 96.264 194.14671
146.20866 96.264526 194.18019
146.87979 96.616379 191.23987
147.34377 96.616844 191.27057
147.80769 96.617294 191.30014
148.33101 96.73484 190.3372
148.79247 96.735245 190.36436
149.14467 96.501427 192.37361
149.66307 96.618896 191.40701
150.12685 96.619247 191.43092
150.54317 96.50248 192.44566
151.00929 96.502792 192.46739
151.51797 96.620186 191.4958
151.98164 96.620453 191.51521
152.48308 96.737808 190.54105
152.94431 96.738037 190.55807
153.37251 96.621155 191.56654
153.86668 96.738441 190.58878
154.32785 96.738617 190.60243
154.78902 96.738777 190.61501
155.25015 96.738907 190.62645
155.71129 96.739029 190.63675
156.15382 96.62204 191.6389
156.63351 96.739212 190.65404
157.09462 96.739273 190.661
157.55573 96.739311 190.66687
158.01682 96.739334 190.67159
158.4845 96.85643 189.68208
158.94318 96.856422 189.68456
159.40364 96.97348 188.69281
159.85931 97.090515 187.69995
160.3132 97.090446 187.69908
160.76711 97.090363 187.69716
161.22102 97.090256 187.69412
161.68518 96.973045 188.68304
162.12886 97.089996 187.68471
162.58279 97.089836 187.67838
163.0542 96.972565 188.66391
163.5304 96.855278 189.64822
163.96693 96.972153 188.64563
164.49728 96.620636 191.61325
164.96091 96.620377 191.60115
165.42455 96.620102 191.58791
165.85635 96.736908 190.58096
166.38615 96.502396 192.55063
166.81561 96.619156 191.54147
167.24028 96.735916 190.53139
167.70164 96.735542 190.51262
168.16304 96.735153 190.49274
168.57819 96.851852 189.47968
169.08592 96.734314 190.44958
169.49634 96.850983 189.43452
170.00894 96.733398 190.40195
170.5264 96.615784 191.368
171.04869 96.498154 192.3326
171.51514 96.49762 192.30455
171.98164 96.497055 192.27536
172.38268 96.613617 191.25406
172.84685 96.613022 191.22275
173.31108 96.612404 191.19028
173.70264 96.728912 190.16623
174.16455 96.728256 190.13168
174.70407 96.610435 191.08606
175.1685 96.609734 191.04904
175.633 96.609009 191.01088
176.09755 96.608269 190.97156
176.56216 96.607498 190.93112
176.93726 96.723877 189.90045
177.58354 96.488724 191.8356
178.14514 96.370705 192.78009
178.71162 96.252663 193.72293
179.283 96.134583 194.66415
179.75764 96.133652 194.6158
180.3364 96.015511 195.55394
180.70718 96.131729 194.51558
181.29091 96.013535 195.45079
181.76828 96.012505 195.39745
182.24576 96.011444 195.34291
182.60722 96.127586 194.30087
183.20094 96.009262 195.23026
183.55777 96.125359 194.1864
184.15649 96.006973 195.11276
184.63441 96.005783 195.05223
185.36873 95.770073 196.96007
185.98224 95.651566 197.88097
186.4677 95.650276 197.81581
187.08867 95.531693 198.73328
187.85239 95.295792 200.63231
188.48566 95.177109 201.54559
188.83861 95.292969 200.49132
189.62201 95.056915 202.38382
190.12025 95.05542 202.30945
190.46873 95.171204 201.25208
190.96483 95.16964 201.17552
191.61577 95.050728 202.07863
191.80023 95.283768 200.03799
192.29431 95.28212 199.95799
192.95052 95.163101 200.85648
193.61171 95.044022 201.75288
194.11107 95.042252 201.66823
194.9491 94.80571 203.53932
195.62531 94.68647 204.42932
195.95827 94.801971 203.36174
196.28654 94.917458 202.29369
196.96808 94.798096 203.17885
197.47324 94.796104 203.08539
198.16241 94.676643 203.96651
199.22916 94.322235 206.79631
200.12196 94.085182 208.64691
201.0247 93.848053 210.49426
201.93735 93.61084 212.3383
202.46794 93.608505 212.2319
202.60187 93.841125 210.17796
203.52972 93.603722 212.01477
204.06094 93.601265 211.90408
205.00385 93.363708 213.73499
206.5813 92.773438 218.47534
208.6046 91.947906 225.1499
210.44925 91.239723 230.84557
212.75447 90.296196 238.47195
214.66313 89.587585 244.1503
217.26257 88.52597 252.7252
221.24335 86.758392 267.0947
224.39667 85.460861 277.57672
226.01004 84.986465 281.27808
226.26224 85.217834 279.1767
225.34186 86.037537 272.24866
222.27176 87.916504 256.64346
219.83615 89.44278 243.9483
218.77702 90.2631 237.04881
218.65361 90.612671 234.00813
219.49538 90.491302 234.81898
220.58975 90.252098 236.58862
221.19466 90.248322 236.43175
222.30444 90.008911 238.19403
223.67917 89.651573 240.91179
224.55463 89.529724 241.70551
225.43538 89.407776 242.49609
226.32143 89.285736 243.28348
226.94818 89.281464 243.11055
227.30827 89.39502 241.97934
228.20288 89.272751 242.75914
229.10281 89.150375 243.53566
229.45914 89.263779 242.40022
230.08788 89.259201 242.21794
230.43759 89.372528 241.08086
231.34659 89.249847 241.84766
231.69218 89.363098 240.70821
232.60699 89.24025 241.4697
233.23785 89.235352 241.27783
234.16098 89.11232 242.03316
234.7952 89.107285 241.83659
235.72668 88.98407 242.58568
236.3643 88.978874 242.3844
236.70056 89.091774 241.23508
238.24951 88.731964 243.86624
238.89352 88.726547 243.65727
239.53799 88.721062 243.44629
240.18295 88.715515 243.23323
241.1427 88.591644 243.96005
240.84076 88.940788 240.91875
241.48218 88.935104 240.70114
242.44589 88.811035 241.42085
242.44217 89.041893 239.32121
243.73622 88.799316 240.97346
245.04083 88.556595 242.6201
246.02417 88.432137 243.3252
246.67865 88.42601 243.09137
248.00742 88.182915 244.72345
249.00739 88.058151 245.41653
249.67096 88.051804 245.17332
250.67953 87.926872 245.85918
251.34668 87.920403 245.61058
251.66481 88.032471 244.4303
252.33044 88.02594 244.17809
253.70578 87.782104 245.77855
254.73462 87.656792 246.4463
255.76904 87.531387 247.10982
256.44684 87.52462 246.84447
256.76038 87.636551 245.65329
258.17117 87.392235 247.22923
258.85297 87.385368 246.95581
259.53525 87.378479 246.68002
260.5929 87.252747 247.32123
261.6561 87.126953 247.95798
260.82471 87.595566 244.00362
261.12106 87.707626 242.80414
261.41269 87.819756 241.6044
262.08728 87.812988 241.31854
262.37198 87.925232 240.11729
71.800529 93.017647 205.43877
71.985558 92.906578 206.59808
72.175407 92.795586 207.75754
70.454041 92.102737 213.49864
71.046837 92.108353 213.74628
71.261169 91.99762 214.91031
71.855812 92.003258 215.15486
72.450089 92.008896 215.39735
73.41449 92.130783 214.71626
74.005463 92.136368 214.95363
74.961472 92.258163 214.26538
76.274902 92.496078 212.64854
76.857079 92.501541 212.87685
77.43885 92.506989 213.10312
78.02021 92.512405 213.32741
78.601143 92.517784 213.54973
79.181671 92.52314 213.77003
80.109489 92.644516 213.05803
81.031837 92.7658 212.34218
81.948723 92.887009 211.62253
82.519981 92.892151 211.83226
83.428459 93.013199 211.10603
83.996346 93.018234 211.31107
83.898529 92.791397 213.38605
84.80072 92.912285 212.6523
85.042206 92.801331 213.7903
85.938522 92.922073 213.05107
86.184189 92.811081 214.18707
87.39476 93.047485 212.50215
87.642067 92.936409 213.63536
88.524208 93.056854 212.88448
88.775696 92.945709 214.01572
89.652 93.06601 213.25958
90.215302 93.070518 213.44441
91.693611 93.422028 210.79173
92.551285 93.54203 210.02457
93.403587 93.661942 209.25409
94.250549 93.781769 208.48029
94.50177 93.670288 209.60007
94.757576 93.558784 210.71971
95.30822 93.562843 210.88921
95.570724 93.451294 212.00774
95.83783 93.339722 213.12608
96.10952 93.228134 214.24422
96.385803 93.116531 215.36215
96.388824 92.889427 217.43349
97.502899 93.124207 215.68855
98.606766 93.358864 213.93906
99.159508 93.362526 214.09671
100.51587 93.712402 211.38322
101.85712 94.062126 208.66396
102.13104 93.95015 209.77046
102.40958 93.838165 210.87669
103.46712 94.072227 209.10512
103.49184 93.844803 211.16876
103.27287 93.502075 214.19394
104.07137 93.620621 213.37685
104.36806 93.508499 214.48047
104.66937 93.396355 215.58377
104.9753 93.284187 216.68678
105.76775 93.402512 215.86211
106.31651 93.405518 215.99893
107.3371 93.638939 214.20444
108.11403 93.757034 213.37151
108.88581 93.875061 212.53584
109.65244 93.993019 211.69751
109.73514 93.765366 213.75821
110.275 93.768051 213.88411
111.03601 93.885849 213.04013
111.79189 94.003571 212.19359
111.89317 93.775833 214.25282
112.64616 93.893456 213.40274
112.97079 93.7808 214.49123
113.0909 93.553017 216.55037
113.22051 93.325241 218.61015
113.97262 93.442688 217.75417
114.71964 93.560081 216.89569
115.06269 93.447296 217.98096
116.39549 93.909721 214.19768
117.12489 94.026917 213.33133
117.65707 94.029022 213.43723
117.99934 93.916077 214.51672
118.53358 93.918114 214.62022
118.88277 93.805115 215.69832
119.60152 93.922073 214.82298
120.49527 94.153961 212.96841
121.20155 94.270805 212.08801
121.90283 94.387596 211.20534
122.42635 94.389374 211.29868
122.43872 94.046272 214.32663
121.45807 93.013542 223.23018
120.18989 91.751053 234.09879
119.46399 90.833466 242.0352
117.97346 89.34137 254.87805
118.12788 88.998535 257.92264
118.60825 88.885498 259.0058
120.47376 89.806519 251.25487
121.69656 90.267822 247.42365
123.49406 91.188568 239.65907
124.5221 91.53479 236.79996
125.96664 92.225548 230.98845
126.53427 92.22702 231.07089
127.24065 92.343307 230.16827
128.21503 92.689255 227.29561
129.1748 93.035141 224.41953
129.98834 93.266113 222.52469
130.92134 93.611877 219.64224
131.96658 94.072403 215.77126
132.74361 94.303207 213.86758
133.63289 94.648781 210.97552
134.38803 94.879486 209.06653
135.13342 95.110138 207.15508
135.86909 95.340752 205.24121
136.81975 95.800919 201.35094
137.4212 95.916626 200.41914
138.12532 96.147102 198.49796
138.8197 96.377533 196.57458
139.29895 96.378357 196.62508
139.57751 96.149605 198.65103
140.15935 96.265167 197.71111
140.7363 96.380692 196.76949
141.21529 96.381424 196.81523
141.6942 96.382141 196.85982
142.26134 96.497589 195.91371
142.73775 96.498245 195.95572
143.29755 96.61364 195.00665
143.77144 96.614258 195.0461
144.32393 96.729599 194.09412
144.87155 96.84491 193.14059
145.34048 96.845451 193.17616
145.80936 96.845978 193.2106
146.2782 96.846481 193.24391
146.9469 97.191162 190.30258
147.47267 97.306351 189.34178
147.93178 97.306778 189.371
148.39084 97.30719 189.39912
148.84987 97.307587 189.42613
149.19965 97.078514 191.43579
149.66342 97.078873 191.4608
150.12718 97.079216 191.48466
150.5909 97.079536 191.50743
151.09959 97.19455 190.53667
151.60345 97.309555 189.56456
152.0623 97.309807 189.58374
152.55891 97.424759 188.60913
153.0153 97.42498 188.62598
153.43869 97.310478 189.63457
153.92804 97.425369 188.65634
154.38438 97.425537 188.66988
154.81494 97.310982 189.67535
155.27367 97.311111 189.68672
155.75336 97.425934 188.7038
156.17249 97.196617 190.69934
156.64977 97.311401 189.71417
157.09467 97.196754 190.71439
157.55576 97.1968 190.72023
158.01683 97.196823 190.72496
158.48448 97.311523 189.7352
158.94316 97.311516 189.73767
159.40361 97.426193 188.74564
159.85988 97.42614 188.74591
160.31616 97.426071 188.74506
160.76701 97.540695 187.74973
161.21307 97.655304 186.7533
161.6748 97.540482 187.74252
162.11607 97.655045 186.74396
162.5676 97.654892 186.73766
163.054 97.425308 188.71675
163.55005 97.195694 190.69456
163.98897 97.310196 189.69162
164.52168 96.965828 192.66002
164.98769 96.965576 192.64787
165.42427 97.080025 191.64163
165.8242 97.309174 189.64149
166.31732 97.194153 190.61899
166.74196 97.308548 189.60976
167.20087 97.308212 189.59222
167.65981 97.307846 189.57356
168.11879 97.307472 189.55379
168.57779 97.307083 189.5329
169.08549 97.19194 190.50308
169.49588 97.306229 189.48775
170.00847 97.19104 190.45547
170.47002 97.190567 190.42998
170.93159 97.190079 190.40335
171.39322 97.18956 190.37556
171.98108 96.959541 192.32948
172.31659 97.188477 190.3167
172.77835 97.187904 190.28554
173.31047 97.072556 191.24419
173.702 97.186691 190.21988
174.08878 97.300819 189.19478
174.54832 97.300163 189.15927
175.00793 97.299492 189.12267
175.46759 97.298798 189.08493
175.92731 97.29808 189.04604
176.47424 97.182564 189.99557
176.93648 97.181808 189.95419
177.49075 97.066231 190.90082
178.04993 96.95063 191.84583
178.61397 96.834999 192.78922
179.18291 96.71933 193.73099
179.75673 96.603638 194.67108
180.33545 96.487907 195.6095
180.70621 96.601776 194.57089
181.28992 96.485985 195.50642
181.76727 96.484985 195.45313
182.24471 96.483963 195.39861
182.49008 96.712585 193.36974
183.08136 96.59668 194.29968
183.43575 96.710434 193.25586
184.03203 96.594467 194.18286
184.50751 96.593323 194.12263
185.36751 96.247566 197.01649
185.85042 96.246346 196.95293
186.46642 96.130226 197.8726
187.08736 96.014069 198.79036
187.71323 95.897873 199.70624
188.34406 95.781631 200.62018
188.97983 95.665344 201.53217
189.62054 95.549019 202.44217
189.97128 95.662476 201.38547
190.31734 95.775917 200.32825
190.81096 95.774414 200.25209
191.14999 95.887817 199.19342
191.32718 96.11615 197.15338
191.97351 95.999619 198.05507
192.62485 95.883041 198.95471
193.44557 95.651451 200.83192
193.94246 95.64975 200.74768
194.9473 95.303055 203.59869
195.62346 95.186264 204.48901
196.13051 95.184425 204.39919
196.28464 95.412575 202.35291
197.14511 95.180649 204.2155
197.65265 95.178696 204.12166
198.16037 95.17672 204.02644
199.0408 94.944595 205.88142
199.93112 94.712402 207.73312
200.64023 94.5952 208.60678
201.54796 94.362854 210.45241
202.26962 94.245522 211.32088
202.99635 94.128128 212.1869
203.72818 94.010674 213.05054
204.46507 93.89315 213.91171
205.20706 93.775574 214.77039
206.57867 93.312485 218.54048
207.97002 92.849266 222.30487
209.80722 92.155571 228.00394
211.88948 91.346512 234.66466
213.57031 90.767609 239.37787
215.49622 90.073341 245.05246
219.23436 88.45713 258.46289
222.59073 87.070969 269.92078
225.09528 86.145416 277.49551
226.25833 85.911118 279.26123
226.26843 86.253059 276.19403
223.91351 87.747841 263.47723
221.49519 89.24292 250.77414
219.49338 90.507683 240.01279
219.13489 90.965424 236.0062
219.73662 90.961868 235.85353
220.83336 90.727554 237.6232
221.44066 90.723869 237.46579
222.55283 90.489349 239.22812
223.67519 90.254715 240.9861
224.29338 90.250786 240.82079
225.17159 90.131371 241.61243
226.0551 90.011864 242.40091
226.41473 90.123192 241.27135
227.30394 90.003532 242.05478
227.92894 89.999275 241.87892
228.28235 90.110474 240.74588
228.6312 90.221642 239.6124
229.25244 90.217239 239.43239
229.5947 90.328339 238.2973
230.49615 90.208252 239.06668
231.11865 90.203659 238.88103
232.02841 90.083389 239.64441
233.23291 89.847382 241.3546
233.86414 89.842552 241.16089
234.4958 89.837662 240.96523
235.42471 89.71701 241.71552
236.35907 89.596252 242.46227
