ply
format ascii 1.0
comment PCL generated
element vertex 1597
property float x
property float y
property float z
element camera 0
property float view_px
property float view_py
property float view_pz
property float x_axisx
property float x_axisy
property float x_axisz
property float y_axisx
property float y_axisy
property float y_axisz
property float z_axisx
property float z_axisy
property float z_axisz
property float focal
property float scalex
property float scaley
property float centerx
property float centery
property int viewportx
property int viewporty
property float k1
property float k2
end_header
192.17201 155.09668 234.05562
192.61287 154.94971 232.99518
193.18958 154.95291 232.91261
193.76643 154.95618 232.82854
194.63422 155.25983 234.69878
194.77277 154.81273 231.67836
195.49789 154.96637 232.56734
196.07538 154.96991 232.47728
196.65302 154.97351 232.38571
196.91577 154.67671 230.34059
197.64883 154.83069 231.2224
198.38693 154.98476 232.10191
199.13008 155.13893 232.9791
199.54376 154.9926 231.90511
200.46181 155.29727 233.75233
201.21768 155.45177 234.62283
201.62952 155.30563 233.54463
202.39063 155.46031 234.41109
203.15683 155.6151 235.27512
203.74625 155.61957 235.16487
204.52017 155.77457 236.02437
205.29919 155.92969 236.88132
206.0833 156.08493 237.73573
206.68092 156.08978 237.61771
206.89072 155.79372 235.55927
207.6804 155.94923 236.40788
208.07738 155.80379 235.31708
208.67108 155.80894 235.19353
208.85742 155.513 233.13365
209.65298 155.66891 233.97473
210.24501 155.6743 233.84682
211.25958 155.98111 235.64879
211.64343 155.83604 234.5513
212.88684 156.29385 237.31194
213.48973 156.2997 237.17517
214.31387 156.45639 238.00031
214.9198 156.46243 237.8596
215.75189 156.61938 238.6796
216.13257 156.47484 237.57307
216.97018 156.63203 238.38843
217.34657 156.48761 237.2796
218.18973 156.64505 238.09032
218.56184 156.50078 236.97917
219.41058 156.65848 237.78517
219.77844 156.51434 236.67175
220.38724 156.52127 236.5154
220.9964 156.52831 236.35725
222.3573 156.98868 239.06612
222.97456 156.996 238.90244
224.103 157.30568 240.64679
224.46806 157.16211 239.52385
225.08891 157.16978 239.354
225.18448 156.87511 237.27646
226.06647 157.03419 238.0565
226.68597 157.04214 237.88173
227.57619 157.20154 238.65594
228.47174 157.3611 239.42683
229.37267 157.52083 240.19437
230.00128 157.52933 240.00989
230.63031 157.53793 239.82349
231.54245 157.69814 240.58229
232.17484 157.707 240.39124
232.80765 157.71597 240.19823
233.15076 157.57346 239.0583
234.07462 157.73424 239.8062
234.41364 157.59189 238.66388
235.04575 157.60126 238.46367
235.67831 157.61076 238.26146
236.31137 157.62036 238.05724
237.25003 157.78189 238.79106
238.19418 157.94362 239.52124
238.52347 157.80173 238.37074
239.78627 158.11569 240.03278
240.11401 157.974 238.87894
240.43723 157.83231 237.72475
241.39633 157.99478 238.44029
242.03821 158.00533 238.21777
242.35532 157.86385 237.05984
243.32343 158.02675 237.76636
244.95769 158.49429 240.332
245.94194 158.65765 241.02885
247.60242 159.12582 243.58102
248.60284 159.28964 244.26793
248.92796 159.14883 243.09502
248.90559 158.85561 240.99484
249.56453 158.86725 240.74809
250.57198 159.03152 241.4241
250.88385 158.89081 240.24783
251.54425 158.90271 239.99431
253.27199 159.37271 242.5047
253.22458 159.07947 240.40146
253.88889 159.09161 240.14005
254.19035 158.95103 238.95726
255.58463 159.26898 240.52835
255.51605 158.97556 238.42493
257.29227 159.44675 240.9032
257.5903 159.30626 239.71317
259.76376 159.93097 243.0923
260.4437 159.94368 242.8093
261.12396 159.95642 242.52391
262.18826 160.12236 243.14677
262.48547 159.98192 241.94595
263.16666 159.99466 241.65338
263.45673 159.85405 240.45108
73.099808 153.61913 200.37758
73.274475 153.7644 201.53015
74.227951 153.59845 200.86516
74.022987 153.89909 202.92598
74.59166 153.88864 203.16702
75.160103 153.87817 203.40611
75.728279 153.86771 203.64323
75.547806 154.16792 205.70686
75.748863 154.3127 206.85744
75.954727 154.4574 208.00804
76.165337 154.60204 209.15875
77.108719 154.43636 208.47273
77.685211 154.4259 208.70207
78.62027 154.26044 208.00905
79.906311 153.94012 206.39063
81.181824 153.62006 204.76633
81.392845 153.76497 205.9062
81.957344 153.75497 206.1218
82.175186 153.89987 207.26071
82.741432 153.88998 207.4734
82.966072 154.03488 208.61133
83.872749 153.87041 207.89302
85.110146 153.55145 206.24193
85.669754 153.54195 206.44516
86.89122 153.22342 204.78482
86.787758 153.52319 206.84599
87.672256 153.35947 206.11098
86.933395 153.96809 210.03993
87.498528 153.95889 210.23647
87.744675 154.10414 211.36642
88.311478 154.09509 211.56015
88.564346 154.24042 212.68895
90.688065 153.46033 208.19086
91.860725 153.14333 206.49846
93.022995 152.82655 204.80096
94.174866 152.51004 203.09846
94.714287 152.50194 203.27313
95.253319 152.49393 203.44609
95.791977 152.48602 203.61736
96.330269 152.4782 203.7869
95.412827 153.24014 208.67593
96.251404 153.07843 207.90096
97.370743 152.76303 206.17697
97.912537 152.75551 206.34131
97.610611 153.20947 209.34576
98.716431 152.89452 207.61298
99.259659 152.88727 207.77307
99.255165 153.18748 209.83038
99.531433 153.33401 210.93877
100.61853 153.01967 209.19426
101.16286 153.01274 209.34843
101.97065 152.85236 208.54871
102.25053 152.99919 209.65193
103.05273 152.83904 208.84758
103.84967 152.67905 208.04028
104.38745 152.67265 208.18506
104.92493 152.66634 208.32822
105.46211 152.66013 208.4698
105.99899 152.65401 208.60985
106.53557 152.64796 208.74832
107.07186 152.64203 208.88522
107.1296 152.94273 210.93819
107.43356 153.09016 212.03267
107.97639 153.08441 212.16675
108.51894 153.07874 212.2993
109.29053 152.91995 211.46906
110.51068 152.455 208.71251
111.49146 152.14342 206.91333
111.57433 152.44446 208.96222
112.32529 152.28621 208.12128
112.85405 152.28116 208.24184
113.16795 152.42923 209.32556
113.91085 152.2713 208.47855
114.64864 152.11349 207.62897
115.17403 152.10878 207.7431
115.69919 152.10416 207.8558
116.02173 152.25252 208.93436
116.34895 152.40092 210.01248
116.68085 152.54936 211.09016
117.0174 152.69785 212.1674
117.35863 152.84634 213.2442
118.08496 152.68924 212.38094
118.43066 152.83786 213.4558
119.15172 152.68094 212.5887
119.68481 152.67691 212.69043
120.39819 152.52017 211.81906
120.75046 152.66904 212.88959
121.63422 152.35977 211.04195
122.3349 152.20335 210.16414
122.85983 152.19971 210.25743
123.21627 152.3488 211.3232
124.07506 152.03998 209.46564
124.59706 152.03656 209.55441
124.95789 152.18582 210.61685
125.48203 152.18253 210.70326
126.00601 152.17928 210.7883
126.22235 152.48125 212.82446
126.75089 152.47812 212.90755
126.98151 152.78012 214.94322
127.07518 153.23468 217.95644
127.47137 153.38417 219.01492
128.15555 153.2287 218.11655
128.55634 153.37828 219.17294
129.09862 153.37544 219.24988
130.04388 152.91525 216.388
130.84258 152.60767 214.50223
131.37239 152.60506 214.57335
132.15634 152.29764 212.68289
132.8058 152.14276 211.77025
133.45032 151.98795 210.85565
134.0899 151.83322 209.93916
135.07687 151.22141 206.0768
135.81438 150.91449 204.17401
136.4295 150.76003 203.2507
137.2601 150.30092 200.36125
137.53723 150.60367 202.38107
137.92929 150.75409 203.41803
138.53201 150.59988 202.48833
139.02928 150.59807 202.54007
139.52647 150.5963 202.59058
140.31073 150.13766 199.68877
140.70723 150.28831 200.71999
141.29027 150.13443 199.78215
141.77995 150.13287 199.82701
142.35562 149.97911 198.88605
142.92641 149.82539 197.94347
143.57355 149.51949 196.01424
144.05334 149.51816 196.05344
144.45667 149.66911 197.07681
144.86475 149.8201 198.09935
145.20599 150.12337 200.10684
145.69522 150.12219 200.14195
146.18439 150.12105 200.17584
146.80226 149.81554 198.23604
147.22456 149.96672 199.25362
147.83029 149.66132 197.31062
148.31207 149.66037 197.33926
148.79381 149.65947 197.3667
149.22319 149.81082 198.37993
149.75717 149.65781 197.41803
150.1913 149.80923 198.42914
150.63022 149.96069 199.43927
151.07393 150.11218 200.44843
151.60298 149.95935 199.48152
152.05145 150.11093 200.48851
152.57564 149.95819 199.51901
153.16112 149.50117 196.57254
153.70148 149.19638 194.61232
154.17569 149.19595 194.62651
154.6499 149.19557 194.63956
155.07722 149.49956 196.62758
155.55623 149.49925 196.6384
156.01659 149.65114 197.63625
156.48175 149.80307 198.63298
156.95174 149.95505 199.62862
157.43791 149.95491 199.63483
157.92409 149.9548 199.63986
158.40367 150.1069 200.63203
158.89226 150.10689 200.6347
159.3826 149.95476 199.64781
159.86942 150.10698 200.63643
160.36104 150.25923 201.62386
160.85204 150.25938 201.62172
161.35091 150.41173 202.60672
161.84433 150.41196 202.60216
162.33775 150.41225 202.59639
162.83121 150.41257 202.5894
163.34215 150.56508 203.56943
163.83803 150.56549 203.55998
164.35623 150.71809 204.53741
164.82985 150.56642 203.53745
165.32579 150.56696 203.52437
165.85129 150.7197 204.49796
166.38161 150.8725 205.47021
166.8481 150.72099 204.46555
167.42006 151.02606 206.42285
167.96251 151.17902 207.39096
168.46825 151.17982 207.37016
168.93005 151.02849 206.36078
169.47984 151.18156 207.32484
169.9369 151.0303 206.31319
170.49158 151.1835 207.27454
171.10474 151.48895 209.22131
171.67154 151.64226 210.17952
172.24323 151.79562 211.1362
172.94145 152.25349 214.06425
173.52768 152.40698 215.0175
174.1188 152.56053 215.96912
174.7148 152.71414 216.91911
175.38614 153.02008 218.85329
175.99431 153.17381 219.79976
176.53206 153.17535 219.75911
177.06989 153.17694 219.71707
177.6879 153.33087 220.65884
178.22827 153.33257 220.61394
178.85367 153.48662 221.5524
179.39659 153.48842 221.50461
180.20894 153.94724 224.4082
180.85146 154.1015 225.34105
181.59351 154.40817 227.25586
182.15125 154.41025 227.2012
182.90796 154.71707 229.11177
183.47072 154.71928 229.05383
184.03358 154.72156 228.99445
184.48987 154.5715 227.95113
185.05051 154.57388 227.88919
185.61125 154.57631 227.82584
186.17212 154.5788 227.76103
186.84943 154.73378 228.67628
187.41293 154.7364 228.60838
188.09773 154.89153 229.5199
188.78749 155.04674 230.42935
189.60825 155.35451 232.317
190.1819 155.35742 232.24207
190.75569 155.36041 232.16566
191.32962 155.36345 232.0878
192.0394 155.51907 232.98738
192.61603 155.52228 232.90622
193.33336 155.67807 233.80183
193.91269 155.68141 233.71733
194.6376 155.83739 234.60889
195.07184 155.68829 233.54382
195.50139 155.53923 232.47803
196.07893 155.54283 232.38791
196.65663 155.54651 232.29625
196.91942 155.24495 230.25182
197.49261 155.24873 230.15793
198.39076 155.55795 232.01222
198.96918 155.5619 231.91452
199.38049 155.41322 230.84128
200.4659 155.8755 233.66168
201.22185 156.03247 234.53166
201.8083 156.03677 234.4265
202.39496 156.04117 234.31978
203.16124 156.19844 235.18332
203.75075 156.203 235.073
204.52477 156.36049 235.93201
205.30388 156.5181 236.78847
206.0881 156.67584 237.64243
206.68579 156.68079 237.52428
206.70157 156.22705 234.49751
207.48892 156.38506 235.34615
207.68457 156.08429 233.28809
208.47487 156.24249 234.13298
208.6588 155.94179 232.07425
209.45203 156.10017 232.91536
210.04169 156.10564 232.78786
211.05394 156.41736 234.58951
211.43541 156.26994 233.4928
212.89258 156.8882 237.21701
213.7141 157.0473 238.0439
214.5408 157.20653 238.86795
215.14929 157.21272 238.72658
216.20981 157.52544 240.50749
216.59549 157.37863 239.40004
217.20734 157.38513 239.25287
217.8195 157.39172 239.10393
218.43199 157.39844 238.95326
218.56848 157.09853 236.88275
219.41733 157.25876 237.68817
220.02835 157.26573 237.53281
220.39415 157.11937 236.4185
221.00342 157.12653 236.26024
222.114 157.44077 238.01187
222.7289 157.4482 237.84872
223.59958 157.60927 238.63824
224.21768 157.61693 238.47076
224.57578 157.47108 237.34824
225.19217 157.47891 237.1777
226.07428 157.64056 237.9572
226.96173 157.80237 238.73341
227.85455 157.96436 239.50635
228.75272 158.12651 240.27596
229.10574 157.9812 239.14421
229.73198 157.98981 238.9603
230.35864 157.99852 238.77446
231.26843 158.16125 239.53342
231.89844 158.17023 239.34294
232.52887 158.17932 239.1505
233.15973 158.18851 238.95605
234.08376 158.35188 239.70337
234.42284 158.20724 238.56126
235.05505 158.21677 238.36086
235.98795 158.3806 239.09979
236.32089 158.23618 237.95398
236.9545 158.24605 237.74754
237.8963 158.41032 238.47792
238.84357 158.57478 239.20457
239.48361 158.58505 238.99026
240.43938 158.74986 239.71024
240.76515 158.60596 238.55537
241.0864 158.46207 237.40015
241.40309 158.31821 236.24454
242.04051 158.32893 236.02142
243.00626 158.49438 236.72823
244.63821 158.96938 239.2933
245.95293 159.29001 240.92058
247.27826 159.61092 242.54201
248.6142 159.9321 244.15755
248.59891 159.63419 242.0574
248.57401 159.33618 239.95877
249.2305 159.34796 239.71275
250.58359 159.66977 241.31363
250.89549 159.52678 240.13753
251.55594 159.53885 239.88377
253.28391 160.01634 242.39267
253.23645 159.71835 240.29001
253.90082 159.73068 240.0284
254.56563 159.74307 239.76443
255.96259 160.06613 241.3334
256.63333 160.07872 241.06276
258.04642 160.40216 242.62086
258.72305 160.41492 242.3434
260.90439 161.04973 245.71739
261.59198 161.06274 245.43095
261.89877 160.92018 244.2308
263.35199 161.24446 245.76106
262.49786 160.63477 241.82976
263.17905 160.64764 241.53699
263.86047 160.66051 241.24184
71.5215 154.79381 203.9044
72.09584 154.78319 204.15378
73.443962 154.45651 202.58426
73.243988 154.76187 204.64656
74.199631 154.59329 203.97935
75.14994 154.42479 203.30801
75.718124 154.41422 203.54532
75.163345 154.87698 206.52209
76.481995 154.55084 204.92886
76.682732 154.69797 206.07718
76.521637 155.00266 208.14253
77.098503 154.99202 208.37407
77.675041 154.98143 208.60361
77.892227 155.12839 209.75113
78.827034 154.96039 209.05672
80.464211 154.47775 206.5145
80.680298 154.62488 207.6561
81.598763 154.45737 206.94995
82.165482 154.44725 207.16473
83.075577 154.28 206.45184
82.615204 154.74161 209.44206
83.185783 154.73164 209.65297
84.428391 154.40756 208.00478
84.993103 154.39786 208.21005
85.888603 154.2312 207.48297
86.450005 154.22169 207.68353
87.663277 153.89844 206.01784
86.924339 154.51666 209.94527
87.168427 154.66417 211.07602
87.417137 154.81168 212.20659
88.30265 154.64569 211.46564
88.555557 154.7933 212.59422
90.368477 154.15759 209.03578
91.852386 153.67891 206.40701
93.014816 153.35715 204.71054
94.166855 153.03564 203.00903
95.007446 152.8709 202.24321
95.544075 152.86279 202.41553
96.080322 152.8548 202.58615
96.616219 152.84688 202.75507
95.987305 153.46454 206.6976
96.243805 153.61301 207.81085
97.649414 153.13632 205.14252
98.188835 153.12871 205.30624
98.446716 153.27744 206.41519
99.266586 153.1138 205.62874
100.08115 152.95032 204.83917
99.795517 153.4115 207.84273
99.795654 153.71649 209.89917
100.61166 153.55328 209.10539
101.42237 153.39021 208.30855
101.96399 153.38332 208.46056
102.24394 153.53247 209.56351
103.30513 153.21385 207.80646
103.58691 153.36316 208.90685
104.3812 153.20074 208.09782
104.91876 153.19434 208.24112
105.45601 153.18802 208.38289
106.23953 153.026 207.5665
106.52965 153.17566 208.66164
107.06603 153.16962 208.79865
107.36296 153.31935 209.89253
107.66454 153.46913 210.98611
108.20499 153.4633 211.11972
109.20876 153.1463 209.33131
109.9731 152.98509 208.49982
110.95916 152.66846 206.70421
111.71072 152.50754 205.86676
111.79118 152.81334 207.9144
112.32025 152.80812 208.03656
112.84909 152.80298 208.15723
113.16305 152.95337 209.24065
113.69386 152.94838 209.35892
114.64394 152.63264 207.54503
115.1694 152.62785 207.65927
115.69464 152.62314 207.77206
116.21966 152.6185 207.88344
116.54449 152.76926 208.96074
116.874 152.92006 210.03763
117.01307 153.22617 212.0825
117.35435 153.37701 213.159
118.08076 153.21742 212.29622
118.80211 153.05795 211.43105
119.33302 153.05377 211.53381
120.04668 152.8945 210.66435
120.39431 153.04565 211.73509
120.92468 153.04172 211.83357
121.45487 153.03783 211.93065
122.33127 152.7238 210.08112
122.85625 152.72009 210.17453
123.38107 152.71646 210.26654
124.07163 152.55785 209.38327
124.43024 152.70941 210.44638
124.63249 153.01602 212.48363
125.32016 152.85762 211.59579
126.00282 152.69931 210.70581
126.37296 152.85106 211.76543
127.05049 152.6929 210.87189
127.57411 152.6898 210.95291
127.51163 153.30652 214.94055
127.9006 153.4584 215.99765
128.43594 153.45541 216.07635
128.6927 153.7623 218.10982
128.95901 154.06918 220.14328
129.90681 153.60172 217.28293
130.57603 153.44411 216.3774
130.9812 153.59628 217.42862
131.77249 153.28397 215.53992
132.42928 153.1266 214.62868
133.2034 152.81451 212.73509
133.84789 152.65732 211.81961
134.72234 152.19061 208.94031
135.46716 151.87881 207.03922
136.0896 151.72188 206.11716
136.70712 151.56502 205.19328
137.21193 151.56299 205.24965
137.71664 151.561 205.30473
138.2213 151.55907 205.35852
138.8264 151.40247 204.42825
139.42661 151.24594 203.49622
140.21335 150.78006 200.59578
140.6123 150.93307 201.62691
141.10693 150.93144 201.67349
141.60147 150.92986 201.71883
142.09596 150.9283 201.76291
142.75769 150.61748 199.83693
143.40971 150.30673 197.90892
143.89438 150.30536 197.94852
144.30255 150.45868 198.97192
144.7155 150.61203 199.99451
145.13321 150.76543 201.01624
145.69408 150.60959 200.06601
146.25008 150.45381 199.11423
146.73683 150.45271 199.14676
147.28552 150.29706 198.19209
147.76979 150.29605 198.22209
148.19687 150.44969 199.2372
148.62874 150.60336 200.2514
149.11771 150.60248 200.27808
149.60664 150.60165 200.30354
150.09555 150.60086 200.32779
150.53931 150.75468 201.3378
151.03056 150.75398 201.35976
151.52179 150.75331 201.38051
151.97511 150.90727 202.3873
152.50417 150.75212 201.41838
153.06145 150.44246 199.46065
153.63972 149.97829 196.51392
154.1188 149.97784 196.52826
154.59787 149.97745 196.54144
155.05348 150.13167 197.54115
155.53491 150.13135 197.55205
155.99773 150.28563 198.54953
156.48155 150.28542 198.55812
156.93777 150.59433 200.54124
157.42639 150.59418 200.54752
157.90604 150.74864 201.54053
158.39705 150.74858 201.5444
158.88391 150.90311 202.53506
159.3791 150.74858 201.54855
159.87077 150.9032 202.5368
160.36421 150.90332 202.53587
160.86311 151.05801 203.5217
161.35898 151.05821 203.51833
161.85484 151.05846 203.51373
162.3634 151.2133 204.49583
162.86171 151.21362 204.48877
163.36002 151.21399 204.48053
163.83846 151.05984 203.48323
164.37901 151.36943 205.44803
164.85507 151.21538 204.44836
165.32635 151.06134 203.44759
165.88141 151.37108 205.40836
166.44612 151.68086 207.3676
166.84879 151.21782 204.38837
167.42079 151.52769 206.34488
168.00246 151.83765 208.29982
168.51065 151.83847 208.27892
169.01888 151.83934 208.25676
169.66629 152.30406 211.19403
170.18182 152.30504 211.16901
170.6974 152.30606 211.14273
171.26663 152.46175 212.10168
171.89674 152.77209 214.04547
172.41968 152.77328 214.01495
173.18604 153.39304 217.92754
173.90848 153.85825 220.85165
174.44846 153.8596 220.8161
175.12463 154.17032 222.75052
175.66954 154.17181 222.71198
176.21451 154.17334 222.67207
176.68423 154.02026 221.64575
177.14922 153.86722 220.61842
177.68956 153.8689 220.57484
178.23 153.87064 220.52994
178.77048 153.87241 220.48366
179.39844 154.02896 221.42017
180.21085 154.49501 224.32259
180.85344 154.6517 225.25499
181.59555 154.96323 227.16901
182.25038 155.12009 228.09749
182.81068 155.12225 228.04115
183.57481 155.43402 229.94878
184.24442 155.59113 230.87157
184.81227 155.59351 230.8102
185.38022 155.59595 230.74741
186.28287 156.06287 233.62808
186.6304 155.75584 231.59886
187.31746 155.91331 232.51254
187.89069 155.91603 232.44341
188.46405 155.91881 232.37283
189.03752 155.92166 232.30077
189.73715 156.07944 233.20712
190.31329 156.08241 233.13179
190.88959 156.08546 233.05502
191.46599 156.08858 232.97676
192.17827 156.24669 233.87558
192.75739 156.24994 233.79401
193.33664 156.25327 233.71092
193.91606 156.25668 233.62637
194.64104 156.41513 234.51749
195.07533 156.26367 233.45273
195.6552 156.26729 233.36365
196.23524 156.27097 233.27307
196.97057 156.42975 234.15662
197.23827 156.12349 232.11208
197.65639 155.97229 231.04247
198.39467 156.13132 231.92105
198.97314 156.13535 231.82324
199.21724 155.82919 229.77666
200.30035 156.29877 232.59627
201.39824 156.76852 235.41177
201.9872 156.77292 235.30608
202.57637 156.7774 235.19882
203.34518 156.93719 236.06143
203.75533 156.78662 234.97958
204.34512 156.79135 234.86757
204.93515 156.79617 234.754
205.71457 156.95634 235.60835
206.49911 157.11667 236.46021
206.90063 156.96643 235.37222
207.69052 157.12695 236.21983
208.08763 156.97685 235.12959
208.6815 156.98219 235.00584
209.07178 156.83221 233.91388
209.87 156.99315 234.75342
210.25589 156.84329 233.65921
211.05954 157.00446 234.49443
211.44109 156.85474 233.39801
212.89844 157.48276 237.12053
213.72006 157.64436 237.94687
214.54689 157.80612 238.77043
215.15546 157.81242 238.62889
216.21614 158.1301 240.40892
216.37352 157.8253 238.34068
216.983 157.83188 238.19395
217.5928 157.83858 238.04549
218.20294 157.84537 237.89529
218.33701 157.54071 235.82603
219.18353 157.70345 236.63156
220.03531 157.86633 237.43407
220.40118 157.71768 236.31999
221.50665 158.03673 238.07381
222.37183 158.20009 238.86777
223.24228 158.36362 239.65858
223.60712 158.21535 238.53795
224.48326 158.37915 239.32376
224.5835 158.07498 237.248
225.19998 158.08296 237.07733
226.3476 158.40326 238.80766
227.50552 158.7238 240.53334
228.1331 158.73224 240.35426
229.03391 158.897 241.12257
229.66479 158.90569 240.93892
230.01833 158.75822 239.80554
230.08702 158.45448 237.72452
230.99448 158.61977 238.48366
231.90735 158.78523 239.23935
232.53789 158.79446 239.04671
233.16887 158.8038 238.85208
233.80029 158.81326 238.6555
233.84174 158.50977 236.57188
234.46909 158.51938 236.37286
235.39709 158.6857 237.11276
235.72513 158.53893 235.96883
236.35382 158.54887 235.76379
237.29074 158.71565 236.49521
238.23314 158.88263 237.22289
238.86829 158.89299 237.01007
239.50389 158.90346 236.79517
240.13998 158.91403 236.57817
240.77655 158.92471 236.35909
241.4136 158.9355 236.13789
241.7258 158.78938 234.98212
242.68913 158.9574 235.68913
244.64919 159.59692 239.18431
245.63116 159.76546 239.88074
246.95416 160.09137 241.50201
248.28772 160.41757 243.11736
248.26993 160.11488 241.01878
248.24249 159.81212 238.92174
248.89651 159.82401 238.67641
250.59534 160.30826 241.20131
250.55664 160.00551 239.10223
251.92099 160.33273 240.6936
252.94025 160.50266 241.35751
253.60677 160.51512 241.09695
253.55211 160.21233 238.99565
254.57776 160.38254 239.65067
255.60896 160.55289 240.30135
256.27719 160.56558 240.03148
257.68787 160.89404 241.58951
258.362 160.90692 241.31288
260.16486 161.39368 243.7729
260.84735 161.40674 243.48836
261.91144 161.57788 244.11229
262.59714 161.591 243.82188
262.51044 161.28784 241.71169
263.19156 161.30084 241.41867
264.2644 161.47209 242.02975
70.726997 155.66718 205.61443
71.306404 155.65636 205.8662
73.046715 155.16412 203.39198
72.849182 155.47423 205.45465
74.189331 155.14265 203.879
75.519058 154.81128 202.29704
76.461525 154.64035 201.62115
76.275795 154.95023 203.68132
77.215179 154.77939 203.00046
76.672432 155.24919 205.97737
76.14463 155.71872 208.9585
76.35997 155.86795 210.10876
77.303169 155.69716 209.42204
77.881935 155.68643 209.65079
78.816826 155.51587 208.95705
80.454185 155.02576 206.41634
81.021721 155.01538 206.63522
81.937752 154.84534 205.92874
82.848351 154.67543 205.2184
83.75351 154.50569 204.50421
83.629318 154.81497 206.56516
84.192398 154.80499 206.77347
85.091331 154.63556 206.05173
84.98362 154.94476 208.11349
85.548019 154.93498 208.31706
86.112022 154.92528 208.51871
87.327972 154.59695 206.85495
87.238808 154.90616 208.91643
87.801582 154.89673 209.1125
88.363968 154.88739 209.3067
88.925934 154.87814 209.49908
89.173882 155.02814 210.62573
90.98204 154.38261 207.06746
92.152534 154.05565 205.37628
92.700401 154.04698 205.55721
93.85511 153.72043 203.85754
94.698318 153.55309 203.09312
95.237534 153.54483 203.26642
95.776382 153.53665 203.438
96.608482 153.36975 202.66525
95.979515 153.99701 206.60629
96.524719 153.98901 206.7751
97.641891 153.66368 205.05234
97.897713 153.81464 206.16194
98.15815 153.96564 207.27136
99.259338 153.64079 205.53903
100.07402 153.47476 204.75003
99.788391 153.94313 207.7525
100.05983 154.09435 208.85895
100.87347 153.9286 208.065
101.68184 153.76303 207.26801
101.95723 153.91447 208.37091
102.23724 154.06595 209.47362
103.03967 153.90073 208.67038
103.58041 153.89398 208.81767
104.12085 153.88734 208.96336
104.66096 153.8808 209.10745
105.44981 153.71611 208.29449
106.23344 153.55157 207.47867
106.27953 153.86172 209.53026
107.30176 153.53923 207.75327
107.59628 153.69133 208.84627
107.89545 153.84346 209.93895
108.43353 153.83755 210.07207
109.20317 153.67369 209.2438
109.73826 153.66798 209.37326
110.49999 153.50438 208.54016
111.0321 153.49887 208.666
111.11995 153.80934 210.71466
112.09557 153.48813 208.91315
112.84406 153.32498 208.07118
112.94341 153.63557 210.11816
113.90117 153.31477 208.3083
114.84892 152.99416 206.4948
115.37201 152.9893 206.60861
115.69001 153.1423 207.68697
116.21511 153.13759 207.7984
116.53999 153.29068 208.87544
117.06712 153.2861 208.9845
117.39891 153.4393 210.06015
117.73537 153.59251 211.13536
118.457 153.43048 210.27211
119.17355 153.26855 209.40645
119.69968 153.26434 209.50836
120.04268 153.41782 210.57928
120.57088 153.41373 210.6788
120.92081 153.56729 211.74828
121.6267 153.40581 210.87367
122.50077 153.08691 209.02457
123.02339 153.08316 209.11761
123.54585 153.07948 209.20927
124.06815 153.07587 209.29955
124.59029 153.07233 209.38843
124.79016 153.38373 211.42456
125.31685 153.38028 211.51151
125.84338 153.37692 211.59708
126.36977 153.3736 211.68124
127.04738 153.213 210.78822
127.71999 153.05246 209.89302
127.80159 153.52142 212.90222
128.18578 153.67569 213.95824
128.85799 153.51537 213.05899
128.96828 153.98434 216.06836
129.36661 154.13873 217.12241
130.17284 153.82132 215.24065
130.57333 153.9758 216.29228
130.71945 154.44484 219.30121
131.51566 154.12766 217.41399
131.92792 154.28227 218.4631
132.71179 153.96527 216.57155
133.4859 153.64838 214.67744
134.25023 153.33159 212.78081
135.00479 153.01489 210.88167
135.7496 152.6983 208.98004
136.37442 152.53897 208.05743
136.99434 152.37971 207.13295
137.60933 152.22054 206.2067
138.21941 152.06143 205.27861
138.82457 151.90239 204.34874
139.32669 151.90053 204.3998
140.11592 151.42741 201.50082
140.42403 151.73988 203.51497
140.92352 151.7382 203.56204
141.42294 151.73657 203.60785
141.83623 151.89206 204.63623
142.42159 151.73344 203.69572
143.24582 151.1037 199.80083
143.73535 151.10229 199.84087
144.30125 150.94389 198.89503
144.78825 150.94258 198.93245
145.2036 151.09836 199.95367
145.6237 151.25417 200.97398
146.18217 151.09596 200.02277
146.73576 150.93782 199.07001
147.22253 150.93674 199.10138
147.76881 150.7787 198.14575
148.19594 150.93474 199.16051
148.62784 151.09079 200.17435
149.11685 151.0899 200.20103
149.55591 151.24603 201.21288
150.04727 151.24522 201.23726
150.53859 151.24446 201.26047
150.90179 151.71468 204.24246
151.40028 151.71399 204.26353
151.86087 151.87033 205.27026
152.3972 151.71277 204.30199
152.96175 151.39827 202.34526
153.5473 150.92688 199.3999
154.00539 151.0834 200.4017
154.51997 150.92603 199.42787
154.98285 151.08263 200.42741
155.47156 151.08231 200.43845
155.96025 151.08203 200.44832
156.43271 151.23874 201.44444
156.90999 151.39551 202.43945
157.41487 151.2384 201.45822
157.89696 151.39525 202.45087
158.38385 151.55214 203.44237
158.87973 151.55212 203.44507
159.3774 151.3952 202.45895
159.87151 151.55222 203.44684
160.36435 151.39537 202.45827
160.8633 151.55249 203.44373
161.35919 151.55269 203.44035
161.8551 151.55293 203.43575
162.36371 151.71017 204.41748
162.86206 151.71051 204.41043
163.36041 151.71089 204.40215
163.8588 151.71132 204.39265
164.40179 152.02571 206.35661
164.88031 151.86926 205.35725
165.35403 151.71284 204.35678
165.88202 151.87041 205.32953
166.44679 152.18503 207.28804
166.88383 151.87177 205.29692
167.49504 152.34344 208.23952
168.04242 152.50122 209.20667
168.6362 152.81606 211.15909
169.10773 152.65996 210.14998
169.76003 153.1319 213.08586
170.32922 153.28992 214.047
170.95448 153.60498 215.99284
171.58943 153.92014 217.93689
172.17804 154.07832 218.89311
172.77151 154.23657 219.84772
173.43071 154.55193 221.78644
174.03635 154.71031 222.73764
174.58118 154.71172 222.70177
175.26224 155.02728 224.63503
175.88252 155.18585 225.58119
176.43478 155.18744 225.54074
176.91179 155.03201 224.51421
177.38405 154.87662 223.48668
177.85155 154.72127 222.45816
178.6445 155.19432 225.36519
179.11215 155.03908 224.33394
179.74982 155.19809 225.26912
180.39238 155.35718 226.20253
180.94765 155.35922 226.15083
181.40839 155.20416 225.1147
182.15549 155.5206 227.026
182.8129 155.67996 227.95242
183.5771 155.99658 229.85927
184.35106 156.31329 231.76363
185.13478 156.6301 233.66556
185.71005 156.63263 233.6019
186.39696 156.79242 234.51807
186.74695 156.48065 232.48929
187.20377 156.32613 231.44089
187.77464 156.32887 231.37199
188.34563 156.3317 231.30162
188.91675 156.33456 231.22981
189.61404 156.4948 232.13602
190.3163 156.65511 233.04012
190.89265 156.6582 232.96329
191.46913 156.66138 232.88496
192.04575 156.66461 232.80513
192.76067 156.82527 233.70169
193.48058 156.98602 234.59604
193.91946 156.83212 233.53392
194.78998 157.15042 235.40132
195.22675 156.99664 234.33655
195.65883 156.84291 233.27098
196.39166 157.0041 234.15599
197.1295 157.16537 235.03867
197.39966 156.85437 232.99443
197.82027 156.70085 231.92471
198.56107 156.86238 232.80246
199.14204 156.8665 232.70415
199.38861 156.55562 230.65784
200.30457 156.87497 232.50294
201.23042 157.19446 234.34482
201.99162 157.35651 235.21141
202.58087 157.36107 235.10406
203.34979 157.52335 235.9662
203.94188 157.52808 235.85521
204.34985 157.37524 234.77254
204.93996 157.38014 234.65883
205.53029 157.38512 234.54355
206.12083 157.39018 234.42665
206.71162 157.39534 234.30817
207.49919 157.55835 235.15576
208.0929 157.56369 235.03354
208.88828 157.72694 235.87637
209.07719 157.41681 233.81799
209.87552 157.58026 234.65703
210.47025 157.58597 234.52823
211.06525 157.59177 234.3978
211.66051 157.59766 234.26569
213.33662 158.39343 238.94946
214.16327 158.55762 239.77419
214.99512 158.72195 240.59607
215.6087 158.72841 240.45329
216.22258 158.73495 240.30873
216.60838 158.58353 239.2018
216.98959 158.43213 238.09428
217.83281 158.59708 238.90517
218.20973 158.44585 237.79535
218.82028 158.45285 237.64323
219.67186 158.61818 238.44696
220.28555 158.62543 238.29068
220.65396 158.47449 237.17627
221.76205 158.79854 238.92845
222.37927 158.80614 238.76611
223.24988 158.97221 239.5564
223.61478 158.82164 238.43599
224.49106 158.98801 239.22125
224.33087 158.52065 236.19373
224.94501 158.52872 236.02357
226.0903 158.85397 237.75363
227.24591 159.17947 239.47899
228.14149 159.34662 240.25006
229.04245 159.51395 241.01779
229.67343 159.52278 240.83395
230.02704 159.37302 239.70078
230.09579 159.06458 237.62042
231.00339 159.23242 238.37897
231.91641 159.40045 239.13405
232.54706 159.40984 238.94122
233.17816 159.41933 238.74641
234.10246 159.58786 239.49251
234.14642 159.27969 237.40875
234.77637 159.28949 237.20872
235.40677 159.29941 237.00671
236.34041 159.46851 237.74237
236.66896 159.31956 236.5966
237.60854 159.48898 237.32658
238.86389 159.81781 238.99004
239.19135 159.66916 237.83893
239.51425 159.52052 236.68742
240.46829 159.6906 237.40489
241.42781 159.86086 238.11852
242.07001 159.87189 237.89536
242.71268 159.88304 237.67007
243.68375 160.0538 238.37378
245.32118 160.54384 240.93402
245.64246 160.39587 239.7693
246.96561 160.72684 241.38947
248.29938 161.05809 243.00372
248.96265 161.07014 242.7589
248.5972 160.60297 239.73497
249.59946 160.77489 240.41312
250.60727 160.94699 241.08713
250.56854 160.63951 238.98868
251.22661 160.65186 238.73543
252.59665 160.98431 240.32141
253.2607 160.99689 240.0616
253.92517 161.00954 239.79948
254.95348 161.1824 240.45279
256.35327 161.51563 242.01851
257.02664 161.52858 241.74634
258.07147 161.70187 242.38651
258.37457 161.5546 241.19496
259.80142 161.88846 242.74084
260.48138 161.90161 242.45712
261.54294 162.07529 243.08142
262.22607 162.08852 242.79185
261.75031 161.61992 239.77519
262.4263 161.63297 239.48418
262.71097 161.48528 238.28474
71.108749 156.06149 204.60498
71.295921 156.21359 205.7623
73.036354 155.7139 203.28963
72.454178 156.19168 206.26022
74.178925 155.69221 203.77702
75.129311 155.51859 203.10698
76.074364 155.34506 202.43282
76.265442 155.49699 203.58037
76.833099 155.48621 203.81413
76.292763 155.9632 206.79095
76.500778 156.11485 207.93991
76.71357 156.26645 209.0889
77.292709 156.25555 209.31989
78.230583 156.08231 208.62978
79.163025 155.90921 207.9357
80.798042 155.41167 205.39554
81.011612 155.56346 206.53571
81.927765 155.39082 205.82983
82.838463 155.21834 205.12015
83.743729 155.04602 204.40662
83.278175 155.52211 207.39273
84.182671 155.34995 206.67538
84.745422 155.3399 206.882
84.973999 155.49188 208.01538
84.875977 155.80573 210.07822
85.445084 155.79581 210.28189
86.666237 155.46239 208.62099
86.258392 155.93799 211.61578
87.149994 155.76659 210.88158
87.717484 155.75702 211.07773
88.916908 155.42432 209.40234
89.478569 155.41502 209.59308
91.284477 154.75966 206.03586
92.452644 154.42772 204.34486
92.691933 154.58043 205.46338
93.543144 154.41031 204.70375
94.388992 154.24036 203.94072
95.229454 154.07059 203.17438
95.472221 154.2236 204.28755
95.719604 154.37663 205.40059
95.68042 154.69092 207.45648
96.22821 154.68277 207.62622
97.061844 154.51355 206.84973
97.606407 154.50565 207.01534
98.431847 154.33673 206.2332
99.251968 154.168 205.44789
99.514252 154.32146 206.55444
99.507347 154.63593 208.60904
99.510025 154.95038 210.66487
100.32877 154.78203 209.87291
101.1422 154.61386 209.07791
101.68647 154.60669 209.23091
101.96901 154.76044 210.334
103.03297 154.43187 208.57959
103.57382 154.42502 208.72702
103.86034 154.57899 209.8266
104.40302 154.57231 209.97151
104.94539 154.56572 210.11481
105.48747 154.55922 210.25652
105.54095 154.87404 212.30936
106.81239 154.38594 209.57822
107.35112 154.37976 209.71458
107.88958 154.37366 209.84935
108.19345 154.52814 210.94142
109.19749 154.20128 209.15489
109.73266 154.19547 209.28447
110.49451 154.02936 208.45189
111.02671 154.02374 208.57782
111.33661 154.1786 209.66405
112.09033 154.01282 208.82523
112.83892 153.84717 207.98376
113.15299 154.00223 209.0666
113.68396 153.99706 209.18507
114.63429 153.67148 207.37302
114.95255 153.82675 208.45255
115.48039 153.82184 208.56606
116.21048 153.65686 207.71204
116.3354 153.97244 209.75534
116.86504 153.96776 209.86502
117.19933 154.12326 210.94087
117.53828 154.27879 212.01625
118.26244 154.11424 211.15398
119.16936 153.78976 209.32024
119.88095 153.62547 208.45268
120.22157 153.7813 209.52283
120.56687 153.93716 210.59245
120.73877 154.25302 212.63252
121.09588 154.40894 213.70158
121.80412 154.24503 212.82651
122.67813 153.92133 210.97685
123.37388 153.75764 210.09677
123.89867 153.75395 210.18755
124.58681 153.59047 209.30344
124.62564 154.06647 212.31274
124.99617 154.22278 213.37447
125.52763 154.21931 213.46091
126.05894 154.21591 213.54593
126.5901 154.21259 213.62961
127.41901 153.8898 211.76015
127.79853 154.04639 212.81651
128.32686 154.04327 212.89565
128.85506 154.04022 212.97339
129.10461 154.35666 215.00438
129.36374 154.67311 217.0354
130.17006 154.35081 215.15445
130.57062 154.50768 216.20575
130.97589 154.66455 217.25632
131.38588 154.82149 218.30617
131.92534 154.81882 218.37598
132.46468 154.81621 218.44444
133.12381 154.65404 217.53162
133.778 154.49196 216.61685
134.65736 154.01079 213.73924
135.1842 154.00847 213.80078
135.82118 153.84665 212.87997
136.34543 153.84445 212.9386
137.18576 153.36368 210.05121
137.70259 153.36163 210.1064
138.52101 152.88104 207.21413
139.12859 152.7196 206.28365
139.73125 152.55826 205.35144
140.04904 152.87547 207.3658
140.64914 152.71422 206.43079
141.15585 152.71254 206.47731
141.57642 152.87038 207.506
142.25275 152.54984 205.58286
143.00063 152.06992 202.67381
143.57628 151.909 201.73042
144.14705 151.74815 200.78542
144.63893 151.7468 200.82321
145.13075 151.74551 200.85982
145.62251 151.74426 200.89516
146.11424 151.74306 200.92932
146.60591 151.74191 200.96223
147.15952 151.58139 200.00867
147.58913 151.73975 201.02441
148.02351 151.89815 202.03926
148.51743 151.89717 202.06744
149.01131 151.89626 202.09442
149.50516 151.89539 202.12016
149.95145 152.05394 203.13078
150.44763 152.05316 203.15424
150.81569 152.53055 206.1353
151.31905 152.52985 206.15659
151.78448 152.68857 207.16315
152.32568 152.52858 206.19545
152.86203 152.36865 205.22638
153.42419 152.04939 203.26915
153.92021 152.04892 203.28403
154.44206 151.88914 202.31079
154.93564 151.88876 202.32317
155.4292 151.88843 202.33434
155.94138 151.72879 201.35727
156.41629 151.88791 202.35306
156.89603 152.04707 203.34772
157.40335 151.88757 202.36694
157.88789 152.04681 203.35921
158.37723 152.2061 204.35034
158.87556 152.20609 204.35306
159.37567 152.04675 203.36732
159.87224 152.20618 204.35483
160.37363 152.36565 205.34109
160.87437 152.36581 205.33891
161.38301 152.52538 206.32269
161.87592 152.36627 205.33087
162.38937 152.52592 206.31213
162.89258 152.52626 206.30499
163.37831 152.36729 205.30959
163.87914 152.36772 205.30002
164.40228 152.52756 206.27618
164.88084 152.36871 205.27722
165.35461 152.20992 204.27711
165.91219 152.52928 206.23627
166.4794 152.84869 208.19388
166.98759 152.84941 208.1767
167.56934 153.16895 210.13132
168.19991 153.64792 213.07077
168.84496 154.12698 216.00835
169.37256 154.12791 215.98531
169.99297 154.44771 217.93323
170.62308 154.76756 219.87935
171.21164 154.92807 220.83778
171.69783 154.76982 219.82315
172.23528 154.77103 219.79305
172.77277 154.77229 219.76166
173.37117 154.93303 220.71423
174.03772 155.25328 222.65034
174.71396 155.57361 224.58449
175.33182 155.73456 225.53177
175.88408 155.73611 225.49268
176.50929 155.89719 226.43669
176.98877 155.7394 225.41032
177.54121 155.74112 225.36708
178.09373 155.74289 225.32246
178.72888 155.90424 226.26024
179.19901 155.74661 225.22911
179.57697 155.42953 223.21371
180.21478 155.59105 224.14713
180.85748 155.75262 225.07869
181.50513 155.91429 226.00841
182.35176 156.39513 228.90112
183.213 156.87608 231.79095
183.98694 157.19759 233.69594
184.45775 157.04044 232.65347
185.13727 157.20253 233.57291
185.49434 156.88589 231.54697
186.17648 157.04813 232.46323
186.52168 156.73157 230.43573
187.32286 157.05356 232.32912
188.01501 157.21602 233.23987
188.71214 157.37857 234.14854
189.29059 157.38153 234.07576
189.74309 157.22488 233.0224
190.31937 157.22798 232.94699
190.89577 157.23114 232.87007
191.33899 157.07465 231.81358
192.049 157.23766 232.71179
192.62582 157.24103 232.63045
193.3434 157.40424 233.52469
194.06598 157.56754 234.41672
194.6481 157.57114 234.33014
195.23038 157.57481 234.24205
195.81282 157.57857 234.15244
196.39543 157.5824 234.06133
196.97821 157.58629 233.96869
197.56116 157.59027 233.87451
197.98425 157.43442 232.8047
198.72757 157.59845 233.68153
199.31105 157.60266 233.58275
199.5601 157.28705 231.53673
200.47859 157.6113 233.38055
201.407 157.93571 235.22108
202.17073 158.10028 236.08675
202.76248 158.10493 235.97887
203.53394 158.26971 236.84006
204.12856 158.27457 236.72853
204.53905 158.11943 235.64569
204.94487 157.96432 234.56213
205.34604 157.80927 233.47797
206.12592 157.97455 234.32976
206.71678 157.97977 234.21114
207.30789 157.98511 234.09094
208.09825 158.15073 234.93591
209.0952 158.47672 236.74454
209.0827 158.00162 233.72052
209.88115 158.16759 234.55905
210.47597 158.1734 234.43016
211.28229 158.33961 235.26379
211.8801 158.34563 235.13101
213.12659 158.83287 237.88586
213.73233 158.83916 237.74808
214.78043 159.16638 239.53253
215.61514 159.33339 240.35159
216.45509 159.50052 241.16776
216.84341 159.3468 240.06049
217.22716 159.19315 238.95267
217.83963 159.20009 238.80334
218.21661 159.04654 237.69377
218.82727 159.05367 237.54153
219.43826 159.0609 237.38751
220.53596 159.38959 239.14485
220.90692 159.23637 238.03004
222.26576 159.72617 240.73592
222.63742 159.57318 239.61748
223.51062 159.74184 240.40649
223.87808 159.589 239.28572
224.24097 159.43622 238.1644
224.33881 159.12259 236.09061
224.95305 159.13078 235.9203
225.8331 159.30006 236.69875
227.2543 159.79152 239.3737
228.15002 159.96124 240.14417
229.05112 160.13113 240.91129
229.95761 160.30121 241.67505
230.59161 160.31035 241.48837
230.38504 159.83607 238.46094
231.29529 160.00653 239.21809
231.9256 160.01595 239.02704
232.84418 160.18675 239.77803
233.47789 160.19643 239.58226
234.11203 160.20622 239.38448
234.74664 160.21614 239.18471
235.08389 160.06473 238.04201
235.71692 160.07483 237.839
236.6532 160.24657 238.57321
237.59494 160.4185 239.30374
238.23438 160.42903 239.09297
239.80527 160.92462 241.69048
239.82748 160.61212 239.6011
240.47086 160.62305 239.38322
241.43256 160.79584 240.09743
242.07939 160.80701 239.87444
243.04964 160.98016 240.5818
243.37454 160.82968 239.422
244.02284 160.84119 239.19257
245.33258 161.17677 240.82054
245.98691 161.18857 240.58495
246.97723 161.36256 241.2751
248.31119 161.69887 242.88824
249.31514 161.87326 243.56929
249.29529 161.56117 241.47064
250.30273 161.73581 242.14622
250.96756 161.74831 241.89435
251.28209 161.59851 240.71788
252.29858 161.77353 241.38374
253.67642 162.11118 242.96565
253.98978 161.96155 241.78325
255.02032 162.13702 242.43721
255.6929 162.15002 242.16946
256.73193 162.32574 242.81569
257.77643 162.50162 243.45752
258.82645 162.67761 244.09486
259.5083 162.69093 243.81462
260.9429 163.03 245.35617
261.63055 163.04346 245.06903
262.31848 163.05692 244.77943
263.00674 163.07039 244.48749
262.14948 162.43158 240.56198
263.21698 162.60793 241.17628
263.50671 162.45801 239.9749
70.313828 156.94751 206.30946
70.895699 156.93645 206.56271
72.638763 156.42923 204.09274
72.058975 156.91422 207.06322
73.404373 156.57253 205.49196
74.359894 156.39624 204.82472
75.687012 156.05487 203.24194
75.131828 156.53935 206.21524
75.707153 156.52831 206.45233
75.912888 156.68231 207.60201
76.123428 156.83624 208.75172
75.974533 157.15506 210.81812
76.920456 156.97903 210.1337
77.501831 156.96802 210.36391
78.439445 156.79224 209.67245
80.07972 156.28712 207.13586
81.001396 156.11176 206.43457
81.568665 156.10118 206.65193
82.48201 155.92607 205.94383
83.733833 155.58656 204.30745
83.609596 155.90535 206.367
83.833946 156.05957 207.50208
84.06295 156.21378 208.63713
84.296616 156.36795 209.77206
84.203606 156.68646 211.83607
84.777847 156.67632 212.04173
86.656731 156.00931 208.5219
86.572594 156.32791 210.58379
87.140579 156.31812 210.782
88.026878 156.14432 210.0448
88.591537 156.13475 210.23843
89.155792 156.12529 210.43021
90.653259 155.62398 207.81187
92.135292 155.12302 205.18669
92.070946 155.44189 207.24352
92.927307 155.26912 206.48613
93.477074 155.26035 206.66473
94.325165 155.08789 205.90141
94.57547 155.2431 207.01672
94.830391 155.39832 208.13187
94.798706 155.71722 210.18939
95.065338 155.87247 211.30495
96.195282 155.53696 209.58803
97.031158 155.36526 208.81122
98.142967 155.03021 207.08557
98.965698 154.8589 206.30162
99.506813 154.8512 206.46158
99.773773 155.00699 207.56767
100.04533 155.16283 208.67357
100.05265 155.48203 210.72845
100.8687 155.31128 209.93472
101.41554 155.30396 210.08856
101.96207 155.29675 210.24075
102.76721 155.12642 209.43933
103.56711 154.95625 208.63492
103.85369 155.11255 209.73425
104.39647 155.10574 209.87927
104.93893 155.09906 210.02272
105.23447 155.25551 211.11984
105.77879 155.24898 211.26076
106.80624 154.91653 209.48692
107.34506 154.91025 209.62343
107.8836 154.90405 209.75835
108.42186 154.89795 209.89172
109.42358 154.56616 208.10551
109.72697 154.72314 209.19423
110.48894 154.5545 208.36218
110.7967 154.71162 209.44905
111.33118 154.70599 209.57417
111.86541 154.70045 209.69778
112.61655 154.53227 208.85741
113.14783 154.52693 208.97749
113.67889 154.52167 209.09607
114.2097 154.51651 209.21317
114.7403 154.51141 209.32878
115.06573 154.66902 210.40811
115.8008 154.50148 209.55563
116.13068 154.65921 210.63307
116.46524 154.81696 211.71005
116.99962 154.81224 211.8194
117.5338 154.8076 211.92726
118.06776 154.80304 212.03368
118.97725 154.47363 210.20128
119.87677 154.14438 208.36557
120.40042 154.14014 208.46579
120.74334 154.29836 209.53464
120.73474 154.78137 212.54405
121.0919 154.93964 213.61281
121.627 154.93559 213.70961
122.50354 154.60696 211.8613
123.03342 154.6031 211.95438
123.7291 154.43703 211.07339
124.25623 154.43332 211.16327
124.46102 154.75421 213.19876
124.67538 155.07509 215.23447
125.36799 154.9093 214.34746
125.90179 154.90584 214.43297
126.58683 154.74023 213.54199
127.26688 154.57474 212.64885
127.7954 154.57152 212.72945
128.17969 154.7305 213.78482
128.85205 154.56525 212.88647
129.24092 154.72432 213.93983
129.49767 155.04555 215.96974
130.16722 154.88051 215.06693
130.56783 155.0397 216.11787
130.84357 155.36102 218.14635
131.38319 155.35825 218.21761
131.79797 155.51756 219.26636
132.21747 155.67693 220.31433
133.00142 155.35028 218.4231
133.42313 155.50975 219.46861
134.19476 155.18327 217.57317
134.61868 155.34286 218.61623
135.26781 155.17854 217.69727
135.912 155.0143 216.77637
136.76208 154.52621 213.89131
137.39162 154.36215 212.96614
138.21738 153.87428 210.07584
138.83224 153.71039 209.14655
139.44221 153.54657 208.21548
139.86061 153.70663 209.24742
140.37469 153.70483 209.29591
140.88869 153.70308 209.34312
141.40262 153.7014 209.38905
142.08385 153.37601 207.46718
142.75536 153.05069 205.5432
143.25945 153.04919 205.58447
143.83992 152.88588 204.64066
144.34149 152.88449 204.67923
144.843 152.88315 204.71655
145.27525 153.04369 205.73705
145.91267 152.71878 203.80295
146.41162 152.71758 203.83636
146.9725 152.55463 202.8837
147.34982 152.87717 204.88455
147.85106 152.87611 204.91441
148.35225 152.87512 204.94305
148.85339 152.87416 204.97043
149.3046 153.03505 205.98215
149.85561 152.87241 205.02148
150.31154 153.03339 206.03098
150.72957 153.35617 208.02531
151.23778 153.35545 208.04683
151.74597 153.35477 208.06708
152.25414 153.35414 208.08607
152.79535 153.1918 207.11758
153.33173 153.0295 206.14763
153.86327 152.86725 205.17633
154.41582 152.54329 203.21716
154.91185 152.54291 203.22961
155.42889 152.3808 202.25424
155.92249 152.38052 202.26421
156.41608 152.38028 202.27296
156.88205 152.70358 204.25397
157.38043 152.70343 204.26036
157.87881 152.70332 204.26553
158.36403 153.02676 206.24309
158.86722 153.02673 206.24582
159.37041 153.02676 206.24733
159.87361 153.02684 206.2476
160.37985 153.18872 207.23349
160.88547 153.18887 207.23128
161.39896 153.35085 208.21463
161.89673 153.18935 207.22314
162.44041 153.67493 210.17747
162.95329 153.67529 210.17017
163.44868 153.51393 209.17499
163.91939 153.19084 207.19197
164.44742 153.3531 208.16765
164.93083 153.19188 207.16895
165.43658 153.19246 207.15555
166.00142 153.51665 209.11371
166.63982 154.16444 213.04291
167.1601 154.16519 213.0253
167.71716 154.32777 213.99254
168.31827 154.65219 215.94438
168.92903 154.97668 217.8945
169.3735 154.65405 215.89957
169.99399 154.97867 217.84666
170.57535 155.14154 218.80641
171.11034 155.14267 218.77907
171.64537 155.14383 218.7504
172.23651 155.30688 219.70564
172.77405 155.30817 219.67419
173.43338 155.63318 221.61133
174.16566 156.1201 224.53125
174.8468 156.44527 226.46428
175.40144 156.44681 226.42632
175.95616 156.44839 226.38702
176.51094 156.45004 226.34631
176.91513 156.12801 224.33641
177.38748 155.96786 223.30957
178.01538 156.13155 224.24886
178.56561 156.13341 224.20302
179.11594 156.13531 224.15582
179.66632 156.1373 224.10724
180.48622 156.62509 227.00539
181.13625 156.78915 227.93587
181.88583 157.11523 229.84673
182.54811 157.27945 230.77321
183.31479 157.60571 232.67953
183.78557 157.44615 231.63889
184.35591 157.44861 231.57854
185.03308 157.61314 232.4978
185.49692 157.45374 231.4536
186.17912 157.61842 232.3694
186.75232 157.62115 232.30302
187.44202 157.786 233.21507
187.89905 157.62682 232.16585
188.4726 157.62975 232.09509
189.04626 157.63274 232.02286
189.62006 157.6358 231.94914
