ply
format ascii 1.0
comment PCL generated
element vertex 1596
property float x
property float y
property float z
element camera 0
property float view_px
property float view_py
property float view_pz
property float x_axisx
property float x_axisy
property float x_axisz
property float y_axisx
property float y_axisy
property float y_axisz
property float z_axisx
property float z_axisy
property float z_axisz
property float focal
property float scalex
property float scaley
property float centerx
property float centery
property int viewportx
property int viewporty
property float k1
property float k2
end_header
227.28262 155.23163 237.99403
227.90265 155.2394 237.81602
229.07333 155.53549 239.5372
229.97675 155.68768 240.30377
230.60547 155.69586 240.11787
231.23462 155.70415 239.93005
231.8642 155.71255 239.74028
232.20663 155.57678 238.6017
232.83459 155.58536 238.40878
234.0481 155.88272 240.10446
235.27203 156.18033 241.79504
235.91132 156.18936 241.59302
236.85114 156.34297 242.33192
237.49387 156.35226 242.12503
239.0522 156.79523 244.74001
239.08829 156.51573 242.64558
240.04503 156.66998 243.37131
240.06956 156.39052 241.27684
240.39963 156.25568 240.12161
240.40756 155.97617 238.02885
242.00645 156.42035 240.61873
242.00784 156.14091 238.52432
243.30019 156.44073 240.16934
244.6031 156.74083 241.80867
244.92609 156.60646 240.6441
245.24451 156.47211 239.47913
246.56409 156.77274 241.10655
247.5565 156.9286 241.79811
248.2142 156.93958 241.55652
249.21521 157.09575 242.24083
250.22177 157.25211 242.92099
250.53815 157.11823 241.74454
251.90121 157.42009 243.34352
251.86307 157.14104 241.23918
252.88174 157.2979 241.90636
253.18991 157.16417 240.72467
254.21461 157.32126 241.38527
254.15546 157.0421 239.28059
255.91499 157.49039 241.77415
256.58557 157.50233 241.50444
256.8858 157.36873 240.31517
257.92798 157.52637 240.95796
258.97568 157.68414 241.59633
258.89355 157.40483 239.48799
259.94455 157.56271 240.12056
261.38458 157.86655 241.66055
262.06296 157.8788 241.37213
262.74164 157.89108 241.08134
263.81183 158.04932 241.69681
73.129112 151.99341 200.66255
72.91465 152.27991 202.72495
74.257408 151.97339 201.14905
74.052727 152.25967 203.2119
75.384827 151.95334 201.62769
75.569 152.09138 202.7775
76.887794 151.78529 201.18404
76.325851 152.2193 204.16202
76.89341 152.20926 204.39459
77.829605 152.05138 203.70761
78.393959 152.04146 203.93523
78.594101 152.17938 205.08052
79.160301 152.16951 205.30524
79.008522 152.45511 207.37131
78.866516 152.74059 209.43938
79.44175 152.73071 209.66216
81.070198 152.27815 207.10921
81.985725 152.12099 206.3996
83.588081 151.66899 203.83313
84.48764 151.51222 203.114
85.722847 151.20821 201.46268
85.593285 151.4939 203.5231
86.481552 151.33752 202.79463
86.697327 151.47589 203.9248
86.91774 151.61426 205.05493
86.814285 151.89981 207.11798
87.698418 151.7438 206.38123
87.930176 151.88223 207.51031
88.487518 151.87357 207.7037
89.044441 151.86499 207.89528
89.916908 151.70947 207.14769
90.783951 151.55414 206.39664
91.334663 151.54591 206.58109
91.884972 151.53777 206.76379
93.046768 151.23599 205.06335
93.591286 151.2281 205.24091
93.232613 151.66068 208.24355
93.485413 151.79962 209.36307
94.334717 151.64514 208.59471
93.711349 152.22426 212.54631
93.689453 152.50989 214.61154
94.542595 152.35564 213.83949
95.390373 152.20154 213.06419
96.232819 152.04759 212.28561
97.069923 151.89381 211.50385
97.623138 151.88669 211.66811
98.17601 151.87965 211.83066
98.454941 152.01912 212.94215
99.280701 151.86584 212.1507
100.36981 151.56636 210.40414
101.98103 150.97441 206.74759
101.98996 151.26062 208.8045
103.05335 150.9617 207.0461
103.84779 150.80922 206.23816
104.38069 150.80312 206.38278
104.91328 150.79709 206.52583
105.69695 150.64499 205.71053
105.47977 151.07758 208.72212
105.52352 151.36398 210.77792
105.57682 151.65034 212.8347
106.36421 151.49854 212.01442
106.90735 151.4929 212.15129
107.92342 151.19533 210.36543
108.46107 151.18991 210.49796
109.46187 150.89265 208.70541
110.45258 150.59558 206.90895
111.20644 150.44458 206.07162
111.95514 150.29372 205.23164
112.2549 150.43471 206.31726
112.77878 150.42987 206.43785
112.65141 150.86258 209.45264
113.18214 150.85785 209.57198
113.28844 151.14473 211.62245
114.24292 150.8486 209.80623
114.77298 150.84409 209.92113
115.3028 150.83965 210.03461
115.83241 150.83528 210.14661
116.56172 150.68532 209.28824
117.08847 150.68112 209.39687
117.42 150.82263 210.47397
118.14137 150.67294 209.60979
118.66753 150.66895 209.71413
119.19348 150.66504 209.81705
119.53398 150.80675 210.89038
120.062 150.80296 210.99095
120.58984 150.79922 211.09007
120.76155 151.08658 213.13423
120.76724 151.51942 216.15242
121.30671 151.51582 216.24954
122.01671 151.36682 215.37068
122.55341 151.36336 215.46452
123.42163 151.06909 213.6062
123.78974 151.21121 214.67218
124.32355 151.20796 214.76137
124.38152 151.64093 217.77893
124.92229 151.63776 217.8665
125.61663 151.48929 216.97533
126.15469 151.48625 217.05972
126.69261 151.48328 217.1427
127.52327 151.18974 215.26732
128.34412 150.8963 213.38911
129.01355 150.74828 212.4873
129.95636 150.30977 209.62434
130.74777 150.01666 207.73787
131.12639 150.15941 208.7894
131.77356 150.01172 207.87918
132.15678 150.15456 208.92876
132.41766 150.44266 210.95885
133.18675 150.14992 209.06284
133.94608 149.85728 207.16426
134.57581 149.70993 206.24532
135.43542 149.27228 203.35965
136.39546 148.68958 199.48828
136.99834 148.54248 198.56236
137.59628 148.39546 197.63463
138.08159 148.39363 197.68867
138.46146 148.537 198.72528
139.15486 148.24501 196.80905
139.53699 148.38846 197.84349
140.21817 148.09662 195.92357
140.88965 147.80484 194.00148
141.45811 147.65823 193.06227
141.74911 147.94695 195.07715
142.49194 147.51028 192.16443
142.96213 147.50893 192.20625
143.43225 147.5076 192.2469
143.82111 147.65138 193.27248
144.37234 147.50508 192.32471
144.68951 147.79398 194.33479
145.16425 147.79282 194.37115
145.63892 147.7917 194.40633
146.18272 147.64558 193.45332
146.65491 147.64456 193.48599
147.12704 147.64355 193.51747
147.5372 147.78763 194.53529
147.95212 147.93172 195.55225
148.3147 148.22084 197.55609
148.74159 148.36501 198.5714
149.22559 148.3642 198.59775
149.70953 148.36342 198.62288
150.24095 148.21771 197.65855
150.72243 148.21703 197.68121
151.24657 148.0714 196.71414
151.72559 148.0708 196.73434
152.24246 147.92526 195.76465
152.71902 147.92474 195.78238
153.22862 147.77928 194.81009
153.70274 147.77885 194.82542
154.23332 147.48851 192.86153
154.72844 147.34319 191.88528
155.17186 147.48784 192.88612
155.64111 147.48756 192.89673
156.11035 147.4873 192.90614
156.57957 147.48712 192.91446
157.02119 147.77686 194.90027
157.50662 147.63177 193.91695
157.98723 147.48672 192.93242
158.45644 147.48666 192.93613
158.92982 147.34171 191.94926
159.40193 146.90685 188.98235
159.86089 146.76195 187.99316
160.32111 146.907 188.98172
160.7807 146.90714 188.97972
161.24031 146.9073 188.97662
161.71019 147.05247 189.96178
162.19754 147.34265 191.93509
162.6644 147.34293 191.9285
163.13127 147.34326 191.92078
163.61803 147.48859 192.90115
164.13193 147.77892 194.86945
164.63077 147.92433 195.84723
165.10733 147.92482 195.8347
165.58391 147.92535 195.82097
166.06052 147.9259 195.80609
166.46851 147.63655 193.81236
166.94035 147.63719 193.79532
167.45137 147.78284 194.76575
167.92567 147.78357 194.74631
168.48795 148.07431 196.70258
169.05988 148.36511 198.65726
169.54393 148.36597 198.63383
170.13037 148.65689 200.58542
170.7265 148.94786 202.53532
171.27631 149.09387 203.49562
171.83098 149.23993 204.45442
172.45132 149.53108 206.39926
172.95491 149.53223 206.36748
173.52419 149.67847 207.32167
174.03027 149.6797 207.28722
174.60689 149.82603 208.23843
175.11551 149.82736 208.20129
175.5489 149.68369 207.17636
175.97754 149.54002 206.15053
176.48152 149.54149 206.11
177.15059 149.83316 208.04015
177.82939 150.12491 209.96822
178.5179 150.41673 211.89421
179.21613 150.70863 213.81802
179.9241 151.00063 215.73964
180.54721 151.14757 216.67416
181.17525 151.29459 217.60687
181.90759 151.58679 219.52217
182.85333 152.16942 223.40349
183.50577 152.31667 224.32967
184.26979 152.60916 226.23759
184.82544 152.61139 226.17633
185.3812 152.61368 226.11368
185.70924 152.32562 224.08395
186.37668 152.47321 225.00159
187.04907 152.62086 225.91722
187.4841 152.47815 224.86699
188.03799 152.4807 224.79758
188.96997 152.91907 227.67076
189.53134 152.92178 227.5976
190.22369 153.06982 228.50371
190.92099 153.21796 229.4077
191.89462 153.65677 232.26967
192.46864 153.65979 232.18903
193.18332 153.80818 233.08626
193.76004 153.81134 233.00232
194.62764 154.10526 234.87416
195.06172 153.9632 233.80824
195.64133 153.96655 233.71944
196.2211 153.96997 233.62912
196.95609 154.11888 234.51445
197.38112 153.97702 233.44398
197.80147 153.83522 232.37279
198.37947 153.8389 232.27682
199.12244 153.98813 233.15489
199.2016 153.5555 230.13008
199.94495 153.70486 231.0051
200.8654 153.99985 232.85202
201.79578 154.29498 234.69565
202.55914 154.4447 235.56259
203.68634 154.88568 238.37299
204.28291 154.89005 238.26155
204.8797 154.89452 238.14856
205.47673 154.89905 238.03395
205.50661 154.46674 235.00446
205.90521 154.3257 233.91743
206.29915 154.18471 232.82979
206.88487 154.18947 232.71118
207.66972 154.34003 233.5601
208.4597 154.49072 234.40643
209.05104 154.49576 234.28197
209.84885 154.64667 235.12347
211.06909 155.08932 237.89642
211.67101 155.09473 237.76497
212.27318 155.10019 237.63182
213.30762 155.39749 239.42786
214.13368 155.54909 240.25511
214.30225 155.26305 238.1866
215.13136 155.41484 239.00992
215.73987 155.42081 238.86714
215.89215 155.13487 236.79752
216.49635 155.14096 236.65248
216.86769 155.00111 235.54434
217.23444 154.8613 234.43568
217.83466 154.86763 234.2867
219.15688 155.31242 237.01471
220.00816 155.46518 237.81934
220.61925 155.47191 237.66263
221.23065 155.47873 237.50412
222.34326 155.77811 239.25787
222.96031 155.78519 239.09448
223.8331 155.93866 239.88503
224.45337 155.94597 239.7173
225.33429 156.09973 240.50212
225.43227 155.81451 238.42268
226.05121 155.82211 238.25011
226.67053 155.8298 238.07567
227.29025 155.83762 237.89938
227.6377 155.69901 236.77032
228.53091 155.85352 237.54115
229.4295 156.00821 238.30864
229.77321 155.86986 237.17531
230.67761 156.02483 237.93753
231.58743 156.17996 238.69626
232.21506 156.18857 238.50511
232.84311 156.1973 238.312
234.05679 156.49966 240.00674
234.98582 156.65549 240.75227
235.9203 156.81148 241.49419
236.86026 156.96765 242.23251
237.50308 156.97711 242.02542
239.06165 157.42752 244.63904
239.09778 157.14333 242.5452
239.74454 157.15314 242.33109
239.7666 156.86893 240.23802
240.09421 156.73178 239.08382
240.09967 156.44751 236.99248
241.3761 156.75192 238.64597
241.37248 156.4677 236.55389
242.65997 156.77249 238.19968
243.63034 156.93024 238.90657
243.9458 156.79346 237.74486
245.25494 157.09888 239.37709
246.57468 157.40456 241.00348
247.56723 157.56302 241.69441
248.56534 157.72168 242.38129
249.56902 157.88051 243.06403
250.23285 157.89191 242.81584
251.24512 158.05106 243.49121
251.56201 157.91498 242.31264
251.87431 157.7789 241.13371
252.18204 157.64282 239.9545
252.8432 157.65454 239.69684
253.50485 157.66632 239.43692
254.16693 157.67818 239.17467
255.56093 157.98602 240.74788
256.59729 158.14609 241.39685
257.26831 158.15823 241.12454
258.68652 158.46664 242.68146
259.36346 158.47897 242.40233
259.66232 158.34314 241.2072
261.09955 158.65198 242.74959
261.78015 158.66443 242.46227
262.07489 158.52853 241.2621
263.14227 158.68935 241.88043
264.21506 158.85022 242.49414
72.727501 152.6859 201.4767
72.904884 152.82643 202.63086
74.634537 152.36423 200.14626
73.65863 152.95657 204.02904
74.61161 152.79573 203.35887
75.559235 152.63499 202.68459
76.501495 152.47435 202.0062
75.567894 153.06595 205.89926
76.512115 152.90532 205.21797
77.45092 152.74481 204.53264
78.01786 152.73471 204.76146
78.220528 152.87491 205.90755
78.789307 152.86485 206.13348
78.998894 153.005 207.27866
78.856842 153.29524 209.34613
79.078354 153.43527 210.49231
80.709518 152.9752 207.94174
81.627678 152.81543 207.23372
83.232765 152.35593 204.6696
84.134949 152.19653 203.95201
85.372833 151.88747 202.30264
85.584396 152.02806 203.43443
86.472771 151.86911 202.70657
86.688576 152.00978 203.83652
86.909027 152.15044 204.96643
86.477043 152.59039 207.96141
87.3638 152.43176 207.22614
87.598129 152.57243 208.35587
87.837059 152.71312 209.48552
88.399094 152.70433 209.67899
89.592682 152.39673 207.99677
90.462364 152.2388 207.2471
91.637596 151.93166 205.55536
91.877014 152.07275 206.67685
93.34494 151.61668 204.03711
93.887047 151.6087 204.214
93.826836 151.89926 206.27292
94.074699 152.04057 207.39064
94.919136 151.88362 206.62126
94.584244 152.32327 209.62561
94.554909 152.61374 211.6879
95.400696 152.45703 210.91411
96.24115 152.30048 210.13704
97.076256 152.1441 209.35678
97.624969 152.13681 209.52138
98.173325 152.12964 209.6843
98.721336 152.12253 209.84552
98.995354 152.26439 210.95535
99.816292 152.10863 210.16298
100.9006 151.80423 208.41591
102.24088 151.3513 205.71201
101.98363 151.79102 208.7207
103.04716 151.48714 206.96317
103.84172 151.33214 206.15575
104.37471 151.32591 206.30049
105.4151 151.02257 204.53215
106.44532 150.71942 202.75961
105.97184 151.3078 206.72531
106.25716 151.45047 207.82152
106.0591 151.89017 210.83411
106.3586 152.03282 211.93097
106.90181 152.0271 212.06796
107.91801 151.72459 210.28299
108.45576 151.71907 210.41563
109.45667 151.41689 208.62393
110.44751 151.1149 206.82837
111.42828 150.81308 205.02893
111.95027 150.80801 205.15198
112.02818 151.09961 207.20103
112.55457 151.09468 207.32231
112.86371 151.23805 208.40695
113.1775 151.38147 209.49123
113.49594 151.5249 210.57513
114.4481 151.22388 208.75919
114.97578 151.21931 208.87366
115.29845 151.36295 209.95424
115.82813 151.35849 210.06633
116.55753 151.20605 209.20844
117.08435 151.20178 209.31712
117.61097 151.19757 209.42439
118.32999 151.04543 208.5602
118.85378 151.04138 208.66414
119.18964 151.18541 209.73766
119.34489 151.47742 211.78218
120.24114 151.17764 209.93938
120.58618 151.32179 211.01056
120.75792 151.61389 213.05406
121.11477 151.7581 214.12463
121.82259 151.60658 213.24722
122.18394 151.75089 214.31586
122.71829 151.74738 214.40933
123.08662 151.89177 215.47641
123.62306 151.88838 215.56749
124.48135 151.58945 213.70552
124.85406 151.73399 214.7692
125.54376 151.58304 213.87906
126.53593 151.13664 211.03273
127.0595 151.13364 211.11491
127.13631 151.5739 214.129
127.52044 151.71869 215.18767
128.34137 151.42039 213.31024
129.01086 151.26991 212.40884
129.81459 150.97183 210.52621
130.88203 150.37851 206.68181
131.52698 150.22832 205.77295
132.03502 150.22586 205.84235
132.41345 150.37108 206.89096
132.54243 150.81158 209.9006
133.30917 150.51402 208.00505
133.94391 150.36415 207.08839
134.57368 150.21436 206.16986
135.31596 149.91704 204.26738
136.2785 149.32468 200.39775
136.88385 149.17514 199.47252
137.70464 148.73056 196.57967
138.18756 148.72871 196.63347
138.56506 148.87445 197.66951
139.15317 148.72517 196.73747
139.63586 148.72348 196.78763
140.11848 148.72182 196.83658
140.79242 148.4252 194.91548
141.36336 148.27617 193.9769
141.74767 148.42216 195.00642
142.40211 148.12575 193.07991
142.87476 148.12436 193.12198
143.34734 148.123 193.16287
143.90108 147.97423 192.21686
144.37114 147.97298 192.2552
144.61192 148.41409 195.25072
145.08911 148.4129 195.28729
145.49466 148.55919 196.30916
146.04333 148.41064 195.35686
146.58713 148.26216 194.40306
147.12608 148.11372 193.44777
147.53625 148.26018 194.46527
147.95123 148.40665 195.48187
148.31384 148.70056 197.48503
148.74077 148.84709 198.5
149.17249 148.99367 199.51405
149.65889 148.99287 199.53934
150.19275 148.84474 198.57549
150.67668 148.84404 198.59827
151.20326 148.696 197.6317
151.72502 148.548 196.66374
152.24191 148.40007 195.69441
152.71852 148.39954 195.71216
153.19511 148.39905 195.72874
153.67168 148.39861 195.74419
154.17647 148.25082 194.76976
154.6506 148.25046 194.78278
155.12471 148.25012 194.79465
155.59882 148.24985 194.80533
156.07289 148.24959 194.81488
156.54698 148.24937 194.82326
157.00725 148.39656 195.81946
157.50652 148.10172 193.84752
157.99615 147.80692 191.87431
158.46957 147.6595 190.88892
158.93401 147.65948 190.89145
159.40198 147.36481 188.91469
159.8616 147.36485 188.91492
160.32426 147.51231 189.90314
160.78085 147.3651 188.91208
161.23265 147.21791 187.91991
161.71042 147.51283 189.89375
162.18515 147.66045 190.87737
162.6647 147.80811 191.85976
163.13161 147.80843 191.85202
163.63831 148.10353 193.82092
164.15465 148.39868 195.78847
164.65593 148.54649 196.76584
165.13495 148.547 196.75319
165.61397 148.54753 196.7394
166.09303 148.54811 196.72444
166.50345 148.25397 194.73132
167.05122 148.54938 196.69096
167.53035 148.55008 196.67245
168.00952 148.55081 196.65279
168.48872 148.55159 196.63193
169.0607 148.84721 198.58588
169.5448 148.84808 198.56244
170.1313 149.14381 200.51332
170.72748 149.43959 202.46248
171.33334 149.73544 204.40988
171.89046 149.88393 205.36818
172.51328 150.1799 207.31215
173.0193 150.18108 207.28017
173.52539 150.1823 207.24696
174.09959 150.33101 208.19922
174.67867 150.47977 209.14986
175.11685 150.33368 208.12614
175.62558 150.33508 208.08772
176.13437 150.33652 208.04802
176.56311 150.19055 207.02126
177.23465 150.48706 208.95049
178.00085 150.93114 211.86304
178.86894 151.52281 215.75822
179.48714 151.67207 216.69542
180.20241 151.96892 218.61563
180.83282 152.11832 219.54909
181.27415 151.97272 218.5121
181.90956 152.12225 219.44235
182.95723 152.86206 224.30598
183.61214 153.01175 225.23151
184.37865 153.30911 227.13844
185.04584 153.45897 228.05986
185.60648 153.46132 227.99661
185.93941 153.16852 225.96701
186.49542 153.17096 225.90149
186.9328 153.02582 224.85263
187.48662 153.02838 224.78461
188.04056 153.03098 224.71513
188.97263 153.47661 227.58719
189.27722 153.18402 225.55266
190.35733 153.77754 229.39999
191.05713 153.92813 230.30322
191.7619 154.07883 231.20436
192.47168 154.2296 232.10336
193.18642 154.38046 233.00017
193.62025 154.23593 231.93753
194.34015 154.38693 232.83066
194.76942 154.24251 231.76575
195.34424 154.2459 231.67763
195.76657 154.10156 230.61087
196.80453 154.54852 233.45047
197.06967 154.25647 231.40428
197.80508 154.40799 232.28615
198.22079 154.26387 231.21452
199.12622 154.56345 233.06773
199.20541 154.12366 230.04395
200.1185 154.42342 231.89285
200.86938 154.57538 232.76462
201.62537 154.72745 233.634
202.20943 154.73167 233.52789
203.33188 155.17992 236.33797
203.92366 155.18434 236.22737
204.51566 155.18884 236.11517
205.10788 155.19342 236.00143
205.70032 155.19809 235.88606
206.10141 155.05475 234.79881
206.49785 154.91145 233.711
207.28256 155.06444 234.56107
207.67459 154.92126 233.47096
208.46468 155.07445 234.31683
209.05609 155.07959 234.19226
209.854 155.233 235.03333
210.86572 155.53477 236.83833
211.67639 155.68848 237.67343
212.06508 155.54578 236.57457
213.0972 155.84799 238.3703
213.92093 156.00208 239.19763
214.08708 155.71127 237.13029
214.91385 155.86557 237.95367
215.74582 156.02 238.77419
215.89815 155.72934 236.70514
216.2717 155.58711 235.5984
216.87384 155.59338 235.4521
217.71198 155.74825 236.26457
218.31723 155.75473 236.11423
219.40395 156.05841 237.88051
220.25781 156.21371 238.68401
220.87146 156.22058 238.52652
221.23747 156.07893 237.40996
222.60065 156.53194 240.11948
223.22029 156.53917 239.95528
224.09567 156.69521 240.7446
224.97635 156.85141 241.53075
225.60205 156.85901 241.35968
225.96532 156.71793 240.23344
226.58931 156.72571 240.05934
226.94594 156.58473 238.93144
227.56824 156.5927 238.75429
227.91824 156.45184 237.62476
228.53888 156.45999 237.44452
229.15993 156.46825 237.26239
229.7814 156.47661 237.07835
230.68594 156.63412 237.83998
231.88101 156.94093 239.54498
231.93597 156.65146 237.46078
232.85178 156.80948 238.21358
234.06564 157.11685 239.90735
234.99481 157.27524 240.65227
235.63181 157.28455 240.45067
237.16962 157.74188 243.07349
237.81506 157.75153 242.8654
238.76611 157.91066 243.59581
239.10739 157.77113 242.44304
239.75427 157.78111 242.22873
240.08899 157.64169 241.07428
240.41919 157.5023 239.91943
240.42717 157.21336 237.82785
241.70631 157.52286 239.47946
241.70523 157.23396 237.38712
242.6702 157.39412 238.09727
243.96844 157.70421 239.7364
244.61673 157.715 239.50589
245.93111 158.02553 241.1353
246.92076 158.18646 241.82874
248.25381 158.4975 243.4473
248.57635 158.35893 242.27515
249.58015 158.52037 242.95724
250.24408 158.53195 242.70885
250.56053 158.39352 241.53275
250.87241 158.2551 240.35631
251.17966 158.11664 239.17953
251.4823 157.97818 238.00244
252.49658 158.14026 238.66803
253.15573 158.15216 238.40886
254.54179 158.46484 239.98637
255.57269 158.62738 240.63904
256.60913 158.79007 241.28735
256.90933 158.65189 240.09842
257.95169 158.81474 240.73994
258.24759 158.67654 239.54842
259.67435 158.9902 241.09636
261.11169 159.30408 242.6377
262.17593 159.46742 243.26123
262.47321 159.32928 242.0602
263.15442 159.34189 241.76785
264.2272 159.50537 242.38094
71.933693 153.53665 203.19553
72.116104 153.67944 204.35167
73.850983 153.20969 201.87071
72.880013 153.81161 205.7541
73.456337 153.80113 205.99823
74.411659 153.63768 205.32777
75.361618 153.47433 204.65318
74.435478 154.07547 208.54793
75.75901 153.75928 206.95464
77.072021 153.44333 205.35524
78.008049 153.28032 204.66748
78.210716 153.42282 205.81335
78.779533 153.41263 206.03949
78.630219 153.7077 208.10527
79.203407 153.69753 208.32944
79.422379 153.83992 209.47444
80.699921 153.5249 207.84811
81.966934 153.21011 206.21596
83.569672 152.74319 203.65234
84.125755 152.73361 203.86102
84.681427 152.72409 204.06786
84.898071 152.86691 205.20128
85.455482 152.8575 205.40527
85.678879 153.00035 206.53775
86.569099 152.83894 205.80765
86.468155 153.13394 207.87036
87.355049 152.97275 207.13564
87.265869 153.26773 209.19907
87.50737 153.41066 210.32936
87.753464 153.55362 211.45955
88.952225 153.24094 209.78004
89.827042 153.08035 209.03265
90.696442 152.91995 208.28178
91.560432 152.7597 207.52744
93.337044 152.14444 203.95006
93.575745 152.28802 205.06778
93.819061 152.43163 206.18538
94.663994 152.27202 205.41832
95.799591 151.961 203.70482
95.457207 152.40793 206.7058
95.129395 152.85474 209.70975
96.258896 152.54407 207.98955
96.519867 152.68796 209.10313
97.352631 152.52905 208.32263
97.898941 152.52167 208.48665
98.444908 152.5144 208.64897
98.990524 152.50723 208.80963
99.262131 152.65141 209.91847
99.809525 152.64439 210.07654
101.16269 152.18384 207.37909
102.50067 151.72354 204.6758
102.5047 152.01929 206.7301
103.30216 151.86163 205.92546
104.09436 151.70413 205.11787
104.36862 151.84891 206.2168
105.15527 151.69165 205.40471
105.93668 151.53453 204.58977
105.71704 151.98145 207.59868
106.00488 152.1264 208.69525
106.29736 152.27139 209.79152
106.59445 152.41641 210.88753
107.37441 152.25974 210.0648
108.38583 151.95235 208.27948
109.15294 151.79596 207.45061
109.68314 151.79051 207.58003
110.44235 151.63438 206.74635
110.96957 151.62912 206.87218
111.94532 151.32251 205.07095
111.80132 151.76953 208.08272
112.54973 151.61382 207.24072
112.64188 151.91016 209.28955
112.95817 152.05588 210.37411
113.06697 152.35223 212.42383
114.02414 152.04625 210.6098
114.55678 152.04156 210.72545
115.0892 152.03694 210.83965
115.82378 151.88188 209.98466
116.55325 151.72696 209.12726
117.08015 151.7226 209.23604
117.41177 151.86877 210.31258
118.13333 151.71411 209.44931
118.84981 151.55957 208.58366
119.37348 151.55554 208.68625
119.89696 151.55157 208.78746
120.60313 151.39731 207.91566
121.12381 151.39349 208.0136
121.28828 151.6904 210.05507
121.63788 151.83701 211.12404
121.99217 151.98364 212.19247
122.35116 152.13031 213.26039
123.05144 151.9765 212.37929
123.58083 151.97302 212.47058
123.94661 152.11984 213.53557
124.63912 151.96628 212.64903
125.00946 152.11319 213.71201
125.54065 152.10995 213.79816
126.37918 151.80646 211.92964
127.20786 151.50308 210.05823
127.28227 151.95052 213.07091
127.66402 152.09769 214.12892
128.19452 152.09476 214.20815
128.86652 151.9418 213.30754
129.39433 151.93903 213.38371
130.33238 151.48608 210.52101
131.12141 151.18333 208.63441
131.90067 150.88068 206.74518
132.28156 151.02826 207.79382
132.54007 151.3259 209.82224
133.3069 151.02347 207.92747
133.94168 150.87115 207.01123
134.57153 150.71892 206.09309
135.07901 150.71674 206.15479
136.1615 149.96474 201.30528
136.76932 149.81274 200.38072
137.59259 149.36092 197.48929
138.18576 149.20908 196.56059
138.56329 149.35719 197.59631
139.15146 149.20547 196.66463
139.6342 149.20374 196.71486
140.01875 149.35196 197.74765
140.69516 149.05051 195.82756
141.26857 148.89903 194.8896
141.65532 149.04739 195.91904
142.4007 148.59627 193.00876
142.87338 148.59485 193.05087
143.42966 148.4436 192.1066
143.89981 148.44228 192.14616
144.3699 148.44099 192.18452
144.68713 148.73944 194.19325
145.16194 148.73824 194.22964
145.56512 148.8869 195.25098
146.04225 148.88579 195.28523
146.65288 148.58505 193.34534
147.12509 148.58403 193.37688
147.53531 148.73285 194.39401
147.95032 148.88171 195.41031
148.31296 149.1804 197.41275
148.73993 149.32932 198.4274
149.17168 149.47827 199.44107
149.65813 149.47748 199.4664
150.19203 149.32692 198.50291
150.63091 149.476 199.51343
151.15994 149.32555 198.54733
151.72443 149.02536 196.59195
152.20351 149.02478 196.61098
152.68256 149.02423 196.62885
153.16159 149.02373 196.64551
153.67125 148.8735 195.67279
154.1196 149.02286 196.67537
154.62442 148.87271 195.70015
155.07755 149.02214 196.70052
155.5565 149.02184 196.71135
156.03545 149.02158 196.72096
156.51437 149.02136 196.72945
157.0071 148.87143 195.74812
157.50641 148.57179 193.7769
157.99608 148.27219 191.80441
158.46954 148.12238 190.81938
158.93401 148.12236 190.8219
159.40202 147.82288 188.84587
159.86168 147.82294 188.84613
160.32439 147.97279 189.83398
160.78647 147.97293 189.83197
161.24855 147.97311 189.82883
161.7209 148.12308 190.81323
162.18541 148.12334 190.8078
162.66501 148.27339 191.78986
163.14944 148.42349 192.77066
163.65858 148.72339 194.7388
164.17738 149.02335 196.70555
164.70583 149.32335 198.6709
165.2168 149.47363 199.64648
165.67357 149.3244 198.6442
166.15749 149.32501 198.62907
166.57275 149.02608 196.63651
167.08864 149.17653 197.60719
167.57022 149.17725 197.58859
168.05185 149.17799 197.5688
168.57745 149.32858 198.53557
169.15431 149.62903 200.48856
169.59447 149.48012 199.47736
170.28581 150.08028 203.40213
170.83568 150.23109 204.36292
171.3904 150.38194 205.32219
171.89156 150.38304 205.29295
172.4536 150.53401 206.24937
172.95726 150.5352 206.21753
173.52663 150.68626 207.17094
174.10088 150.8374 208.12282
174.60953 150.83873 208.0869
175.11824 150.84012 208.0497
175.627 150.84155 208.01126
176.05814 150.69315 206.9859
176.56461 150.69467 206.9451
177.23622 150.996 208.87357
178.0025 151.44733 211.785
178.6086 151.59892 212.72418
179.30939 151.90051 214.64629
180.01988 152.20216 216.56615
180.64554 152.35399 217.49965
181.27611 152.50589 218.43135
182.20985 153.10768 222.31224
183.16301 153.70961 226.1898
183.71857 153.71181 226.13124
184.48756 154.01401 228.03714
185.04816 154.01634 227.97525
185.60884 154.01874 227.91193
185.9418 153.72118 225.883
186.49788 153.72366 225.81743
187.17282 153.87622 226.73198
187.85271 154.02887 227.64449
188.29037 153.88152 226.59315
189.22737 154.33443 229.46344
189.66528 154.18719 228.40923
190.49103 154.49023 230.29411
190.92679 154.34311 229.23732
191.76492 154.64635 231.11768
192.33664 154.64946 231.03725
193.04904 154.80276 231.93399
193.4805 154.65587 230.87199
194.34343 154.9595 232.74297
194.77277 154.81273 231.67836
195.49789 154.96637 232.56734
195.9227 154.8197 231.50049
196.65302 154.97351 232.38571
197.07329 154.82695 231.3166
197.80878 154.98094 232.19803
198.22455 154.83447 231.12669
198.96527 154.98865 232.00429
199.20929 154.69199 229.95633
199.95279 154.84631 230.83044
200.52925 154.8504 230.72867
201.1059 154.85457 230.62532
201.85971 155.00919 231.4931
202.97742 155.46469 234.3029
203.56441 155.46916 234.19312
204.33589 155.62415 235.05307
205.11247 155.77924 235.91049
205.51582 155.63351 234.82468
205.91455 155.48782 233.73824
206.69667 155.6432 234.58989
207.28745 155.64818 234.47011
207.87846 155.65323 234.34869
208.46971 155.65837 234.22565
208.65361 155.36241 232.16629
209.24048 155.36768 232.04105
210.24501 155.6743 233.84682
211.04843 155.83044 234.68301
211.42984 155.68536 233.58606
212.67079 156.14314 236.34724
213.48973 156.2997 237.17517
213.43008 155.85336 234.14604
214.2496 156.0101 234.97061
215.30017 156.31778 236.75476
215.67595 156.17319 235.6494
216.27788 156.17946 235.50468
217.11334 156.33673 236.31895
217.71835 156.34325 236.17023
218.3237 156.34985 236.01974
219.16997 156.50751 236.82635
220.02151 156.66534 237.62994
220.38724 156.52127 236.5154
220.74838 156.37726 235.40034
222.10683 156.83759 238.10985
222.46869 156.69379 236.99121
223.33678 156.85228 237.78195
224.21017 157.01096 238.56958
224.56821 156.8674 237.44679
225.18448 156.87511 237.27646
226.06647 157.03419 238.0565
226.68597 157.04214 237.88173
227.57619 157.20154 238.65594
228.47174 157.3611 239.42683
229.09744 157.36945 239.24498
229.72357 157.3779 239.06123
230.35011 157.38647 238.87556
231.25977 157.54665 239.63512
231.88965 157.55547 239.44481
231.94464 157.26129 237.36124
232.8606 157.42186 238.11342
233.78197 157.58261 238.86209
234.70877 157.74356 239.60721
235.34338 157.75298 239.40622
236.27863 157.91425 240.14496
236.91669 157.92393 239.93912
237.86035 158.08554 240.67131
238.19418 157.94362 239.52124
239.1438 158.10553 240.24768
240.09895 158.26764 240.9704
240.74438 158.27794 240.7525
240.75491 157.98433 238.66066
241.71655 158.14684 239.37535
242.03821 158.00533 238.21777
242.68057 158.01599 237.99315
243.65121 158.17892 238.69878
244.62738 158.34207 239.40048
245.6091 158.50539 240.09824
246.59637 158.66888 240.79193
247.92706 158.98492 242.41037
248.58755 158.99643 242.16718
249.59149 159.16049 242.84865
249.91 159.01974 241.67406
250.57198 159.03152 241.4241
250.88385 158.89081 240.24783
251.54425 158.90271 239.99431
251.84946 158.76202 238.81642
252.86639 158.92674 239.48038
253.52815 158.93886 239.21997
254.9169 159.25665 240.79539
255.95044 159.42184 241.4464
256.62115 159.43427 241.17598
256.55042 159.14084 239.07124
257.5903 159.30626 239.71317
258.63568 159.47182 240.35066
259.68652 159.63748 240.98366
261.12396 159.95642 242.52391
262.18826 160.12236 243.14677
262.48547 159.98192 241.94595
262.77783 159.84137 240.7449
263.84808 160.00739 241.35844
71.139618 154.39738 204.91101
71.716537 154.38683 205.16132
73.454086 153.90956 202.68294
72.101074 154.67667 207.47589
73.064331 154.5105 206.81128
74.022255 154.34442 206.14252
74.974808 154.17847 205.46964
74.42524 154.6339 208.44963
75.377228 154.46797 207.77274
76.692924 154.14693 206.17537
77.631561 153.98129 205.48929
78.200768 153.97095 205.71758
78.769638 153.96062 205.94389
78.979202 154.10541 207.08865
78.837112 154.40514 209.15479
79.412491 154.39484 209.37819
79.987511 154.38461 209.59959
81.259735 154.06471 207.97043
82.521461 153.74506 206.33543
83.085182 153.7352 206.54718
83.648514 153.72543 206.757
84.211441 153.71573 206.96494
85.110146 153.55145 206.24193
85.669754 153.54195 206.44516
86.560089 153.37798 205.71565
86.459145 153.67772 207.77773
87.346161 153.51395 207.04361
87.256981 153.81366 209.10641
87.819603 153.8045 209.30208
88.063232 153.9498 210.43118
89.259644 153.63216 208.75183
90.132088 153.46904 208.00418
90.999107 153.30609 207.25307
91.860725 153.14333 206.49846
93.022995 152.82655 204.80096
93.264236 152.97241 205.91928
93.81115 152.96419 206.09637
94.656219 152.80203 205.32985
95.495918 152.64003 204.56003
95.449585 152.94011 206.61726
95.12175 153.39409 209.62016
95.674232 153.38625 209.79097
96.512451 153.22462 209.01427
97.061707 153.21701 209.18086
97.610611 153.20947 209.34576
98.716431 152.89452 207.61298
99.259659 152.88727 207.77307
99.528854 153.03378 208.88094
100.34506 152.87302 208.08824
101.69347 152.40512 205.39072
102.76042 152.09113 203.63893
102.49823 152.5452 206.64415
103.55711 152.23148 204.88712
104.08812 152.22499 205.033
104.10605 152.52556 207.08597
104.64137 152.5192 207.23009
105.93072 152.05264 204.50568
105.71109 152.50673 207.51352
105.99899 152.65401 208.60985
106.77962 152.49463 207.79077
107.31346 152.48871 207.92703
107.36874 152.78944 209.97937
108.38028 152.47714 208.19498
108.91328 152.47147 208.32663
109.44601 152.4659 208.45677
110.20779 152.30722 207.62416
111.19127 151.99554 205.82709
111.94028 151.83716 204.98856
112.01825 152.13823 207.0363
112.5448 152.13312 207.15776
112.85405 152.28116 208.24184
112.95333 152.58226 210.29019
113.06216 152.88336 212.33925
114.22918 152.41948 209.56039
114.55217 152.56769 210.64185
115.28951 152.41005 209.78935
115.81934 152.40544 209.90164
116.5489 152.24802 209.04469
116.68085 152.54936 211.09016
117.21248 152.54498 211.19861
118.1292 152.23497 209.36703
118.84578 152.07794 208.50183
119.36951 152.07382 208.60452
120.07838 151.91699 207.73508
120.78221 151.76028 206.8633
120.93959 152.06192 208.90413
121.10653 152.36356 210.94539
121.45862 152.51248 212.0145
121.98856 152.50874 212.11009
122.51834 152.50508 212.20427
123.04796 152.50146 212.29704
123.57741 152.49794 212.38841
124.1067 152.49448 212.47842
124.63583 152.49107 212.56702
124.84761 152.79294 214.60518
125.22513 152.94223 215.66765
126.0686 152.63382 213.80072
127.05354 152.17299 210.95427
127.1304 152.62758 213.96622
127.51462 152.77707 215.02429
128.04761 152.77409 215.10394
128.58046 152.77118 215.18225
128.97397 152.92081 216.23759
129.91937 152.46056 213.37711
130.85013 152.00046 210.51321
131.76624 151.54047 207.64598
132.27911 151.53795 207.71484
132.66479 151.68791 208.76247
133.30458 151.53308 207.84859
133.81715 151.53072 207.91348
134.32962 151.52843 207.97711
134.842 151.52618 208.03943
135.9294 150.76212 203.19241
136.4295 150.76003 203.2507
137.4805 149.99622 198.39693
138.18391 149.68958 196.48648
138.56148 149.84006 197.52187
139.14972 149.6859 196.59061
139.63251 149.68414 196.64085
140.01709 149.83473 197.67332
140.59785 149.68076 196.7377
141.26703 149.37454 194.81647
141.74471 149.37299 194.8614
142.39926 149.06693 192.93643
142.95805 148.91319 191.99396
143.42831 148.9118 192.03471
143.89851 148.91045 192.07426
144.36865 148.90915 192.11266
144.76233 149.06013 193.13527
145.16077 149.21115 194.15707
145.49239 149.51443 196.16385
145.90279 149.6655 197.18419
146.45151 149.51216 196.23149
146.99536 149.35889 195.27728
147.41043 149.51009 196.2944
147.94939 149.3569 195.33752
148.31207 149.66037 197.33926
148.73907 149.81168 198.35353
149.17087 149.96301 199.3669
149.65735 149.96219 199.39221
150.1438 149.96143 199.41635
150.63022 149.96069 199.43927
151.11661 149.96001 199.461
151.68355 149.65501 197.50647
152.16507 149.65442 197.52562
152.64658 149.65385 197.54358
153.16112 149.50117 196.57254
153.64017 149.50072 196.58809
154.09096 149.65245 197.59036
154.59822 149.49989 196.61559
155.07722 149.49956 196.62758
155.57724 149.34709 195.65027
156.0352 149.49899 196.64807
156.51418 149.49876 196.65654
156.99315 149.49858 196.66383
157.49489 149.19414 194.69337
157.97803 149.04189 193.70996
158.46292 148.73753 191.73701
158.92984 148.73752 191.73958
159.39853 148.58539 190.75261
159.8624 148.43329 189.7645
160.32451 148.4334 189.76363
160.79208 148.58569 190.74995
161.25661 148.58588 190.74681
161.73141 148.73825 191.73083
162.21104 148.89067 192.71364
162.6955 149.04314 193.69524
163.18477 149.19563 194.67563
163.69878 149.50035 196.6429
164.17783 149.50078 196.63258
164.68161 149.65343 197.60918
165.1631 149.65395 197.59648
165.64462 149.6545 197.58257
166.09424 149.50293 196.57967
166.57339 149.50357 196.56349
167.12608 149.80861 198.5215
167.61011 149.80934 198.50278
168.13574 149.9623 199.47034
168.66623 150.11533 200.43655
169.24794 150.42058 202.38853
169.74174 150.42151 202.36461
170.38919 150.87909 205.30049
170.8903 150.88011 205.27374
171.44748 151.03339 206.23248
171.89267 150.88228 205.21649
172.45476 151.03568 206.17249
172.95847 151.03688 206.14064
173.52789 151.19038 207.09367
174.10219 151.34393 208.04515
174.61089 151.34529 208.0092
175.11964 151.34671 207.97197
175.62845 151.34816 207.9335
176.13733 151.34966 207.89374
176.64627 151.35121 207.85275
177.40289 151.80968 210.76511
178.08911 152.11595 212.69031
178.69769 152.26999 213.62889
179.40096 152.57642 215.54999
180.11394 152.88293 217.46889
180.64746 152.88487 217.41794
181.37511 153.19153 219.33276
182.21193 153.65063 222.22858
183.06332 154.10986 225.12157
183.72079 154.26445 226.04602
184.48987 154.5715 227.95113
185.15961 154.72626 228.87146
185.72278 154.72871 228.80785
186.17212 154.5788 227.76103
186.73308 154.58136 227.69484
187.41293 154.7364 228.60838
187.97655 154.73909 228.53905
188.54028 154.74182 228.46825
189.35619 155.04958 230.35652
189.79657 154.89998 229.30229
190.49396 155.05542 230.20647
191.06305 155.05844 230.12926
191.76797 155.21405 231.02951
192.47789 155.36974 231.92763
193.33336 155.67807 233.80183
193.62674 155.3763 231.76155
194.49219 155.68481 233.63135
194.92401 155.53571 232.56665
195.65164 155.69183 233.45482
196.07893 155.54283 232.38791
196.65663 155.54651 232.29625
197.07697 155.3976 231.22746
197.65259 155.4014 231.13318
198.06598 155.25259 230.06255
198.80434 155.40921 230.94008
199.04597 155.10779 228.89325
199.95682 155.41731 230.74091
200.53336 155.42148 230.63902
200.93552 155.27295 229.56288
201.50999 155.27725 229.45837
202.62296 155.74004 232.26782
203.20515 155.74454 232.15886
203.97186 155.90196 233.01926
204.74367 156.05951 233.87714
205.14221 155.91144 232.79259
205.5361 155.76337 231.70735
206.31346 155.9212 232.55952
207.09593 156.07918 233.40913
207.68457 156.08429 233.28809
208.27348 156.08951 233.16548
208.45497 155.78877 231.10727
209.24576 155.94714 231.94891
210.2504 156.2587 233.75378
210.84277 156.26428 233.62411
211.43541 156.26994 233.4928
212.89258 156.8882 237.21701
213.49557 156.89415 237.08015
213.65692 156.59384 235.01524
214.479 156.75313 235.83875
215.53218 157.06578 237.62141
215.68213 156.76564 235.55424
216.51495 156.92531 236.3703
217.11975 156.93182 236.22316
218.19629 157.2451 237.99361
218.33029 156.94518 235.92371
218.93607 156.95198 235.77133
219.54216 156.95891 235.61722
219.90303 156.81248 234.50418
220.50735 156.81958 234.3472
221.61301 157.13377 236.10013
222.22296 157.14114 235.93829
223.34415 157.45572 237.6837
223.70187 157.30975 236.563
224.3154 157.31747 236.39503
225.19217 157.47891 237.1777
226.33961 157.79425 238.90903
226.69391 157.64865 237.78229
227.58424 157.81061 238.55592
228.47995 157.97272 239.32625
228.83049 157.82739 238.19524
229.17648 157.68211 237.06378
229.79817 157.69077 236.87943
230.9857 158.00734 238.58664
231.328 157.86234 237.4509
231.95346 157.87134 237.25998
232.57935 157.88046 237.06706
233.79106 158.19781 238.75964
234.71803 158.36134 239.5042
235.35275 158.37091 239.30299
236.58832 158.68895 240.98247
236.92627 158.5446 239.83504
237.56491 158.55455 239.62697
238.20399 158.56461 239.41681
239.15378 158.72911 240.14264
239.79633 158.73944 239.92747
240.43938 158.74986 239.71024
240.76515 158.60596 238.55537
241.40665 158.61656 238.33479
241.72586 158.47275 237.17831
242.36581 158.48352 236.95432
243.33408 158.64902 237.66022
244.63821 158.96938 239.2933
245.62006 159.1353 239.99039
246.94286 159.45616 241.61273
247.93834 159.6225 242.30084
248.59891 159.63419 242.0574
249.60297 159.80084 242.7382
250.26706 159.81276 242.48935
251.27969 159.97974 243.16278
251.59668 159.83682 241.98474
251.90909 159.69391 240.8064
252.21686 159.55098 239.62773
253.95291 160.02869 242.13132
254.2616 159.88589 240.94804
255.29227 160.05359 241.60172
256.32843 160.22144 242.25102
257.00174 160.23407 241.97934
256.93353 159.93594 239.87421
258.34955 160.25948 241.42889
259.40009 160.42772 242.0636
260.45612 160.5961 242.6938
261.51758 160.76459 243.31949
262.58447 160.93317 243.94061
262.11157 160.47906 240.92062
262.79016 160.4919 240.62895
263.07758 160.34892 239.42798
71.129425 154.95192 204.81064
71.31678 155.0993 205.96848
73.056992 154.61453 203.49271
72.090714 155.23576 207.37517
72.672127 155.22495 207.62184
74.011963 154.89839 206.04309
74.587791 154.88768 206.28358
74.040649 155.3503 209.26353
75.366936 155.02402 207.67343
76.313591 154.85564 206.99307
77.254837 154.68738 206.30869
77.82663 154.67685 206.53816
78.759598 154.5088 205.84673
78.969177 154.6559 206.99124
79.183479 154.80295 208.13576
80.110298 154.63516 207.43643
80.680298 154.62488 207.6561
81.249916 154.61467 207.87383
82.511795 154.28999 206.2399
83.075577 154.28 206.45184
82.956459 154.58444 208.51534
83.863251 154.41737 207.79764
84.764595 154.25049 207.07619
85.32679 154.24081 207.28055
86.550949 153.91721 205.62213
86.450005 154.22169 207.68353
87.337143 154.05534 206.95004
87.247971 154.3598 209.01218
87.810654 154.35051 209.20808
88.054344 154.49809 210.33693
89.567024 154.01869 207.72289
90.43708 153.85304 206.97501
91.30172 153.68758 206.22365
91.852386 153.67891 206.40701
93.014816 153.35715 204.71054
93.256119 153.50531 205.82861
93.803116 153.49696 206.00587
94.648315 153.33223 205.23993
95.488144 153.16768 204.47067
95.441826 153.4725 206.52725
95.113983 153.93364 209.52907
95.955185 153.76933 208.75545
96.791016 153.60521 207.97859
97.621544 153.44124 207.19847
98.446716 153.27744 206.41519
99.823944 152.80141 203.73354
100.35735 152.79416 203.89084
100.34296 153.09926 205.94461
100.60939 153.24821 207.04985
101.68672 152.92905 205.30348
102.48753 152.76611 204.50383
102.49162 153.07132 206.55681
103.55067 152.75264 204.80069
104.08176 152.74605 204.94673
104.09972 153.05135 206.99902
104.3812 153.20074 208.09782
105.42171 152.88264 206.33066
105.45601 153.18802 208.38289
105.99298 153.18179 208.52303
106.77373 153.0199 207.70447
107.30766 153.01387 207.84085
107.60213 153.16365 208.93411
108.37465 153.00211 208.10904
109.14198 152.8407 207.28117
109.44055 152.99068 208.37108
110.20244 152.8295 207.53899
110.73227 152.82402 207.66562
111.71072 152.50754 205.86676
111.79118 152.81334 207.9144
112.53979 152.65262 207.07343
112.632 152.95847 209.12093
113.16305 152.95337 209.24065
113.05727 153.41467 212.25327
114.22443 152.94345 209.47568
114.54749 153.09401 210.55684
115.28491 152.93387 209.70483
115.81482 152.92918 209.81723
116.54449 152.76926 208.96074
116.67645 153.07536 211.00555
117.20817 153.07089 211.11411
118.125 152.75598 209.28339
118.84167 152.59647 208.41867
119.55326 152.43707 207.55157
120.07445 152.43297 207.65245
120.77835 152.27377 206.78114
121.11625 152.425 207.85004
121.45883 152.57628 208.91844
121.80611 152.72757 209.98634
122.50446 152.5687 209.10852
122.85625 152.72009 210.17453
123.5494 152.5614 209.29309
123.90573 152.71291 210.35715
124.26677 152.86444 211.42067
124.95458 152.70598 210.53424
125.16154 153.01263 212.57089
125.53426 153.16431 213.63228
126.06543 153.16103 213.71718
127.05049 152.6929 210.87189
127.42519 152.84476 211.92955
127.65812 153.15158 213.96355
127.75653 153.61333 216.97502
128.15265 153.76524 218.03178
128.55347 153.91719 219.08789
129.36943 153.60452 217.20804
130.30997 153.13708 214.34668
131.63174 152.20523 208.54472
132.40619 151.89294 206.65514
132.66235 152.20012 208.68184
133.42693 151.888 206.78836
133.69255 152.19525 208.81371
134.08762 152.3477 209.85832
134.72234 152.19061 208.94031
135.69724 151.56924 205.07677
136.20222 151.56711 205.13565
137.14793 150.94597 201.26614
137.75087 150.78923 200.33937
138.24353 150.78729 200.39314
138.83905 150.63068 199.46306
139.32913 150.62886 199.51411
139.81914 150.62708 199.56392
140.59622 150.16124 196.66254
141.26546 149.85019 194.74208
141.74318 149.8486 194.78708
142.3978 149.5377 192.86287
142.95663 149.38156 191.92081
143.42694 149.38014 191.96159
143.97844 149.22411 191.01657
144.44621 149.22278 191.05478
144.76109 149.53079 193.06186
145.15956 149.68419 194.08334
145.49121 149.99225 196.08937
145.90166 150.14571 197.10936
146.45042 149.98994 196.15707
146.99432 149.83424 195.20326
147.40944 149.98782 196.22003
147.94844 149.83221 195.26355
148.3683 149.98587 196.27823
148.79294 150.13957 197.29202
149.22235 150.2933 198.3049
149.70648 150.29247 198.33011
150.19057 150.29169 198.35413
150.62952 150.44553 199.36389
151.11595 150.44482 199.38564
151.64264 150.2896 198.41904
152.16451 150.1344 197.45102
152.64604 150.13385 197.46901
153.12756 150.13332 197.48579
153.63972 149.97829 196.51392
154.09056 150.1324 197.51584
154.57202 150.13202 197.52908
155.05348 150.13167 197.54115
155.57697 149.82224 195.57652
156.01634 150.13107 197.56172
156.51398 149.9763 196.58241
156.99298 149.97612 196.58969
157.49478 149.66687 194.62
157.96896 149.66678 194.62492
158.46289 149.20306 191.66478
158.92984 149.20305 191.66733
159.39857 149.04851 190.68074
159.86249 148.89403 189.69301
160.32463 148.89413 189.69214
160.78679 148.89427 189.69012
161.25681 149.04901 190.67493
161.73166 149.2038 191.65857
162.224 149.51317 193.62891
162.71089 149.66803 194.61009
163.20262 149.82295 195.59007
163.69919 149.97791 196.56876
164.17828 149.97835 196.55846
164.6821 150.13339 197.53464
165.13652 149.97935 196.53432
165.61568 149.97992 196.52049
166.12679 150.13512 197.49295
166.6084 150.13576 197.47668
167.16354 150.44562 199.43381
167.68918 150.60095 200.40219
168.26125 150.91093 202.35629
168.71104 150.75719 201.34776
169.3416 151.22186 204.28581
169.84027 151.22281 204.26161
170.39018 151.37842 205.22284
170.94496 151.53406 206.18257
171.56061 151.84439 208.12717
172.01067 151.69092 207.11125
172.51678 151.69211 207.08046
173.02295 151.69334 207.04842
173.52917 151.69463 207.01511
174.10353 151.85062 207.96619
174.68275 152.00665 208.91566
175.19397 152.00809 208.87823
175.85585 152.31892 210.80974
176.37202 152.32047 210.76939
176.88824 152.32208 210.72775
177.48709 152.47842 211.66936
178.09082 152.63483 212.60924
178.69946 152.79131 213.54744
179.313 152.94786 214.48387
180.11584 153.41393 217.38583
180.74403 153.57062 218.31827
181.66821 154.19162 222.19843
182.51236 154.658 225.09235
183.47295 155.27927 228.96608
184.03587 155.28159 228.90669
184.70558 155.43872 229.82803
185.38022 155.59595 230.74741
185.94829 155.59846 230.6832
186.40251 155.44623 229.63617
186.96837 155.44885 229.56935
187.65314 155.60635 230.48186
188.22165 155.60912 230.41188
188.79028 155.61194 230.34041
189.61111 155.92456 232.22726
190.05638 155.77264 231.1727
190.7587 155.93057 232.07579
191.33269 155.93367 231.99786
191.90683 155.93683 231.91846
192.34294 155.78513 230.85936
193.0555 155.94337 231.75519
193.48706 155.79178 230.69382
194.20477 155.95018 231.58601
194.77963 155.95369 231.49915
195.50493 156.11227 232.38724
196.08255 156.11594 232.29704
196.81544 156.27472 233.18097
197.23827 156.12349 232.11208
197.65639 155.97229 231.04247
198.06984 155.82114 229.97214
198.97314 156.13535 231.82324
199.21724 155.82919 229.77666
199.79121 155.83334 229.67665
200.53754 155.99274 230.5479
201.11432 155.99704 230.44438
201.51431 155.84624 229.36745
202.62741 156.31633 232.17564
203.20969 156.32092 232.0666
203.79218 156.32559 231.95599
204.74838 156.6409 233.78394
205.14699 156.49046 232.69962
205.92422 156.65073 233.55292
206.70656 156.8111 234.40361
207.49402 156.9716 235.25172
207.88867 156.82147 234.16199
208.6815 156.98219 235.00584
208.66408 156.52136 231.98071
209.4574 156.68225 232.82129
210.25589 156.84329 233.65921
211.05954 157.00446 234.49443
211.65472 157.01025 234.36247
212.89844 157.48276 237.12053
213.50153 157.4888 236.98352
213.6629 157.18378 234.9193
214.26166 157.18996 234.78004
215.31253 157.50752 236.56238
215.46008 157.20264 234.49649
216.05972 157.20911 234.35211
216.89297 157.37141 235.16591
217.96721 157.68962 236.93604
218.33701 157.54071 235.82603
219.18353 157.70345 236.63156
219.79219 157.71051 236.47667
220.40118 157.71768 236.31999
221.01054 157.72495 236.16158
221.87077 157.88824 236.95683
222.2303 157.73981 235.83932
223.35165 158.05936 237.5838
223.70944 157.9111 236.46332
