ply
format ascii 1.0
comment PCL generated
element vertex 1596
property float x
property float y
property float z
element camera 0
property float view_px
property float view_py
property float view_pz
property float x_axisx
property float x_axisy
property float x_axisz
property float y_axisx
property float y_axisy
property float y_axisz
property float z_axisx
property float z_axisy
property float z_axisz
property float focal
property float scalex
property float scaley
property float centerx
property float centery
property int viewportx
property int viewporty
property float k1
property float k2
end_header
210.05887 54.324783 238.24489
210.87988 54.058815 239.05591
211.29691 54.307816 237.97539
211.91637 54.299141 237.83798
212.74562 54.032677 238.64204
213.58008 53.766045 239.44316
213.99091 54.014656 238.3571
215.04778 53.489929 240.09499
215.6761 53.480537 239.94684
216.30475 53.471016 239.79678
216.48512 53.977127 237.76535
217.56297 53.451607 239.49117
218.19257 53.441727 239.33556
218.82251 53.431709 239.17809
219.45276 53.421577 239.01872
220.55664 52.895172 240.73087
220.71428 53.40094 238.69434
221.82875 52.874123 240.40013
222.70938 52.605232 241.1666
223.34879 52.594368 240.99574
224.73561 51.80854 243.62321
226.38919 50.764015 247.17738
226.53906 51.269234 245.13174
228.47467 49.965614 249.60646
229.14072 49.953735 249.41875
229.28427 50.458725 247.36913
229.41824 50.963791 245.32025
230.34189 50.693153 246.05779
229.92636 51.7155 242.15288
230.8483 51.444687 242.88707
231.22778 51.691154 241.76508
231.87906 51.678825 241.56812
232.8096 51.407585 242.29385
234.02692 50.877281 243.94
234.68683 50.86454 243.73451
235.91989 50.333763 245.37178
236.87445 50.061737 246.08212
237.543 50.048607 245.86786
237.91803 50.294518 244.73143
239.17764 49.762955 246.35213
240.14876 49.490341 247.04903
240.22098 49.995384 244.98933
240.89137 49.981941 244.76428
241.56213 49.968452 244.53702
241.61533 50.473755 242.47762
241.97026 50.719772 241.33359
242.63452 50.706352 241.10242
243.29907 50.692902 240.86908
244.60202 50.160202 242.45657
245.59381 49.886993 243.12766
246.91499 49.353958 244.70444
247.91995 49.080513 245.36658
249.25935 48.54718 246.93246
249.94583 48.533447 246.67857
250.2984 48.779694 245.51649
251.65619 48.246185 247.06908
252.34589 48.232605 246.80751
253.3775 47.959045 247.44678
254.75861 47.425392 248.98393
256.14999 46.891655 250.51494
256.85294 46.878319 250.2394
256.85229 47.385696 248.16331
257.19598 47.633102 246.98715
257.89154 47.620445 246.70789
258.22772 47.868416 245.5303
258.19678 48.377174 243.45749
259.61371 47.84436 244.96277
260.67365 47.572197 245.56873
261.3689 47.560837 245.27846
263.55237 46.507317 248.5495
264.63196 46.235817 249.14049
265.71637 45.964615 249.72719
267.18515 45.433022 251.19717
267.51709 45.684021 250.00113
266.68942 46.717949 246.1489
267.00281 46.970139 244.95644
266.92084 47.48378 242.881
266.82825 47.998062 240.80812
66.267685 57.774151 210.07457
66.864647 57.780239 210.34096
67.074409 57.52866 211.49057
66.13401 56.503296 215.29871
66.362251 56.252773 216.45258
67.736412 56.776794 214.94229
68.34552 56.785069 215.20438
69.330048 57.051628 214.57431
70.682404 57.576363 213.04884
71.284668 57.585472 213.30223
71.887108 57.594852 213.55376
72.489662 57.604496 213.80342
72.729759 57.356598 214.94682
73.695007 57.624447 214.2971
74.655243 57.89241 213.64343
74.190536 57.129932 216.58051
75.150757 57.398251 215.92296
75.755943 57.409084 216.16217
76.708473 57.677547 215.49777
76.966072 57.431129 216.63477
78.598099 58.214554 214.15724
79.19532 58.225708 214.38573
80.1297 58.494251 213.70676
79.719627 57.733711 216.6499
80.653664 58.002388 215.96703
80.922905 57.756676 217.09705
80.869713 57.253986 219.13623
81.800575 57.522732 218.44655
83.048424 58.04842 216.84196
83.646515 58.059982 217.05583
84.878769 58.585396 215.44196
86.100708 59.110611 213.82263
87.000137 59.378784 213.11252
87.894295 59.646858 212.39874
88.783134 59.914791 211.68141
89.057343 59.669239 212.79491
89.336266 59.42374 213.90822
89.919571 59.434887 214.10242
90.799706 59.702522 213.37505
91.37989 59.71352 213.56468
91.37545 59.211571 215.59515
92.249657 59.478939 214.86055
92.544228 59.23344 215.96838
92.274147 58.475357 218.92339
92.865219 58.486256 219.10768
93.455971 58.497078 219.29012
94.323586 58.763988 218.54463
95.185883 59.03072 217.79582
96.315094 59.55336 216.11612
96.894577 59.563663 216.28818
97.740982 59.829868 215.52943
98.317352 59.839943 215.69716
98.368866 59.338112 217.724
99.209351 59.603947 216.95844
99.787247 59.613781 217.12154
100.61965 59.879288 216.35033
100.94209 59.633137 217.44243
101.51906 59.642662 217.60023
102.0957 59.652084 217.7563
103.1619 60.172646 216.0401
103.49055 59.926197 217.12724
103.82384 59.679729 218.21396
105.11182 60.455227 215.55153
105.67956 60.464005 215.69701
105.78185 59.961826 217.71768
107.0443 60.736618 215.04385
107.60872 60.745041 215.18365
108.17287 60.753353 215.32179
108.73672 60.761551 215.4583
109.30032 60.769642 215.59312
109.86366 60.777634 215.7263
110.42671 60.785511 215.85785
110.56375 60.283001 217.87411
110.92078 60.035618 218.94725
111.49044 60.04327 219.07555
112.05984 60.050808 219.20222
112.629 60.05825 219.32724
113.39852 60.320549 218.50473
114.36105 60.837612 216.73312
115.31355 61.354458 214.95782
115.67624 61.106419 216.02129
116.61603 61.622898 214.24026
116.98071 61.374676 215.30109
117.53598 61.381207 215.41238
117.72409 60.878094 217.42097
118.64588 61.393948 215.63028
119.20052 61.400158 215.73692
119.75494 61.406273 215.84201
120.30917 61.412285 215.94554
121.03447 61.672825 215.09581
121.24821 61.169388 217.10022
121.13876 60.156788 221.01013
121.86835 60.417072 220.15665
122.43137 60.422668 220.25427
122.99422 60.428169 220.35031
123.71352 60.688049 219.49054
124.58195 61.202251 217.67374
124.9852 60.952938 218.71912
125.6918 61.212414 217.8528
126.24648 61.217346 217.94006
126.80098 61.222176 218.02586
127.49738 61.481277 217.15352
128.18875 61.740231 216.27899
128.60077 61.490437 217.31691
129.01749 61.240578 218.3541
129.70357 61.499214 217.47441
129.99498 60.994942 219.46771
130.55089 60.999142 219.54343
131.10666 61.003242 219.61771
131.53967 60.753044 220.64987
132.09763 60.756977 220.72148
132.77319 61.014996 219.83168
133.32845 61.018726 219.90009
133.88359 61.022373 219.96701
134.65959 61.53418 218.11078
134.99353 61.029404 220.0965
135.44269 60.778694 221.12044
136.20624 61.290161 219.2585
136.75841 61.293346 219.31792
137.31047 61.296452 219.37589
137.86243 61.299469 219.43242
138.32077 61.048389 220.45015
138.60162 60.289207 223.39278
139.16299 60.292023 223.44592
139.72427 60.294746 223.49762
140.2016 60.043423 224.51141
140.92801 60.553921 222.63287
141.56563 60.810341 221.71603
142.12175 60.81271 221.76155
142.60361 60.561062 222.77
143.23375 60.817204 221.84827
143.78966 60.819328 221.88948
144.34549 60.821369 221.92929
144.83673 60.569439 222.93272
145.51906 61.079105 221.03935
145.95293 60.573139 223.00551
146.51094 60.57486 223.03978
146.95918 60.068775 225.00395
147.46948 59.816502 226.00145
148.03458 59.818005 226.03183
148.64725 60.073284 225.09467
149.16464 59.820786 226.08824
149.72961 59.822056 226.11429
150.37527 60.330914 224.20609
150.9733 60.585838 223.26257
151.53091 60.586857 223.28404
152.12161 60.84161 222.33742
152.73819 61.350101 220.42244
153.26018 61.097073 221.40627
153.81287 61.097767 221.42194
154.34206 60.844593 222.40317
154.91817 61.098946 221.44908
155.4335 60.59182 223.3947
155.99094 60.592216 223.40485
156.54837 60.592537 223.4136
157.11719 60.846584 222.45375
157.66319 60.592968 223.42683
158.21402 60.339268 224.39857
158.778 60.593067 223.43446
159.3354 60.593006 223.43617
159.89215 60.846676 222.46918
160.45329 60.338875 224.40254
161.02411 59.830978 226.33449
161.60457 59.323013 228.26492
162.1844 59.068756 229.22665
162.78178 58.560623 231.15402
163.32828 59.067623 229.21129
163.88271 59.320747 228.23434
164.43231 59.573788 227.25606
165.04427 59.065323 229.1774
165.66591 58.556751 231.09708
166.24281 58.55574 231.08128
166.81975 58.554649 231.06404
167.4608 58.045803 232.97879
167.97372 58.552219 231.02516
168.55078 58.550888 231.00352
169.01004 59.311024 228.0811
169.49654 59.817268 226.12413
170.06166 59.815727 226.09863
170.67334 59.56023 227.03783
171.38779 58.796883 229.90732
172.3222 57.017864 236.63806
173.07542 56.254223 239.50256
173.8432 55.490459 242.36469
174.33252 55.996101 240.39717
174.87326 56.247776 239.394
175.34581 56.753319 237.42444
176.00632 56.496983 238.34897
176.5352 56.748444 237.342
177.34209 55.983997 240.19238
177.94424 55.981323 240.14676
178.54648 55.978539 240.09964
178.9929 56.483665 238.12282
179.75122 55.972725 240.00069
180.27095 56.223698 238.98523
180.61552 56.982662 236.04178
180.77043 58.249691 231.17169
181.26141 58.500549 230.15425
181.37778 59.767624 225.28476
181.84959 60.018406 224.26624
182.51131 59.760948 225.17125
183.27769 59.249245 227.03632
183.84958 59.245651 226.97536
184.73534 58.479538 229.79738
185.42174 58.221558 230.69382
186.00368 58.217628 230.62726
186.6976 57.959408 231.51984
187.16795 58.209484 230.48953
187.75029 58.205269 230.41837
188.21362 58.455208 229.38591
188.79382 58.450825 229.31197
189.49815 58.192059 230.19566
190.20747 57.933159 231.07715
190.79297 57.928432 230.99797
191.50989 57.669281 231.87537
192.36554 57.155617 233.70833
193.09496 56.896152 234.58087
193.96796 56.382145 236.40823
194.56886 56.376797 236.31903
195.31337 56.116898 237.18459
195.77118 56.365791 236.13576
196.37263 56.360115 236.04172
196.67276 56.86338 234.03552
197.11653 57.112095 232.98413
197.55562 57.360744 231.93192
198.4642 56.845566 233.74104
199.06174 56.839413 233.6396
199.98535 56.323868 235.44298
200.91895 55.808109 237.24298
201.6947 55.546822 238.08725
202.3053 55.540104 237.97702
203.08884 55.278511 238.81659
203.87747 55.016747 239.65356
204.67125 54.754822 240.48788
205.11008 55.00238 239.4194
205.72673 54.99501 239.29974
206.34364 54.987526 239.17838
206.96082 54.979935 239.05525
207.57822 54.972214 238.93039
208.19589 54.964378 238.80377
209.00858 54.701416 239.62253
209.82643 54.438255 240.43851
210.25018 54.685074 239.3595
211.07349 54.421616 240.17085
211.49289 54.668259 239.08932
211.90767 54.914841 238.00711
212.52728 54.906158 237.8681
213.57106 54.386856 239.61404
213.98178 54.633148 238.52751
215.03847 54.113434 240.26695
215.66667 54.104164 240.11899
216.51697 53.839363 240.91025
216.47552 54.596092 237.93663
217.77988 53.820122 240.60387
218.18265 54.065819 239.50864
218.81244 54.055931 239.35138
219.4426 54.045906 239.19228
220.30966 53.780151 239.96864
220.70387 54.02552 238.86836
221.57657 53.759438 239.63963
222.45456 53.493156 240.40771
223.09137 53.482452 240.23776
224.47546 52.704147 242.86821
225.87482 51.925461 245.49265
226.27362 52.170074 244.37997
227.94998 51.13485 247.92703
228.86987 50.867165 248.67239
229.27228 51.111382 247.55298
229.40625 51.611664 245.50301
230.32974 51.343597 246.24153
229.91428 52.356255 242.33408
231.10741 51.831787 243.99698
231.21548 52.332138 241.94682
231.86665 52.319939 241.75012
232.79706 52.051262 242.47685
234.01418 51.525978 244.12469
234.674 51.513344 243.91948
236.47955 50.474571 247.40475
237.439 50.205017 248.11449
237.82111 50.448502 246.97736
238.49249 50.435326 246.76047
239.16422 50.422112 246.54138
239.83633 50.408813 246.32013
239.90608 50.909073 244.26015
240.57391 50.895767 244.03622
241.54852 50.625511 244.7267
241.29285 51.382927 241.75043
241.64532 51.626602 240.60686
242.62096 51.356239 241.29082
243.60196 51.085747 241.97086
244.26935 51.072311 241.73474
245.58008 50.544434 243.31905
246.90115 50.01638 244.89749
248.55917 49.23082 247.37961
249.57448 48.959694 248.03682
250.26352 48.945946 247.78227
250.9528 48.932236 247.52545
252.31563 48.403549 249.07788
252.67128 48.647438 247.90987
253.36377 48.633919 247.64528
254.40067 48.362816 248.28133
255.44279 48.091743 248.91313
256.14084 48.078468 248.63982
256.13538 48.580948 246.56451
256.47421 48.825943 245.38983
257.52179 48.555405 246.01064
257.49628 49.058823 243.93671
257.82257 49.304634 242.76051
259.23712 48.776695 244.26843
260.29474 48.506905 244.87631
261.3573 48.237312 245.47993
263.54089 47.193481 248.75403
264.62079 46.924263 249.34584
266.08261 46.397095 250.82278
267.55426 45.870155 252.29326
267.88919 46.118431 251.09544
266.67996 47.400612 246.35303
266.99384 47.650085 245.15985
266.13306 48.675323 241.31511
266.42822 48.926025 240.12576
66.666679 58.61293 209.36363
67.651779 58.874935 208.74443
67.856979 58.625999 209.89252
67.297264 57.866241 212.81461
67.518372 57.61829 213.96585
68.885262 58.137486 212.45082
69.48716 58.145821 212.70958
70.089302 58.154484 212.96654
70.691666 58.163448 213.22166
70.924126 57.917252 214.36816
71.161789 57.671406 215.51488
72.134636 57.936573 214.87122
72.377518 57.691277 216.01622
72.985458 57.70153 216.26402
74.308327 58.222412 214.71312
74.556297 57.977768 215.8544
75.16169 57.988499 216.09537
76.11689 58.254444 215.43301
76.719612 58.265411 215.66905
76.977371 58.021473 216.80656
77.92469 58.287636 216.13538
78.527016 58.298878 216.3656
79.466461 58.565056 215.68761
79.731163 58.321598 216.82013
80.665199 58.587799 216.13632
81.264259 58.599236 216.35774
81.535866 58.356045 217.48723
82.461685 58.622196 216.79475
83.382225 58.888268 216.09851
83.658127 58.645218 217.22394
84.573112 58.91119 216.52203
86.112099 59.685902 213.98744
87.011475 59.951572 213.27637
87.905533 60.217106 212.56171
89.101425 60.736797 210.92632
89.373138 60.493584 212.03943
89.34745 59.996246 214.07111
89.631088 59.753181 215.18466
90.810738 60.272411 213.53674
91.390854 60.283329 213.72614
91.386436 59.786198 215.75778
92.260544 60.051037 215.0222
93.416435 60.569588 213.35959
92.854309 59.564793 217.23846
93.158188 59.32169 218.34619
93.746368 59.332378 218.52757
94.611351 59.596684 217.78044
95.196373 59.607155 217.9574
96.325401 60.124779 216.27609
97.174484 60.388569 215.51895
97.751068 60.398628 215.68826
98.592056 60.662102 214.92535
98.378838 59.911572 217.88373
98.959435 59.92144 218.04909
99.282448 59.677841 219.14517
100.11967 59.940872 218.37445
100.44701 59.697147 219.46838
101.02881 59.70665 219.6273
102.10503 60.222462 217.91399
103.41592 60.99118 215.26031
103.74203 60.74704 216.34727
104.07278 60.502876 217.43379
105.59554 61.523937 213.83064
105.68822 61.026505 215.85162
106.02303 60.782089 216.93433
107.05271 61.296471 215.19737
107.61702 61.304787 215.33699
108.18105 61.312988 215.47495
108.9675 61.573917 214.66972
109.3083 61.329079 215.7459
110.08929 61.589733 214.93616
110.8651 61.850204 214.12367
110.78432 61.099705 217.08382
111.13882 60.854637 218.15686
111.70592 60.862156 218.28442
112.27275 60.869564 218.41037
112.63631 60.624294 219.48073
113.40569 60.884056 218.65739
114.16993 61.143654 217.83136
115.51607 62.160496 214.1599
115.683 61.662327 216.17145
116.43183 61.921413 215.3376
116.79889 61.675571 216.3994
117.3565 61.682037 216.51102
117.73045 61.436073 217.57115
118.65208 61.946964 215.77902
119.20662 61.953094 215.88548
119.93707 62.211369 215.03893
120.48875 62.217274 215.14186
121.04024 62.223057 215.24332
121.25394 61.724419 217.24887
121.4772 61.225758 219.25471
122.20178 61.483471 218.3996
122.59835 61.236843 219.45035
122.9996 60.990162 220.50041
123.8754 61.499592 218.68488
124.4329 61.504761 218.77696
124.8385 61.257824 219.82327
125.54742 61.514816 218.95654
126.2513 61.77166 218.08759
126.66127 61.524483 219.13014
127.502 62.033024 217.30014
128.19325 62.289478 216.42485
128.46803 61.79015 218.42133
128.88712 61.542667 219.4594
129.44321 61.546986 219.53799
129.99916 61.551208 219.6151
130.55498 61.555336 219.69073
131.11066 61.559376 219.76491
131.54361 61.31155 220.79758
132.22162 61.567181 219.90881
132.89465 61.822689 219.01799
133.4474 61.826351 219.08598
134.00003 61.829929 219.15253
134.7735 62.336803 217.29468
135.213 62.088486 218.31955
135.55162 61.588459 220.30553
136.10623 61.591705 220.36655
136.66072 61.594852 220.42616
137.21512 61.597923 220.48428
137.76942 61.60091 220.54099
138.32362 61.603806 220.59628
138.69554 61.103451 222.57718
139.25441 61.106209 222.63
139.81317 61.108879 222.68143
140.37187 61.111477 222.73138
141.0119 61.365524 221.81549
141.64702 61.619461 220.89777
142.20064 61.621788 220.94301
142.53165 60.869495 223.88187
143.16412 61.12318 222.95966
143.72237 61.125282 223.00099
144.34746 61.378784 222.07536
144.77412 60.877762 224.0451
145.45877 61.382568 222.15056
145.89499 60.881416 224.11812
146.45534 60.883129 224.15245
146.96078 60.633312 225.15169
147.47101 60.383427 226.1498
148.08604 60.636349 225.21353
148.64861 60.637741 225.24232
149.16592 60.387642 226.23648
149.77359 60.640308 225.29555
150.41675 61.144291 223.38597
151.01227 61.39677 222.4417
151.60294 61.64917 221.4958
152.22186 62.152885 219.58101
152.8618 62.907894 216.69711
153.43066 63.16003 215.74632
153.96878 63.160706 215.76157
154.48343 62.909927 216.74303
155.02393 62.91045 216.75562
155.52713 62.408142 218.70224
156.0562 62.157154 219.67992
156.6039 62.157471 219.68848
157.17439 62.660458 217.76004
157.71725 62.660622 217.76581
158.25352 62.409336 218.73805
158.80296 62.660728 217.77319
159.34406 62.40929 218.74274
159.88998 62.157784 219.71091
160.4469 61.403454 222.61345
161.0128 60.900417 224.54668
161.58836 60.397297 226.47842
162.16327 60.145477 227.44083
162.76848 59.390812 230.33736
163.29736 60.14436 227.42564
163.88197 59.8923 228.38361
164.45148 59.891556 228.37234
165.06577 59.387936 230.29495
165.64015 59.387009 230.28073
166.24176 59.134621 231.23253
166.789 59.384956 230.24786
167.36348 59.383804 230.22926
167.86911 59.88541 228.27469
168.43884 59.884117 228.25333
168.89078 60.637032 225.3293
169.41167 60.887028 224.33841
170.19238 59.628319 229.14749
170.9973 58.36945 233.95403
171.67963 57.864807 235.85797
172.73109 55.599808 244.52545
173.61105 54.340469 249.32356
174.17816 54.589836 248.32132
174.68192 55.090607 246.35172
175.4201 54.585365 248.24481
175.91434 55.085999 246.27266
176.5965 54.832047 247.19638
177.14706 55.081032 246.18732
177.97559 54.323814 249.03804
178.59941 54.321068 248.99088
179.29884 54.066689 249.90697
179.69147 54.818459 246.9623
180.63214 53.809143 250.76869
181.26117 53.806023 250.71466
181.46436 55.060822 245.83865
181.64343 56.315647 240.96324
182.42865 55.809105 242.83386
182.39156 57.567211 236.03145
182.70018 58.318787 233.0834
183.28629 58.315342 233.02403
183.67307 58.815186 231.0378
184.05026 59.314995 229.05107
184.62701 59.311329 228.98819
185.2039 59.307583 228.92378
185.7809 59.303745 228.85786
186.46986 59.048054 229.75171
187.16382 58.792236 230.64348
187.74606 58.78809 230.57242
188.44756 58.532021 231.46025
189.0325 58.527672 231.38579
189.6176 58.523216 231.30981
190.20284 58.518661 231.23228
190.78824 58.514027 231.15317
191.50504 58.257362 232.03134
192.22687 58.000568 232.90726
193.08983 57.491688 234.739
194.10126 56.73064 237.52554
194.98645 56.221359 239.35092
195.59473 56.215931 239.25911
195.91147 56.714462 237.25235
196.51523 56.708858 237.15805
196.5163 57.711483 233.23853
196.95755 57.957874 232.18701
197.54971 57.952068 232.08978
198.45813 57.441845 233.90033
198.8951 57.687965 232.84477
199.81612 57.177399 234.65001
200.7471 56.66663 236.4519
201.52028 56.407909 237.29738
201.95808 56.653584 236.23523
202.73659 56.394577 237.07649
203.69531 55.88308 238.86682
204.30894 55.876068 238.75125
204.74278 56.121349 237.68323
205.5369 55.861732 238.51492
206.15125 55.854382 238.39421
206.76584 55.846916 238.27174
207.38068 55.839336 238.14755
208.38029 55.326546 239.91823
209.19528 55.066101 240.7373
210.01543 54.805458 241.55363
210.44154 55.049919 240.47362
211.26715 54.788979 241.28531
211.68892 55.033264 240.20277
212.10605 55.277485 239.11954
212.51857 55.521648 238.03561
213.56215 55.007362 239.78305
214.40152 54.745644 240.58298
215.24609 54.483734 241.37996
215.87665 54.474533 241.23164
216.50749 54.465225 241.08145
216.69025 54.961754 239.04715
217.3168 54.952263 238.89447
217.71454 55.195709 237.80002
218.33928 55.18602 237.64421
219.19844 54.923073 238.42523
219.82632 54.913086 238.26511
220.45453 54.903 238.10306
221.80762 54.133018 240.74944
222.68793 53.869263 241.51779
223.32707 53.858643 241.34743
224.71341 53.087769 243.97948
225.86356 52.569939 245.67142
226.2623 52.812233 244.55835
227.4256 52.293945 246.24292
227.8226 52.536034 245.12653
228.73773 52.270905 245.87219
228.86667 52.766495 243.82256
229.78503 52.501106 244.56345
229.63348 53.250427 241.58417
230.82393 52.731018 243.24947
230.6557 53.480461 240.27126
231.57806 53.214592 241.00327
232.50583 52.94854 241.73174
233.72026 52.428329 243.38199
234.37747 52.415863 243.17783
235.89397 51.641129 245.7431
236.55946 51.628342 245.53235
236.93405 51.869614 244.39723
237.59781 51.856712 244.18301
238.26196 51.843735 243.96669
238.62767 52.084984 242.82838
238.68741 52.58062 240.77063
239.34515 52.567604 240.55035
240.9223 51.791191 243.0798
240.97058 52.286919 241.01982
241.32053 52.528267 239.87669
242.29358 52.260475 240.56255
243.58839 51.73793 242.15823
244.25577 51.724548 241.92239
245.88782 50.946915 244.42041
246.88736 50.678574 245.08859
248.87172 49.645592 248.48328
249.23151 49.886742 247.32199
250.24957 49.618111 247.97701
251.27298 49.349426 248.62787
252.63829 48.825645 250.18103
252.31836 49.57724 247.20059
253.00839 49.563759 246.93726
254.04282 49.295158 247.57524
254.38907 49.537079 246.40382
255.07965 49.523918 246.13373
255.41861 49.766235 244.96077
256.46118 49.498024 245.58678
257.15207 49.485329 245.30994
257.1243 49.983795 243.23579
257.4483 50.227112 242.06006
258.86047 49.704041 243.57065
259.54883 49.692253 243.28604
260.60657 49.425087 243.89262
262.78525 48.391029 247.17189
264.23492 47.868446 248.65793
265.69449 47.346062 250.13751
267.16388 46.823875 251.61063
267.87888 46.813667 251.30122
267.43954 47.571556 248.32903
267.37183 48.074173 246.24716
266.90384 48.833359 243.28304
267.20459 49.081268 242.09071
66.280495 58.940342 210.41786
67.268509 59.200169 209.79906
67.864311 59.207142 210.06264
67.305092 58.454948 212.98683
68.291832 58.715939 212.36171
68.893768 58.72411 212.62221
69.495964 58.73259 212.88094
70.098404 58.741402 213.1378
70.328491 58.497478 214.28569
70.9338 58.506874 214.53992
71.906746 58.769459 213.89728
72.144768 58.526405 215.04268
72.750351 58.536488 215.29121
73.715881 58.799572 214.63976
74.676369 59.062748 213.98433
74.92202 58.820572 215.12512
75.87738 59.083969 214.46379
76.477783 59.09478 214.70062
77.078087 59.105713 214.93552
77.333458 58.864201 216.07256
78.620575 59.380352 214.49442
78.878174 59.139065 215.62849
79.47789 59.150333 215.85556
80.0774 59.161663 216.08067
81.008904 59.425335 215.39499
81.275787 59.184437 216.52505
81.547478 58.943672 217.65498
82.473251 59.207321 216.96158
83.39373 59.470882 216.26442
83.989319 59.4823 216.47688
84.267509 59.241699 217.6017
86.123444 60.260986 214.1505
87.022736 60.524128 213.43849
87.607132 60.535275 213.63979
88.498322 60.798214 212.92139
89.07962 60.809242 213.11804
89.358551 60.568508 214.23227
89.642181 60.32782 215.34625
90.227554 60.338799 215.53893
90.518051 60.098145 216.65163
90.229103 59.354446 219.60953
91.113068 59.616905 218.87625
91.991714 59.879208 218.1395
92.011314 59.387146 220.17461
92.88681 59.649254 219.43329
94.316154 60.413803 216.8353
94.621834 60.172947 217.94051
95.206772 60.183308 218.11723
96.063492 60.444759 217.36324
96.645287 60.454899 217.53557
97.226761 60.464947 217.70609
97.807892 60.474903 217.8748
97.864349 59.982746 219.90532
98.709503 60.243549 219.13936
99.034927 60.002327 220.2366
100.12923 60.513737 218.53177
100.70879 60.52319 218.69156
101.288 60.532539 218.84959
102.36156 61.043316 217.13402
103.42491 61.553822 215.41408
103.75095 61.312016 216.5015
104.08163 61.070194 217.58847
105.3667 61.830765 214.92096
105.69679 61.588722 216.00455
106.03152 61.346645 217.08772
107.06102 61.856037 215.34924
107.39764 61.613781 216.42967
107.96404 61.621918 216.56802
108.7528 61.880341 215.76253
109.09599 61.637871 216.83975
109.8793 61.896015 216.02977
110.65742 62.153976 215.21701
111.00473 61.911251 216.29051
110.93597 61.168045 219.25357
111.71332 61.425686 218.43591
112.28004 61.432991 218.56169
112.84653 61.440193 218.68584
113.61332 61.69738 217.86115
114.57307 62.204475 216.08604
115.52278 62.711346 214.30728
115.68966 62.21796 216.31998
116.62913 62.724499 214.53603
116.99365 62.480968 215.59784
117.54872 62.48732 215.70882
117.92015 62.243668 216.76898
118.83919 62.749577 214.9749
119.21263 62.505741 216.03246
119.59077 62.26186 217.08942
119.97358 62.017937 218.14572
120.53229 62.02372 218.24835
120.92203 61.779667 219.30293
121.31644 61.535568 220.35684
122.04335 61.790794 219.50136
122.60374 61.796207 219.59827
123.16394 61.801521 219.69366
123.88055 62.056355 218.83194
124.43797 62.061455 218.92389
124.99521 62.066456 219.01431
125.55229 62.071354 219.10326
126.25606 62.325695 218.23351
126.66595 62.080872 219.2766
127.50655 62.584484 217.44521
128.05812 62.588966 217.52744
128.47243 62.34391 218.56679
128.89142 62.098789 219.60541
129.44743 62.103039 219.68388
129.87344 61.8578 220.72054
130.30415 61.612495 221.75641
130.98959 61.86586 220.87083
131.4249 61.620419 221.90436
132.10524 61.873581 221.01517
132.66287 61.8773 221.08516
133.45099 62.379543 219.23058
134.11641 62.632351 218.33521
134.77686 62.885033 217.43782
135.10826 62.389835 219.42566
135.55486 62.143856 220.45044
136.0062 61.897823 221.4743
136.56302 61.900936 221.53409
137.11977 61.903976 221.59241
137.77232 62.156105 220.68561
138.41995 62.408134 219.77686
138.88048 62.161728 220.79456
139.34575 61.915272 221.81128
139.98827 62.167027 220.89778
140.37437 61.671303 222.87689
141.09573 62.172001 220.99527
141.64934 62.174358 221.04192
142.20288 62.176647 221.0871
142.608 61.680676 223.06213
143.23798 61.931896 222.13905
143.7244 61.684887 223.14615
144.3494 61.935932 222.21985
144.8405 61.68877 223.22449
145.52264 62.18869 221.32849
145.95638 61.692352 223.29707
146.57149 61.943054 222.36444
147.07202 61.695618 223.36398
147.57735 61.448116 224.3624
148.13747 61.449566 224.39243
148.69754 61.450935 224.42104
149.21237 61.203228 225.41566
149.81755 61.453445 224.47397
150.45821 61.952564 222.56299
151.12712 62.700565 219.68245
151.71045 62.950512 218.73563
152.32205 63.44936 216.81931
152.89328 63.699135 215.86931
153.34648 62.952965 218.79018
153.84003 62.4557 220.74194
154.2728 61.211491 225.59724
154.77179 60.465137 228.51517
155.28523 59.718735 231.43198
155.8456 59.470173 232.41083
156.39696 58.972591 234.35672
156.99216 59.22179 233.39594
157.57353 59.221966 233.4021
158.16808 59.719971 231.4698
158.75713 60.46685 228.56749
159.33345 61.462605 224.69516
159.89113 62.209332 221.78992
160.44357 62.209129 221.7888
161.00699 61.710938 223.72328
161.58006 61.212669 225.6563
162.1628 60.714321 227.58781
162.75519 60.215885 229.51779
163.29672 60.713223 227.57263
163.88126 60.463589 228.53127
164.43073 60.711826 227.55171
165.04251 60.213062 229.47562
165.61441 60.212166 229.46147
166.21353 59.962219 230.41397
166.72867 60.459129 228.46077
167.33028 60.209011 229.41032
167.79898 60.954803 226.48668
168.3638 60.953541 226.46556
168.88939 61.201206 225.4753
169.53525 60.701756 227.38663
170.3672 59.206139 233.16605
171.18166 57.959385 237.97527
171.97139 56.961514 241.81454
173.03722 54.718292 250.48697
173.82402 53.969147 253.35344
174.40071 54.216103 252.35005
174.91405 54.712029 250.37866
175.6618 54.211624 252.27248
176.22905 54.458336 251.26489
176.9232 54.206795 252.18846
177.48576 54.453354 251.17796
178.25558 53.952507 253.06387
178.96208 53.700645 253.98175
179.82452 52.950401 256.82867
180.15608 53.944023 252.91545
181.03079 53.193535 255.7581
181.75459 52.941238 256.66803
182.14261 53.685524 253.71707
182.07822 55.675766 245.94336
183.14548 54.426445 250.70694
183.2202 55.918312 244.86234
184.02489 55.416367 246.72929
184.54752 55.662037 245.703
185.16513 55.65836 245.63893
185.17009 57.150257 239.79503
185.77341 57.146492 239.72931
185.735 58.638477 233.88701
185.88644 59.631905 229.97093
186.35408 59.877357 228.94135
187.15974 59.374683 230.79581
187.7419 59.370602 230.72484
188.44328 59.117035 231.61337
189.27118 58.613934 233.46051
189.86104 58.60952 233.38399
190.32465 58.854446 232.34579
191.04118 58.600384 233.22627
191.6315 58.595676 233.14508
192.22197 58.590866 233.06229
192.9487 58.336437 233.93669
194.09605 57.333237 237.68402
194.69917 57.32803 237.5947
195.30247 57.32272 237.50377
195.90594 57.317307 237.41119
196.50961 57.311779 237.31702
196.66138 58.055111 234.35161
197.10497 58.299122 233.29919
197.69946 58.293385 233.20169
198.45215 58.037827 234.05791
199.04948 58.031849 233.95677
199.97278 57.526211 235.76303
200.74072 57.27018 236.61183
201.34599 57.263809 236.50447
201.95148 57.257324 236.39546
202.38455 57.500599 235.33203
203.16313 57.244019 236.17241
203.94684 56.98727 237.01021
204.3757 57.230274 235.94263
205.16478 56.97324 236.77612
205.959 56.716034 237.60696
206.75835 56.458672 238.43507
207.1833 56.701263 237.36163
208.56473 55.693283 241.03217
208.99268 55.935619 239.95471
209.81021 55.677567 240.77237
210.23378 55.919727 239.6924
210.85475 55.911602 239.55861
211.47601 55.903355 239.42303
211.89059 56.145294 238.33986
212.50998 56.136833 238.20128
213.34151 55.877895 239.00557
214.39258 55.368378 240.75105
215.02022 55.359463 240.60533
215.64816 55.350422 240.45779
216.49815 55.090752 241.25081
216.68085 55.582523 239.21539
217.30728 55.573154 239.06293
217.70493 55.814278 237.96802
218.32954 55.804703 237.81245
219.18855 55.544323 238.59438
219.8163 55.534466 238.43446
220.4444 55.524494 238.27267
221.79723 54.761978 240.92128
222.67737 54.500793 241.69052
223.31641 54.490311 241.5204
224.7025 53.726906 244.15472
225.60107 53.46508 244.91347
226.25111 53.454056 244.73479
226.90152 53.442924 244.55411
227.55231 53.431679 244.37141
228.46478 53.169167 245.11874
228.85501 53.408836 244.00002
229.50693 53.397247 243.81128
229.62169 53.8881 241.76082
230.54065 53.625053 242.4986
230.64372 54.115921 240.44777
231.56595 53.852623 241.18074
232.49356 53.589142 241.91013
233.42654 53.32547 242.63594
234.08118 53.313164 242.43283
235.59492 52.545967 245.00124
236.25784 52.533333 244.79156
236.33862 53.02401 242.73389
236.99731 53.011299 242.52159
237.65637 52.998535 242.30714
238.01703 53.237526 241.1701
238.67435 53.22467 240.95224
239.6358 52.959801 241.65109
240.90897 52.442795 243.26407
240.95731 52.933693 241.20299
241.61859 52.92057 240.97571
242.28021 52.907417 240.74625
243.57492 52.389854 242.34364
243.9234 52.628792 241.19446
244.90997 52.363228 241.87033
245.90189 52.097565 242.54219
247.87848 51.074631 245.94272
248.23074 51.313522 244.78377
249.24124 51.047546 245.44255
251.25909 50.02388 248.82153
252.62433 49.505051 250.37637
252.64368 49.996635 248.30029
253.67793 49.730415 248.94151
254.71744 49.464195 249.57848
254.72226 49.956329 247.50137
255.0663 50.195953 246.32819
255.40543 50.435783 245.15475
256.09384 50.422928 244.88138
256.4256 50.663208 243.7065
257.11166 50.650726 243.4297
258.15961 50.385376 244.0479
259.21259 50.120155 244.66185
259.90369 50.108238 244.37634
261.33362 49.590179 245.87685
262.77356 49.072227 247.37093
264.22345 48.554413 248.85857
265.30627 48.290092 249.44884
266.77344 47.772697 250.92455
267.86835 47.508934 251.50502
267.81415 48.005798 249.41833
266.97522 49.010178 245.56096
267.28458 49.254776 244.36659
267.98059 49.246422 244.0567
67.857872 60.526863 207.04781
68.446091 60.533546 207.30972
68.647102 60.28986 208.45702
68.468422 59.795883 210.49294
68.682755 59.553108 211.64223
69.282478 59.56139 211.9016
69.882477 59.569996 212.15912
70.857704 59.829483 211.52232
71.083046 59.588062 212.66869
71.68354 59.597481 212.92068
72.284164 59.607143 213.17078
72.884842 59.61702 213.41899
73.123154 59.376705 214.56305
74.086296 59.637348 213.9097
74.687019 59.647781 214.15213
74.578003 59.157829 216.19431
75.183647 59.168629 216.43491
76.139008 59.429726 215.77071
77.089203 59.690834 215.10258
77.344719 59.451794 216.2401
78.289581 59.71299 215.5661
78.549812 59.474197 216.70163
78.814903 59.235561 217.8371
79.419502 59.246967 218.06386
80.02388 59.258404 218.28867
80.957649 59.519657 217.60103
81.231911 59.281353 218.73236
82.484764 59.792248 217.12663
83.405212 60.053307 216.4285
84.320343 60.314262 215.72665
84.596062 60.076012 216.85103
86.134705 60.835842 214.31183
87.033928 61.096462 213.59888
87.308762 60.858135 214.71751
88.20237 61.118587 213.99904
88.786125 61.129589 214.19629
89.369576 61.140541 214.39165
89.952705 61.151443 214.58513
90.832535 61.411469 213.85493
91.412521 61.422203 214.04387
91.116158 60.685635 217.00113
91.992516 60.945415 216.26453
92.289497 60.707043 217.37448
92.306618 60.219749 219.4099
92.897438 60.23035 219.59348
94.047028 60.738583 217.92053
94.63221 60.748936 218.09885
95.217056 60.759193 218.27533
96.073647 61.018093 217.52042
96.924942 61.276806 216.76221
97.50383 61.286705 216.93176
98.08239 61.296513 217.09952
98.136337 60.809105 219.13046
98.978867 61.06731 218.36288
99.301758 60.828392 219.45987
100.1387 61.086311 218.68736
100.4659 60.847263 219.78218
101.29726 61.104908 219.00475
102.37062 61.610672 217.28766
103.6786 62.36446 214.62892
103.75977 61.876724 216.65402
104.09038 61.637234 217.74146
105.37523 62.390362 215.07176
105.47031 61.902531 217.09563
105.80743 61.66283 218.17986
106.83922 62.167263 216.44049
107.17824 61.927383 217.52199
107.97206 62.183434 216.71851
108.9833 62.68726 214.96931
109.32395 62.44709 216.04643
110.32236 62.950546 214.29102
111.31067 63.453751 212.53169
111.43775 62.965446 214.54909
111.36407 62.229385 217.51285
111.92849 62.236668 217.63953
112.49266 62.243855 217.76456
113.05659 62.250916 217.88802
113.82079 62.505547 217.06197
114.97599 63.255272 214.3365
115.72502 63.509518 213.50415
115.8894 63.02087 215.51749
116.63553 63.274876 214.68152
116.99998 63.033688 215.74382
117.36911 62.792461 216.80553
118.1097 63.046101 215.96391
118.84518 63.299595 215.11977
119.21856 63.058102 216.17784
119.59662 62.816574 217.23528
119.80573 62.327641 219.24532
120.19559 62.086037 220.30194
120.59013 61.844379 221.35791
120.98935 61.602669 222.41319
122.04875 62.34996 219.64781
122.77048 62.602524 218.78918
123.32815 62.607735 218.88405
124.04221 62.860039 218.02116
124.59709 62.865036 218.11258
125.00011 62.622787 219.15952
125.70636 62.874744 218.29091
126.26074 62.879452 218.37787
126.52615 62.389904 220.37964
127.51102 63.135677 217.5887
128.20206 63.387142 216.7119
128.47673 62.897388 218.71071
128.76097 62.407616 220.70943
129.31931 62.411816 220.78816
129.74768 62.168953 221.82568
130.05334 61.679077 223.82301
130.8685 62.176929 221.97643
131.30617 61.933872 223.0108
131.98883 62.184566 222.1212
132.6665 62.435135 221.22952
133.4545 62.932465 219.37363
134.11981 63.182785 218.47755
134.89063 63.679844 216.6167
135.32756 63.43626 217.64236
135.66364 62.945808 219.63045
136.11249 62.702122 220.65463
136.56606 62.458389 221.67789
137.12271 62.461372 221.73615
137.67926 62.464275 221.79295
138.32922 62.713848 220.88374
138.88316 62.716572 220.93745
139.34837 62.472488 221.95473
139.9908 62.721783 221.04053
140.37685 62.230858 223.02086
141.01669 62.479973 222.10361
141.49365 62.235626 223.11623
142.12851 62.484562 222.19569
142.53601 61.993408 224.17213
143.24005 62.488842 222.28209
143.72638 62.244221 223.28976
144.28439 62.246166 223.32961
144.90683 62.494671 222.40102
145.52438 62.743092 221.4707
146.07738 62.744797 221.50594
146.68758 62.993034 220.57234
147.23805 62.994579 220.60463
147.73607 62.749458 221.6032
148.23886 62.504269 222.60065
148.84161 62.752186 221.66104
149.39432 62.753437 221.68785
149.94699 62.754623 221.71323
150.49963 62.755733 221.73723
151.01428 62.510201 222.72821
151.46269 61.771477 225.65494
151.92554 61.032707 228.5808
152.46423 60.787003 229.56837
152.89458 59.555012 234.42958
153.47839 59.555714 234.44609
153.96835 58.570175 238.33647
154.58282 58.817268 237.38136
155.1552 58.571205 238.36256
155.79726 59.311222 235.46635
156.34198 58.571941 238.3826
156.93535 58.572193 238.39038
157.51973 58.325829 239.36575
158.10892 58.079388 240.33968
158.71544 58.572468 238.40477
159.31757 59.805077 233.5609
159.89557 61.037628 228.71552
160.45561 61.777023 225.80698
161.01215 62.023289 224.83531
161.58755 61.529858 226.76955
162.16232 61.282894 227.73323
162.74191 61.035843 228.69542
163.2961 61.281807 227.71808
163.88055 61.034611 228.67732
164.42995 61.280437 227.69719
164.99692 61.279636 227.6846
165.5639 61.278763 227.67058
166.15813 61.031246 228.62387
166.69798 61.276787 227.63824
167.29709 61.02911 228.58853
167.93549 60.534782 230.50571
168.65729 59.547192 234.35791
169.3199 59.052654 236.27126
170.07558 58.064812 240.11919
170.8947 56.830254 244.93285
171.64502 56.088772 247.80782
172.31203 55.840374 248.74478
173.44592 53.372299 258.38968
174.19821 52.877007 260.28943
175.07254 51.888344 264.12186
175.61479 52.379379 262.14749
176.51343 51.390434 265.97519
177.11441 51.634636 264.96481
177.84229 51.385429 265.88678
178.30212 52.122841 262.93994
179.03018 51.873444 263.85852
179.83624 51.377228 265.74142
180.80305 50.387459 269.55414
181.01018 51.864738 263.7041
182.07202 50.627991 268.47794
182.90991 50.131248 270.35144
183.07623 51.608429 264.49969
182.86328 54.072746 254.78842
184.04218 52.588692 260.51807
184.04866 54.312729 253.70287
184.68532 54.309189 253.64017
185.51662 53.811928 255.50407
186.35774 53.314499 257.36542
186.39177 54.791733 251.51476
186.91953 55.034721 250.48256
186.69386 57.005806 242.7074
186.53893 58.730141 235.89786
186.46201 60.207703 230.05324
187.26996 59.70993 231.90872
187.62114 60.199791 229.91359
188.31998 59.94873 230.80316
189.14534 59.450562 232.65198
189.60873 59.69323 231.61481
190.19379 59.688816 231.53749
190.90778 59.437275 232.41901
191.62677 59.1856 233.29832
192.21715 59.180866 233.21565
192.94376 58.92894 234.09079
193.95241 58.182648 236.88173
194.41206 58.424679 235.83421
195.15376 58.172333 236.70244
195.75471 58.167015 236.61038
196.35583 58.161602 236.51671
196.80647 58.403305 235.46425
197.40553 58.397717 235.36769
197.84924 58.639278 234.31316
198.60425 58.386204 235.16977
199.04349 58.627605 234.11279
199.96663 58.126934 235.92044
200.56914 58.120789 235.81532
201.3396 57.867138 236.66284
201.7748 58.108166 235.60011
202.37796 58.101692 235.49004
202.98135 58.095112 235.37827
203.93997 57.593422 237.16983
204.00885 58.329144 234.19771
204.9753 57.827148 235.98451
205.76691 57.572517 236.81662
206.75098 57.070095 238.59666
206.9861 57.558006 236.57263
208.36484 56.559914 240.24641
208.79024 56.799946 239.16901
209.60518 56.544472 239.98801
210.02621 56.78434 238.90811
210.8466 56.528564 239.72253
211.46774 56.520439 239.58714
211.88225 56.760033 238.50356
212.5015 56.751701 238.36513
213.33287 56.495323 239.17027
214.16946 56.23875 239.9725
214.79453 56.229992 239.82755
215.6391 55.97308 240.62442
216.26724 55.964039 240.47527
216.44742 56.451069 238.43936
217.29788 56.193729 239.22955
217.46637 56.680706 237.19296
218.08839 56.671291 237.03822
218.94476 56.413509 237.82166
220.04289 55.907249 239.54134
220.43437 56.145687 238.44038
221.78697 55.390621 241.09123
222.66696 55.132019 241.86136
223.55225 54.873215 242.62828
224.69171 54.365707 244.32806
225.59012 54.106461 245.08772
226.24004 54.095581 244.90927
226.89034 54.084572 244.72885
227.28223 54.322098 243.61304
228.45331 53.813515 245.29469
229.10722 53.802116 245.10751
229.76152 53.790619 244.91832
229.87874 54.276642 242.86604
230.80005 54.016136 243.60403
230.63187 54.751091 240.62231
231.27776 54.739326 240.42795
231.64531 54.976471 239.30399
232.85187 54.466461 240.95984
233.5014 54.454361 240.75854
234.72371 53.943878 242.40561
235.66772 53.682312 243.123
236.03471 53.919052 241.98946
236.69081 53.906509 241.77826
237.05107 54.143227 240.64291
237.70541 54.130585 240.42828
238.05893 54.367294 239.2912
239.62274 53.606125 241.8317
240.58948 53.343658 242.52768
240.94411 53.580208 241.38416
241.29407 53.816818 240.24019
241.95316 53.803787 240.01192
242.92889 53.541 240.69666
243.27235 53.777649 239.54884
244.57516 53.264885 241.14088
245.5645 53.001801 241.81461
247.53836 51.988823 245.21912
248.2171 51.975365 244.97136
249.55899 51.461868 246.54086
251.57919 50.448044 249.92197
252.27393 50.434387 249.66179
252.62991 50.670944 248.49245
253.66417 50.407211 249.13461
254.35965 50.393738 248.86757
254.0155 51.131332 245.88626
255.05292 50.867821 246.52065
255.74388 50.854752 246.24875
256.43497 50.84182 245.97459
256.41275 51.33007 243.89822
257.45822 51.066986 244.52058
258.14703 51.054596 244.24074
259.2002 50.791763 244.85556
260.25839 50.52906 245.46609
261.32159 50.266518 246.07231
262.76172 49.753372 247.56799
263.8374 49.491173 248.16449
265.29492 48.978348 249.64827
266.00336 48.967499 249.34451
267.09357 48.706085 249.92798
267.41937 48.946938 248.7305
266.57846 49.941307 244.87141
266.88577 50.183266 243.67747
267.57971 50.174683 243.36871
68.257362 61.348717 206.32703
68.84346 61.355568 206.58781
68.267174 60.617874 209.51015
67.321266 59.632439 213.32628
67.543518 59.392372 214.47951
67.771088 59.152702 215.6331
68.381454 59.161583 215.89487
70.116982 59.915154 213.47517
70.347656 59.676376 214.62424
70.953445 59.685974 214.8782
72.294151 60.19183 213.33752
73.259926 60.449749 212.68817
73.133568 59.963982 214.73018
74.45668 60.470119 213.17645
75.412338 60.728378 212.51723
74.943695 59.995491 215.46008
75.546951 60.006271 215.69946
75.800331 59.769447 216.84042
76.405869 59.780487 217.07687
76.666557 59.543995 218.21683
77.958672 60.050392 216.63742
78.561188 60.061611 216.86697
78.826378 59.825409 218.0029
79.765617 60.084198 217.32019
80.367508 60.095554 217.54382
81.298744 60.354271 216.85431
81.570541 60.118328 217.98517
83.14534 60.871445 215.46393
83.738655 60.882702 215.67697
84.970741 61.388237 214.05852
85.241463 61.152279 215.18156
86.774918 61.904587 212.63829
87.35704 61.915577 212.84012
87.629387 61.679581 213.9583
88.213409 61.690544 214.1572
89.101593 61.948322 213.43422
89.078537 61.465519 215.47012
89.963585 61.723148 214.74254
90.843307 61.980629 214.01143
90.83429 61.497925 216.04666
91.126915 61.261963 217.15918
92.003159 61.519192 216.42166
92.58709 61.52972 216.60635
92.317238 60.800686 219.56854
93.75396 61.550533 216.97021
94.616394 61.807228 216.22139
94.642487 61.324654 218.25545
95.501762 61.581131 217.5022
96.083694 61.591156 217.67587
96.665298 61.601082 217.84773
97.513641 61.857105 217.08611
98.356689 62.112957 216.32123
98.408134 61.630291 218.35254
99.248047 61.885906 217.58337
99.311256 61.403248 219.61464
100.14805 61.658619 218.84123
100.47519 61.421902 219.93649
101.55611 61.922894 218.22163
102.37958 62.177757 217.43958
103.93211 63.169941 213.84076
104.01077 62.686943 215.8663
104.33885 62.449753 216.95355
105.38364 62.949684 215.2209
105.71359 62.712318 216.3054
106.04819 62.474911 217.38948
107.07732 62.974319 215.64801
107.4138 62.736744 216.72934
107.97998 62.744671 216.86731
108.76846 62.998001 216.06015
108.89138 62.514729 218.08238
109.67686 62.767815 217.27133
110.45715 63.020725 216.45749
111.01953 63.028091 216.58667
110.95075 62.299309 219.55327
111.72781 62.551872 218.73398
112.49973 62.804268 217.91196
113.06355 62.811245 218.0352
113.82761 63.063332 217.20839
114.98262 63.80566 214.48083
115.53592 63.812202 214.59724
115.89586 63.573502 215.66214
116.45116 63.579876 215.77594
117.00623 63.586143 215.88817
117.5611 63.592308 215.99884
118.11574 63.598373 216.10797
119.03203 64.094345 214.31056
119.40289 63.855175 215.36865
119.77843 63.615971 216.42612
119.98505 63.131783 218.43684
120.37239 62.892498 219.49352
120.93315 62.898048 219.59476
121.32742 62.658638 220.64967
122.21793 63.153667 218.83707
122.77568 63.158894 218.9333
123.33325 63.164024 219.02803
123.7341 62.924294 220.07811
124.29375 62.92926 220.1702
124.70156 62.689407 221.21844
125.26331 62.694206 221.30792
125.97172 62.943596 220.43744
126.24194 62.458858 222.4411
127.08955 62.952671 220.60811
127.9273 63.446327 218.77213
128.34387 63.205994 219.81291
128.76517 62.965611 220.85291
129.45566 63.214314 219.97096
130.01135 63.218346 220.04776
130.3121 62.733219 222.04558
131.1223 63.226135 220.19698
131.67758 63.229897 220.26939
132.35286 63.478058 219.37816
132.90546 63.481625 219.44736
133.57323 63.729568 218.55232
134.23602 63.977406 217.65523
134.89386 64.225113 216.75616
135.33073 63.983898 217.78238
135.77235 63.742638 218.80771
136.01237 63.012558 221.76051
136.46829 62.771202 222.78458
137.02728 62.774151 222.843
137.58618 62.77702 222.89998
138.33195 63.268471 221.02515
138.97688 63.515461 220.11339
139.43959 63.27375 221.13097
140.07951 63.520565 220.21591
140.54691 63.278713 221.23109
141.10043 63.281071 221.27904
141.57491 63.039104 222.29199
142.13069 63.041317 222.3373
142.61227 62.799217 223.34801
143.24207 63.045525 222.42358
143.79765 63.047516 222.46458
144.35318 63.049427 222.50418
144.97311 63.295471 221.5748
145.58817 63.541431 220.64365
146.13867 63.543095 220.6787
146.80362 64.033066 218.77628
147.29436 63.79039 219.77641
147.89471 64.036011 218.83879
148.34021 63.549038 220.80486
148.89047 63.550339 220.8329
149.25999 62.574921 224.7343
149.73431 62.087791 226.69759
150.13756 61.112297 230.59769
150.63593 60.625061 232.55913
151.07288 59.649487 236.45767
151.66153 59.650414 236.47876
152.21945 59.407124 237.46761
152.64075 57.943111 243.30177
153.2462 57.94384 243.31885
153.68742 56.235592 250.12064
154.24657 55.503799 253.04361
154.91336 55.992546 251.11749
155.63538 57.457684 245.31116
156.20413 56.725655 248.22963
156.84435 57.214142 246.29839
157.46591 57.458439 245.33514
158.0695 57.214409 246.3098
158.69041 57.702663 244.37372
159.30695 58.923183 239.52684
159.89737 60.87598 231.76918
160.4615 61.852245 227.88907
161.01183 62.584328 224.97729
161.56348 62.828094 224.00366
162.11032 63.071808 223.02863
162.67778 62.827206 223.99155
163.21983 63.070766 223.01381
163.82724 62.337757 225.91304
164.40924 62.092918 226.87154
164.95135 62.336269 225.88951
165.53822 62.09127 226.84508
166.07556 62.33448 225.86037
166.5489 63.065929 222.93578
167.19989 62.332417 225.82549
167.93427 61.110474 230.65157
168.65596 60.13258 234.50626
169.47552 58.666225 240.29662
170.40742 56.711384 248.02191
171.33391 55.000526 254.77528
171.96877 54.998817 254.74516
172.70151 54.508644 256.65039
173.80324 52.308929 265.33212
174.46483 52.306877 265.29572
175.1265 52.304741 265.25763
175.96394 51.569855 268.12167
176.69398 51.32328 269.04755
177.11192 52.297791 265.13324
178.10298 51.074036 269.92581
178.43594 52.292709 265.04187
178.88614 53.022842 262.09225
179.90645 51.798698 266.87766
181.02652 50.33007 272.62625
181.39667 51.304237 268.70511
183.03268 48.369392 280.24567
183.89948 47.877419 282.11798
184.0948 49.339981 276.26007
183.99847 51.535629 267.5058
184.93867 50.79908 270.33981
184.59969 53.483589 259.65692
185.15593 53.724426 258.62781
185.99924 53.231972 260.49194
186.95201 52.49498 263.31784
186.59216 54.935364 253.6049
187.12468 55.175949 252.57166
187.01083 56.883224 245.75481
186.53508 59.324039 236.04977
186.34637 61.031601 229.23833
187.03757 60.783257 230.13255
187.38383 61.268364 228.13686
188.07773 61.019825 229.02776
188.8981 60.526608 230.87851
189.48048 60.522377 230.80316
190.063 60.518051 230.72624
190.77446 60.269024 231.60883
191.62212 59.775242 233.44989
192.21239 59.77058 233.36734
192.93889 59.52116 234.24319
193.67041 59.271595 235.11682
194.26604 59.266605 235.02882
194.86183 59.261513 234.93924
195.45781 59.256329 234.84804
196.05397 59.251041 234.75523
196.49965 59.490448 233.70302
197.09375 59.484978 233.60742
197.68803 59.479408 233.51019
198.44048 59.228867 234.36797
199.19798 58.978191 235.22328
199.96057 58.727348 236.07614
200.39771 58.966225 235.01582
201.50102 58.225212 237.77437
201.76842 58.708866 235.75626
202.37148 58.702488 235.64632
202.97475 58.695992 235.53473
203.93323 58.199272 237.32771
204.18199 58.682693 235.3065
204.96832 58.430771 236.14203
205.75981 58.178669 236.97496
206.55643 57.926403 237.80521
