ply
format ascii 1.0
comment PCL generated
element vertex 1597
property float x
property float y
property float z
element camera 0
property float view_px
property float view_py
property float view_pz
property float x_axisx
property float x_axisy
property float x_axisz
property float y_axisx
property float y_axisy
property float y_axisz
property float z_axisx
property float z_axisy
property float z_axisz
property float focal
property float scalex
property float scaley
property float centerx
property float centery
property int viewportx
property int viewporty
property float k1
property float k2
end_header
188.23044 55.408951 233.77864
189.06131 54.881294 235.62001
189.41556 55.399685 233.62863
190.25642 54.871742 235.46561
190.9807 54.605209 236.34286
191.58107 54.600159 236.26134
192.05026 54.856636 235.22202
192.78232 54.589729 236.09348
193.38318 54.584351 236.00713
193.98422 54.578865 235.91917
194.44437 54.835007 234.8748
194.89983 55.091087 233.82956
195.35059 55.347088 232.78348
195.94505 55.341244 232.69014
196.38887 55.597107 231.64195
197.13452 55.329227 232.49864
197.88525 55.061172 233.35292
198.95734 54.269165 236.10887
199.7231 54.00074 236.95738
200.65698 53.470192 238.75461
200.93901 53.987335 236.74532
201.71519 53.718452 237.58711
201.98544 54.235504 235.5766
202.76453 53.966362 236.41457
203.19824 54.221222 235.35196
204.16035 53.689667 237.13417
204.5921 53.944321 236.06859
205.20178 53.936745 235.94983
205.81171 53.929047 235.82936
206.42188 53.921219 235.70717
207.41217 53.388725 237.47549
208.22014 53.118294 238.29443
209.03328 52.847664 239.11063
209.85161 52.576851 239.924
210.47537 52.568253 239.79048
210.8972 52.821983 238.71164
211.51907 52.813179 238.57506
211.93411 53.06675 237.49426
212.76369 52.795174 238.29654
213.17438 53.048576 237.21323
214.22397 52.514069 238.95151
215.06674 52.241936 239.74548
216.13419 51.706924 241.47603
216.9899 51.434349 242.2634
217.40216 51.687126 241.17088
218.26346 51.41423 241.95328
218.90071 51.403984 241.79536
219.5383 51.393616 241.63556
219.94199 51.646049 240.5379
221.28793 50.846542 243.18086
221.2139 51.624771 240.20999
221.85037 51.613937 240.04318
222.48718 51.603004 239.87442
223.37099 51.328796 240.63643
223.76186 51.580772 239.53105
224.90291 51.043007 241.21916
225.80019 50.768227 241.97191
226.95935 50.229919 243.65125
227.61072 50.218063 243.46724
228.26245 50.206078 243.28122
228.38652 50.720917 241.2375
229.03403 50.708817 241.04887
229.41287 50.960167 239.93182
230.05862 50.947906 239.7399
231.25272 50.408272 241.39568
232.18069 50.132027 242.12227
233.39301 49.591866 243.76865
234.05273 49.578995 243.56467
235.28078 49.038368 245.20219
235.37326 49.553001 243.15041
236.32309 49.275955 243.86034
236.98679 49.262718 243.64711
237.65085 49.24942 243.43175
238.01877 49.500153 242.29648
239.57809 48.694366 244.82854
240.54977 48.416611 245.52119
241.52682 48.138718 246.20999
241.89615 48.389252 245.06609
242.87891 48.111206 245.74876
243.24387 48.361801 244.60217
243.29001 48.876945 242.54329
243.95966 48.863289 242.30763
244.31042 49.114204 241.15971
245.29977 48.836014 241.82973
246.29443 48.557762 242.49571
247.9478 47.750031 244.97229
248.29967 48.00106 243.8156
249.64197 47.45784 245.37489
250.32602 47.444199 245.11919
251.01028 47.430649 244.86124
251.69473 47.417213 244.60106
252.72119 47.138863 245.24031
253.40848 47.125618 244.97472
254.78967 46.582306 246.50627
255.13278 46.834419 245.3356
256.52673 46.291237 246.8577
257.22192 46.278542 246.58025
257.91705 46.266075 246.3006
258.61221 46.253845 246.01877
259.30725 46.24189 245.7347
260.36682 45.96479 246.34105
261.06418 45.953384 246.05164
262.8703 45.145805 248.43141
262.83047 45.666054 246.35577
264.65375 44.858955 248.72382
265.73743 44.583282 249.30885
267.20547 44.042343 250.77576
267.53644 44.298767 249.58115
268.63141 44.024353 250.15451
267.4071 45.344849 245.42668
266.93668 46.134659 242.47145
267.62747 46.127853 242.16281
64.291977 55.293007 214.13083
66.461655 56.350864 210.87346
68.224075 57.145992 208.48897
66.889793 55.83744 213.17244
67.112114 55.581493 214.32269
67.33989 55.326035 215.47337
67.19532 54.808121 217.51228
67.811584 54.816467 217.77591
69.173538 55.350845 216.25781
70.895851 56.148193 213.84261
71.867928 56.420101 213.20335
72.469986 56.429493 213.45325
73.072174 56.439137 213.70131
73.674454 56.449028 213.94749
74.276817 56.459145 214.19176
74.879196 56.46946 214.43416
75.129044 56.217445 215.57288
75.383911 55.965702 216.71165
75.29628 55.451786 218.7507
76.253601 55.725307 218.08817
76.86335 55.736549 218.32385
77.81292 56.010181 217.65446
78.757317 56.283813 216.9812
79.696548 56.557446 216.30405
80.298172 56.568909 216.52907
81.559364 57.104622 214.93829
82.155594 57.116112 215.15753
82.75161 57.127644 215.37485
83.669731 57.401146 214.68056
84.582596 57.674576 213.98254
85.490211 57.947929 213.28079
86.392548 58.221176 212.57538
86.97731 58.232578 212.77953
87.871597 58.505672 212.06769
88.760605 58.778656 211.35223
88.730019 58.266705 213.3806
89.011436 58.016472 214.49382
89.297562 57.7663 215.60684
90.480171 58.300564 213.96471
90.473457 57.78894 215.99391
90.7687 57.53883 217.10454
91.648117 57.811371 216.37347
92.234993 57.822498 216.56042
92.252029 57.311119 218.59016
93.407784 57.84454 216.92877
94.833023 58.638832 214.33853
94.85659 58.127373 216.36505
95.439384 58.138081 216.54199
96.021866 58.14872 216.71709
95.794586 57.376427 219.67102
96.651215 57.647919 218.91707
97.502541 57.91922 218.15985
97.823891 57.668732 219.25745
98.669617 57.939754 218.49518
99.767456 58.471329 216.79921
100.34525 58.481274 216.96097
100.92271 58.4911 217.12102
101.74985 58.761436 216.34673
102.32423 58.771042 216.50252
102.89832 58.780525 216.65662
103.22957 58.52943 217.74348
103.56545 58.278313 218.82991
104.14359 58.287563 218.98009
105.19167 58.817421 217.25563
105.53162 58.566063 218.33815
105.87622 58.314663 219.42023
106.68091 58.583717 218.62518
107.25513 58.592381 218.76616
107.82907 58.600933 218.90543
108.62306 58.869511 218.10291
109.62974 59.397999 216.35686
110.19548 59.406113 216.48935
110.76096 59.414116 216.62021
110.9052 58.902027 218.63419
111.68311 59.169842 217.81992
111.83912 58.6577 219.83339
112.61407 58.925255 219.01527
113.38388 59.192635 218.19446
114.14854 59.459827 217.37099
114.71228 59.467072 217.49043
115.46912 59.733955 216.66219
116.02994 59.740948 216.77792
116.40211 59.488121 217.83923
116.96495 59.494923 217.9523
117.52756 59.501614 218.0638
118.27103 59.767811 217.22514
118.83076 59.774261 217.33301
119.39029 59.780602 217.43933
120.12337 60.046368 216.5941
120.68005 60.052471 216.69685
121.06765 59.798996 217.74893
121.29351 59.286003 219.75165
122.02092 59.551304 218.89934
122.2586 59.038235 220.90111
123.14232 59.562683 219.0927
123.85943 59.827568 218.2341
124.57149 60.092312 217.37315
125.12669 60.097591 217.4637
125.53235 59.843483 218.50691
125.9427 59.589321 219.54938
126.50228 59.594357 219.63614
126.91962 59.340061 220.67671
127.34165 59.085709 221.71652
128.04283 59.349655 220.84348
128.739 59.613468 219.96819
129.43018 59.877144 219.09071
130.11633 60.14069 218.21107
130.5425 59.885891 219.24408
131.09845 59.890118 219.31854
131.53163 59.635193 220.34958
132.20998 59.898293 219.46306
132.64775 59.643211 220.49176
133.43636 60.165112 218.6427
133.98926 60.168854 218.70953
134.76306 60.690468 216.85582
135.0947 60.176071 218.83881
135.64725 60.17955 218.90125
136.30295 60.441864 218.00191
136.75204 60.186222 219.02184
137.20587 59.930523 220.04083
137.85641 60.192543 219.13664
138.3149 59.936699 220.15324
138.86926 59.939648 220.20729
139.42355 59.942513 220.2599
139.97774 59.945301 220.31105
140.61572 60.206818 219.39851
141.16733 60.209419 219.44659
141.6398 59.953125 220.45593
142.11703 59.696758 221.46426
142.59904 59.440342 222.47153
143.08582 59.183853 223.47774
143.71608 59.444832 222.55597
144.27449 59.446953 222.59604
144.76831 59.190239 223.59848
145.39113 59.450947 222.67188
145.82996 58.935345 224.63586
146.33568 58.678421 225.63477
146.95592 58.938869 224.7037
147.57126 59.199211 223.77094
148.18173 59.459465 222.83646
148.7397 59.460922 222.86508
149.34283 59.720993 221.92738
149.85551 59.463593 222.91808
150.45374 59.723488 221.97733
150.97116 59.465942 222.96538
151.52895 59.466991 222.98691
152.08669 59.467968 223.007
152.61368 59.210201 223.99117
153.11719 58.693695 225.93962
153.6562 58.43578 226.92128
154.2235 58.436451 226.93594
154.76971 58.178383 227.91493
155.35805 58.437531 226.961
155.94153 58.696609 226.00551
156.50635 58.696949 226.01437
157.04836 58.179916 227.95364
157.62697 58.438747 226.99377
158.18761 58.180202 227.96432
158.75307 57.921581 228.93346
159.32686 58.180157 227.96924
159.89517 58.697308 226.03758
160.46613 58.179802 227.96834
161.0248 58.696789 226.03383
161.58961 58.696411 226.02982
162.16478 58.437305 226.99026
162.75751 57.91946 228.91512
163.32962 57.918831 228.90671
163.90175 57.918121 228.89684
164.45393 58.175991 227.91974
165.04608 57.916458 228.87271
165.61829 57.915497 228.85849
166.19054 57.914467 228.84279
166.79243 57.654675 229.79115
167.36716 57.653465 229.77248
167.94191 57.65218 229.75233
168.55359 57.39212 230.69597
169.13084 57.390652 230.67282
169.66644 57.647823 229.68311
170.28551 57.387486 230.62206
170.8629 57.385773 230.59447
171.3914 57.642708 229.60069
172.01787 57.382095 230.53487
172.64923 57.121384 231.46732
173.17308 57.378086 230.46935
173.69215 57.634701 229.47023
174.32855 57.373718 230.39795
174.90639 57.371407 230.36002
175.48428 57.369011 230.32059
176.19887 56.848923 232.20671
176.92319 56.328705 234.09064
177.511 56.326004 234.04602
178.09891 56.323204 233.99989
178.76488 56.061478 234.91501
179.43576 55.799629 235.82819
180.11159 55.537666 236.73944
180.53667 56.052238 234.7623
181.12746 56.048981 234.70831
181.71835 56.04562 234.65283
182.21686 56.301098 233.63432
182.71063 56.556503 232.61479
183.39436 56.293938 233.51614
183.98328 56.290226 233.45471
184.57231 56.286407 233.39177
185.16147 56.282501 233.32727
185.75075 56.278492 233.26123
186.5591 55.756321 235.11295
187.0416 56.011135 234.08388
187.40506 56.52496 232.09474
187.8757 56.779667 231.06403
188.69914 56.256996 232.90776
189.04604 56.770645 230.91606
190.00352 55.988548 233.71329
190.72281 55.724564 234.59198
191.57599 55.201256 236.4256
192.0451 55.455372 235.38576
192.77702 55.190971 236.258
193.37779 55.185684 236.17177
194.11734 54.921005 237.03975
194.57983 55.174774 235.99448
195.03763 55.428471 234.9483
195.49075 55.682102 233.90131
196.2359 55.416954 234.76205
196.53372 55.92981 232.75862
197.28168 55.664421 233.61572
198.0347 55.398865 234.47043
198.95093 54.873695 236.27539
199.556 54.867287 236.17241
200.48727 54.341743 237.97156
200.60136 55.113663 235.01006
201.20465 55.106934 234.90253
201.46751 55.619289 232.89217
202.23911 55.35276 233.73235
202.84061 55.345722 233.62022
203.79765 54.819206 235.40488
204.40453 54.811867 235.2885
205.01163 54.80442 235.17041
205.61899 54.796852 235.0506
206.41403 54.529373 235.87636
207.02434 54.52153 235.75264
208.01959 53.993843 237.51974
209.02493 53.465912 239.2831
210.04036 52.937721 241.0426
210.66644 52.929207 240.90875
211.09067 53.180557 239.8289
211.91949 52.911797 240.63568
212.13226 53.423042 238.61015
212.54504 53.674194 237.52763
213.16521 53.665169 237.38643
214.21458 53.135666 239.1263
214.84027 53.126312 238.98032
215.68565 52.85659 239.77278
216.31442 52.846954 239.62253
216.71918 53.097511 238.53133
217.7997 52.56694 240.25496
218.43188 52.5569 240.0985
219.06441 52.54673 239.94016
219.93149 52.275948 240.7166
221.27719 51.48391 243.36188
220.72484 52.776024 238.51846
221.35623 52.765419 238.35313
222.23209 52.494026 239.12003
222.62006 52.743813 238.01686
223.25249 52.732841 237.84581
224.63992 51.939415 240.46898
225.28052 51.928078 240.29199
226.69102 51.134033 242.90506
227.59879 50.86142 243.65199
227.98892 51.110519 242.53699
228.63843 51.098602 242.34991
229.55478 50.825531 243.08864
229.6696 51.335533 241.04262
230.31775 51.323341 240.8502
231.2402 51.049866 241.58134
232.16801 50.776192 242.30894
233.38016 50.241043 243.95705
234.3212 49.966949 244.67665
235.26764 49.692673 245.39261
235.64658 49.941071 244.26138
236.30983 49.928009 244.05058
236.97345 49.914879 243.83763
237.9314 49.640091 244.54189
238.59825 49.626778 244.32385
239.2655 49.613388 244.1037
240.23456 49.338226 244.79823
240.90503 49.324699 244.57288
241.26932 49.572975 243.43018
241.93796 49.559418 243.20135
242.60693 49.545837 242.97034
242.02005 50.580177 239.08694
242.99615 50.304756 239.76674
243.65854 50.291306 239.53186
244.64279 50.015732 240.20465
245.63239 49.740059 240.8735
247.28058 48.93985 243.35439
247.29832 49.450829 241.29195
248.96468 48.650368 243.76192
249.30954 48.899216 242.60313
250.65982 48.360924 244.15688
251.68109 48.085014 244.80124
253.04941 47.546577 246.34381
253.73933 47.533234 246.0775
255.46994 46.732124 248.51013
255.8183 46.981628 247.33694
256.51361 46.968651 247.06197
257.20898 46.955872 246.78471
257.54739 47.206131 245.60887
258.59973 46.930962 246.22357
258.93304 47.181786 245.04538
259.9903 46.907051 245.65366
261.05249 46.632538 246.25764
262.4892 46.095207 247.7486
262.81943 46.347298 246.56279
264.64297 45.547379 248.93315
266.10419 45.010773 250.40698
267.57513 44.474457 251.87436
268.29132 44.464912 251.56367
269.00705 44.455864 251.2509
267.78598 45.763741 246.51823
267.3187 46.545837 243.55962
267.6203 46.801987 242.36847
63.119537 55.106201 216.95599
65.687386 56.415218 212.81602
67.455193 57.203312 210.43158
66.511749 56.167873 214.23569
66.737038 55.914654 215.38774
67.728172 56.182865 214.76532
67.203835 55.409588 217.6931
67.445259 55.157707 218.8463
69.182648 55.947758 216.43701
70.534996 56.477558 214.91125
71.509834 56.747196 214.2722
72.114655 56.756748 214.52306
72.719604 56.766556 214.772
72.964561 56.516415 215.91498
73.572144 56.526695 216.16118
74.179764 56.537186 216.40543
75.139877 56.807899 215.74879
75.744919 56.81868 215.98819
76.002449 56.569641 217.12659
77.299759 57.100578 215.55922
77.902046 57.111706 215.79181
79.184006 57.642578 214.21472
79.106232 57.134266 216.25111
80.042953 57.405384 215.5721
80.309776 57.157127 216.70265
81.241096 57.428276 216.01784
81.512566 57.180222 217.14633
82.438431 57.451351 216.45578
83.359047 57.72242 215.76143
84.594162 58.252838 214.15207
86.136238 59.042461 211.625
86.718742 59.053768 211.82994
87.300995 59.065079 212.03296
88.502426 59.594849 210.40451
89.386345 59.865223 209.68636
89.350815 59.358028 211.7142
89.929436 59.36919 211.90887
90.507774 59.380314 212.10164
91.085808 59.391392 212.29257
91.074135 58.884518 214.32132
91.072151 58.377777 216.35146
91.659271 58.388882 216.54004
92.246071 58.399921 216.72676
91.978416 57.634605 219.68069
93.136497 58.163074 218.0184
94.284286 58.691288 216.35115
94.867317 58.701988 216.52968
95.999512 59.229755 214.85419
96.576935 59.240204 215.02756
96.614494 58.733585 217.05428
97.196236 58.743938 217.22551
98.042465 59.0126 216.4659
97.834152 58.247654 219.42207
98.419907 58.25782 219.58929
99.52005 58.784424 217.89241
100.10022 58.794304 218.05464
101.18484 59.320454 216.35004
102.00935 59.588188 215.57417
102.58116 59.597637 215.7291
103.15266 59.606979 215.88229
103.48137 59.358204 216.96895
103.81473 59.109386 218.05521
104.62783 59.376438 217.26804
105.4357 59.643307 216.47783
105.77312 59.394245 217.56024
106.34533 59.402992 217.70377
107.14494 59.669422 216.90662
107.48889 59.420143 217.98579
108.28302 59.686287 217.18405
109.07195 59.952236 216.37949
109.63785 59.960358 216.51344
109.9881 59.710754 217.58769
110.55593 59.718689 217.71892
110.70258 59.211426 219.73463
111.48282 59.47673 218.92003
111.84677 59.226883 219.99106
112.62159 59.491898 219.1721
113.39125 59.756729 218.35045
114.15576 60.0214 217.52609
114.91515 60.285896 216.6991
115.66939 60.550217 215.86949
116.4185 60.814369 215.03728
116.59731 60.306568 217.04588
117.15758 60.313255 217.15829
117.71762 60.319813 217.26918
118.45853 60.583458 216.4292
119.01572 60.589798 216.53642
119.57269 60.59602 216.64214
120.12946 60.602142 216.74629
120.51475 60.351097 217.79997
120.73587 59.842941 219.80457
121.29938 59.848835 219.90538
122.02666 60.111614 219.05228
122.42581 59.860302 220.10242
123.14784 60.122818 219.24539
123.86482 60.385197 218.38599
124.42254 60.390526 218.4783
125.13187 60.65263 217.61465
125.6868 60.657738 217.70357
126.38849 60.919567 216.83575
127.08516 61.181271 215.96565
127.49269 60.929256 217.00528
127.90493 60.677189 218.04417
128.32187 60.425053 219.08231
128.87831 60.429604 219.16258
129.30225 60.177338 220.19879
129.99072 60.438396 219.31873
130.41924 60.185986 220.35263
131.10258 60.446827 219.46892
131.53569 60.19426 220.50053
132.09372 60.198257 220.57225
132.76939 60.458759 219.68318
133.55545 60.975727 217.83243
133.9929 60.722828 218.8588
134.87711 61.496078 216.04347
135.31433 61.242996 217.06696
135.75629 60.989872 218.08951
136.40945 61.249691 217.18915
136.85605 60.996422 218.20938
137.3074 60.74308 219.22871
137.85945 60.746147 219.28532
138.2243 60.236233 221.26451
138.6899 59.982712 222.28098
139.24892 59.985558 222.33397
139.80786 59.988316 222.38551
140.45059 60.247398 221.47269
141.00694 60.249977 221.52112
141.56322 60.252464 221.56813
142.11942 60.254879 221.61368
142.60135 60.000839 222.62157
143.08804 59.74675 223.62834
143.64885 59.74892 223.66998
144.27654 60.007355 222.74591
144.77028 59.753029 223.74893
145.3309 59.754959 223.78624
145.77208 59.244198 225.75162
146.33742 59.245968 225.78639
146.90271 59.247673 225.81966
147.57283 59.76186 223.92116
148.1832 60.019657 222.98599
148.78871 60.277355 222.04919
149.34413 60.278706 222.07623
149.85675 60.02372 223.06752
150.45488 60.281174 222.12608
151.01019 60.282284 222.1489
151.56548 60.283306 222.17032
152.12073 60.284264 222.19029
152.67595 60.285137 222.20888
153.17455 59.773457 224.15845
153.73454 59.774189 224.17433
154.29453 59.774834 224.18881
154.79131 59.006718 227.10101
155.35849 59.007206 227.11282
155.92566 59.007629 227.12315
156.479 58.751743 228.09857
157.04855 58.752003 228.10605
157.62711 59.0084 227.14555
158.18767 58.752277 228.11673
158.7572 58.7523 228.1199
159.32851 59.008457 227.15501
159.89432 59.520763 225.22205
160.46587 58.751884 228.12076
161.04091 58.495361 229.08475
161.6208 58.238754 230.0473
162.21585 57.725845 231.97488
162.82056 57.212849 233.90088
163.37437 57.724674 231.95929
163.901 58.492668 229.04994
164.45309 58.748127 228.07224
165.04517 58.491028 229.02588
165.5925 58.746338 228.04535
166.18945 58.489075 228.99599
166.82089 57.975468 230.91116
167.36591 58.230534 229.92636
167.90613 58.485531 228.94025
168.5153 58.227921 229.88466
169.05078 58.482758 228.89583
169.58147 58.73753 227.90573
170.23972 58.22337 229.81117
170.81462 58.221699 229.78372
171.38959 58.21994 229.75481
172.01596 57.961777 230.6897
172.64723 57.703533 231.6228
173.17101 57.957821 230.62428
173.69 58.212055 229.62454
174.32629 57.953537 230.55293
174.84059 58.207615 229.55057
175.416 58.205261 229.51138
176.12804 57.690083 231.39899
176.92055 56.918377 234.24846
177.50827 56.915718 234.2039
178.02054 57.169376 233.19423
178.60603 57.166553 233.1468
179.35236 56.650768 235.02435
180.02567 56.391293 235.93654
180.53346 56.644611 234.92116
181.12418 56.641403 234.86728
181.80504 56.381615 235.77419
182.12093 57.147694 232.83067
182.51729 57.657249 230.84892
183.29338 57.140675 232.71312
183.87978 57.137035 232.65204
184.46631 57.133286 232.58946
185.26213 56.61631 234.44701
185.85374 56.612343 234.3808
186.55493 56.351681 235.27333
187.03735 56.60413 234.2437
187.51506 56.856522 233.21309
187.87132 57.365505 231.22209
188.57547 57.104439 232.10809
189.04146 57.356621 231.07433
189.87477 56.838604 232.91513
190.59151 56.577145 233.79491
191.31325 56.31554 234.67244
191.90872 56.310566 234.59024
192.50436 56.305496 234.50644
193.37247 55.786694 236.33466
194.11191 55.524525 237.20343
194.71533 55.519077 237.11374
195.17548 55.770405 236.06667
195.63095 56.021667 235.01874
196.23007 56.015938 234.92494
196.52783 56.52401 232.92032
196.96924 56.775093 231.86981
197.71725 56.512112 232.72615
198.47035 56.248978 233.58
198.90747 56.499794 232.52544
199.82883 55.979305 234.32776
200.09853 56.487019 232.31824
200.69437 56.480473 232.21216
201.29041 56.473804 232.10445
202.23216 55.95266 233.8967
202.65837 56.20293 232.83441
203.79042 55.424179 235.57091
204.39717 55.416943 235.4547
205.18668 55.152298 236.28571
205.79636 55.144806 236.16559
206.5937 54.879829 236.99171
207.20633 54.87207 236.86766
208.20387 54.34935 238.6358
209.01669 54.083824 239.45372
209.83472 53.818115 240.26884
210.45822 53.809746 240.13571
211.28415 53.543701 240.94568
211.91069 53.535049 240.80843
212.12341 54.041519 238.78178
212.5361 54.290337 237.69879
213.15613 54.281425 237.55779
213.99091 54.014656 238.3571
214.83087 53.747704 239.15343
215.89546 53.222733 240.8878
216.52657 53.213181 240.73717
216.9337 53.461372 239.64491
218.01648 52.935783 241.36952
218.4218 53.183769 240.27412
219.0542 53.173714 240.11604
219.68692 53.163544 239.95605
220.79327 52.637093 241.66757
220.71428 53.40094 238.69434
221.58716 53.132278 239.46472
222.22125 53.121628 239.29709
222.36261 53.627327 237.25938
223.24146 53.358231 238.02267
224.37714 52.830612 239.71542
224.76114 53.077805 238.60733
225.90994 52.549728 240.29279
227.32802 51.762932 242.90408
227.71561 52.009735 241.78937
228.09857 52.256523 240.67404
229.27621 51.727524 242.3437
229.11961 52.491417 239.36951
229.76266 52.479431 239.17886
230.95389 51.949883 240.83878
232.15546 51.420052 242.49365
232.8096 51.407585 242.29385
233.74553 51.136154 243.01599
234.9707 50.605614 244.65775
235.06071 51.11068 242.60443
236.00777 50.838799 243.31715
236.96021 50.56675 244.02614
237.62411 50.553635 243.81139
238.58484 50.281288 244.51369
239.55092 50.008781 245.21222
240.82382 49.476852 246.82445
241.19531 49.722626 245.681
241.56213 49.968452 244.53702
242.23325 49.954918 244.30763
242.90469 49.94136 244.07602
242.32053 50.965874 240.18915
243.29907 50.692902 240.86908
243.64493 50.939079 239.72209
244.3076 50.92569 239.48529
244.97057 50.912308 239.24634
246.94019 49.85984 242.64027
247.28467 50.10614 241.48543
248.95091 49.31308 243.95786
249.2959 49.559471 242.7986
250.30942 49.286095 243.44902
251.32823 49.012688 244.09534
252.694 48.479202 245.64059
253.38153 48.465889 245.37547
255.10959 47.672173 247.81154
255.80496 47.658989 247.53897
256.50043 47.645958 247.26418
257.19598 47.633102 246.98715
257.53464 47.880814 245.81076
258.58716 47.608017 246.42639
258.92075 47.85627 245.24762
259.97821 47.583862 245.8568
260.67365 47.572197 245.56873
262.10803 47.03968 247.0623
262.8082 47.028557 246.76778
264.25735 46.496475 248.2507
264.9621 46.486 247.94977
266.80548 45.693748 250.30956
267.89929 45.423248 250.88766
267.84354 45.935555 248.80518
267.77725 46.448486 246.72507
267.70035 46.962059 244.6474
268.00504 47.215401 243.45436
65.089455 56.999619 212.72258
67.254883 58.038391 209.45717
68.237572 58.303028 208.83588
67.289642 57.277576 212.6407
67.893028 57.285023 212.90417
68.116592 57.034828 214.05409
67.590195 56.269073 216.98293
68.20462 56.277752 217.24535
68.819275 56.286747 217.50594
70.174355 56.811817 215.97966
71.519516 57.337006 214.4473
72.489662 57.604496 213.80342
72.729759 57.356598 214.94682
73.695007 57.624447 214.2971
73.940239 57.377048 215.43877
74.545509 57.387566 215.68184
75.503212 57.655842 215.02328
76.805748 58.181721 213.46014
77.055893 57.935051 214.5961
78.345642 58.460945 213.02419
79.282837 58.729362 212.35002
80.214874 58.997787 211.67198
80.1297 58.494251 213.70676
80.72406 58.505505 213.93045
80.985962 58.259605 215.0596
81.252686 58.013844 216.18869
81.196968 57.511105 218.22696
81.800575 57.522732 218.44655
82.403954 57.53437 218.66417
83.32679 57.803005 217.96783
85.195976 58.842323 214.52907
86.415405 59.367489 212.90886
87.624519 59.892445 211.28322
88.823334 60.417202 209.65221
89.704651 60.68499 208.9323
89.666679 60.182606 210.96046
89.94059 59.937012 212.0721
90.51889 59.948067 212.26462
91.096863 59.959064 212.45532
91.085236 59.457031 214.48521
91.08329 58.955124 216.51651
91.959999 59.222542 215.7827
92.257065 58.977089 216.89133
91.704819 57.962746 220.77083
92.865219 58.486256 219.10768
93.735649 58.753296 218.36484
94.323586 58.763988 218.54463
95.460579 59.286842 216.86903
96.587303 59.809444 215.18857
96.894577 59.563663 216.28818
97.473755 59.573879 216.45844
98.317352 59.839943 215.69716
97.844322 58.826305 219.58488
98.949562 59.348083 217.88959
99.529938 59.35796 218.05339
100.36482 59.623508 217.28288
100.94209 59.633137 217.44243
102.01881 60.154057 215.73242
102.34311 59.907742 216.82172
102.91698 59.917027 216.97534
103.24809 59.67062 218.06314
103.82384 59.679729 218.21396
104.63679 59.944229 217.42589
105.44451 60.208542 216.63483
106.01443 60.217247 216.77925
106.58408 60.225853 216.92195
107.38107 60.489693 216.12332
107.94768 60.498043 216.26205
108.73672 60.761551 215.4583
108.8598 60.259159 217.47604
109.64586 60.52243 216.66833
109.78069 60.019993 218.68568
110.35087 60.027863 218.81729
110.2895 59.270298 221.77847
111.28247 59.788197 220.01984
111.44329 59.285694 222.03673
112.22287 59.548237 221.21799
112.9973 59.810596 220.39655
114.1629 60.582672 217.67955
114.92213 60.844627 216.85173
115.8695 61.361305 215.07382
116.61603 61.622898 214.24026
116.98071 61.374676 215.30109
117.53598 61.381207 215.41238
117.90756 61.132866 216.47153
118.82691 61.648685 214.68037
119.3791 61.654873 214.78653
119.75494 61.406273 215.84201
120.30917 61.412285 215.94554
120.69194 61.163555 216.99931
120.91057 60.660175 219.00461
121.30515 60.411373 220.0575
122.0323 60.671631 219.20358
122.59289 60.677204 219.30078
123.15329 60.682678 219.39642
123.71352 60.688049 219.49054
124.42776 60.947788 218.62845
125.13696 61.207382 217.76401
125.84114 61.466835 216.89729
126.39337 61.471741 216.98419
127.23439 61.985306 215.1571
127.63942 61.735634 216.1969
128.04915 61.485897 217.23598
128.32642 60.981808 219.2316
128.88275 60.986282 219.31178
129.30661 60.736385 220.34853
129.99498 60.994942 219.46771
130.42342 60.7449 220.50214
131.10666 61.003242 219.61771
131.53967 60.753044 220.64987
132.09763 60.756977 220.72148
132.77319 61.014996 219.83168
133.44379 61.272884 218.93982
134.10941 61.530651 218.0459
134.99104 62.296543 215.22827
135.53384 62.299942 215.29089
135.86525 61.795063 217.27487
136.30945 61.544239 218.29684
136.75841 61.293346 219.31792
137.2121 61.0424 220.33806
137.76648 61.045429 220.39485
138.22723 60.794365 221.41281
138.60162 60.289207 223.39278
139.16299 60.292023 223.44592
139.63799 60.04076 224.46097
140.28546 60.297401 223.54785
140.92801 60.553921 222.63287
141.56563 60.810341 221.71603
142.12175 60.81271 221.76155
142.52942 60.307125 223.73438
143.09023 60.309353 223.77739
143.65096 60.311497 223.81895
144.27855 60.567459 222.89421
144.7077 60.061638 224.86288
145.33276 60.317432 223.93507
145.77388 59.811489 225.90169
146.33913 59.813236 225.9364
146.90433 59.814907 225.96964
147.52191 60.070362 225.03563
148.08461 60.071857 225.06589
148.69485 60.327133 224.1286
149.20984 60.074631 225.12206
149.7724 60.075897 225.14798
150.41565 60.584743 223.23969
150.9733 60.585838 223.26257
151.53091 60.586857 223.28404
152.12161 60.84161 222.33742
152.70747 61.096287 221.38921
153.20358 60.589447 223.33995
153.76109 60.590149 223.35576
154.29512 60.336983 224.33711
154.81288 59.829929 226.28421
155.34029 59.322811 228.23007
155.90979 59.323219 228.24045
156.46547 59.069744 229.21655
157.04877 59.323803 228.25688
157.61824 59.323982 228.26291
158.18771 59.324081 228.26752
158.75717 59.324089 228.27071
159.33015 59.831619 226.33794
159.89348 60.339081 224.40369
160.45944 59.83128 226.33704
161.02959 59.577179 227.30173
161.60457 59.323013 228.26492
162.1947 58.814953 230.19385
162.78178 58.560623 231.15402
163.34343 58.813812 230.17844
163.86514 59.574558 227.26724
164.45229 59.319977 228.2231
165.04427 59.065323 229.1774
165.64111 58.810574 230.13014
166.24281 58.55574 231.08128
166.84937 58.300816 232.03084
167.36469 58.807312 230.07863
167.93929 58.806061 230.05853
168.55078 58.550888 231.00352
169.08859 58.803322 230.01399
169.62163 59.055695 229.02316
170.2381 58.800266 229.96358
170.81291 58.798618 229.93617
171.28992 59.304638 227.97533
172.01407 58.54118 230.84285
172.59148 58.539268 230.81094
173.11276 58.791191 229.81194
173.68787 58.789127 229.77721
174.3851 58.27914 231.6716
174.8383 58.784756 229.70332
175.47948 58.5285 230.62917
176.19383 58.018188 232.51797
176.98863 57.253796 235.36925
177.50558 57.505146 234.36009
178.01778 57.756409 233.34985
178.52522 58.007626 232.33846
179.26903 57.496754 234.21754
180.10538 56.731731 237.05792
180.61552 56.982662 236.04178
181.12094 57.233521 235.02455
181.89174 56.722157 236.89517
182.20999 57.480995 233.94955
182.51382 58.239819 231.00385
183.19249 57.982254 231.90715
183.87611 57.724567 232.80843
184.5647 57.466751 233.70767
185.25824 57.20882 234.60484
185.95677 56.950756 235.49994
186.44141 57.20092 234.47105
186.92133 57.451023 233.44116
187.28224 57.955273 231.44991
187.63358 58.459499 229.45828
188.33276 58.200966 230.34567
188.79382 58.450825 229.31197
189.62213 57.937775 231.15482
190.33389 57.678856 232.03598
191.17952 57.165462 233.87347
191.64117 57.41494 232.83353
192.36554 57.155617 233.70833
193.09496 56.896152 234.58087
194.10654 56.127743 237.36534
194.70987 56.122368 237.27579
195.31337 56.116898 237.18459
196.06294 55.85685 238.04779
196.66925 55.851131 237.95299
196.82352 56.608864 234.99077
197.26971 56.857555 233.93898
197.86685 56.851616 233.84082
198.4642 56.845566 233.74104
198.90125 57.094028 232.68597
199.82242 56.57851 234.48976
200.25745 56.826775 233.43185
200.85561 56.820286 233.3255
201.45399 56.813702 233.21747
202.22531 56.552246 234.0593
202.82658 56.545395 233.94754
203.96088 55.774029 236.68571
204.75 55.512039 237.51926
205.36176 55.504734 237.40054
205.97377 55.497307 237.28014
206.77342 55.234856 238.10661
207.3884 55.227169 237.98225
208.00362 55.21936 237.85614
208.61911 55.211441 237.72827
209.62924 54.693306 239.4919
210.05054 54.940155 238.41342
210.6693 54.931839 238.27975
211.49289 54.668259 239.08932
212.11469 54.65966 238.95158
212.52728 54.906158 237.8681
213.57106 54.386856 239.61404
214.41058 54.122581 240.4131
215.47218 53.602791 242.15141
216.32463 53.338089 242.94392
216.96054 53.328575 242.79236
217.14827 53.829803 240.75801
218.00661 53.564651 241.54373
218.18265 54.065819 239.50864
219.0441 53.800392 240.29001
219.67671 53.790321 240.13028
220.78287 53.268898 241.8434
220.70387 54.02552 238.86836
221.33501 54.015144 238.70354
221.96652 54.004646 238.53683
222.35185 54.249825 237.43343
223.23056 53.983299 238.19766
224.36603 53.460701 239.89204
224.74994 53.705566 238.78349
226.155 52.926567 241.40263
227.57529 52.147179 244.01561
227.96529 52.391624 242.89972
228.35069 52.63604 241.78326
230.06335 51.599739 245.31232
229.91428 52.356255 242.33408
230.29333 52.600471 241.21375
231.21548 52.332138 241.94682
232.41934 51.807289 243.60262
232.79706 52.051262 242.47685
233.45149 52.038811 242.27527
234.674 51.513344 243.91948
235.3342 51.500618 243.71216
236.2836 51.231262 244.42505
236.94708 51.218323 244.21269
237.90479 50.948654 244.91896
238.5715 50.935524 244.70152
239.23862 50.922325 244.48192
239.90608 50.909073 244.26015
240.57391 50.895767 244.03622
241.24213 50.882416 243.81012
241.60178 51.125969 242.66614
242.89102 50.598564 244.26627
242.62096 51.356239 241.29082
243.60196 51.085747 241.97086
243.95038 51.329468 240.82254
244.93707 51.058861 241.49643
245.60507 51.045425 241.25591
247.25299 50.260071 243.74167
247.6001 50.503876 242.58546
248.93715 49.975601 244.15175
248.94812 50.47702 242.08534
249.62253 50.463669 241.83199
250.97545 49.935265 243.38596
251.99701 49.664368 244.03003
253.36801 49.135803 245.57281
254.7493 48.60717 247.10941
255.79156 48.336227 247.73895
256.13538 48.580948 246.56451
256.82855 48.568085 246.2887
257.16492 48.813309 245.11278
258.21506 48.542931 245.73036
258.54642 48.788658 244.55209
260.33047 48.002594 246.9527
261.02869 47.990753 246.66373
262.09631 47.721077 247.26524
262.42474 47.967957 246.07925
264.24622 47.182457 248.45532
264.95132 47.171799 248.15446
266.41537 46.644981 249.62819
267.50702 46.376747 250.20818
267.44931 46.883926 248.12535
267.38104 47.391708 246.04491
267.30219 47.900108 243.96692
267.60492 48.150726 242.7742
64.70311 57.334301 213.78058
66.871376 58.363541 210.51344
68.244667 58.881668 209.0069
67.682442 58.121883 211.92787
68.283699 58.129505 212.1902
68.505127 57.881916 213.33972
67.976654 57.123657 216.26958
68.213768 56.876961 217.42191
69.201317 57.141579 216.79024
70.18399 57.406395 216.15457
71.896881 58.182182 213.72636
72.864677 58.447266 213.08063
73.102516 58.201889 214.22356
74.425369 58.722584 212.67458
74.308327 58.222412 214.71312
75.266167 58.488121 214.0556
75.866508 58.49876 214.29457
76.466774 58.509533 214.53162
76.372246 58.010368 216.57144
77.667061 58.531464 214.99983
78.609344 58.797531 214.32671
79.546432 59.06358 213.6497
79.803749 58.819912 214.78134
80.735458 59.086014 214.09854
80.997444 58.842552 215.2282
80.934525 58.344524 217.26682
80.881439 57.846722 219.30721
81.812286 58.112968 218.61656
82.093483 57.87001 219.74574
83.018784 58.136189 219.04935
84.890266 59.165657 215.60844
86.112099 59.685902 213.98744
87.323616 60.205944 212.36101
88.834427 60.980072 209.81306
89.715675 61.245346 209.09218
89.677757 60.74781 211.12151
90.253792 60.758781 211.31483
90.529915 60.515575 212.42589
91.404953 60.780582 211.69591
91.685463 60.537365 212.8049
91.386436 59.786198 215.75778
91.970932 59.797089 215.94505
92.267975 59.553997 217.05412
91.431213 58.295532 221.86055
92.311813 58.560276 221.12177
93.187103 58.824856 220.3795
94.05706 59.089252 219.6339
95.196373 59.607155 217.9574
96.325401 60.124779 216.27609
96.904808 60.134987 216.44791
97.751068 60.398628 215.68826
98.327347 60.408607 215.85576
98.116608 59.658119 218.81485
98.959435 59.92144 218.04909
99.796982 60.184582 217.28011
100.37447 60.194206 217.44122
101.20393 60.457012 216.66666
102.02815 60.719646 215.88896
102.35239 60.47567 216.97873
102.92615 60.484844 217.13214
103.2572 60.240784 218.2204
103.83284 60.249786 218.371
104.88311 60.764774 216.64421
105.68822 61.026505 215.85162
106.02303 60.782089 216.93433
106.82263 61.043526 216.1371
107.61702 61.304787 215.33699
107.9559 61.06012 216.41588
108.52213 61.068249 216.5528
109.08807 61.076279 216.68802
109.65376 61.084202 216.82156
109.78856 60.586548 218.84006
110.35861 60.594315 218.9715
110.50763 60.096645 220.99007
111.08209 60.104263 221.11929
111.45081 59.859169 222.19237
112.23025 60.11916 221.3728
113.00453 60.378986 220.55052
113.9718 60.891144 218.77846
114.73335 61.150593 217.95033
115.48976 61.409882 217.11957
116.05026 61.41658 217.23485
116.42221 61.170799 218.29764
116.98471 61.177322 218.41023
117.73045 61.436073 217.57115
118.65208 61.946964 215.77902
119.20662 61.953094 215.88548
119.76094 61.959114 215.99043
120.31508 61.96505 216.09381
120.869 61.97086 216.19571
121.08514 61.47224 218.20172
121.64355 61.477909 218.30142
122.20178 61.483471 218.3996
122.59835 61.236843 219.45035
123.3177 61.49432 218.59131
124.03201 61.751644 217.72992
124.58708 61.756794 217.82161
125.29373 62.013855 216.95601
126.14467 62.52277 215.13197
126.69194 62.527557 215.21802
127.38351 62.78421 214.34564
127.64401 62.284946 216.34288
128.19325 62.289478 216.42485
128.46803 61.79015 218.42133
128.7524 61.290806 220.41772
129.1786 61.043293 221.45535
129.99916 61.551208 219.6151
130.42754 61.303524 220.65009
130.98564 61.307583 220.72458
131.54361 61.31155 220.79758
132.10146 61.315422 220.86911
132.65918 61.319202 220.93919
133.33209 61.574627 220.04688
134.00003 61.829929 219.15253
134.88397 62.588501 216.33319
135.42909 62.59185 216.39603
135.8685 62.34346 217.41942
136.31264 62.095009 218.44196
136.76151 61.846493 219.46359
137.11676 61.346298 221.4471
137.57755 61.097683 222.46712
138.13658 61.100609 222.52289
138.42224 60.34869 225.46779
139.07704 60.603058 224.55754
139.64066 60.605755 224.60941
140.28802 60.859924 223.69559
140.93047 61.113979 222.77991
141.56801 61.367931 221.86238
142.20064 61.621788 220.94301
142.67999 61.372517 221.95184
143.30765 61.626183 221.02927
143.7917 61.376778 222.03561
144.34746 61.378784 222.07536
144.77412 60.877762 224.0451
145.39668 61.131104 223.11642
145.83531 60.629959 225.08414
146.39807 60.63168 225.11862
146.96078 60.633312 225.15169
147.52344 60.634865 225.18335
148.08604 60.636349 225.21353
148.64861 60.637741 225.24232
149.21112 60.639065 225.26965
149.77359 60.640308 225.29555
150.41675 61.144291 223.38597
151.01227 61.39677 222.4417
151.5674 61.39777 222.46303
152.18874 61.901489 220.54832
152.73898 61.902321 220.5667
153.2326 61.400299 222.51863
153.81351 61.652386 221.5668
154.31915 61.150234 223.51625
154.83444 60.648014 225.46454
155.35936 60.145725 227.41162
155.92638 60.14613 227.42194
156.46574 59.6437 229.36639
157.04897 59.895325 228.40608
157.62735 60.14687 227.44429
158.19434 60.146961 227.44887
158.76131 60.146984 227.452
159.33005 60.398293 226.48584
159.8933 60.900909 224.55035
160.46227 60.146572 227.45287
161.02925 60.146282 227.4503
161.60416 59.894539 228.41414
162.19421 59.391338 230.34431
162.76848 59.390812 230.33736
163.3125 59.892975 228.3934
163.86443 60.143688 227.41588
164.45148 59.891556 228.37234
165.04338 59.639328 229.32733
165.68973 58.884216 232.21585
166.26897 58.883221 232.20003
166.84824 58.882137 232.18272
167.36348 59.383804 230.22926
167.90355 59.633995 229.24194
168.47569 59.632694 229.2205
169.00861 59.88274 228.23055
169.53673 60.132721 227.23935
170.14828 59.879761 228.18062
170.7182 59.878139 228.15352
171.23923 60.127907 227.15829
171.96088 59.371758 230.02789
172.48203 59.621361 229.02979
173.05457 59.619419 228.9967
173.62718 59.617393 228.96217
174.3829 58.860809 231.82396
174.83604 59.361603 229.85448
175.60881 58.604774 232.71222
176.25964 58.350861 233.6366
176.98605 57.84531 235.52435
177.42984 58.34581 233.54958
177.93954 58.594715 232.53893
178.44449 58.843559 231.52715
179.02505 58.840748 231.47879
179.77126 58.334682 233.3575
180.52722 57.828472 235.23386
181.03014 58.076969 234.21626
181.7984 57.570515 236.08849
182.2991 57.818855 235.06805
182.51042 58.822105 231.15709
183.189 58.567013 232.06113
183.97223 58.06012 233.92578
184.66312 57.804783 234.82547
185.35899 57.549309 235.72314
186.05983 57.29372 236.6187
186.43739 57.793251 234.6274
186.91724 58.040989 233.59694
187.27808 58.540455 231.60449
187.62936 59.03989 229.61169
188.20932 59.035656 229.53941
188.91096 58.779503 230.42569
189.6176 58.523216 231.30981
190.07645 58.770535 230.27281
191.17473 57.75835 234.03059
191.63629 58.005451 232.99014
192.36057 57.748634 233.86572
193.08983 57.491688 234.739
194.23981 56.478668 238.48331
194.98645 56.221359 239.35092
195.45129 56.467949 238.30208
196.20317 56.210384 239.16568
196.66353 56.456799 238.11433
196.96848 56.955231 236.10622
197.11072 57.705765 233.14252
197.8609 57.447807 233.99998
198.30009 57.694 232.94563
198.73462 57.940144 231.89049
199.32738 57.934017 231.78842
199.92035 57.927784 231.68474
200.51352 57.921455 231.57936
201.27715 57.66272 232.42497
202.21855 57.151516 234.22014
202.81972 57.144772 234.10852
203.95381 56.380802 236.84885
204.74278 56.121349 237.68323
205.35443 56.114155 237.56467
205.96634 56.106834 237.44443
206.95319 55.594437 239.22102
207.19087 56.09185 237.19876
207.61128 56.33672 236.12506
208.41644 56.076397 236.94617
209.22679 55.815884 237.76456
209.44348 56.31311 235.73988
210.66095 55.546993 238.44666
211.48441 55.285965 239.2571
212.10605 55.277485 239.11954
212.51857 55.521648 238.03561
213.98595 54.501755 241.67111
214.40152 54.745644 240.58298
215.46292 54.230858 242.32285
216.31522 53.968704 243.11627
216.95099 53.959328 242.9649
216.91446 54.708771 239.98828
217.77017 54.44622 240.77553
217.9437 54.94265 238.73994
218.57089 54.932922 238.58351
219.43253 54.66993 239.36392
220.06288 54.659912 239.20316
220.45453 54.903 238.10306
220.84158 55.146042 237.00237
221.71198 54.882454 237.77332
221.84831 55.378677 235.7347
222.72189 55.114815 236.50117
223.8522 54.597321 238.19852
224.48499 54.586479 238.02435
225.63092 54.068504 239.71375
226.78714 53.55024 241.39838
227.69231 53.285286 242.14687
228.07515 53.527412 241.03069
230.05136 52.247421 245.49335
230.17111 52.742966 243.4425
230.82393 52.731018 243.24947
230.9295 53.226639 241.19894
232.13068 52.706863 242.85713
231.94824 53.456367 239.87938
232.87637 53.190216 240.60577
233.80991 52.923874 241.32857
235.0351 52.403297 242.97156
235.69308 52.390656 242.76318
236.64276 52.123764 243.47499
237.30402 52.110909 243.26157
238.26196 51.843735 243.96669
238.92648 51.830681 243.7482
239.5914 51.817574 243.52756
240.25665 51.804413 243.30475
241.22864 51.536743 243.99709
241.27945 52.032425 241.93625
242.56602 51.510078 243.53893
242.60747 52.005882 241.47723
243.27199 51.992577 241.24443
243.61792 52.233955 240.09656
244.92348 51.711166 241.68436
245.26752 51.952576 240.53304
247.23927 50.919846 243.93231
247.58643 51.161255 242.77563
248.92343 50.637917 244.34364
249.60268 50.624435 244.09087
250.61876 50.355957 244.74231
251.64012 50.087448 245.38959
253.00839 49.563759 246.93726
253.69864 49.550362 246.67168
255.08249 49.026581 248.20898
256.12735 48.758026 248.83849
255.77036 49.510895 245.86136
256.1069 49.753418 244.68719
256.43842 49.996208 243.51279
257.1243 49.983795 243.23579
257.4483 50.227112 242.06006
259.58929 49.192886 245.36162
260.28271 49.181023 245.07491
261.34552 48.913773 245.67938
262.04123 48.902428 245.38725
263.48584 48.379929 246.87543
264.18622 48.369171 246.57684
266.02512 47.591331 248.94337
267.11462 47.325378 249.52524
267.82419 47.315666 249.21593
267.37183 48.074173 246.24716
267.6832 48.321449 245.05237
268.38123 48.313324 244.74135
66.67318 59.193619 209.53375
68.048851 59.706661 208.02861
68.639633 59.713577 208.28996
67.690231 58.708134 212.0994
68.291832 58.715939 212.36171
68.513657 58.470989 213.51184
67.985603 57.720253 216.44379
68.223053 57.476158 217.59676
69.210854 57.738449 216.96425
70.193748 58.000935 216.32774
71.539246 58.516529 214.79224
72.50975 58.779297 214.14667
73.475258 59.042179 213.49713
74.435753 59.305187 212.8436
75.033775 59.31551 213.08524
75.63179 59.326004 213.32492
75.87738 59.083969 214.46379
76.827621 59.347404 213.79852
77.078087 59.105713 214.93552
78.023056 59.369274 214.2644
78.962852 59.632843 213.58937
80.237198 60.148827 212.00449
80.489594 59.907516 213.13469
81.081551 59.918701 213.35696
81.008904 59.425335 215.39499
80.946106 58.93219 217.43481
80.893143 58.439266 219.47636
81.823952 58.703014 218.78479
81.783051 58.210358 220.82695
83.030449 58.726124 219.2171
84.267509 59.241699 217.6017
85.494247 59.757065 215.98083
86.398552 60.020302 215.27058
87.916718 60.787144 212.72287
89.112473 61.301849 211.08586
89.688759 61.312782 211.28082
90.566818 61.575401 210.55446
91.139992 61.586201 210.74484
91.415802 61.345318 211.85449
90.812614 60.349728 215.72971
90.521164 59.60598 218.6868
90.823502 59.365417 219.79977
91.130508 59.124878 220.91246
90.873016 58.38155 223.87502
92.322647 59.146545 221.28505
93.477386 59.659878 219.61523
94.344734 59.92168 218.86792
95.481377 60.434525 217.18909
96.607742 60.947113 215.50542
97.184555 60.957165 215.67628
98.028214 61.218216 214.91498
98.601898 61.228046 215.08153
98.913086 60.986763 216.17812
99.748322 61.247402 215.40933
100.32106 61.256939 215.57057
100.63873 61.015499 216.66397
101.21332 61.024872 216.8224
101.5378 60.783344 217.91434
102.11424 60.792553 218.06995
102.69037 60.801659 218.22382
103.26619 60.81065 218.37596
104.08163 61.070194 217.58847
105.12926 61.580158 215.85948
105.69679 61.588722 216.00455
106.26402 61.597179 216.14795
106.83098 61.605541 216.28963
107.39764 61.613781 216.42967
107.96404 61.621918 216.56802
108.7528 61.880341 215.76253
109.09599 61.637871 216.83975
109.44383 61.395367 217.9165
110.0116 61.403107 218.04881
110.36627 61.16048 219.12401
110.51524 60.667595 221.14369
111.2975 60.925297 220.32715
111.66368 60.68251 221.40016
112.23753 60.689804 221.52591
113.01167 60.947086 220.7028
113.97876 61.454273 218.92928
114.74017 61.711193 218.10033
115.49646 61.967949 217.26875
116.24762 62.224541 216.43457
116.61703 61.981068 217.49738
116.99113 61.737553 218.55959
117.73672 61.993771 217.71973
118.83919 62.749577 214.9749
119.0341 62.255898 216.98415
119.59077 62.26186 217.08942
120.14723 62.267723 217.19313
120.53229 62.02372 218.24835
120.75325 61.529926 220.25642
121.48278 61.785282 219.40292
122.20725 62.040485 218.54701
122.7652 62.045876 218.64349
123.48199 62.300816 217.78328
124.19373 62.555599 216.92075
124.74628 62.560658 217.01189
125.45038 62.815193 216.14513
126.44804 63.568703 213.36255
126.99036 63.573376 213.44769
127.53252 63.577969 213.53136
128.07454 63.582466 213.61357
128.33727 63.087921 215.61089
128.60956 62.593365 217.60817
129.16084 62.597664 217.68745
129.31516 61.853619 220.6432
130.13315 62.356602 218.80122
130.43158 61.861877 220.79642
130.98959 61.86586 220.87083
131.30232 61.371067 222.86499
131.98509 61.624249 221.9761
132.42741 61.378674 223.00763
133.22038 61.880947 221.15364
134.00352 62.38306 219.29704
134.88731 63.134304 216.47571
135.43236 63.1376 216.53848
135.76608 62.642334 218.52512
136.21257 62.396278 219.54845
136.66379 62.15015 220.57089
137.02141 61.654778 222.55585
137.48454 61.408539 223.57669
138.04593 61.41143 223.6326
138.42503 60.915913 225.6154
138.9024 60.669518 226.63326
139.55701 60.921326 225.72089
140.29054 61.422173 223.84174
140.93291 61.673759 222.92537
141.49135 61.676144 222.97241
142.20288 62.176647 221.0871
142.68217 61.929764 222.0965
143.23798 61.931896 222.13905
143.7244 61.684887 223.14615
144.3494 61.935932 222.21985
144.8405 61.68877 223.22449
145.46056 61.939644 222.295
145.89671 61.443314 224.26373
146.45697 61.444992 224.29805
147.01718 61.446594 224.33092
147.57735 61.448116 224.3624
148.08745 61.200554 225.35963
148.64993 61.201931 225.38837
149.16719 60.954227 226.38312
149.77478 61.204453 225.44153
150.37749 61.45459 224.49831
150.97534 61.704632 223.5535
151.53281 61.705616 223.57491
152.15648 62.204479 221.65901
152.67836 61.956326 222.64548
153.20503 61.708118 223.63066
153.78827 61.957767 222.67827
154.29626 61.460453 224.62901
154.79283 60.714104 227.54688
155.34114 60.465614 228.52696
155.89427 60.217045 229.50569
156.43839 59.71946 231.45148
157.03777 60.217613 229.52214
157.61848 60.46674 228.55972
158.18781 60.466831 228.56433
158.76128 60.715801 227.59898
159.32994 60.964695 226.63219
159.89377 61.213512 225.66397
160.46201 60.715397 227.59985
161.03441 60.466152 228.56578
161.60374 60.465794 228.56174
162.19373 59.967438 230.49319
162.75519 60.215885 229.51779
163.28159 60.962189 226.60423
163.84616 60.961525 226.59456
164.43073 60.711826 227.55171
164.99777 60.711014 227.53911
165.63919 59.963188 230.42966
166.21353 59.962219 230.41397
166.75829 60.21014 229.42883
167.33028 60.209011 229.41032
167.86786 60.456806 228.42247
168.4375 60.455536 228.40117
168.96793 60.70319 227.41071
169.49358 60.950771 226.41902
170.05853 60.94928 226.39359
170.67004 60.698681 227.33411
171.23752 60.697025 227.30566
171.95906 59.948162 230.17722
172.48013 60.195374 229.1785
172.99643 60.442528 228.17859
173.50797 60.689602 227.17755
174.25874 59.940334 230.04156
174.7704 60.187256 229.03761
175.47481 59.686836 230.9312
176.12071 59.435402 231.85658
176.91286 58.685646 234.71191
177.35416 59.181351 232.73613
177.93687 59.178749 232.69063
178.36383 59.674355 230.71295
178.94188 59.671604 230.66486
179.60278 59.419609 231.58018
180.35382 58.918312 233.4583
180.85181 59.164471 232.44058
181.61511 58.662945 234.31456
182.20334 58.659721 234.25807
182.50708 59.404091 231.30872
183.18553 59.151493 232.21342
183.96866 58.649498 234.07945
184.65945 58.396637 234.97987
185.35521 58.143658 235.87823
186.05594 57.890556 236.77451
