ply
format ascii 1.0
comment PCL generated
element vertex 1598
property float x
property float y
property float z
element camera 0
property float view_px
property float view_py
property float view_pz
property float x_axisx
property float x_axisy
property float x_axisz
property float y_axisx
property float y_axisy
property float y_axisz
property float z_axisx
property float z_axisy
property float z_axisz
property float focal
property float scalex
property float scaley
property float centerx
property float centery
property int viewportx
property int viewporty
property float k1
property float k2
end_header
176.72264 118.65736 194.25827
177.10222 118.66041 193.2207
177.75276 118.65482 195.16972
178.31868 118.65212 196.12115
178.69604 118.6552 195.08037
179.46513 118.64674 198.01917
179.94417 118.64695 197.97086
180.52719 118.64428 198.91599
180.90242 118.64737 197.87071
181.38167 118.64759 197.81888
181.63866 118.65356 195.77824
182.11325 118.65379 195.72459
182.58791 118.65401 195.66975
183.06264 118.65425 195.61374
183.77907 118.64875 197.5419
184.382 118.64613 198.4753
184.86424 118.64639 198.41483
185.34657 118.64664 198.35316
185.95943 118.64405 199.28174
186.31151 118.64719 198.2262
186.79411 118.64746 198.1609
187.27684 118.64774 198.09442
187.89977 118.64517 199.01685
188.3851 118.64546 198.94756
188.87056 118.64577 198.87704
189.50346 118.64321 199.79439
189.84181 118.64638 198.73238
190.32761 118.6467 198.65817
190.65892 118.64986 197.59476
191.14255 118.65019 197.51851
191.62631 118.65053 197.44098
192.27203 118.64802 198.34903
192.75845 118.64836 198.26865
193.41171 118.64587 199.173
194.23907 118.64054 201.06088
194.90471 118.63807 201.96065
195.57535 118.63561 202.85829
196.0746 118.63599 202.76947
196.57401 118.63638 202.67935
196.89233 118.6396 201.60448
197.57329 118.63718 202.49518
197.8871 118.64041 201.41864
198.57324 118.63799 202.30582
199.45534 118.63277 204.17233
200.15396 118.63037 205.05452
200.85764 118.62799 205.93443
201.56635 118.62563 206.81198
202.28012 118.62326 207.68723
203.20203 118.6181 209.53922
204.33942 118.61015 212.36647
205.07568 118.60783 213.23299
206.02744 118.60271 215.07462
206.77631 118.60042 215.93567
207.53027 118.59814 216.79416
208.72478 118.59026 219.60213
209.714 118.58521 221.42989
210.71323 118.58018 223.25394
211.94751 118.57238 226.04857
212.74173 118.57017 226.8907
214.2309 118.55962 230.64977
215.50751 118.55188 233.42996
216.79907 118.54416 236.20502
218.8174 118.52814 241.88921
220.8654 118.51215 247.56451
221.49017 118.51284 247.40944
222.11526 118.51354 247.25258
221.9995 118.52256 244.18697
221.61983 118.53433 240.155
221.22084 118.54609 236.12634
222.07469 118.54404 236.93655
222.93378 118.54201 237.74373
224.0575 118.53723 239.51367
225.19138 118.53248 241.27917
225.54269 118.53599 240.1469
226.15616 118.53676 239.97797
227.03922 118.53481 240.77031
227.92757 118.53286 241.55948
228.54712 118.53367 241.38374
229.44366 118.53175 242.16714
230.34555 118.52985 242.9473
231.25279 118.52798 243.72412
232.16541 118.52612 244.49762
232.22388 118.53242 242.39351
233.42879 118.52787 244.11981
233.76968 118.53148 242.97147
234.10606 118.53509 241.82271
234.43793 118.5387 240.67355
235.36307 118.53693 241.43257
235.38947 118.54325 239.32761
236.31802 118.5415 240.08195
236.63927 118.54514 238.92896
237.57373 118.54342 239.6778
238.51367 118.54172 240.42308
239.77295 118.53736 242.11417
240.72632 118.53571 242.85129
241.68521 118.53407 243.5847
242.64963 118.53246 244.31441
244.26727 118.52554 246.9325
244.92137 118.52663 246.70764
244.91824 118.53304 244.5919
245.237 118.53681 243.42101
245.88518 118.53793 243.1924
246.19746 118.54171 242.01991
246.50526 118.54549 240.84711
247.49146 118.54402 241.55377
248.13925 118.5452 241.31746
249.48059 118.54115 242.95506
250.48355 118.53976 243.64964
251.84366 118.53577 245.27629
253.21442 118.53182 246.89687
254.59589 118.52791 248.51135
255.62889 118.52663 249.18636
255.58255 118.53316 247.06018
256.255 118.53451 246.79826
256.56128 118.53845 245.60368
257.23236 118.53983 245.33809
257.5321 118.54381 244.14185
258.20169 118.54522 243.87259
258.87183 118.54665 243.60095
259.92197 118.54554 244.25218
260.5957 118.54702 243.97475
260.11618 118.55614 240.92566
260.78326 118.55764 240.64667
261.45084 118.55916 240.36531
70.737083 119.19577 209.91066
71.31839 119.19429 210.15619
72.284569 119.19295 209.47685
72.479805 119.19138 210.64108
73.059906 119.18995 210.88043
73.261948 119.1884 212.04372
74.593903 119.18729 210.42609
75.170166 119.18592 210.65834
75.745972 119.18457 210.88861
77.056313 119.18356 209.25679
78.721016 119.18275 206.68797
78.92041 119.1813 207.83932
79.844185 119.18022 207.12474
80.762459 119.17917 206.40628
81.320396 119.17795 206.6189
81.525574 119.17654 207.7655
81.385551 119.17494 209.84892
81.255135 119.17334 211.93423
81.479103 119.17194 213.08269
82.049889 119.17076 213.29144
82.620209 119.1696 213.49834
83.864532 119.1689 211.82045
84.763641 119.16801 211.07947
85.989494 119.16738 209.39166
86.875206 119.16653 208.64256
87.428261 119.16547 208.83488
87.980881 119.16442 209.02541
89.177483 119.16389 207.32083
89.724258 119.16288 207.50613
89.636192 119.16135 209.5864
89.872414 119.16008 210.71906
90.737663 119.15936 209.9516
91.597527 119.15867 209.18076
91.837494 119.15742 210.30988
92.691566 119.15676 209.53403
92.935738 119.15553 210.66129
93.184456 119.15431 211.78847
93.735092 119.1534 211.96072
93.990494 119.15218 213.08684
94.542847 119.15128 213.25647
94.225151 119.14946 216.29564
95.93383 119.14983 212.63295
96.767548 119.14929 211.8383
97.313492 119.14844 211.99982
97.859093 119.14761 212.15971
99.514496 119.1481 208.47513
99.499397 119.14663 210.5518
100.03905 119.14583 210.70546
100.57835 119.14504 210.85754
101.38506 119.14461 210.04449
101.92128 119.14384 210.19273
101.93167 119.14239 212.26913
102.21188 119.14127 213.38113
103.27027 119.14125 211.59433
104.06314 119.14088 210.77022
104.59786 119.14017 210.91075
105.13231 119.13946 211.04976
105.91452 119.13914 210.21849
106.44595 119.13845 210.35385
106.73399 119.13739 211.45769
107.02664 119.13634 212.56126
107.80043 119.13606 211.72217
108.33327 119.13541 211.85216
108.39912 119.13398 213.92548
108.4745 119.13255 215.99962
109.01636 119.13191 216.12752
109.55798 119.13129 216.25391
110.09935 119.13066 216.37885
110.6405 119.13005 216.50227
111.18141 119.12945 216.62425
111.72212 119.12885 216.74472
112.2626 119.12827 216.86374
113.43714 119.12893 214.04913
113.76089 119.12794 215.14162
114.50244 119.12782 214.27681
115.23891 119.12769 213.40959
115.97034 119.12758 212.5399
116.49744 119.12705 212.64775
117.41805 119.12739 210.79337
117.55108 119.12602 212.85931
117.11766 119.12334 217.87
117.08747 119.12151 220.92023
116.51022 119.11837 226.91887
116.33133 119.11609 230.95599
117.2654 119.11646 229.09583
119.08898 119.11909 222.31393
120.52357 119.12085 217.49268
122.10883 119.12309 211.68111
123.66489 119.12537 205.86299
124.51101 119.12585 203.98018
125.51508 119.12682 201.10855
126.17381 119.12688 200.20564
126.66464 119.12649 200.28731
126.99483 119.12564 201.35475
127.80402 119.12619 199.45949
128.44774 119.12629 198.54921
128.93326 119.12593 198.62512
129.41866 119.12557 198.6998
130.4977 119.12711 194.81754
131.41129 119.1282 191.92049
131.73586 119.1274 192.97865
132.34755 119.12756 192.05637
132.67674 119.12676 193.11285
132.8743 119.1255 195.1595
133.08141 119.12423 197.20627
133.56117 119.12392 197.27052
134.29913 119.1246 195.35033
135.15408 119.12576 192.43576
135.99451 119.12695 189.51819
136.69847 119.12766 187.59018
137.39273 119.12838 185.65988
137.726 119.12764 186.70667
138.17868 119.12739 186.75948
138.51903 119.12666 187.80486
138.974 119.12642 187.85571
139.32143 119.12569 188.89963
139.56854 119.12447 190.93742
140.03053 119.12424 190.98567
140.69296 119.12502 189.04286
141.24786 119.12531 188.09314
141.89333 119.12611 186.14642
142.43608 119.12642 185.19331
143.15524 119.12774 182.2469
143.50702 119.12705 183.28252
143.94939 119.12687 183.32117
144.39169 119.12669 183.35872
144.91498 119.12704 182.39848
145.3548 119.12688 182.4337
145.79459 119.12672 182.46786
146.16052 119.12605 183.4982
146.67403 119.12642 182.53293
147.11369 119.12627 182.56387
147.48672 119.12563 183.59152
147.86453 119.12498 184.61842
148.3707 119.12536 183.64838
148.87201 119.12575 182.67699
149.3685 119.12615 181.70422
149.6964 119.12501 183.72565
150.19043 119.12541 182.75064
150.53029 119.12428 184.7706
150.92711 119.12366 185.79108
151.37369 119.12356 185.81172
151.86282 119.12399 184.8322
152.30695 119.12391 184.8506
152.78885 119.12434 183.86865
153.23055 119.12428 183.88481
153.7052 119.12473 182.90045
154.17505 119.12518 181.91489
154.64008 119.12564 180.92812
155.07451 119.12559 180.93985
155.50894 119.12554 180.95052
155.92239 119.12497 181.95995
156.35921 119.12493 181.96857
156.79601 119.1249 181.97615
157.20526 119.12383 183.98251
157.64685 119.12379 183.98807
158.08844 119.12378 183.99257
158.52347 119.12324 184.99599
158.96327 119.1227 185.99835
159.40967 119.1227 185.99969
159.85606 119.1227 185.99994
160.29944 119.12322 184.99915
160.74344 119.12323 184.99727
161.1718 119.12429 182.99437
161.62125 119.12379 183.99037
162.06287 119.12381 183.98532
162.51953 119.12331 184.9791
162.981 119.12283 185.97173
163.4671 119.12182 187.96303
163.91838 119.12186 187.95354
164.34505 119.12243 186.94327
164.79395 119.12248 186.93167
165.27231 119.12202 187.91855
165.65999 119.12312 185.90575
166.10655 119.12319 185.89098
166.55313 119.12326 185.87514
167.0778 119.1223 187.85672
167.52924 119.12238 187.83855
167.9807 119.12247 187.81927
168.47842 119.12205 188.79785
168.98099 119.12163 189.77512
169.43733 119.12173 189.75237
169.94716 119.12132 190.72705
170.51767 119.12041 192.69882
171.03957 119.12001 193.67062
171.50568 119.12014 193.64287
172.03487 119.11976 194.612
172.43799 119.12041 193.58397
172.83636 119.12107 192.55511
173.30023 119.12122 192.52303
173.76413 119.12137 192.48976
174.22809 119.12153 192.45541
174.76956 119.12118 193.41692
175.23602 119.12135 193.38011
175.62025 119.12203 192.34555
176.1691 119.1217 193.30307
176.72282 119.12138 194.25905
177.1024 119.12209 193.22148
177.66104 119.12177 194.17473
178.22456 119.12148 195.12642
178.69624 119.12169 195.08115
179.26711 119.1214 196.0298
179.84285 119.12112 196.97682
180.31953 119.12135 196.9276
180.7963 119.12159 196.87717
181.49065 119.12083 198.81372
181.75006 119.12207 196.77283
182.22705 119.12232 196.71889
182.8201 119.12209 197.65703
183.29967 119.12235 197.60043
183.77931 119.12262 197.54265
184.38226 119.12241 198.47607
184.8645 119.1227 198.4156
185.34683 119.12299 198.35393
185.82925 119.12328 198.29105
186.17892 119.12406 197.23584
186.52386 119.12485 196.18007
187.13943 119.12468 197.10469
187.61986 119.12499 197.03731
188.24289 119.12485 197.95851
188.72594 119.12518 197.88837
189.65112 119.12409 200.78426
189.99188 119.12492 199.72183
190.63229 119.1248 200.63562
191.12305 119.12516 200.55946
191.61394 119.12553 200.48204
191.94551 119.12637 199.41615
192.75793 119.12582 201.31023
193.08736 119.12667 200.24222
193.74547 119.12661 201.14578
194.40855 119.12656 202.04724
194.90509 119.12697 201.96141
195.40178 119.12738 201.87431
195.89861 119.12781 201.7859
196.3956 119.12824 201.6962
196.7115 119.12912 200.62177
197.5737 119.12868 202.49593
198.07359 119.12914 202.40189
198.76216 119.12916 203.2886
199.64671 119.12875 205.15471
200.34778 119.1288 206.03639
201.05389 119.12886 206.91583
201.76503 119.12894 207.79289
202.48123 119.12902 208.66762
203.40561 119.12869 210.51913
204.3399 119.12838 212.36725
205.07617 119.12851 213.23373
205.60713 119.12907 213.12013
206.77682 119.12839 215.93639
207.74608 119.12815 217.77144
208.72533 119.12793 219.60291
209.71455 119.12772 221.43066
210.93639 119.12714 224.22963
211.94809 119.12698 226.04936
212.74232 119.12723 226.89149
214.23149 119.12632 230.65053
215.27576 119.12622 232.45811
216.79971 119.12537 236.20581
218.81804 119.12377 241.88998
220.86609 119.12222 247.56535
221.24869 119.12338 246.44
222.11595 119.12379 247.25337
222.24725 119.12535 245.15675
221.87003 119.12764 241.12413
221.72548 119.12955 238.06258
222.58424 119.12999 238.87149
222.93451 119.13117 237.74451
224.31757 119.13092 240.48022
225.19212 119.13142 241.27994
225.54344 119.13263 240.14767
226.42365 119.13316 240.94247
227.30917 119.1337 241.73415
227.92834 119.1346 241.56023
228.54791 119.13551 241.38448
229.72107 119.13577 243.12886
230.34636 119.13671 242.94801
231.25362 119.13734 243.72484
232.16623 119.13799 244.49832
232.51123 119.1393 243.35231
233.42964 119.13998 244.12051
233.77055 119.1413 242.97217
234.10693 119.14264 241.82339
234.14236 119.14427 239.71918
234.76614 119.14531 239.52469
235.08896 119.14665 238.37476
235.71115 119.14771 238.17722
236.64017 119.1485 238.92961
237.88353 119.14903 240.62956
238.82597 119.14986 241.37401
239.7739 119.15073 242.11479
241.36002 119.15108 244.74919
242.32391 119.15199 245.48096
242.65062 119.15345 244.31502
243.94443 119.15415 245.98701
244.92239 119.15514 246.70825
244.91928 119.15688 244.59248
245.23805 119.15839 243.42162
245.55234 119.15989 242.25037
245.86212 119.1614 241.0788
246.50633 119.1627 240.84767
247.49254 119.16379 241.55431
248.48433 119.16491 242.25697
249.82819 119.16585 243.89366
250.83369 119.16703 244.58728
251.8448 119.16824 245.27679
252.86151 119.16947 245.96214
253.88387 119.17074 246.64334
254.91183 119.17204 247.32027
255.22208 119.17371 246.12836
255.52782 119.1754 244.9361
256.56256 119.17676 245.60416
256.86432 119.17847 244.40923
256.78967 119.18034 242.28569
257.82858 119.18177 242.94572
258.11926 119.18351 241.7489
259.16431 119.185 242.40216
260.21497 119.18651 243.05098
259.73291 119.18854 240.00294
260.78461 119.19009 240.64703
261.84186 119.19169 241.28656
71.126122 119.74566 208.98878
71.70491 119.74403 209.23322
72.668541 119.74012 208.55287
72.861259 119.74083 209.716
73.438812 119.73927 209.95436
74.015953 119.73771 210.19067
75.717949 119.72935 207.64401
75.914047 119.73013 208.80122
76.484802 119.72864 209.02946
77.4226 119.72492 208.32568
78.719849 119.71898 206.6869
78.556816 119.72205 208.77031
79.84304 119.71617 207.1237
80.761345 119.71256 206.40524
81.319283 119.7112 206.61789
81.524475 119.71208 207.7645
81.38443 119.71517 209.84796
81.254028 119.71825 211.93326
81.478004 119.71913 213.0817
82.048798 119.71783 213.2905
82.619133 119.71653 213.49738
83.863464 119.71088 211.81953
85.097328 119.70528 210.13623
85.988487 119.70189 209.39075
86.874199 119.69852 208.64166
87.754471 119.69518 207.88904
88.629311 119.69186 207.13292
89.176521 119.6907 207.31998
89.723305 119.68958 207.50529
89.318031 119.69488 210.53389
89.556755 119.69589 211.66737
90.112267 119.69479 211.85078
90.977112 119.69157 211.0816
91.222069 119.69261 212.21233
92.081139 119.68942 211.43806
92.632553 119.68838 211.61372
92.583961 119.69155 213.69569
92.842239 119.69262 214.82428
93.694778 119.6895 214.04161
94.541977 119.6864 213.25572
93.934395 119.69376 217.25192
95.645584 119.68443 213.59
96.481781 119.68139 212.7961
97.030212 119.68044 212.95837
97.298279 119.68158 214.07898
98.958626 119.67239 210.39586
99.498611 119.67149 210.55112
100.03828 119.6706 210.70476
100.84776 119.66767 209.89401
101.38431 119.66681 210.04382
101.92054 119.66596 210.19208
101.66817 119.67125 213.23332
101.95084 119.67245 214.34599
103.0117 119.66755 212.55988
103.80704 119.6647 211.73639
104.34422 119.66391 211.87758
105.13162 119.66109 211.04912
105.91384 119.6583 210.21786
106.69089 119.65553 209.38387
106.49017 119.66082 212.42706
107.02599 119.66007 212.56067
107.79979 119.65733 211.72156
108.09682 119.65861 212.82336
108.16512 119.6619 214.89726
108.47385 119.66318 215.99905
109.01573 119.66247 216.12694
109.55736 119.66177 216.25334
109.87514 119.66307 217.35294
110.63989 119.66041 216.50171
111.39956 119.65776 215.64789
111.93783 119.6571 215.76784
112.47588 119.65646 215.88635
113.43657 119.65188 214.0486
113.96933 119.65126 214.16318
114.50189 119.65064 214.27628
115.03424 119.65004 214.388
115.56639 119.64944 214.49826
116.49692 119.64494 212.64726
116.82698 119.64633 213.73416
117.16173 119.64771 214.82065
116.92516 119.65496 218.85088
116.89738 119.66024 221.9016
116.32256 119.67136 227.9007
116.14609 119.67856 231.93828
117.26489 119.67217 229.09531
118.54887 119.66386 225.2645
119.99075 119.65366 220.44458
121.93336 119.63767 212.66519
123.49185 119.6256 206.84755
124.51059 119.61935 203.97974
125.34691 119.61504 202.09395
126.00806 119.61267 201.19145
126.66425 119.61032 200.28688
127.15495 119.6099 200.36732
127.80364 119.60757 199.45905
128.44737 119.60525 198.54878
128.93289 119.60485 198.62471
129.4183 119.60446 198.69939
130.34891 119.59835 195.80609
131.26494 119.59225 192.90938
131.73553 119.5919 192.97827
132.34723 119.58965 192.05598
132.81522 119.5893 192.12216
132.87399 119.59467 195.1591
133.0811 119.59814 197.20589
133.56087 119.59781 197.27016
134.29883 119.5937 195.34996
134.90033 119.59148 194.41927
135.8699 119.5836 190.51007
136.45438 119.58142 189.57492
137.15346 119.57735 187.64519
137.37445 119.58086 189.68565
137.94907 119.57869 188.74593
138.29422 119.58031 189.79185
138.86388 119.57817 188.84932
139.3212 119.57791 188.89929
139.67337 119.57955 189.94263
140.23563 119.57742 188.9959
140.89323 119.57343 187.05261
141.24765 119.57508 188.0928
141.79768 119.57298 187.14153
142.43588 119.56901 185.19301
142.97379 119.56693 184.23837
143.41861 119.56673 184.27829
143.9492 119.56466 183.32085
144.39153 119.56447 183.3584
144.91481 119.56242 182.39818
145.35464 119.56224 182.43338
145.79442 119.56207 182.46753
146.16037 119.56377 183.49788
146.67387 119.56174 182.53262
147.04456 119.56345 183.56117
147.35339 119.56704 185.58678
147.8002 119.56689 185.61606
148.30878 119.56489 184.64616
148.8125 119.56289 183.67491
149.3114 119.5609 182.70229
149.69629 119.56264 183.72534
150.13814 119.56252 183.74898
150.53018 119.56427 184.77029
150.927 119.56602 185.79077
151.3736 119.56592 185.8114
151.9053 119.5621 183.83279
152.34705 119.56201 183.8511
152.78877 119.56193 183.86833
153.19508 119.56371 184.88388
153.67215 119.56178 183.8996
154.17499 119.55799 181.91458
154.61183 119.55793 181.92744
155.04869 119.55787 181.93921
155.5089 119.55596 180.95023
155.90137 119.55962 182.95941
156.34059 119.55959 182.96812
156.7798 119.55955 182.97574
157.20523 119.56137 183.98224
157.63545 119.5632 184.98772
158.07945 119.56318 184.99223
158.51688 119.56502 185.99565
158.95909 119.56686 186.99806
159.4079 119.56686 186.9994
159.85606 119.565 185.99965
160.29642 119.56129 183.99884
160.73804 119.5613 183.99698
161.17181 119.55946 182.99409
161.62126 119.56134 183.99007
162.07552 119.56322 184.98494
162.54961 119.56696 186.97858
163.01588 119.56886 187.97113
163.48697 119.57076 188.96254
163.94066 119.5708 188.95299
164.39435 119.57085 188.94237
164.82103 119.56906 187.931
165.27237 119.56912 187.91826
165.72371 119.56919 187.90442
166.17508 119.56927 187.88951
166.6631 119.57121 188.87283
167.15594 119.57315 189.85489
167.6122 119.57324 189.83652
168.02463 119.57148 188.81802
168.47853 119.57159 188.79755
168.93245 119.57169 188.776
169.43744 119.57367 189.75204
169.89383 119.57379 189.72816
170.51779 119.57951 192.6985
171.0397 119.5815 193.67032
171.56645 119.5835 194.6407
171.97195 119.58179 193.61366
172.43814 119.58194 193.58363
172.83652 119.58023 192.55479
173.30038 119.58039 192.52271
173.69164 119.57869 191.49211
174.22826 119.58073 192.45509
174.84721 119.58465 194.41357
175.31609 119.58484 194.37657
175.70273 119.58316 193.34181
176.25398 119.58523 194.29913
176.8101 119.58731 195.2549
177.19211 119.58565 194.21713
177.75316 119.58774 195.17017
178.31909 119.58984 196.12161
178.69646 119.5882 195.08081
179.26733 119.59031 196.02945
179.74155 119.59055 195.98164
180.21584 119.59081 195.93263
180.79654 119.59294 196.87682
181.59966 119.59886 199.80743
181.86148 119.59536 197.76627
182.22731 119.59375 196.71854
182.82037 119.59592 197.65666
183.18155 119.59432 196.60712
183.53799 119.59273 195.55693
184.13612 119.59492 196.49094
184.61356 119.59523 196.43108
185.09106 119.59554 196.37
185.56868 119.59586 196.30777
185.91351 119.59429 195.25319
186.3889 119.59462 195.18889
186.8644 119.59496 195.12337
187.33998 119.59531 195.05667
187.95819 119.59756 195.97855
188.58134 119.59984 196.89854
189.35678 119.60403 198.80566
189.84248 119.60441 198.73273
190.48047 119.60671 199.64688
190.96881 119.60711 199.57106
191.45729 119.60751 199.49402
191.78645 119.606 198.42853
192.59648 119.61026 200.323
193.08775 119.61069 200.24179
193.57918 119.61112 200.15935
194.57809 119.61735 203.03241
194.90552 119.61588 201.96097
195.05428 119.61247 199.90436
195.72266 119.61487 200.80113
196.39603 119.61728 201.69576
196.71194 119.61583 200.62134
197.75781 119.62215 203.47847
198.44623 119.6246 204.3665
199.13968 119.62706 205.25229
200.02908 119.63148 207.1174
200.73502 119.63397 207.99815
201.25018 119.63452 207.89597
202.16202 119.639 209.75272
202.88309 119.64153 210.62643
203.40613 119.64211 210.51862
204.54597 119.64861 213.34534
204.86876 119.64725 212.25507
205.6077 119.64983 213.11961
206.7774 119.65639 215.93587
207.74667 119.66099 217.77089
208.72592 119.6656 219.60234
209.71516 119.67025 221.43007
210.71442 119.67491 223.25412
211.94873 119.68159 226.04875
212.74298 119.68431 226.89085
214.00224 119.69104 229.67671
215.50882 119.6998 233.43008
216.80042 119.70659 236.20514
219.05605 119.72144 242.86076
220.86685 119.73232 247.56464
221.24947 119.73118 246.4393
222.36136 119.73609 248.22227
222.49512 119.73295 246.12505
221.62131 119.72171 240.15508
221.97826 119.72057 239.02962
223.09392 119.72554 240.80495
223.44908 119.72443 239.67664
224.57773 119.72943 241.44522
225.19296 119.73038 241.27921
225.54428 119.72929 240.1469
226.42451 119.73232 240.94173
227.57925 119.73741 242.69647
227.92923 119.73636 241.55945
228.5488 119.73738 241.38368
229.72198 119.74254 243.12807
230.34727 119.74359 242.94717
230.97299 119.74466 242.76447
231.88315 119.74782 243.53867
232.22568 119.74683 242.39337
233.14163 119.75003 243.16232
233.48007 119.74907 242.01472
233.52002 119.74602 239.91087
233.84694 119.74506 238.76326
234.46822 119.74622 238.56952
235.08997 119.74738 238.37386
235.40828 119.74645 237.22359
236.33484 119.74976 237.97681
237.88458 119.75735 240.62863
238.51569 119.75859 240.42278
239.46112 119.76199 241.16437
241.04477 119.76968 243.79959
241.68732 119.771 243.58435
242.33038 119.77232 243.36707
243.29785 119.77583 244.0938
244.27081 119.77936 244.81671
244.2627 119.77642 242.7027
244.90784 119.77782 242.47707
245.21962 119.77705 241.3067
245.86331 119.77848 241.07771
246.16861 119.77774 239.90579
247.15231 119.78139 240.61334
247.79764 119.78288 240.37791
249.13647 119.78878 242.01642
250.13695 119.79253 242.71191
251.14302 119.7963 243.40329
252.15469 119.8001 244.09055
253.17198 119.80393 244.77359
253.83577 119.80556 244.51921
254.13843 119.80498 243.33022
254.80078 119.80664 243.07224
255.83041 119.81059 243.74223
256.86572 119.81456 244.40793
256.79111 119.81177 242.28439
257.45563 119.81351 242.01717
258.1207 119.81528 241.74756
258.4068 119.81479 240.55043
259.07034 119.8166 240.27719
259.34982 119.81612 239.07852
260.39896 119.82027 239.72362
261.064 119.82214 239.44328
70.734291 120.3002 209.90666
71.315613 120.29842 210.15224
72.667114 120.28721 208.55016
73.242554 120.28548 208.78951
74.577965 120.27435 207.177
75.147476 120.27267 207.41022
76.466782 120.26163 205.78749
76.657814 120.26469 206.94266
76.853477 120.26775 208.09789
77.053772 120.27081 209.25317
78.353584 120.2599 207.61542
78.193085 120.26765 209.69978
79.481857 120.25679 208.05421
81.117447 120.24134 205.46886
82.027733 120.23522 204.74564
82.227882 120.23839 205.89034
82.082809 120.24619 207.97189
81.947372 120.25397 210.05531
82.166313 120.25714 211.20192
82.389839 120.26031 212.34846
82.957672 120.25889 212.55444
83.862289 120.2529 211.81715
84.761444 120.24693 211.07619
85.655121 120.241 210.33162
86.213654 120.23966 210.5275
87.098938 120.23378 209.77667
88.303513 120.22337 208.07648
88.853233 120.2221 208.26439
89.402527 120.22085 208.45056
89.634186 120.22415 209.58331
89.870415 120.22746 210.71597
90.735695 120.22172 209.94856
91.285828 120.22052 210.12859
91.835564 120.21934 210.3069
92.384895 120.21817 210.48349
92.631554 120.22153 211.61156
92.58297 120.2294 213.6935
93.13858 120.22826 213.86732
93.988663 120.22265 213.08391
94.541023 120.22154 213.25359
94.223335 120.23391 216.29269
95.644638 120.21938 213.58789
96.480865 120.21384 212.79401
97.311775 120.20832 211.99702
97.857391 120.2073 212.15695
99.512833 120.18844 208.47244
100.0479 120.18745 208.62625
100.58264 120.18649 208.77853
100.84691 120.18998 209.89201
101.11578 120.19348 211.00534
102.18494 120.18366 209.22594
102.19288 120.19162 211.30164
102.21034 120.19957 213.37848
103.01089 120.19423 212.55791
104.31705 120.18006 209.8008
104.84935 120.17919 209.94069
105.63185 120.17392 209.11098
106.16115 120.17308 209.24721
107.18135 120.16343 207.44324
106.97574 120.17583 210.4852
107.50667 120.17503 210.61757
108.03733 120.17422 210.74847
108.56773 120.17343 210.87791
108.39777 120.18583 213.92299
108.70409 120.18944 215.02419
109.01503 120.19305 216.12503
109.55666 120.19228 216.25145
110.09807 120.19153 216.37639
110.86041 120.18642 215.52458
111.83638 120.17695 213.69447
112.15347 120.1806 214.78969
112.90297 120.17554 213.93079
113.85881 120.16613 212.09203
114.38672 120.16546 212.20554
114.91441 120.16479 212.31764
115.44192 120.16414 212.42831
116.17093 120.15915 211.55817
116.8949 120.15417 210.68559
117.22012 120.15789 211.77151
116.96674 120.17464 215.79974
116.5406 120.19571 220.8118
116.13853 120.21676 225.82718
115.5734 120.24212 231.82808
115.77606 120.25015 233.90193
116.89974 120.23655 231.05991
118.36845 120.21432 226.24637
119.99023 120.18782 220.44279
121.58279 120.16135 214.63257
122.97354 120.13924 209.80081
124.16975 120.12148 205.9489
125.51424 120.09943 201.10649
126.17297 120.09464 200.20363
126.98969 120.08556 198.31206
127.63609 120.0808 197.40465
128.27754 120.07606 196.49524
128.75835 120.07563 196.57162
129.23904 120.0752 196.64679
129.56877 120.07908 197.70927
130.34853 120.07008 195.80455
131.26457 120.05681 192.90788
131.73517 120.05642 192.97676
132.34688 120.05176 192.05447
132.81488 120.05138 192.12067
132.87364 120.06387 195.15758
133.21472 120.06779 196.21338
133.69209 120.06744 196.27731
134.42766 120.05853 194.35684
134.90002 120.05819 194.41777
135.8696 120.04076 190.50861
136.69791 120.02763 187.58841
137.15317 120.02732 187.64377
137.49127 120.03129 188.69112
137.94879 120.031 188.74449
138.29396 120.03497 189.79041
138.75374 120.03469 189.84183
139.21347 120.03442 189.89206
139.463 120.04267 191.93011
140.03006 120.03815 190.9839
140.59225 120.03363 190.03604
141.05173 120.03338 190.0818
141.60658 120.02888 189.13098
142.2496 120.02013 187.18291
142.88295 120.0114 185.23288
143.24196 120.01543 186.26912
143.77736 120.01097 185.31209
144.2245 120.01077 185.35007
144.75259 120.00631 184.39023
145.27585 120.00187 183.42894
145.71805 120.00169 183.46327
146.01259 120.01 185.49106
146.45952 120.00983 185.52359
146.9064 120.00966 185.55505
147.28665 120.01374 186.58318
147.73587 120.01358 186.61263
148.30862 120.00494 184.64482
148.75298 120.0048 184.67178
149.25427 120.00042 183.69933
149.58699 120.00877 185.72099
150.03365 120.00864 185.7449
150.43051 120.01276 186.76645
150.87952 120.01264 186.78828
151.32851 120.01254 186.80905
151.86263 120.00395 184.83057
152.34695 119.99962 183.84976
152.78868 119.99953 183.867
153.15964 120.00792 185.8819
153.67209 119.99937 183.89825
154.14433 119.99506 182.91278
154.55542 119.99922 183.92531
155.02286 119.99493 182.93755
155.48547 119.99064 181.94864
155.88034 119.99905 183.95787
156.30339 120.00324 184.96643
156.74741 120.0032 184.97414
157.19142 120.00317 184.98079
157.62405 120.00737 185.9863
158.07047 120.00735 185.99084
158.51028 120.01157 186.99429
158.95909 120.01156 186.9967
159.40788 120.01155 186.99803
159.85669 120.01155 186.99829
160.29945 120.00309 184.99751
160.73804 119.99887 183.99565
161.17966 119.99889 183.99272
161.63152 120.00314 184.98869
162.07555 120.00317 184.9836
162.54965 120.01167 186.97722
163.03336 120.02019 188.9696
163.50685 120.02447 189.96097
163.9407 120.02029 188.95161
164.41904 120.02458 189.94067
164.90218 120.02888 190.92851
165.36072 120.02895 190.91556
165.78745 120.0248 189.90202
166.24362 120.02487 189.88695
166.69983 120.02496 189.87079
167.15604 120.02506 189.8535
167.61229 120.02516 189.83514
168.02473 120.02103 188.81662
168.47864 120.02114 188.79617
168.93256 120.02126 188.7746
169.43756 120.02563 189.75064
169.9474 120.03 190.72533
170.51793 120.03862 192.69707
171.03984 120.04301 193.66888
171.50595 120.04316 193.64113
171.84601 120.03483 191.61623
172.24193 120.03075 190.58868
172.70096 120.03091 190.55801
173.16003 120.03109 190.52621
173.61914 120.03127 190.49335
174.22844 120.03996 192.45366
174.76993 120.0444 193.41516
175.2364 120.0446 193.37834
175.70293 120.04481 193.34039
176.2542 120.04928 194.2977
176.72322 120.0495 194.25725
177.19232 120.04973 194.21567
177.66148 120.04996 194.17294
178.22501 120.05447 195.12459
178.59998 120.05046 194.08401
179.16846 120.05498 195.03293
179.64027 120.05524 194.98535
180.11215 120.05551 194.9366
180.69046 120.06005 195.881
181.49118 120.07314 198.81186
181.7506 120.0649 196.771
182.2276 120.06519 196.71704
182.70468 120.06551 196.66191
183.06346 120.06155 195.61264
183.4175 120.05759 194.56279
184.13644 120.06647 196.48943
184.61388 120.0668 196.42957
185.09138 120.06715 196.36852
185.69945 120.07178 197.29768
186.04671 120.06786 196.24281
186.38925 120.06393 195.18736
186.86475 120.06431 195.12184
187.34033 120.06468 195.05515
187.81604 120.06507 194.98723
188.29185 120.06546 194.91812
189.06247 120.07445 196.82596
189.54333 120.07486 196.75372
190.32869 120.08387 198.65695
190.81462 120.0843 198.58151
191.4577 120.08904 199.49245
191.9463 120.08949 199.41412
192.59689 120.09425 200.32138
193.25247 120.09903 201.22659
193.57962 120.0952 200.15771
194.2403 120.09999 201.05959
194.5629 120.09618 199.989
195.05475 120.09667 199.90273
195.54674 120.09718 199.81519
196.21771 120.10202 200.71025
196.71243 120.10255 200.61967
197.75832 120.11607 203.47679
198.44675 120.12096 204.36482
199.1402 120.12585 205.25058
199.83867 120.13077 206.13411
200.54218 120.1357 207.0153
201.25075 120.14064 207.89424
201.96434 120.14559 208.7708
202.48233 120.14622 208.66536
203.20363 120.15121 209.5377
204.34105 120.16492 212.36493
204.66141 120.16122 211.27513
205.39792 120.16626 212.1402
206.56519 120.18003 214.95692
207.53204 120.18948 216.7925
208.29115 120.19456 217.64841
209.05539 120.19968 218.5018
210.26993 120.21355 221.30238
211.49936 120.22747 224.09808
212.28876 120.23265 224.94135
213.77307 120.25101 228.70149
215.50958 120.27379 233.42802
217.27084 120.29663 238.14709
219.05688 120.31951 242.8586
220.38826 120.33364 245.62071
220.76599 120.33018 244.49661
221.87299 120.33997 246.28079
222.00185 120.33212 244.18481
221.62216 120.31544 240.15285
222.23111 120.31642 239.99513
223.34926 120.32626 241.76982
223.45 120.31843 239.67444
224.31931 120.32388 240.4772
224.93208 120.32493 240.31181
225.54523 120.32598 240.14464
226.15872 120.32706 239.97568
227.04181 120.33259 240.76799
227.93021 120.33815 241.55713
228.5498 120.33927 241.38135
229.72299 120.34933 243.12569
230.06923 120.34603 241.98457
230.97404 120.35168 242.7621
231.88422 120.35735 243.53629
232.51324 120.35856 243.34906
232.85373 120.3553 242.20259
233.48116 120.35654 242.0123
233.52112 120.34881 239.90846
233.55161 120.34106 237.8058
234.46935 120.34685 238.56709
235.09109 120.34814 238.37143
235.71332 120.34944 238.17386
236.336 120.35077 237.97432
237.88577 120.36569 240.62613
238.51688 120.36707 240.42024
239.46234 120.373 241.16182
240.72963 120.38351 242.84834
241.68857 120.3895 243.58173
242.33167 120.39098 243.36443
243.29913 120.39702 244.09114
244.27213 120.4031 244.81404
244.26401 120.39549 242.70004
245.24057 120.40162 243.41786
245.22095 120.39401 241.30402
245.86467 120.39559 241.07501
246.16998 120.39259 239.90308
247.49515 120.4034 241.55046
247.79901 120.40044 240.37514
249.13789 120.41133 242.01363
250.13838 120.41764 242.70908
251.49603 120.42862 244.33659
252.15617 120.43037 244.08765
253.17349 120.43678 244.77071
253.83728 120.43858 244.51628
253.77826 120.43109 242.39502
254.43811 120.43291 242.138
255.46524 120.43944 242.80898
256.86731 120.45068 244.40494
256.79269 120.44322 242.28139
257.83163 120.44984 242.94139
258.49927 120.45179 242.67075
258.7879 120.44906 241.47256
259.07199 120.44633 240.27411
258.96686 120.43889 238.15234
259.62631 120.4409 237.87651
260.28625 120.44293 237.5983
71.903809 120.83099 207.14053
72.477501 120.82907 207.3829
73.050812 120.82718 207.62321
73.24099 120.83244 208.78534
74.19622 120.82345 208.09779
75.145958 120.8145 207.40613
76.465294 120.79847 205.78343
77.028885 120.7967 206.01065
77.222023 120.80205 207.16487
77.4198 120.8074 208.31914
77.98716 120.80566 208.54245
77.829193 120.8181 210.62778
79.120529 120.80227 208.98325
80.758682 120.77943 206.39893
81.671509 120.77076 205.67671
81.874176 120.7762 206.82239
82.081451 120.78164 207.96805
82.293304 120.78709 209.11374
82.16497 120.79957 211.19804
82.730759 120.798 211.40503
83.296097 120.79646 211.61012
84.198227 120.78793 210.87195
85.094879 120.77944 210.13014
85.653854 120.77797 210.32788
85.88266 120.78349 211.46786
86.770485 120.77507 210.71791
87.977577 120.75972 209.01863
88.529808 120.75832 209.20741
89.081627 120.75695 209.39442
89.950233 120.74864 208.63138
90.183975 120.75425 209.76323
90.734535 120.75293 209.94498
91.284691 120.75163 210.12502
92.141701 120.74341 209.35175
92.688568 120.74214 209.52753
92.932739 120.7478 210.65483
93.181496 120.75346 211.782
93.434822 120.75914 212.90903
94.28244 120.75102 212.12486
94.539963 120.75671 213.25008
94.222267 120.77618 216.28917
95.068756 120.7681 215.49997
96.194885 120.75319 213.74907
97.02829 120.74517 212.95285
97.8564 120.73718 212.15353
99.234329 120.7155 209.42976
99.771873 120.71442 209.58434
100.03647 120.72021 210.6994
100.57582 120.71916 210.85149
100.84717 120.72497 211.96548
101.91881 120.71027 210.1868
101.9292 120.72292 212.26315
102.20944 120.72875 213.37515
103.01001 120.72093 212.5546
104.06078 120.70632 210.76436
104.8485 120.69856 209.93744
105.88153 120.68401 208.13968
106.40837 120.6831 208.27528
107.42615 120.66859 206.47072
107.46125 120.6813 208.54207
108.228 120.67364 207.70267
108.27481 120.68636 209.77412
108.80279 120.6855 209.90295
108.86376 120.69822 211.97504
108.93425 120.71094 214.04802
109.24277 120.71687 215.1483
110.00803 120.70928 214.30006
110.09733 120.722 216.37315
111.08086 120.70767 214.54619
112.05441 120.69337 212.71556
112.15277 120.70611 214.78653
112.90228 120.69859 213.92766
113.85814 120.68435 212.08891
114.38605 120.68362 212.20244
115.12033 120.67616 211.33615
115.84956 120.66871 210.46739
116.37201 120.66801 210.5757
117.09355 120.66061 209.70265
117.2195 120.67339 211.76849
116.38284 120.71981 218.73935
115.77197 120.75947 224.73416
115.56918 120.78567 228.76952
115.01132 120.82528 234.77173
115.40598 120.83131 235.86417
116.71683 120.80378 232.03987
118.18799 120.76958 227.22684
119.98967 120.72202 220.4397
121.58225 120.68119 214.62958
122.97302 120.64711 209.7979
124.16925 120.61977 205.94601
125.34598 120.59245 202.08949
126.1725 120.57855 200.20084
126.98923 120.56467 198.30931
127.79617 120.5508 196.41492
128.2771 120.55032 196.49254
128.7579 120.54986 196.56894
129.23862 120.5494 196.6441
129.56834 120.55563 197.70656
130.49657 120.53516 194.81297
131.26418 120.52138 192.90524
131.8784 120.51429 191.98451
132.3465 120.51389 192.05188
132.95329 120.50681 191.12775
132.87328 120.53309 195.15497
133.34833 120.5327 195.21977
133.82329 120.53232 195.28339
134.29816 120.53194 195.34583
134.77293 120.53158 195.40709
135.74495 120.50459 191.49826
136.6976 120.47764 187.58589
137.15286 120.4773 187.64124
137.49097 120.48363 188.68858
137.94849 120.48331 188.74196
138.40594 120.48301 188.79424
138.75346 120.48935 189.83928
139.2132 120.48906 189.88954
139.56779 120.49541 190.93311
140.13245 120.48849 189.98668
140.592 120.48821 190.03352
140.95363 120.49458 191.07445
141.51089 120.48768 190.1239
142.15633 120.47416 188.17609
142.70146 120.46728 187.22215
143.24173 120.46041 186.26666
143.77715 120.45354 185.30965
144.22429 120.45333 185.34761
144.67139 120.45311 185.38451
145.11844 120.4529 185.4203
145.48924 120.45934 186.45209
145.86481 120.46577 187.48314
146.31654 120.46558 187.51602
146.83723 120.45877 186.55022
147.28648 120.4586 186.58076
147.7999 120.4518 185.61227
148.30847 120.44501 184.64241
148.75284 120.44486 184.66939
149.19716 120.44472 184.69528
149.53227 120.45781 186.71709
149.98134 120.45768 186.7411
150.3806 120.46416 187.76277
150.87939 120.45742 186.78586
151.3284 120.45731 186.80661
151.86253 120.44396 184.82816
152.30669 120.44386 184.84656
152.75081 120.44376 184.86388
153.19493 120.44367 184.88013
153.672 120.43697 183.89589
154.11369 120.43689 183.90994
154.55536 120.43682 183.92291
154.99701 120.43675 183.93483
155.46204 120.43008 182.94597
155.85931 120.44325 184.95525
156.28477 120.44981 185.96385
156.74738 120.44316 184.97176
157.17761 120.44974 185.97829
157.62402 120.44971 185.9839
158.07043 120.44968 185.98845
158.51027 120.45628 186.99188
158.95908 120.45627 186.99429
159.40611 120.46288 187.99561
159.85732 120.46288 187.99585
160.30551 120.45628 186.99507
160.74348 120.44306 184.99326
161.17969 120.43647 183.99036
161.63155 120.44311 184.98628
162.07558 120.44315 184.98122
162.54968 120.45641 186.97481
163.01598 120.46306 187.96736
163.52673 120.48295 190.95828
163.963 120.47639 189.94891
164.44373 120.48307 190.93788
164.87523 120.47653 189.92644
165.36079 120.48322 190.91309
165.78752 120.47669 189.89958
166.24371 120.47678 189.88451
166.69992 120.47688 189.86833
167.15614 120.47698 189.85106
167.57097 120.47047 188.83356
168.02484 120.47059 188.81419
168.43251 120.4641 187.79483
168.88405 120.46423 187.77338
169.4377 120.47759 189.74818
169.8941 120.47774 189.72429
170.40637 120.4845 190.69774
170.98175 120.4979 192.66808
171.44547 120.49807 192.64046
171.84616 120.49162 191.61374
172.2421 120.48517 190.58618
172.769 120.49197 191.55319
173.23047 120.49216 191.52126
173.76466 120.49899 192.4855
174.30371 120.50582 193.44832
174.92508 120.51929 195.40656
175.39636 120.51951 195.36935
175.70314 120.50648 193.33784
176.25441 120.51334 194.29514
176.72346 120.51359 194.2547
177.10306 120.50719 193.21715
177.66173 120.51409 194.17039
178.22527 120.52099 195.12201
178.60023 120.51462 194.08147
179.0696 120.5149 194.03529
179.539 120.51518 193.98795
179.90456 120.50883 192.94489
180.47806 120.51577 193.88982
181.27396 120.53602 196.82112
181.63972 120.52969 195.77458
182.11433 120.53001 195.7209
182.705 120.53699 196.65927
183.06378 120.53068 195.61003
183.29703 120.51772 193.56752
183.89035 120.52473 194.50208
184.48859 120.53174 195.43486
184.9637 120.53211 195.3741
185.4389 120.53249 195.31216
186.04707 120.53954 196.24014
186.38962 120.53326 195.18472
186.86513 120.53367 195.1192
187.34073 120.53407 195.05251
187.95895 120.54117 195.97435
188.43719 120.5416 195.90491
188.91553 120.54203 195.83421
189.54376 120.54915 196.75104
190.17694 120.55629 197.66591
190.66046 120.55676 197.59085
191.45816 120.57059 199.4897
191.94678 120.57108 199.41138
192.59738 120.57827 200.31862
193.08867 120.57878 200.23741
193.41341 120.57259 199.16896
194.07167 120.57982 200.0712
194.56339 120.58035 199.98622
194.88129 120.57419 198.91521
195.72365 120.58815 200.79668
196.39705 120.59543 201.69128
196.89421 120.596 201.60027
197.94254 120.61673 204.45688
198.8195 120.63078 206.32695
199.32928 120.63139 206.22972
199.83926 120.63202 206.13116
200.54279 120.63939 207.01237
201.25134 120.64677 207.89125
201.76672 120.64744 207.78767
202.48297 120.65485 208.66235
203.20425 120.66228 209.53467
204.34171 120.68321 212.36182
204.87004 120.68394 212.25017
205.60901 120.69142 213.1147
206.99158 120.71918 216.90791
208.39389 120.74699 220.69543
208.94505 120.74779 220.57318
209.71661 120.75537 221.4249
210.71588 120.76973 223.24886
211.72519 120.78413 225.06911
212.51703 120.79176 225.91173
214.23375 120.82655 230.64444
216.20757 120.86816 236.34232
218.44585 120.91662 243.00357
219.76961 120.93799 245.7692
220.62892 120.9458 246.58784
221.00911 120.94004 245.46312
221.87396 120.9479 246.27707
221.2616 120.91493 241.27419
221.3736 120.90237 239.18083
222.48407 120.91708 240.95912
223.60469 120.93181 242.73314
223.70789 120.91928 240.63713
224.57968 120.92723 241.43922
225.45676 120.93521 242.23824
226.07483 120.93637 242.06969
226.42654 120.93071 240.93564
227.3121 120.93875 241.72726
227.9313 120.93996 241.55327
228.82504 120.94805 242.33917
229.72412 120.95616 243.12178
230.07037 120.95057 241.98068
230.97519 120.95872 242.75816
231.88539 120.9669 243.53233
232.51443 120.96824 243.34508
232.56595 120.9558 241.24133
233.19089 120.95716 241.05176
233.22839 120.94473 238.94872
233.55283 120.9392 237.80183
234.17166 120.9406 237.60886
235.39377 120.95583 239.32091
236.32237 120.9642 240.07518
236.95004 120.96565 239.87405
238.50485 120.98794 242.52417
239.14096 120.98946 242.31665
239.77756 120.99099 242.10712
240.73102 120.9995 242.84418
242.00885 121.015 244.52528
242.65445 121.01661 244.30713
243.30057 121.01825 244.08687
244.27359 121.02688 244.80974
244.59436 121.02158 243.64011
245.24207 121.02328 243.41354
245.55637 121.018 242.24229
246.20261 121.01973 242.01236
246.51044 121.01447 240.83952
247.83817 121.03027 242.48595
248.48854 121.03208 242.24866
249.13947 121.03391 242.00919
250.13998 121.04279 242.70459
251.49765 121.05876 244.33205
252.15782 121.06068 244.0831
252.81854 121.06261 243.83188
253.83896 121.07163 244.51166
253.77994 121.05948 242.39038
254.43979 121.06147 242.13333
255.1002 121.06349 241.87404
256.49976 121.07973 243.47093
256.79446 121.07471 242.27667
258.20782 121.09103 243.86386
259.25497 121.1003 244.51839
259.54874 121.09534 243.3181
260.21997 121.09752 243.04167
260.1225 121.08543 240.91673
261.17682 121.0948 241.55963
261.45728 121.08988 240.35619
71.902046 121.37601 207.13486
72.863602 121.36437 206.45555
73.43438 121.36234 206.69482
73.622017 121.36988 207.85588
74.954918 121.34879 206.24249
75.89959 121.33729 205.5488
76.83876 121.32582 204.85103
77.772423 121.3144 204.14928
77.590446 121.33154 206.23044
77.418175 121.34868 208.31369
77.985558 121.34681 208.53702
78.190041 121.35445 209.69037
79.478874 121.33366 208.04489
80.042374 121.33186 208.26143
81.31514 121.31115 206.60631
81.872688 121.30941 206.81709
82.079956 121.31713 207.96278
82.291824 121.32486 209.10846
82.85305 121.32316 209.31549
83.413826 121.32148 209.52065
83.974159 121.31982 209.72392
84.534035 121.31818 209.92538
85.093475 121.31657 210.12497
85.320236 121.32436 211.26587
85.551559 121.33216 212.40672
86.44191 121.32121 211.65767
87.65152 121.30091 209.95934
88.850723 121.28066 208.25575
89.400047 121.27917 208.44194
89.948952 121.27771 208.6264
90.497452 121.27626 208.80908
91.045525 121.27483 208.99007
91.593208 121.27342 209.16928
92.447746 121.2627 208.39525
92.992142 121.26133 208.57025
93.233841 121.26929 209.69676
93.77993 121.26795 209.8692
94.028313 121.27593 210.99466
94.576126 121.27462 211.16451
94.831184 121.28262 212.28894
94.221107 121.31847 216.28424
95.067612 121.3079 215.49507
95.908806 121.29736 214.70273
97.027184 121.27757 212.94806
97.855316 121.2671 212.14877
99.233276 121.23813 209.42508
99.770836 121.23696 209.57965
100.30806 121.23581 209.73264
100.57481 121.24392 210.84682
101.11385 121.2428 210.99734
101.91782 121.23245 210.18217
102.45378 121.23137 210.32889
102.7291 121.23951 211.43954
103.26692 121.23845 211.58383
103.80443 121.2374 211.72658
104.84758 121.21795 209.93292
105.63011 121.20773 209.10326
106.40748 121.19755 208.27081
107.17967 121.18738 207.43564
107.46037 121.19561 208.53761
108.22714 121.18548 207.69824
108.27396 121.20291 209.76965
108.80195 121.20199 209.89851
108.86292 121.21942 211.97057
108.93343 121.23685 214.0435
109.47044 121.23595 214.17027
110.00722 121.23506 214.29558
110.32014 121.24334 215.39401
111.30125 121.22417 213.56654
112.05364 121.21417 212.71115
112.36832 121.22249 213.80577
113.32928 121.20338 211.9696
114.06885 121.19345 211.10721
114.59434 121.19267 211.22021
115.11962 121.19189 211.33182
115.84885 121.18201 210.4631
116.37132 121.18126 210.5714
116.69431 121.18964 211.65819
116.82512 121.20715 213.72498
115.9933 121.27021 220.69667
115.77129 121.30591 224.72961
114.81018 121.37802 232.6922
114.82346 121.40458 235.74933
115.22057 121.41293 236.84218
116.71616 121.36671 232.03522
117.6477 121.34782 230.17323
119.81159 121.26532 221.41939
121.40663 121.21014 215.60982
122.45461 121.18226 212.74857
123.82831 121.13625 207.91266
125.17767 121.09027 203.07129
126.172 121.06248 200.1969
127.15168 121.03472 197.31879
127.95621 121.01605 195.42407
128.27663 121.02461 196.48868
128.75745 121.02411 196.56508
129.23816 121.02362 196.64024
129.71875 121.02313 196.71419
130.34769 121.0136 195.79803
131.11772 120.99503 193.89072
131.73438 120.98552 192.97037
132.06367 120.99413 194.02805
132.67531 120.98465 193.10461
132.87288 121.00233 195.15118
133.34793 121.00191 195.216
133.82291 121.0015 195.27963
134.42693 120.99206 194.35048
134.77257 121.0007 195.40332
135.7446 120.96417 191.4946
136.45343 120.94573 189.56729
136.91351 120.94538 189.62325
137.25644 120.95406 190.67113
137.94818 120.93566 188.73837
138.40564 120.93533 188.79063
138.86304 120.93501 188.84175
139.42784 120.92567 187.89758
139.88269 120.92536 187.9462
140.33749 120.92506 187.99371
140.69197 120.93379 189.03502
141.05121 120.94252 190.07568
141.51064 120.94225 190.1203
142.15608 120.92394 188.17253
142.79185 120.90565 186.22278
143.2415 120.9054 186.26315
143.77692 120.89615 185.30614
144.22408 120.89591 185.34413
144.59016 120.90469 186.37769
144.961 120.91348 187.41055
145.41283 120.91326 187.44563
145.7908 120.92206 188.47685
146.24495 120.92185 188.5099
146.69905 120.92166 188.54187
147.15312 120.92147 188.57272
147.67134 120.91228 187.6046
148.18474 120.90311 186.63506
148.69328 120.89394 185.66414
149.14001 120.89378 185.69017
149.47754 120.91163 187.71207
149.92902 120.91148 187.73621
150.38046 120.91135 187.75926
150.87927 120.90222 186.78239
151.28329 120.91109 187.80209
151.81984 120.89298 185.82376
152.2664 120.89287 185.84225
152.75072 120.88377 184.86044
153.15945 120.89267 185.87602
153.63895 120.88358 184.89189
154.11362 120.87451 183.90651
154.52711 120.88342 184.91905
154.97118 120.88335 184.93105
155.4386 120.8743 183.94226
155.83829 120.89223 185.95154
156.26616 120.90117 186.96017
156.71498 120.90112 186.96797
157.1638 120.90108 186.9747
157.61263 120.90105 186.98033
158.07042 120.89204 185.98499
158.50368 120.91 187.98834
158.95908 120.901 186.99081
159.40611 120.90999 187.99211
159.85733 120.90999 187.99239
160.30553 120.90101 186.99159
160.74893 120.89204 185.98976
161.19536 120.89205 185.98679
161.6418 120.89208 185.98277
162.08824 120.89212 185.97768
162.57977 120.91913 188.97102
163.05087 120.92817 189.96347
163.52678 120.93722 190.95474
163.98529 120.93729 190.9451
164.46843 120.94634 191.93399
164.90233 120.93743 190.9225
165.3903 120.94651 191.90906
165.81944 120.93761 190.89551
166.2438 120.92871 189.88097
166.66339 120.91982 188.86551
167.15625 120.92892 189.8475
167.61252 120.92905 189.82915
168.02496 120.92017 188.81067
168.47888 120.9203 188.79021
168.98146 120.92944 189.76743
169.48888 120.93858 190.7433
169.94769 120.93874 190.7193
170.46239 120.9479 191.69258
170.98192 120.95706 192.66449
171.44563 120.95724 192.63687
171.84634 120.94843 191.61014
172.17683 120.9306 189.58481
172.63347 120.9308 189.55431
173.1604 120.94001 190.52017
173.61954 120.94022 190.48726
174.15378 120.94944 191.45038
174.77036 120.96769 193.40898
175.23685 120.96793 193.37216
