ply
format ascii 1.0
comment PCL generated
element vertex 1596
property float x
property float y
property float z
element camera 0
property float view_px
property float view_py
property float view_pz
property float x_axisx
property float x_axisy
property float x_axisz
property float y_axisx
property float y_axisy
property float y_axisz
property float z_axisx
property float z_axisy
property float z_axisz
property float focal
property float scalex
property float scaley
property float centerx
property float centery
property int viewportx
property int viewporty
property float k1
property float k2
end_header
83.336525 120.2355 206.30432
83.890175 120.23409 206.50854
84.443382 120.23269 206.71089
84.31665 120.2405 208.79242
84.873985 120.23913 208.99294
85.430893 120.23776 209.19159
86.319557 120.23184 208.44524
86.873077 120.23052 208.63936
87.753365 120.22465 207.8868
88.952934 120.21424 206.18488
89.497658 120.21299 206.37108
89.722244 120.21629 207.50305
90.268623 120.21507 207.68663
91.129326 120.20931 206.9193
91.984642 120.20358 206.14859
92.524818 120.20241 206.32536
93.371864 120.19673 205.54883
94.213539 120.19107 204.76901
94.747581 120.18995 204.93912
94.381821 120.20236 207.96957
94.625214 120.20576 209.09351
94.873207 120.20916 210.2173
95.418137 120.20807 210.3847
95.093025 120.22045 213.42155
96.506912 120.20593 210.71451
97.335709 120.20041 209.91841
98.159218 120.19491 209.11923
98.977432 120.18943 208.317
100.34546 120.17505 205.59033
100.59807 120.17854 206.70343
101.12787 120.17758 206.85431
101.65736 120.17664 207.0036
101.65116 120.18459 209.07835
102.71541 120.17478 207.29758
103.50674 120.16943 206.47739
103.77223 120.17297 207.58539
104.30019 120.17209 207.72704
105.59409 120.15794 204.96667
105.86116 120.16151 206.07082
106.38336 120.16068 206.20667
106.9053 120.15984 206.34099
107.42696 120.15903 206.47386
107.7052 120.16262 207.57526
107.98808 120.16622 208.67641
108.51385 120.16543 208.80609
108.80355 120.16904 209.90613
109.0979 120.17265 211.00586
109.85874 120.1675 210.15938
110.38598 120.16675 210.28381
110.91297 120.16601 210.40681
111.43974 120.16528 210.52837
112.18745 120.16018 209.67325
112.71133 120.15947 209.79138
113.23499 120.15878 209.9081
113.97231 120.15372 209.04652
113.85881 120.16613 212.09203
114.17772 120.16982 213.18344
114.29471 120.17786 215.2529
114.8295 120.17719 215.36511
115.56581 120.17219 214.49646
117.29346 120.14548 208.72574
118.40123 120.13184 205.88898
119.49425 120.11823 203.04794
120.38055 120.10898 201.18408
121.44654 120.09541 198.33517
121.93639 120.09486 198.42912
122.79552 120.08567 196.55624
123.46251 120.08083 195.6635
124.30437 120.07166 193.78493
124.42659 120.0798 195.8398
124.90842 120.07931 195.92607
125.39012 120.07882 196.01109
125.87167 120.07834 196.09489
126.52087 120.07355 195.19159
127.33046 120.06448 193.30005
127.96731 120.05972 192.3923
128.75974 120.05067 190.49548
129.38426 120.04594 189.58334
130.00385 120.04123 188.66924
130.46521 120.04082 188.74138
130.77562 120.04472 189.8009
131.23918 120.04432 189.87108
131.70265 120.04393 189.94006
132.16602 120.04356 190.00789
132.62929 120.04318 190.07452
132.95366 120.0471 191.13036
133.55554 120.04246 190.20435
133.88455 120.04639 191.2585
134.48141 120.04176 190.32951
135.07338 120.03714 189.39876
135.78717 120.02826 187.47427
136.49123 120.01939 185.54744
137.06366 120.01481 184.61081
137.27267 120.02305 186.65096
137.72546 120.02275 186.7049
138.06348 120.02673 187.7511
138.40623 120.03071 188.79674
138.86362 120.03043 188.84789
139.64334 120.01736 185.91527
140.09337 120.0171 185.96336
140.54333 120.01685 186.01036
140.99326 120.01659 186.05623
141.4431 120.01635 186.10103
141.98834 120.01185 185.14928
142.5287 120.00736 184.19594
143.24547 119.99438 181.24937
143.68307 119.99416 181.28867
144.29228 119.98545 179.33427
144.64159 119.9895 180.36754
145.15767 119.98506 179.40671
145.59029 119.98487 179.44135
146.17528 119.9762 177.48077
146.45541 119.98452 179.50748
146.95932 119.9801 178.54152
147.25139 119.98843 180.56702
147.61963 119.99252 181.59433
147.99265 119.9966 182.62091
148.494 119.99222 181.65059
148.93114 119.99207 181.67711
149.48222 119.98345 179.70587
149.91451 119.98332 179.73
150.34676 119.9832 179.75313
150.7292 119.98733 180.77394
151.06905 119.99569 182.79282
151.46346 119.99982 183.8121
151.99037 119.99124 181.83331
152.42732 119.99114 181.85139
152.86424 119.99106 181.86844
153.33652 119.98673 180.88507
153.80399 119.98242 179.90047
154.23607 119.98235 179.91422
154.61177 119.99075 181.92612
155.04863 119.99069 181.93788
155.4621 119.99487 182.94835
155.85938 120.00329 184.95764
156.30339 120.00324 184.96643
156.74741 120.0032 184.97414
157.19142 120.00317 184.98079
157.61267 120.0116 186.98622
158.07047 120.00735 185.99084
158.51028 120.01157 186.99429
158.95909 120.01156 186.9967
159.40967 120.00732 185.99805
159.85606 120.00732 185.99829
160.29945 120.00309 184.99751
160.73262 119.99464 182.99568
161.17184 119.99465 182.99275
161.61107 119.99467 182.98882
162.05031 119.99471 182.98376
162.48955 119.99474 182.97771
162.96365 120.00325 184.97025
163.38789 119.99906 183.96219
163.80736 119.99488 182.95316
164.22203 119.9907 181.94318
164.65894 119.99076 181.93187
165.09587 119.99083 181.91954
165.53282 119.99091 181.90614
166.00401 119.99522 182.89111
166.48004 119.99954 183.87486
166.92186 119.99963 183.85812
167.32227 119.9955 182.84122
167.80556 119.99984 183.82147
168.20122 119.9957 182.80264
168.64073 119.99582 182.78175
169.18237 120.00443 184.7572
169.62675 120.00455 184.73395
170.18286 120.01317 186.7065
170.80685 120.02603 189.6757
171.26335 120.02618 189.64851
171.71989 120.02634 189.62022
172.11102 120.02225 188.59299
172.56525 120.02242 188.56264
173.08977 120.02684 189.52869
173.54648 120.02702 189.496
174.00323 120.02721 189.46214
174.53751 120.03165 190.42421
175.07664 120.0361 191.38475
175.45607 120.03206 190.3506
176.00012 120.03652 191.3085
176.54904 120.04099 192.26486
177.10283 120.04548 193.2197
177.56958 120.04571 193.17719
178.13069 120.05021 194.12904
178.40654 120.04194 192.09341
178.9702 120.04646 193.04279
179.43721 120.04671 192.9957
179.90428 120.04698 192.94745
180.26508 120.04299 191.90372
181.05615 120.05607 194.83563
181.30594 120.04783 192.79582
182.00046 120.05666 194.73001
182.47272 120.05696 194.67543
182.94507 120.05727 194.61969
183.4175 120.05759 194.56279
184.01323 120.06219 195.49706
184.36263 120.05825 194.44543
185.09138 120.06715 196.36852
185.69945 120.07178 197.29768
186.04671 120.06786 196.24281
186.38925 120.06393 195.18736
187.00243 120.06859 196.11232
187.20024 120.06039 194.06502
187.53101 120.05649 193.00766
188.00198 120.05688 192.93925
188.47307 120.05727 192.86966
189.09404 120.06197 193.78758
189.56778 120.06239 193.71524
190.04163 120.06281 193.64168
190.67262 120.06754 194.55452
191.14912 120.06797 194.47813
191.94948 120.07703 196.37416
192.43109 120.07748 196.29457
193.24622 120.08658 198.18573
193.73294 120.08705 198.10283
194.39136 120.09186 199.00383
194.70682 120.08804 197.93324
195.37036 120.09286 198.83087
195.86008 120.09338 198.74251
196.71243 120.10255 200.61967
197.57466 120.11174 202.4938
198.07457 120.11229 202.39978
198.57465 120.11285 202.3044
199.07489 120.11342 202.20775
199.57532 120.114 202.10974
199.8801 120.11024 201.0298
200.37845 120.11083 200.92964
201.27832 120.12012 202.78746
202.18813 120.12945 204.64197
203.10785 120.13879 206.49309
204.03749 120.14815 208.34076
204.76669 120.15318 209.20738
205.50099 120.15822 210.07155
205.80981 120.15454 208.98015
206.54941 120.15961 209.84039
207.29411 120.16469 210.69817
208.93433 120.18729 215.45299
209.92407 120.19681 217.27771
210.69637 120.20196 218.12494
212.39349 120.22468 222.8623
213.88298 120.24306 226.61971
214.45302 120.2439 226.48276
216.20967 120.26674 231.20139
219.66911 120.32043 242.70822
221.00816 120.33459 245.46684
221.62837 120.33556 245.31119
222.74306 120.34536 247.09177
223.36885 120.34635 246.93137
221.97913 120.312 239.0274
222.33151 120.30856 237.9015
222.67932 120.30514 236.77515
223.8006 120.31502 238.54567
224.14664 120.31161 237.41649
225.28094 120.32154 239.18021
225.892 120.32261 239.01192
226.77261 120.32814 239.80492
227.11519 120.32478 238.66998
227.45322 120.32143 237.53464
228.33994 120.32702 238.32083
229.23196 120.33263 239.10381
229.84781 120.33379 238.92397
231.03212 120.34392 240.65987
231.94023 120.34959 241.43292
232.27576 120.34633 240.28795
232.60675 120.34307 239.14258
232.93323 120.33981 237.99684
233.25517 120.33656 236.85075
233.87152 120.33783 236.65857
233.88548 120.33009 234.5575
234.80164 120.33589 235.31577
235.72322 120.34172 236.07053
236.65027 120.34758 236.82176
237.27139 120.34894 236.61913
239.14847 120.36846 240.21236
240.09689 120.37442 240.9511
240.73196 120.37585 240.73836
241.68892 120.38186 241.47054
242.65138 120.3879 242.19896
242.31387 120.37569 239.14268
242.94847 120.3772 238.92262
243.91498 120.38329 239.64394
244.55313 120.38484 239.41882
245.19183 120.38641 239.19162
246.16998 120.39259 239.90308
247.83662 120.40801 242.49036
248.48697 120.40966 242.25307
249.13789 120.41133 242.01363
250.48741 120.42226 243.64618
251.14449 120.42399 243.40045
251.80209 120.42574 243.15245
252.10364 120.42285 241.96799
253.11899 120.42928 242.64975
253.41658 120.42643 241.46272
254.43811 120.43291 242.138
255.09848 120.43477 241.87866
256.49799 120.446 243.47563
256.04901 120.43385 240.42484
256.70847 120.43575 240.15962
257.36844 120.43768 239.89207
257.64944 120.43493 238.69701
257.92584 120.43218 237.50172
258.19766 120.42944 236.3062
258.85199 120.43143 236.0325
259.1171 120.42871 234.83553
74.63649 120.78087 200.69617
75.192337 120.77901 200.93098
75.747803 120.77718 201.16383
74.771942 120.8039 205.09003
74.956612 120.8092 206.24803
74.768295 120.82162 208.33206
76.090179 120.80558 206.71039
76.283737 120.81091 207.86661
77.962097 120.78786 205.30688
79.257301 120.77196 203.66916
80.176964 120.76319 202.9565
80.003822 120.77567 205.03589
80.920074 120.76695 204.31844
81.116058 120.77238 205.465
80.9618 120.78485 207.54649
81.521851 120.78324 207.75822
82.431259 120.7746 207.03127
82.987892 120.77303 207.23828
83.544075 120.77148 207.44342
84.099808 120.76995 207.64673
84.315353 120.77544 208.78865
84.535461 120.78094 209.93056
85.429611 120.77245 209.18785
86.318306 120.76399 208.44153
86.871826 120.76255 208.6357
87.424919 120.76112 208.82806
89.276443 120.73185 205.23549
89.81868 120.73048 205.42085
90.040787 120.73608 206.55197
90.584686 120.73475 206.73473
91.757637 120.71954 205.01746
91.983505 120.72518 206.14507
92.213951 120.73083 207.27263
93.370758 120.71571 205.54535
94.212463 120.70754 204.76555
94.746513 120.70632 204.93568
94.680557 120.71893 207.01215
94.921486 120.72462 208.13528
95.167 120.73033 209.25832
95.417091 120.73604 210.38124
95.091972 120.75552 213.41808
96.218468 120.74059 211.66885
97.334709 120.72569 209.91501
98.158234 120.71769 209.11586
98.976471 120.70972 208.31364
100.34453 120.68806 205.58702
100.59712 120.69386 206.70015
101.12695 120.69281 206.85101
101.38629 120.69862 207.9631
101.65025 120.70444 209.07504
102.71452 120.68976 207.29431
103.76863 120.6751 205.50934
104.03168 120.68096 206.61667
104.29933 120.68682 207.72382
105.33783 120.67223 205.93031
105.86033 120.6713 206.06763
106.13203 120.6772 207.17159
106.65643 120.67629 207.30656
107.42615 120.66859 206.47072
107.94756 120.66771 206.60214
108.46871 120.66685 206.73209
108.75134 120.67278 207.83177
109.27443 120.67193 207.9594
109.79727 120.6711 208.08559
110.08893 120.67705 209.18329
110.61372 120.67623 209.30717
111.36435 120.66866 208.45551
111.88625 120.66788 208.57593
112.6291 120.66033 207.71973
113.14812 120.65958 207.83676
113.2343 120.67233 209.90501
113.97163 120.66483 209.04346
114.28102 120.67085 210.13417
114.17705 120.69036 213.18033
114.50061 120.69638 214.27138
115.03299 120.69566 214.38307
115.56516 120.69495 214.49339
117.09355 120.66061 209.70265
118.40062 120.63302 205.88603
119.6881 120.60548 202.06416
120.57198 120.59141 200.19986
121.63556 120.57064 197.35052
122.12299 120.57005 197.44402
122.97971 120.55605 195.57069
123.64429 120.54877 194.67752
124.30386 120.5415 193.7822
124.60355 120.54767 194.85294
125.08296 120.54713 194.93878
125.21701 120.56001 196.99333
125.8712 120.5528 196.09213
126.5204 120.54559 195.18887
127.33 120.5317 193.29736
128.12981 120.51784 191.40302
128.75929 120.51068 190.49286
129.22572 120.51022 190.56815
129.84773 120.50308 189.65445
130.15825 120.50932 190.71513
130.4735 120.51556 191.77536
131.09035 120.50845 190.85738
131.4102 120.5147 191.91599
131.8784 120.51429 191.98451
132.4877 120.50721 191.06192
133.09209 120.50014 190.13745
133.41879 120.50642 191.19243
133.8842 120.50604 191.25592
134.61263 120.49235 189.33566
134.94389 120.49864 190.38782
135.53336 120.49163 189.4556
136.24225 120.47797 187.52939
136.94144 120.46432 185.60086
137.15286 120.4773 187.64124
137.72516 120.47034 186.70239
138.17787 120.47002 186.7552
138.51823 120.47636 187.80058
138.97322 120.47606 187.85143
139.75055 120.45583 184.91861
140.19817 120.45555 184.96645
140.64574 120.45528 185.0132
141.09325 120.45501 185.05882
141.54071 120.45475 185.10338
142.08354 120.44786 184.15143
142.62151 120.44098 183.19788
143.24525 120.42747 181.24698
143.68286 120.42724 181.28627
144.29208 120.41376 179.33191
144.72479 120.41354 179.36867
145.23848 120.40671 178.40767
145.5901 120.41313 179.439
146.09889 120.40631 178.47552
146.38144 120.41938 180.50238
146.88776 120.41257 179.53661
147.18222 120.42564 181.56226
147.55287 120.4321 182.58974
147.99248 120.43193 182.61853
148.55565 120.41853 180.65015
148.99039 120.41838 180.67654
149.53908 120.405 178.70517
149.96896 120.40486 178.72919
150.39882 120.40472 178.75218
150.72908 120.41784 180.77159
151.1637 120.41772 180.79274
151.59828 120.4176 180.81282
152.07544 120.41088 179.83279
152.46741 120.4174 180.84987
152.90193 120.4173 180.86682
153.37183 120.4106 179.88336
153.77094 120.41713 180.89758
154.23599 120.41044 179.9119
154.63989 120.41698 180.92416
155.07434 120.41692 180.9359
155.48541 120.42347 181.94627
155.90128 120.43003 182.95572
156.32193 120.43659 183.96423
156.76355 120.43655 183.97191
157.20517 120.43652 183.97853
157.62402 120.44971 185.9839
158.07941 120.44308 184.98851
158.51027 120.45628 186.99188
158.96326 120.44966 185.99432
159.40967 120.44965 185.99565
159.85545 120.44305 184.99593
160.29947 120.44305 184.99513
160.73264 120.42984 182.99333
161.17186 120.42986 182.9904
161.6111 120.42989 182.98643
162.05034 120.42992 182.98141
162.48958 120.42995 182.97534
162.94627 120.43661 183.96805
163.40778 120.44328 184.95958
163.8074 120.43011 182.95079
164.22209 120.42355 181.94081
164.659 120.42362 181.92953
165.12537 120.43031 182.91672
165.5329 120.42378 181.90381
166.03833 120.4371 183.88815
166.51675 120.4438 184.8718
166.96098 120.4439 184.85498
167.40523 120.44401 184.83708
167.8495 120.44412 184.81813
168.24757 120.43762 183.79919
168.64085 120.43113 182.7794
169.13145 120.43788 183.75613
169.62689 120.44464 184.73155
170.12715 120.4514 185.70566
170.69051 120.4648 187.67667
171.20287 120.47158 188.64792
171.65701 120.47175 188.61978
172.04573 120.46529 187.59268
172.56541 120.4721 188.56017
173.16022 120.48554 190.52376
173.692 120.49236 191.48817
174.22864 120.49919 192.45116
174.77013 120.50603 193.41261
175.2366 120.50625 193.37579
175.53857 120.49322 191.34467
176.08504 120.50008 192.30237
176.54927 120.50032 192.26234
177.01357 120.50056 192.22118
177.47791 120.50082 192.17889
177.94232 120.50108 192.13545
178.21336 120.48807 190.10031
178.87134 120.50162 192.04518
179.33594 120.5019 191.99832
179.80061 120.50218 191.95032
180.26535 120.50248 191.9012
181.05644 120.52272 194.83304
181.41739 120.51639 193.78702
182.11433 120.53001 195.7209
182.58902 120.53034 195.66605
183.06378 120.53068 195.61003
183.41783 120.52437 194.56018
184.01357 120.53138 195.49443
184.23734 120.51842 193.45074
184.9637 120.53211 195.3741
185.4389 120.53249 195.31216
185.91422 120.53288 195.24902
186.38962 120.53326 195.18472
186.72743 120.527 194.12874
187.06052 120.52074 193.07227
187.5314 120.52115 193.00505
188.00238 120.52157 192.93665
188.32613 120.51532 191.87798
188.94469 120.52244 192.79623
189.56819 120.52956 193.71259
190.04205 120.53001 193.63904
190.67305 120.53717 194.55183
191.30902 120.54433 195.46265
192.1118 120.5582 197.35825
192.43155 120.552 196.29184
193.2467 120.5659 198.18297
193.5643 120.55972 197.11449
194.22031 120.56695 198.01591
194.70732 120.56749 197.93048
195.37086 120.57474 198.82808
195.86061 120.57529 198.7397
196.71298 120.58929 200.61685
197.75887 120.61002 203.47391
198.26122 120.61062 203.37941
198.57521 120.60451 202.30154
199.07547 120.60513 202.20486
199.5759 120.60575 202.10686
199.68488 120.59293 200.0463
200.37906 120.6003 200.92676
201.47961 120.62117 203.76418
202.18875 120.62858 204.63899
203.10847 120.64275 206.49007
204.24612 120.6637 209.31584
204.76738 120.66443 209.20435
205.28882 120.66516 209.09142
205.8105 120.66591 208.9771
206.55011 120.67343 209.83733
207.29483 120.68097 210.69505
208.71246 120.70882 214.47488
209.92484 120.72996 217.27451
210.92462 120.74435 219.09543
212.62424 120.7791 223.83215
214.34854 120.8139 228.56149
215.62796 120.83518 231.3394
217.3969 120.87008 236.05499
220.38919 120.93901 245.61702
220.76694 120.93324 244.4929
221.62933 120.94109 245.30748
222.49698 120.94897 246.11905
222.87077 120.94324 244.99089
221.72812 120.89663 238.056
222.84137 120.91135 239.83195
223.19409 120.90563 238.7043
224.32033 120.9204 240.47346
224.6713 120.91471 239.34297
225.54626 120.9227 240.14085
225.89304 120.91702 239.00815
227.04289 120.9319 240.76421
227.11627 120.9194 238.66617
227.45432 120.91376 237.53085
228.61765 120.92871 239.27797
229.51218 120.93683 240.0602
230.41206 120.94498 240.83913
231.31732 120.95315 241.61475
232.22794 120.96135 242.38702
232.27695 120.94891 240.28403
232.31648 120.93648 238.1821
232.64047 120.93093 237.03712
232.95996 120.9254 235.89178
233.57381 120.92677 235.70035
233.88672 120.92126 234.55356
235.41068 120.94343 237.21713
236.33727 120.95181 237.97029
236.96043 120.95327 237.7688
237.89545 120.9617 238.51559
239.14981 120.9771 240.20824
240.09827 120.9856 240.94696
240.73337 120.98717 240.73421
241.69032 120.99572 241.46634
242.6528 121.00431 242.19472
242.64166 120.992 240.08368
242.94991 120.98666 238.9184
243.91644 120.99532 239.63968
244.88852 121.00401 240.35713
245.52974 121.00572 240.129
245.83255 121.00046 238.95796
247.4967 121.02326 241.54608
248.48854 121.03208 242.24866
249.13947 121.03391 242.00919
249.79094 121.03575 241.7675
250.79453 121.04467 242.45976
251.80374 121.05362 243.14792
252.10529 121.04849 241.96342
252.76151 121.05043 241.71191
252.69487 121.03825 239.59357
253.71133 121.04731 240.27077
254.36667 121.04932 240.01346
255.76114 121.06554 241.61238
255.67889 121.05339 239.49188
257.45905 121.07681 242.00938
258.12411 121.07893 241.73976
258.41022 121.07394 240.5426
258.30969 121.06182 238.4211
258.58408 121.05685 237.22452
259.62817 121.06618 237.87169
259.89838 121.06123 236.67256
74.244392 121.31852 201.61125
75.190651 121.30694 200.92549
76.131432 121.29539 200.23561
75.152992 121.33167 204.16068
75.335121 121.33924 205.31764
75.521935 121.34682 206.47469
76.088531 121.34488 206.70488
76.282104 121.35248 207.86108
77.220398 121.34106 207.15941
78.888214 121.31067 204.5938
79.810432 121.29933 203.88217
79.639816 121.3165 205.96254
80.558624 121.30522 205.24608
80.757149 121.31291 206.39362
80.960274 121.32061 207.54118
81.872688 121.30941 206.81709
82.079956 121.31713 207.96278
82.639122 121.31542 208.17076
83.197845 121.31373 208.37685
84.098366 121.30264 207.64154
83.974159 121.31982 209.72392
84.871284 121.30878 208.98401
85.428207 121.30717 209.18271
86.316925 121.29618 208.43642
87.200195 121.28522 207.68657
87.750801 121.28368 207.87807
89.275139 121.25404 205.23051
90.139618 121.24319 204.46928
90.678955 121.24174 204.6521
90.900642 121.24965 205.78151
91.441666 121.24822 205.96169
91.670013 121.25615 207.09016
91.902962 121.26408 208.21852
93.062286 121.24405 206.4921
93.906494 121.23337 205.71313
94.443047 121.23203 205.88409
94.67939 121.24003 207.00734
94.622993 121.25732 209.08521
95.165848 121.25603 209.25351
95.415947 121.26403 210.37643
95.090828 121.29062 213.41321
96.217346 121.27078 211.66405
97.333611 121.25099 209.91025
98.157143 121.2405 209.11116
98.975403 121.23004 208.30898
100.34349 121.2011 205.58243
100.5961 121.20921 206.69553
101.12593 121.20807 206.84641
101.38528 121.21619 207.95851
101.91695 121.21509 208.10696
102.97878 121.19553 206.32562
103.5049 121.19446 206.46965
103.7704 121.20263 207.57764
104.04053 121.2108 208.68542
105.0815 121.19134 206.89264
105.10054 121.20874 208.96548
105.88063 121.19853 208.13518
106.15942 121.20674 209.23952
106.93405 121.19657 208.40497
107.46037 121.19561 208.53761
107.98643 121.19466 208.66881
108.51222 121.19373 208.79851
109.27359 121.18363 207.95502
109.56306 121.1919 209.05354
109.85718 121.20018 210.15179
110.61293 121.19013 209.30276
111.36357 121.1801 208.45114
111.88548 121.17925 208.57158
112.62834 121.16926 207.71541
113.36611 121.15929 206.85672
113.44987 121.17677 208.92436
114.18478 121.16682 208.06233
114.49173 121.17518 209.15251
114.38533 121.2018 212.19809
114.70647 121.21015 213.28859
115.03227 121.21851 214.37869
115.76617 121.20863 213.5096
116.69431 121.18964 211.65819
118.20312 121.14334 206.86224
119.49304 121.10619 203.04094
120.57137 121.07819 200.19582
121.25581 121.06843 199.3102
121.93526 121.05869 198.42235
122.60968 121.04896 197.53227
123.46143 121.03015 195.65681
123.94356 121.02956 195.74561
124.603 121.01988 194.84906
125.08243 121.0193 194.93491
125.3891 121.02782 196.00447
126.04088 121.01818 195.10287
126.68768 121.00856 194.19925
127.49487 120.98987 192.30737
128.29227 120.97121 190.41263
128.75882 120.9707 190.48912
129.22527 120.9702 190.56439
129.84729 120.96065 189.65073
130.00453 120.9783 191.69954
130.32219 120.98689 192.76013
130.79303 120.98643 192.83141
131.26375 120.98597 192.90149
131.59076 120.99458 193.95996
132.20488 120.98508 193.0381
132.8141 120.9756 192.11433
133.28201 120.97518 192.17934
133.74985 120.97477 192.24316
134.61226 120.94724 189.33203
135.07268 120.94685 189.39256
135.533 120.94647 189.45195
136.11758 120.93706 188.51799
136.69727 120.92767 187.58231
137.03302 120.93635 188.63046
137.60774 120.92696 187.69189
138.06287 120.92663 187.74501
138.51793 120.9263 187.797
138.97292 120.92598 187.84784
139.75024 120.89859 184.91508
140.19789 120.89829 184.96292
140.64546 120.89799 185.00969
141.19324 120.88869 184.06041
141.63829 120.88841 184.10472
142.17873 120.87913 183.15254
142.62126 120.87886 183.19443
143.24501 120.86058 181.24356
143.77086 120.85133 180.2868
144.29187 120.84208 179.32852
144.72458 120.84185 179.3653
145.23828 120.83262 178.40431
145.66852 120.83241 178.43877
146.09871 120.8322 178.47217
146.38124 120.85001 180.49899
146.81616 120.84982 180.53065
147.18205 120.85863 181.55884
147.5527 120.86745 182.58629
147.99232 120.86728 182.61511
148.5555 120.84911 180.64676
148.99023 120.84895 180.67316
149.53894 120.8308 178.70183
149.96883 120.83065 178.72586
150.3987 120.83051 178.74884
150.77875 120.83937 179.7695
151.25835 120.83025 178.7917
151.59818 120.84812 180.80946
152.07533 120.83901 179.82944
152.50748 120.83891 179.84735
152.9774 120.82981 178.86497
153.37173 120.83871 179.88002
153.83681 120.82963 178.8954
154.26649 120.82955 178.90906
154.668 120.83847 179.92123
155.07428 120.84739 180.93253
155.50873 120.84733 180.94321
155.90123 120.86526 182.95232
156.34045 120.8652 182.96103
156.7635 120.87415 183.96848
157.21892 120.86513 182.97523
157.64676 120.87408 183.98065
158.08836 120.87406 183.98515
158.51683 120.89202 185.98846
158.96742 120.88302 184.99092
159.41144 120.88302 184.99223
159.85483 120.87403 183.99254
160.29343 120.86505 182.99178
160.72723 120.85608 181.98997
161.16406 120.85609 181.98708
161.59067 120.84714 180.98323
162.05037 120.86515 182.97803
162.48962 120.86519 182.97194
162.94632 120.87423 183.96463
163.388 120.87428 183.95641
163.8297 120.87434 183.9471
164.22215 120.85643 181.93742
164.65907 120.85651 181.92616
165.12544 120.86558 182.91333
165.5648 120.86566 182.89987
166.0042 120.86576 182.88535
166.51686 120.88384 184.86835
166.96109 120.88396 184.85152
167.40535 120.88407 184.83365
167.84962 120.88419 184.81467
168.29393 120.88432 184.79465
168.73827 120.88445 184.77354
169.18263 120.8846 184.75137
169.62703 120.88474 184.72812
170.1273 120.8939 185.70218
170.63243 120.90306 186.67493
171.14238 120.91223 187.64629
171.59413 120.91241 187.61826
171.98045 120.90359 186.59137
172.56561 120.9218 188.55666
173.09015 120.931 189.52267
173.6922 120.94923 191.48457
174.15378 120.94944 191.45038
174.69287 120.95868 192.41202
175.23685 120.96793 193.37216
175.70337 120.96816 193.33421
176.16997 120.96841 193.2951
176.54951 120.95966 192.2587
177.01382 120.95992 192.21756
177.47818 120.9602 192.17525
177.9426 120.96048 192.13182
178.21362 120.94273 190.09669
178.77249 120.95203 191.04651
179.33623 120.96136 191.99467
179.8009 120.96167 191.94667
180.37201 120.97102 192.89183
181.05676 120.9894 194.82932
181.52888 120.98973 194.77708
182.00108 120.99008 194.72368
182.47337 120.99043 194.66911
182.94574 120.9908 194.61336
183.29736 120.98213 193.5638
183.76749 120.98251 193.50601
184.2377 120.98289 193.44702
184.83604 120.99233 194.37863
185.30885 120.99274 194.317
185.64888 120.9841 193.26309
185.98418 120.97547 192.20863
186.17706 120.95779 190.16324
186.64061 120.95822 190.09822
187.10425 120.95866 190.03204
187.71294 120.96816 190.95407
188.17921 120.96862 190.88519
188.94513 120.98721 192.79248
189.56865 120.99676 193.70879
190.04251 120.99725 193.63522
190.67352 121.00682 194.548
191.30949 121.0164 195.4588
192.1123 121.03508 197.35435
192.43205 121.02654 196.28796
193.08052 121.03617 197.19307
193.56483 121.03673 197.11057
194.04929 121.03729 197.02682
194.53389 121.03787 196.94183
195.37143 121.05664 198.82411
195.86118 121.05724 198.73572
196.71356 121.07606 200.61284
197.57581 121.09489 202.48688
198.07573 121.09554 202.39284
198.3873 121.08708 201.31543
199.07608 121.09686 202.20078
199.57654 121.09753 202.10277
199.88133 121.0891 201.02283
200.57794 121.09892 201.90279
201.68095 121.12701 204.73962
202.18942 121.12774 204.63483
203.10919 121.14674 206.48586
204.03888 121.16578 208.33345
204.7681 121.1757 209.20001
205.28957 121.1765 209.08708
205.81125 121.17731 208.97275
206.7686 121.19643 210.80891
207.51578 121.20642 211.66606
208.93588 121.24391 215.44528
210.37576 121.28145 219.21854
211.60794 121.30987 222.01204
213.08498 121.34749 225.77374
214.81422 121.39433 230.50185
216.33337 121.43206 234.2505
217.87241 121.46983 237.99277
220.39021 121.5444 245.61177
220.52579 121.52715 243.51749
221.14113 121.52827 243.36305
221.75679 121.52942 243.20686
222.37279 121.53059 243.04895
221.72917 121.48571 238.05084
223.09689 121.51453 240.79378
223.19519 121.49729 238.6991
224.06207 121.50773 239.50247
224.67242 121.50896 239.33774
225.28311 121.51021 239.17119
225.8942 121.51147 239.00287
227.04407 121.53125 240.75883
227.11746 121.51406 238.66089
227.72964 121.51538 238.4872
228.89549 121.53523 240.23355
229.23433 121.52734 239.09457
230.13174 121.53799 239.87421
231.03455 121.54866 240.65051
231.65619 121.55009 240.46547
231.70026 121.53296 238.36397
232.02631 121.52512 237.22009
232.34784 121.51728 236.07588
232.66483 121.50945 234.93134
233.57515 121.52026 235.69489
234.49091 121.5311 236.455
235.71597 121.55129 238.16428
236.64508 121.5622 238.91656
236.96185 121.55447 237.7632
237.58551 121.55608 237.55972
239.15128 121.58577 240.20253
240.41614 121.60617 241.88976
241.05374 121.60788 241.67616
241.69186 121.60962 241.46051
242.33049 121.61137 241.24283
242.96962 121.61315 241.02303
243.28038 121.60556 239.85687
244.24945 121.61678 240.57726
244.89017 121.61862 240.35121
246.20425 121.63931 242.00636
246.17316 121.62238 239.89278
247.15692 121.63372 240.6002
247.80228 121.63567 240.36473
249.1412 121.65652 242.00308
249.09462 121.63963 239.88725
250.09317 121.6511 240.58136
251.09734 121.66261 241.27136
251.75049 121.66469 241.02301
252.40417 121.66679 240.77245
252.69672 121.65942 239.58734
254.07744 121.68056 241.19577
254.73532 121.68275 240.93739
255.76303 121.69447 241.60597
256.05267 121.68718 240.41376
257.08658 121.69897 241.07573
258.1261 121.71081 241.73326
258.03271 121.69402 239.61101
258.69376 121.69635 239.33873
258.9707 121.68913 238.14107
260.01736 121.70108 238.78714
260.29016 121.69389 237.58694
74.632935 121.83704 200.68369
75.576668 121.8229 199.9969
76.129623 121.82079 200.22871
75.151176 121.86659 204.15367
74.953102 121.88841 206.23546
75.142464 121.89826 207.39354
75.336479 121.90811 208.55171
75.907722 121.90602 208.78204
76.848595 121.89203 208.08141
78.518967 121.85424 205.51694
79.808731 121.82843 203.87543
80.000572 121.83839 205.02382
80.916878 121.82456 204.30644
81.112877 121.83454 205.453
81.313492 121.84453 206.59959
82.223396 121.83079 205.87462
82.078331 121.85265 207.9561
82.637505 121.85081 208.16411
83.541039 121.83714 207.43159
84.096802 121.83536 207.63493
83.972595 121.85723 209.7173
85.206993 121.83183 208.03609
85.761436 121.8301 208.23389
85.983185 121.84019 209.37303
87.198715 121.81491 207.6801
88.076569 121.80146 206.92676
89.598442 121.76449 204.27846
90.782677 121.73935 202.56982
91.317032 121.73779 202.75096
91.216507 121.75977 204.82695
91.755043 121.75824 205.00633
91.668671 121.78021 207.08388
91.901611 121.79044 208.21227
92.446411 121.78895 208.38901
93.60041 121.76402 206.65933
94.139458 121.76258 206.8311
94.678123 121.76115 207.00119
94.919067 121.77145 208.12434
95.754318 121.75835 207.33643
95.999489 121.76868 208.45778
95.669403 121.80237 211.49301
96.791 121.77765 209.74243
97.33242 121.77632 209.90416
97.590988 121.78667 211.0235
98.694229 121.76205 209.26288
100.06481 121.72581 206.53714
100.31989 121.73623 207.65096
100.8522 121.735 207.80255
101.11403 121.74543 208.91533
101.38046 121.75586 210.02794
102.44724 121.73141 208.248
103.24107 121.71864 207.42862
103.50905 121.72911 208.53723
103.78163 121.73959 209.64566
104.31425 121.73847 209.78712
104.84657 121.73737 209.92706
105.37862 121.73628 210.06549
105.66232 121.7468 211.17108
106.68749 121.72256 209.36852
107.21628 121.72153 209.50179
107.9855 121.70892 208.66307
108.27304 121.7195 209.76393
109.03687 121.70693 208.92105
109.32879 121.71752 210.02017
109.62535 121.72811 211.119
110.38356 121.71561 210.27057
110.91059 121.71467 210.3936
111.66101 121.70219 209.54057
112.40633 121.68975 208.685
113.14656 121.67733 207.82687
113.44907 121.68799 208.91879
114.18399 121.6756 208.05678
114.70239 121.67475 208.1696
114.59356 121.70849 211.2146
114.49911 121.7422 214.26131
115.03151 121.74138 214.37302
115.76543 121.72905 213.50395
116.49429 121.71675 212.63251
118.20242 121.64695 206.8568
119.68678 121.58871 202.05478
120.95471 121.54201 198.22792
121.82391 121.51833 196.35959
122.49609 121.50616 195.47037
122.97853 121.50551 195.56169
123.64313 121.49337 194.66855
123.94296 121.50421 195.74052
124.42496 121.50359 195.82806
124.73178 121.51443 196.89885
125.21591 121.51382 196.98433
125.87012 121.50176 196.08321
126.51936 121.48971 195.18001
127.32898 121.46622 193.28859
128.12881 121.44274 191.39433
128.59779 121.4422 191.47122
128.90855 121.45312 192.53424
129.6911 121.4297 190.63364
130.00406 121.44063 191.69467
130.17085 121.46301 193.74373
130.6441 121.46251 193.81537
131.26329 121.45058 192.89662
131.5903 121.46154 193.95506
132.06323 121.46107 194.02313
132.81367 121.43774 192.10948
133.2816 121.43729 192.1745
133.74944 121.43686 192.23833
134.4803 121.41357 190.3185
135.07228 121.40173 189.3878
135.40588 121.41275 190.43907
136.11722 121.38952 188.51328
136.6969 121.37772 187.57761
137.15219 121.37733 187.63298
137.7245 121.36555 186.69417
138.29192 121.35379 185.75366
138.62988 121.36485 186.79872
139.19235 121.3531 185.85544
139.64247 121.35278 185.90466
139.98746 121.36385 186.94717
140.54251 121.35213 185.99976
140.99245 121.35183 186.04564
141.44231 121.35153 186.09045
142.08301 121.32845 184.14337
142.71404 121.30537 182.19432
143.24477 121.29371 181.23907
143.77063 121.28206 180.28235
144.29163 121.27042 179.32414
144.72437 121.27017 179.36089
145.15704 121.26994 179.39658
145.58969 121.26971 179.43124
145.94608 121.28088 180.46187
146.30724 121.29205 181.49178
146.81596 121.28046 180.52623
147.11285 121.30302 182.55194
147.55252 121.30283 182.58185
147.99214 121.30264 182.61066
148.55533 121.2797 180.64236
148.93069 121.29091 181.66692
149.4818 121.26799 179.6958
149.91409 121.26784 179.71994
150.39856 121.25631 178.74449
150.77861 121.26755 179.76514
151.25822 121.25603 178.78734
151.64304 121.26729 179.80614
152.07521 121.26717 179.82507
152.46719 121.27843 180.84212
152.93951 121.26694 179.85983
153.33626 121.27821 180.87498
153.80374 121.26675 179.89044
154.297 121.24393 177.90524
154.66792 121.26659 179.9169
155.07422 121.27789 180.92816
155.53206 121.26645 179.93916
155.90117 121.3005 182.94789
156.32184 121.31181 183.95636
156.7473 121.32314 184.96384
157.19133 121.3231 184.97049
157.63535 121.32307 184.97607
158.07938 121.32304 184.98059
158.51682 121.3344 185.98396
158.97159 121.31165 183.98651
159.41144 121.32301 184.98776
159.85484 121.31165 183.98808
160.29344 121.30029 182.98735
160.72725 121.28894 181.98557
161.16409 121.28896 181.98267
161.60094 121.28899 181.97871
162.06303 121.31177 183.97343
162.51973 121.32318 184.96718
162.98123 121.3346 185.95975
163.42772 121.33466 185.9514
163.85199 121.32336 184.94234
164.24686 121.30069 182.93266
164.68619 121.30077 182.9213
165.12553 121.30086 182.90891
165.56491 121.30096 182.89543
166.00429 121.30106 182.88091
166.51697 121.32391 184.86385
167.00024 121.3354 185.84619
167.4469 121.33552 185.82823
167.89359 121.33565 185.80916
168.38654 121.34717 186.78789
168.83569 121.34731 186.76656
169.28487 121.34747 186.74413
169.73407 121.34763 186.72064
170.23917 121.35917 187.6944
170.69084 121.35935 187.66861
171.20322 121.37091 188.63979
171.65736 121.37111 188.61163
172.04611 121.35992 187.58461
172.56581 121.37151 188.55203
173.16061 121.3945 190.5155
173.69241 121.40611 191.47987
174.15401 121.40634 191.44569
174.69312 121.41798 192.40732
175.07732 121.40684 191.37393
175.53905 121.40709 191.33636
176.00084 121.40736 191.29768
176.46268 121.40763 191.25784
176.92459 121.40791 191.2169
177.47845 121.4196 192.17053
177.94289 121.4199 192.12709
178.31064 121.40881 191.08725
178.7728 121.40912 191.04178
179.43808 121.43224 192.9847
180.00912 121.44398 193.93095
180.37234 121.43292 192.88704
181.0571 121.45609 194.82449
181.64041 121.46786 195.76598
182.00145 121.45683 194.71884
182.35774 121.44579 193.67107
182.94611 121.45759 194.60849
183.29774 121.44657 193.55896
183.8911 121.4584 194.49348
184.2381 121.44739 193.4422
184.83646 121.45924 194.37376
185.1788 121.44824 193.32071
185.51643 121.43725 192.26715
185.84933 121.42627 191.21306
185.9021 121.39242 188.17764
186.36082 121.39288 188.11328
186.96217 121.40478 189.03752
187.42352 121.40525 188.9705
188.03232 121.41718 189.89133
188.94562 121.45202 192.78758
189.56915 121.46398 193.70387
190.04301 121.46451 193.63029
190.51701 121.46504 193.55551
191.31003 121.4885 195.45381
191.95096 121.50053 196.36255
192.26831 121.48964 195.29659
193.08109 121.51315 197.18802
193.73453 121.52522 198.09103
194.22142 121.52583 198.00687
194.70845 121.52646 197.92142
195.37202 121.53857 198.81895
195.86179 121.53922 198.73056
196.53293 121.55135 199.62424
197.39278 121.575 201.4987
197.89029 121.5757 201.40508
198.38797 121.5764 201.31018
198.8858 121.57711 201.21393
199.57721 121.58934 202.09744
199.88202 121.57858 201.01753
200.77689 121.60234 202.87753
201.68169 121.62614 204.73424
202.19017 121.62692 204.62941
203.31548 121.66228 207.45894
204.24762 121.68616 209.30597
204.97931 121.69853 210.17198
205.29037 121.68786 209.08151
206.02734 121.70026 209.94362
206.98717 121.72424 211.77922
207.73679 121.73669 212.63577
209.15936 121.78381 216.41432
210.60172 121.83099 220.18689
211.83636 121.86665 222.97974
213.31587 121.91392 226.74075
215.28 121.98437 232.44069
217.03891 122.04332 237.16
219.05986 122.11391 242.84311
220.87077 122.17299 247.54659
220.76909 122.13945 244.48096
221.38689 122.14068 244.32588
221.51085 122.11873 242.2312
221.62534 122.09678 240.13733
221.47833 122.06322 237.07657
222.58917 122.0877 238.85303
222.93945 122.07737 237.72601
223.54454 122.07867 237.56433
223.88815 122.06837 236.43582
224.49149 122.06969 236.2713
225.36194 122.08268 237.06873
226.23767 122.0957 237.86296
226.84705 122.0971 237.69174
227.73096 122.11017 238.48035
228.89682 122.13493 240.22662
228.95657 122.11308 238.12747
229.85155 122.12623 238.90779
231.03592 122.15108 240.64349
231.37106 122.14095 239.50046
231.70166 122.13081 238.35696
232.02771 122.12068 237.21312
232.34926 122.11057 236.06892
232.66628 122.10045 234.92438
233.27768 122.10207 234.73369
234.19096 122.11542 235.49454
235.41357 122.14054 237.20451
235.72742 122.1305 236.05392
236.34561 122.13221 235.85397
237.58708 122.15744 237.55254
238.52512 122.17097 238.29643
239.46863 122.18453 239.03673
240.73651 122.2099 240.72104
241.37216 122.21177 240.50623
242.0083 122.21366 240.28935
242.64494 122.21558 240.0704
242.9532 122.20571 238.90511
243.91977 122.21947 239.62628
244.558 122.22146 239.40112
245.53317 122.23529 240.11546
245.836 122.2255 238.94446
246.81728 122.2394 239.65273
247.46014 122.24149 239.41815
248.79659 122.26732 241.05736
248.74747 122.24574 238.9425
249.04037 122.23603 237.76534
250.39108 122.26198 239.39325
251.39581 122.27609 240.08096
251.68781 122.26645 238.89812
252.69873 122.28063 239.57945
254.07947 122.30678 241.18776
255.10416 122.32106 241.85959
256.50378 122.34731 243.45634
256.42664 122.32586 241.33388
257.08868 122.32829 241.06757
258.12823 122.34272 241.72507
258.03485 122.32127 239.60281
258.69592 122.32378 239.33051
258.58826 122.30231 237.20987
260.01956 122.32886 238.77887
260.29236 122.31943 237.57863
73.459724 122.40846 203.43683
74.798981 122.3773 201.83176
75.357056 122.37503 202.06573
74.383675 122.43035 205.99269
74.951126 122.42808 206.22696
75.140495 122.44019 207.38504
75.709656 122.43795 207.61635
76.278389 122.43573 207.84566
77.5868 122.40484 206.21518
78.884628 122.37401 204.57875
79.806885 122.35757 203.86726
79.998749 122.3698 205.01563
80.91507 122.35342 204.29832
81.468498 122.35138 204.51102
81.666588 122.36366 205.65666
82.926353 122.33309 203.99504
82.776253 122.35967 206.07455
83.330414 122.35771 206.2807
84.228928 122.34152 205.54643
84.779678 122.33961 205.74796
84.650436 122.36621 207.82846
85.542603 122.35011 207.08682
86.094543 122.34826 207.28377
86.313805 122.36064 208.422
87.197113 122.34463 207.67226
87.747749 122.34285 207.86382
89.272163 122.29852 205.21649
90.458931 122.26846 203.50882
90.995804 122.26678 203.69083
91.215012 122.27928 204.81937
92.068329 122.26348 204.04971
92.291725 122.27602 205.17648
92.519699 122.28855 206.30322
93.059547 122.28696 206.47835
93.903801 122.27126 205.69949
94.440376 122.26972 205.8705
94.67675 122.28231 206.99371
95.21505 122.2808 207.16217
96.342728 122.25111 205.41811
96.290543 122.27784 207.49414
96.24791 122.30456 209.57155
97.077148 122.28903 208.77727
97.616104 122.28761 208.93829
97.589706 122.31435 211.01605
98.692978 122.28484 209.25551
99.508453 122.26942 208.45113
100.04359 122.26807 208.605
100.30574 122.28079 209.71935
100.84268 122.27949 209.87077
101.647 122.26417 209.05725
102.71133 122.23486 207.27673
103.50275 122.2196 206.4567
103.76826 122.23239 207.56467
104.03839 122.24519 208.67242
104.56857 122.244 208.81325
104.8455 122.25682 209.91992
105.37756 122.25565 210.05833
106.15741 122.24052 209.22662
106.93208 122.22541 208.39215
107.7016 122.21033 207.55496
108.22523 122.20925 207.68556
108.51033 122.22215 208.78578
109.27173 122.20712 207.94237
109.32784 122.23399 210.01315
109.6244 122.24691 211.11197
109.92561 122.25983 212.21048
110.90967 122.23094 210.38663
111.43648 122.22996 210.50821
112.18425 122.21505 209.65324
112.92693 122.20017 208.79572
113.4482 122.19923 208.91191
113.96927 122.19832 209.0267
114.91301 122.16959 207.18552
114.80174 122.21043 210.2299
115.11804 122.22345 211.31932
115.439 122.23647 212.40839
116.16808 122.22172 211.53835
116.69279 122.22087 211.64578
118.39853 122.1367 205.8698
119.8805 122.06648 201.06744
121.14603 122.01019 197.24026
122.01282 121.9817 195.37152
122.68257 121.9671 194.4819
123.16261 121.9664 194.57274
123.46017 121.97958 195.64549
123.76244 121.99276 196.71791
124.24687 121.99208 196.80588
124.73116 121.99142 196.89262
125.38793 121.97691 195.99321
125.86952 121.97628 196.07701
126.35099 121.97565 196.15956
127.16305 121.94735 194.26865
127.80237 121.93291 193.36139
128.11566 121.94617 194.42601
128.5918 121.94559 194.50285
129.2235 121.93119 193.59079
129.69698 121.93063 193.66483
130.01949 121.94392 194.72614
130.64362 121.92957 193.80934
131.2628 121.91522 192.89061
131.58981 121.92853 193.94904
132.06277 121.92802 194.01712
132.81322 121.89991 192.10353
133.28116 121.89943 192.16853
133.61502 121.91277 193.22328
134.47987 121.8709 190.31262
135.07187 121.85664 189.38197
135.53221 121.85622 189.44138
136.11682 121.842 188.50748
136.5746 121.84158 188.56429
136.91278 121.85498 189.61272
137.48993 121.84079 188.67448
138.06216 121.82661 187.7346
138.51724 121.82624 187.78659
139.19202 121.7983 185.84976
139.64214 121.79795 185.89899
139.98712 121.81139 186.94145
140.43953 121.81106 186.98871
140.99213 121.79695 186.03999
141.34416 121.81041 187.07988
141.98727 121.78255 185.13313
142.52768 121.76847 184.17992
143.15385 121.74064 182.22939
143.68213 121.72659 181.27289
144.29138 121.69878 179.31871
144.72412 121.69852 179.35545
145.1568 121.69827 179.39117
145.58946 121.69803 179.4258
145.94586 121.71156 180.45642
146.30702 121.72511 181.4863
146.74435 121.72488 181.51816
147.11266 121.73843 182.54645
147.48572 121.75198 183.57404
147.99196 121.73803 182.60516
148.49335 121.72408 181.63492
148.93051 121.7239 181.66145
149.42465 121.70997 180.68866
149.85934 121.7098 180.71297
150.34622 121.69589 179.73766
150.77847 121.69574 179.75974
151.25809 121.68185 178.78197
151.64291 121.69547 179.80075
152.0751 121.69534 179.8197
152.46709 121.70897 180.83669
152.90163 121.70885 180.85365
153.33617 121.70875 180.86955
153.80367 121.6949 179.88506
154.23576 121.69481 179.89879
154.66785 121.69473 179.91151
155.07414 121.7084 180.92274
155.53198 121.69459 179.93378
155.92209 121.72202 181.94275
156.35893 121.72196 181.95139
156.7796 121.73566 182.95876
157.23262 121.72188 181.96553
157.65808 121.73559 182.97086
158.09731 121.73557 182.97533
158.52995 121.7493 183.97864
158.97575 121.73553 182.98111
159.41321 121.74928 183.98232
159.85484 121.74928 183.98259
160.29346 121.73555 182.98187
160.72726 121.72182 181.98013
161.16411 121.72185 181.97723
161.60097 121.72189 181.9733
162.0757 121.76316 184.96779
162.53481 121.77696 185.96143
162.98128 121.77702 185.95418
163.4476 121.79082 186.94556
163.85207 121.7634 184.9368
164.24693 121.73598 182.92719
164.68626 121.73607 182.91583
165.15506 121.74992 183.90291
165.565 121.73627 182.88997
166.00439 121.73637 182.87543
166.48045 121.75024 183.8591
166.96133 121.76411 184.84151
167.40559 121.76424 184.82361
167.89372 121.77814 185.80357
168.38669 121.79204 186.78229
168.83585 121.7922 186.76093
169.33607 121.80611 187.73712
169.78769 121.80629 187.71349
170.23935 121.80647 187.68877
170.69102 121.80666 187.66295
171.2034 121.82061 188.63411
171.65756 121.82082 188.60596
172.11177 121.82103 188.57669
172.56602 121.82125 188.54636
173.23111 121.86278 191.5072
173.76532 121.87678 192.47137
174.15425 121.86327 191.43991
174.53841 121.84975 190.40771
174.9977 121.85002 190.37144
175.45703 121.85029 190.33406
176.00111 121.86434 191.29187
176.46297 121.86464 191.25206
177.01437 121.87872 192.20699
177.38684 121.86524 191.16902
177.84888 121.86556 191.12579
178.21423 121.8521 190.08624
178.77312 121.86622 191.03596
179.43842 121.89413 192.97881
180.1134 121.92206 194.91953
180.47905 121.90864 193.87538
181.05746 121.92281 194.81854
181.41844 121.9094 193.77258
181.77466 121.896 192.726
182.12616 121.88261 191.67882
182.59131 121.88301 191.62392
183.05653 121.88343 191.56787
183.64507 121.89766 192.50293
183.98726 121.88429 191.45227
184.70883 121.91235 193.37608
185.04878 121.899 192.32339
185.51688 121.89947 192.26123
185.84978 121.88613 191.20714
186.04025 121.85899 189.16219
186.3613 121.84565 188.10744
187.10518 121.87379 190.02132
187.56894 121.8743 189.95395
188.03282 121.87482 189.88541
188.94614 121.91684 192.78156
189.56967 121.93123 193.69781
190.04355 121.93179 193.62421
190.51756 121.93236 193.54942
191.31058 121.96062 195.44766
191.78967 121.96123 195.36967
192.26891 121.96184 195.29044
192.91496 121.97631 196.19588
193.56601 121.9908 197.09927
194.22205 122.00531 198.0006
194.5351 121.99212 196.93047
195.37268 122.02052 198.81267
196.04126 122.03508 199.70804
196.71486 122.04965 200.60124
197.39346 122.06425 201.49226
197.89099 122.06499 201.39864
198.38867 122.06574 201.30371
198.88654 122.06651 201.20749
199.57794 122.08117 202.09094
200.07858 122.08196 201.99159
200.97591 122.11057 203.85103
201.88315 122.13919 205.70717
202.5972 122.15394 206.58087
203.72739 122.19653 209.40929
204.45645 122.21133 210.27718
204.98016 122.21225 210.16512
205.71695 122.22709 211.02864
206.45882 122.24196 211.88963
207.42352 122.27078 213.72406
208.61841 122.31357 216.5302
209.60555 122.34246 218.35677
210.82776 122.38533 221.15385
212.06488 122.42825 223.94601
213.54686 122.48516 227.70631
215.28107 122.55608 232.43292
217.74452 122.66897 240.06787
219.77287 122.75401 245.74899
220.87198 122.78323 247.53825
220.77028 122.74261 244.47269
221.14346 122.72993 243.3481
221.0179 122.68929 240.28523
221.12747 122.66264 238.19263
221.73157 122.66397 238.0361
222.59042 122.67934 238.84483
222.94073 122.6667 237.71788
223.54584 122.6681 237.55615
224.15128 122.66952 237.39267
224.4928 122.65692 236.26312
225.36327 122.6724 237.06047
226.23904 122.68792 237.85469
227.12012 122.70347 238.64574
227.73236 122.70499 238.47202
228.89825 122.73466 240.2182
229.23711 122.72218 239.07925
230.41617 122.75191 240.81821
231.03741 122.75355 240.63498
231.37256 122.74112 239.49193
231.70319 122.7287 238.34846
232.02927 122.71629 237.20464
232.35081 122.70388 236.06046
232.66783 122.69148 234.91591
233.27927 122.69321 234.72519
234.49399 122.72322 236.43936
235.71912 122.75328 238.14847
236.03546 122.74097 236.99706
236.65619 122.74281 236.79631
237.58879 122.75884 237.54379
237.89905 122.74657 236.3889
239.15399 122.77683 238.07932
240.4194 122.80715 239.76437
241.05257 122.80914 239.55037
241.68622 122.81117 239.33434
242.64679 122.82742 240.06134
242.62616 122.80108 237.95183
243.59027 122.81739 238.67384
243.89203 122.80528 237.507
244.86221 122.82166 238.22308
245.83795 122.83808 238.93524
246.47778 122.84029 238.70369
247.46213 122.85679 239.40884
248.79861 122.8876 241.04794
249.44763 122.88992 240.80713
249.04242 122.84939 237.75598
250.74728 122.89462 240.31889
251.39793 122.89702 240.07144
252.04913 122.89944 239.82176
252.7009 122.90189 239.56987
254.08167 122.93304 241.17805
255.10638 122.94991 241.84984
256.50604 122.98117 243.44647
256.80078 122.96941 242.25223
257.83984 122.98641 242.91199
258.88452 123.00346 243.56734
258.79626 122.97736 241.44307
259.84451 122.99447 242.09265
260.12912 122.98279 240.89182
261.57068 123.0144 242.45641
261.46399 122.98832 240.33109
73.067146 122.96076 204.34731
74.408989 122.92461 202.74344
74.96962 122.92216 202.97852
74.381538 122.9702 205.98268
74.568779 122.98458 207.14172
75.138382 122.98217 207.37506
75.707565 122.97978 207.6064
76.648911 122.96064 206.90791
77.214691 122.95831 207.13426
78.882629 122.90573 204.56906
79.804924 122.88673 203.85765
80.359245 122.88451 204.07417
81.273079 122.86559 203.35596
