ply
format ascii 1.0
comment PCL generated
element vertex 1597
property float x
property float y
property float z
element camera 0
property float view_px
property float view_py
property float view_pz
property float x_axisx
property float x_axisy
property float x_axisz
property float y_axisx
property float y_axisy
property float y_axisz
property float z_axisx
property float z_axisy
property float z_axisz
property float focal
property float scalex
property float scaley
property float centerx
property float centery
property int viewportx
property int viewporty
property float k1
property float k2
end_header
213.88271 136.56671 236.25549
214.25163 136.49832 235.14665
214.16052 136.28711 232.09506
214.97562 136.36159 232.92743
215.56329 136.36469 232.78706
216.15128 136.36784 232.64505
216.97702 136.4425 233.47012
217.808 136.51724 234.29237
218.40176 136.52057 234.14415
219.24072 136.59546 234.9612
220.0849 136.67043 235.77525
220.43478 136.6024 234.65508
221.03229 136.60596 234.49942
221.88486 136.68112 235.30647
222.74268 136.75636 236.11044
223.34615 136.7601 235.94829
224.47415 136.90712 237.70918
225.08328 136.911 237.54219
225.69278 136.91493 237.37338
226.03317 136.84727 236.24245
226.09705 136.70796 234.15147
226.9747 136.78371 234.93829
227.8577 136.85956 235.72191
228.74605 136.93549 236.50226
229.07605 136.86803 235.36578
230.53882 137.08763 238.05307
230.86966 137.02029 236.9129
231.19595 136.95299 235.77234
231.80948 136.9575 235.58517
232.42345 136.96208 235.39612
233.03784 136.96674 235.20517
233.95197 137.0433 235.96382
234.26801 136.97621 234.81758
235.79645 137.19676 237.47052
237.0336 137.34557 239.16765
237.66278 137.35062 238.96301
238.29242 137.35573 238.75639
239.55099 137.50488 240.44098
239.8699 137.43817 239.28288
240.82275 137.51553 240.01428
241.78113 137.59299 240.74194
242.42078 137.5985 240.52261
243.06094 137.60406 240.30116
244.36015 137.75392 241.96059
244.67462 137.68753 240.79259
245.31885 137.69331 240.56393
246.30043 137.77133 241.27193
246.94826 137.77728 241.03809
247.5966 137.78326 240.80203
248.58987 137.86159 241.49988
248.89493 137.79546 240.32343
249.89432 137.87393 241.01498
250.89932 137.95253 241.70244
251.55544 137.95889 241.45349
252.21207 137.9653 241.20227
253.22882 138.04417 241.87907
253.52696 137.9783 240.69302
254.18521 137.98489 240.435
254.84399 137.99155 240.17467
256.24274 138.14325 241.76462
256.90765 138.15004 241.49762
257.94791 138.22945 242.15251
257.8616 138.09122 240.03339
259.28534 138.24335 241.60471
259.95483 138.25037 241.32726
259.85464 138.11211 239.20735
260.9075 138.19183 239.84621
262.74631 138.41708 242.31625
72.971031 135.88916 203.65974
73.149323 135.95818 204.81917
74.875359 135.72705 202.30054
74.286545 135.94614 205.29721
75.615898 135.79021 203.68988
75.800369 135.85928 204.84451
76.740677 135.77849 204.15172
77.302467 135.77267 204.37968
77.122887 135.91666 206.45734
77.688934 135.91089 206.68343
78.985374 135.75552 205.05185
79.545502 135.74989 205.27202
80.825874 135.59477 203.63062
81.380089 135.58929 203.84496
81.933868 135.58385 204.0574
82.487213 135.57846 204.26796
83.39035 135.49846 203.54297
83.9403 135.49321 203.74884
84.834999 135.41338 203.01729
86.066895 135.25905 201.34554
86.608002 135.25401 201.54309
87.148674 135.24904 201.73888
86.683571 135.4677 204.75049
87.56353 135.38826 204.00526
87.447754 135.53236 206.07942
87.669167 135.60197 207.21349
88.220253 135.59717 207.40471
89.738686 135.36914 204.76332
90.281425 135.3645 204.94843
90.823753 135.35991 205.13177
91.99585 135.20667 203.42111
91.907188 135.35091 205.4933
92.138199 135.42081 206.61928
92.373787 135.49071 207.74518
93.529335 135.3378 206.02271
94.069244 135.33356 206.19582
94.608803 135.32935 206.36717
95.147964 135.3252 206.53688
96.2771 135.17271 204.79984
95.932465 135.39125 207.82466
96.763199 135.31308 207.03607
98.164093 135.08672 204.33467
98.979256 135.00877 203.53831
99.223526 135.07912 204.65154
100.31337 134.92722 202.89346
100.00375 135.14581 205.91977
99.984016 135.29028 207.9903
100.51962 135.28667 208.14372
101.32533 135.20908 207.33566
102.12579 135.13156 206.52463
102.921 135.05414 205.71066
103.71098 134.97679 204.8938
104.23514 134.9735 205.03668
105.27525 134.82236 203.25146
106.04958 134.74524 202.42606
106.31227 134.81604 203.52701
107.08112 134.73906 202.69731
107.34817 134.80992 203.7966
107.12815 135.02855 206.82864
107.89618 134.95169 205.99449
108.41808 134.94876 206.12535
108.46272 135.09355 208.19144
109.22505 135.01686 207.35164
109.51503 135.08786 208.44821
110.0408 135.08508 208.57442
111.25247 134.86101 205.78706
112.22298 134.71083 203.96611
112.51199 134.782 205.05692
113.02705 134.77943 205.17506
113.76083 134.70319 204.31882
113.40697 134.99561 208.32759
113.71461 135.06683 209.41714
114.45017 134.99071 208.55722
114.97146 134.98831 208.66992
115.28577 135.05965 209.75684
116.01341 134.98366 208.89111
116.73599 134.90775 208.02296
116.85512 135.0528 210.08382
117.57488 134.97697 209.21237
118.09499 134.97481 209.3167
118.42274 135.04631 210.39821
118.94492 135.04422 210.50024
119.65424 134.96857 209.62135
120.17364 134.96657 209.72017
120.51041 135.03816 210.79807
121.21194 134.96266 209.91368
121.55324 135.03432 210.98975
121.72403 135.17953 213.04712
122.07713 135.25121 214.12263
122.77561 135.17584 213.23236
123.4691 135.10054 212.33987
124.15759 135.02528 211.44521
125.00418 134.87657 209.56454
125.51964 134.87491 209.64946
125.71848 135.02026 211.70235
126.23851 135.01866 211.78539
126.605 135.09056 212.85254
127.27818 135.01555 211.94748
127.79783 135.01402 212.0265
127.73274 135.30637 216.05038
128.40555 135.23145 215.14133
129.21474 135.08311 213.243
130.01416 134.93486 211.34193
130.8038 134.78665 209.43825
132.25406 134.27138 202.59068
132.35381 134.49039 205.62297
132.46793 134.70938 208.65598
132.59642 134.92838 211.68958
133.11258 134.92717 211.7552
133.75067 134.8526 210.82973
135.10146 134.33774 203.96175
136.41843 133.82298 197.08844
137.58676 133.3817 191.20061
138.72612 132.94051 185.30829
139.39662 132.79286 183.37645
139.94987 132.71861 182.43394
140.3931 132.71776 182.48152
140.83624 132.71693 182.52802
141.17902 132.78947 183.56567
141.72237 132.71535 182.61775
142.16534 132.71458 182.66095
142.60826 132.71384 182.70309
143.14182 132.63979 181.75096
143.49393 132.71242 182.78409
143.8508 132.78506 183.81654
144.29593 132.78441 183.85452
144.90314 132.63715 181.90338
145.34335 132.63654 181.93881
146.01231 132.41602 178.99001
146.51909 132.34215 178.02812
147.09247 132.19499 176.07011
147.44902 132.26779 177.09515
147.94366 132.194 176.12929
148.3692 132.19353 176.15729
148.73288 132.26637 177.17966
149.16077 132.26593 177.20576
149.70268 132.11894 175.23947
150.1257 132.11855 175.2632
150.54869 132.11818 175.28593
150.92184 132.1911 176.30368
151.34718 132.19077 176.32448
151.68248 132.33701 178.33681
152.06996 132.40997 179.35214
152.46225 132.48297 180.36665
152.89713 132.4827 180.38368
153.29657 132.55573 181.39636
153.73381 132.55548 181.41139
154.14043 132.62854 182.4222
154.55185 132.70161 183.43207
154.96805 132.7747 184.44106
155.43584 132.70128 183.45499
155.85683 132.77441 184.46191
156.28261 132.84755 185.4679
156.74556 132.77419 184.47852
157.18993 132.77409 184.48518
157.61151 132.92056 186.48529
158.06964 132.84724 185.4926
158.50323 132.99374 187.49066
158.95479 132.99374 187.49312
159.40813 132.92049 186.49716
159.85603 132.77399 184.50278
160.30341 132.84729 185.49927
160.74475 132.77409 184.50008
161.17345 132.62764 182.50255
161.61302 132.62775 182.49855
162.06523 132.70114 183.49074
162.47714 132.55473 181.4902
162.91434 132.5549 181.48306
163.35156 132.55507 181.47488
163.78879 132.55527 181.46564
164.22603 132.55548 181.45535
164.63623 132.48244 180.44704
165.10056 132.55595 181.43158
165.53786 132.55623 181.41811
165.97517 132.55652 181.40358
166.48584 132.70338 183.38127
166.88895 132.63043 182.36792
167.32874 132.63078 182.3501
167.76855 132.63113 182.33124
168.25467 132.70482 183.30756
168.59959 132.55864 181.29422
169.03709 132.55907 181.27226
169.47464 132.55951 181.24927
169.85631 132.48666 180.22946
170.23322 132.41385 179.20886
170.78745 132.56094 181.17387
171.28824 132.63477 182.14192
171.72836 132.63531 182.11345
172.23645 132.70918 183.07889
172.8197 132.8564 185.03775
173.26718 132.85701 185.00552
173.71471 132.85765 184.97221
174.31735 133.00496 186.92639
174.68983 132.93231 185.89641
175.13992 132.93301 185.85962
175.6748 133.00706 186.8154
176.12741 133.00781 186.7762
176.49048 132.93524 185.74261
176.9408 132.93604 185.70139
177.67433 133.15691 188.63754
178.13199 133.15775 188.5934
178.78813 133.30534 190.53285
179.25075 133.30624 190.48599
179.71342 133.30717 190.43796
180.06975 133.23474 189.39717
180.42133 133.16232 188.35577
180.76814 133.08994 187.31375
180.99655 132.94415 185.28033
181.44756 132.94516 185.22797
181.89865 132.94621 185.17448
182.34982 132.94728 185.11984
182.80109 132.94836 185.0641
183.37816 133.0229 185.99657
183.832 133.02405 185.93822
184.4165 133.09865 186.86746
185.00595 133.17329 187.79494
185.4649 133.17453 187.73251
186.06178 133.24925 188.65669
186.6636 133.32401 189.57901
187.27036 133.3988 190.49945
187.88205 133.47363 191.41803
188.64618 133.62199 193.32101
189.42009 133.7704 195.22134
190.0515 133.84538 196.13341
190.68785 133.92041 197.04346
191.80066 134.21602 200.90604
192.61382 134.36467 202.79535
193.59879 134.58691 205.66585
194.43402 134.73572 207.54901
195.44592 134.95811 210.41243
196.64182 135.25415 214.2549
197.51387 135.40317 216.12782
198.39578 135.55228 217.99768
199.64066 135.84859 221.82747
201.08411 136.21861 226.63344
202.55203 136.58876 231.43347
204.59592 137.17987 239.16812
205.37503 137.25584 240.03574
205.59311 137.11102 237.96303
205.99281 137.03983 236.86945
205.80717 136.74773 232.84027
205.60229 136.45558 228.81345
205.97345 136.3844 227.72102
206.94252 136.53426 229.55858
207.71826 136.61052 230.41626
208.29337 136.61314 230.29558
209.28506 136.76324 232.12395
210.49734 136.98715 234.92343
211.51147 137.13744 236.7439
212.32011 137.21408 237.58693
212.91597 137.21703 237.45404
213.5121 137.22003 237.31955
213.88565 137.14929 236.21132
214.47989 137.15237 236.0741
214.61896 137.00789 233.99338
215.439 137.08485 234.82433
215.79901 137.01424 233.713
216.38948 137.01749 233.57031
216.98024 137.0208 233.42596
217.81126 137.09802 234.24796
218.40509 137.10146 234.09969
218.99924 137.10492 233.94972
219.84102 137.18237 234.76418
220.43826 137.18596 234.61018
221.03584 137.18961 234.45451
221.88846 137.26727 235.26128
222.74634 137.34503 236.065
223.09024 137.27487 234.93993
224.47797 137.50079 237.66322
225.3517 137.57881 238.45766
225.69669 137.50882 237.32727
226.03712 137.43887 236.19644
226.10104 137.29486 234.10579
226.70432 137.29903 233.93358
227.30801 137.30327 233.75964
228.19147 137.38168 234.54114
229.08029 137.46019 235.31938
230.54318 137.68713 238.00604
231.16087 137.6917 237.82104
231.48969 137.62212 236.67984
232.10577 137.62679 236.49185
233.01657 137.70575 237.25476
233.33923 137.63631 236.11012
233.95663 137.64116 235.91641
234.57449 137.64607 235.72076
235.8013 137.7997 237.42259
236.7318 137.87912 238.17032
237.97702 138.03302 239.86255
238.60922 138.0383 239.655
239.55615 138.11804 240.39188
239.87511 138.04904 239.23384
240.5088 138.05452 239.02022
241.14299 138.06006 238.80453
242.10196 138.14015 239.52983
243.06644 138.22037 240.2513
244.03645 138.30067 240.96895
244.68024 138.30655 240.74229
245.32455 138.31248 240.51355
246.30621 138.3931 241.22122
247.29343 138.47382 241.92494
247.94438 138.48 241.68791
248.94025 138.56091 242.38451
249.24786 138.49255 241.20718
250.24988 138.57365 241.89751
250.90549 138.58011 241.65067
252.27071 138.73619 243.26569
252.57541 138.66801 242.08131
253.95438 138.82434 243.68692
253.89548 138.68141 241.56985
254.19165 138.61333 240.38258
254.48325 138.54524 239.19501
255.87958 138.70193 240.78546
256.16968 138.63393 239.59427
257.2049 138.7159 240.25093
257.49088 138.64793 239.05716
259.29214 138.88013 241.55095
259.5791 138.81226 240.35245
259.86142 138.74437 239.15372
260.91437 138.82671 239.79224
262.36307 138.9843 241.34389
71.792572 136.6615 206.36388
71.978523 136.73273 207.52644
73.326538 136.57153 205.93115
72.747864 136.79765 208.93155
74.087494 136.63661 207.32898
74.660286 136.63048 207.56522
75.608276 136.54703 206.87587
76.550781 136.46367 206.18245
77.117279 136.45772 206.41061
78.419304 136.29726 204.78355
79.710754 136.13693 203.15051
80.265839 136.13123 203.36882
81.180893 136.04836 202.65555
81.732613 136.04276 202.86902
82.283905 136.03722 203.08061
82.83477 136.03171 203.29031
83.385208 136.02626 203.49814
83.935204 136.02087 203.7041
84.829979 135.93849 202.97285
86.061974 135.77919 201.30161
86.603119 135.77402 201.49928
86.806183 135.84589 202.63327
86.678711 135.99472 204.70628
87.226128 135.98964 204.90123
87.442986 136.06154 206.03519
87.664421 136.13344 207.16914
88.865791 135.97478 205.47537
90.056717 135.81627 203.77638
90.597015 135.81152 203.96069
91.136894 135.80684 204.14331
91.991478 135.72543 203.37825
91.902817 135.87439 205.45013
92.443993 135.86984 205.62836
92.369499 136.01878 207.70175
93.525131 135.86093 205.97977
94.367752 135.77991 205.20293
94.604698 135.85226 206.32442
95.143913 135.84799 206.4942
95.682747 135.8438 206.66234
95.635788 135.99283 208.73505
96.46907 135.91212 207.94751
97.872551 135.67842 205.24751
98.690247 135.59795 204.45218
99.219849 135.59407 204.60988
100.02943 135.51375 203.80914
99.722298 135.73944 206.83563
99.705032 135.88861 208.90659
100.51608 135.80844 208.10178
101.32185 135.72835 207.29399
101.85439 135.72475 207.44359
102.65213 135.64482 206.63058
103.44463 135.56497 205.81465
103.9713 135.56155 205.95827
104.75581 135.48184 205.13724
105.53511 135.40222 204.3134
106.3092 135.32268 203.48676
106.57657 135.39581 204.58736
106.84856 135.46896 205.68777
107.12518 135.54214 206.78798
107.64984 135.53906 206.92101
108.17424 135.53604 207.05255
108.22135 135.68553 209.1189
108.98619 135.60635 208.27995
108.81141 135.83206 211.31567
109.57573 135.75299 210.47377
110.56364 135.59781 208.65871
111.54155 135.44272 206.83989
112.06175 135.44002 206.96062
112.58174 135.43738 207.07991
113.32045 135.35864 206.22507
112.97145 135.66054 210.23419
113.284 135.73409 211.32471
114.02449 135.65547 210.46608
114.55069 135.653 210.57986
115.07668 135.65056 210.69225
115.60246 135.64816 210.80321
116.53186 135.49373 208.95987
116.85292 135.56747 210.04395
117.57272 135.48918 209.17274
117.89825 135.56299 210.25502
118.22847 135.63681 211.3369
118.75311 135.63464 211.43942
119.83955 135.40459 208.60254
120.17166 135.4785 209.68073
120.69093 135.47649 209.77821
121.39008 135.39853 208.8936
121.72897 135.47253 209.96909
122.07257 135.54657 211.04408
122.42084 135.62061 212.11861
123.11452 135.54282 211.22769
123.63527 135.541 211.31747
124.32138 135.46332 210.42262
125.00252 135.38568 209.52559
125.51801 135.38397 209.61053
125.87511 135.45819 210.67863
126.39275 135.45654 210.76132
127.06367 135.37907 209.85745
127.57864 135.3775 209.93709
128.09349 135.37596 210.01544
128.16974 135.60199 213.0515
128.69159 135.60049 213.12831
129.35466 135.52319 212.21672
130.01279 135.44595 211.30313
130.80247 135.29294 209.39981
132.25282 134.76093 202.55353
132.48424 134.91125 204.59694
132.59595 135.13739 207.62907
132.72205 135.36351 210.66187
133.23582 135.36227 210.72722
133.87152 135.28529 209.80165
135.21997 134.75369 202.93463
136.65178 134.14644 195.07214
137.81537 133.69083 189.18486
138.83757 133.31105 184.28384
139.50571 133.15862 182.35211
139.94901 133.15771 182.4008
140.28709 133.23259 183.44
140.73268 133.23174 183.48676
141.07788 133.30664 184.52451
141.62367 133.23009 183.57701
142.06908 133.22929 183.62047
142.51442 133.22853 183.66286
142.95972 133.2278 183.70412
143.31665 133.3028 184.73752
143.76425 133.30209 184.77681
144.21179 133.30141 184.815
144.82144 133.14935 182.86446
145.34276 133.07301 181.90607
146.08801 132.76962 177.96356
146.51854 132.76906 177.99612
147.09193 132.61713 176.03847
147.44852 132.69229 177.06331
147.94318 132.6161 176.09764
148.3045 132.6913 177.12073
148.79428 132.61516 176.15266
149.21977 132.61472 176.17863
149.75931 132.46294 174.21254
150.17995 132.46254 174.23616
150.60056 132.46216 174.25874
150.92149 132.61313 176.27213
151.29944 132.68845 177.28891
151.63715 132.83945 179.30101
151.98445 132.99046 181.3125
152.38155 133.06583 182.32704
152.89685 132.91423 180.35144
153.33173 132.91397 180.36743
153.73358 132.9894 181.37897
154.17082 132.98917 181.39291
154.60805 132.98897 181.40582
155.01947 133.06444 182.41451
155.45908 133.06429 182.42537
155.89867 133.06413 182.43517
156.33826 133.06401 182.44388
156.76166 133.13956 183.44856
157.18985 133.21512 184.45226
157.62283 133.2907 185.45494
158.07858 133.215 184.46242
158.51637 133.29062 185.463
158.96733 133.21497 184.46828
159.4117 133.21497 184.4696
159.85481 133.06371 182.47559
160.29741 133.1394 183.47191
160.73396 133.06381 182.4729
161.16571 132.98825 181.47285
161.59265 132.9127 180.4718
162.02745 132.91283 180.46684
162.44722 132.83733 179.46375
162.86218 132.76183 178.45972
163.31206 132.83766 179.44861
163.76674 132.91351 180.43634
164.2016 132.91373 180.42609
164.63647 132.91397 180.41481
165.10081 132.98988 181.39915
165.53813 132.99016 181.38568
165.97546 132.99045 181.37115
166.44949 133.06644 182.35201
166.88928 133.06677 182.33528
167.32909 133.06712 182.31746
167.76892 133.0675 182.2986
168.2088 133.0679 182.27867
168.55133 132.91696 180.26579
169.03754 132.99307 181.23979
169.47508 132.99352 181.21677
169.85678 132.91832 180.19714
170.3503 132.99449 181.16757
170.84866 133.07069 182.13664
171.28877 133.07123 182.10922
171.72891 133.07178 182.08073
172.23703 133.14806 183.04597
172.82031 133.30005 185.00447
173.26781 133.30069 184.97224
173.71535 133.30133 184.93892
174.39557 133.52914 187.88683
174.85042 133.52985 187.85074
175.30534 133.53058 187.81352
175.84508 133.60704 188.76875
176.30251 133.60782 188.7291
176.58084 133.45717 186.70215
177.12556 133.53371 187.65358
177.76956 133.68602 189.59605
178.22966 133.6869 189.55168
178.78903 133.76355 190.49835
179.25166 133.76447 190.45145
179.61034 133.68967 189.4117
179.96426 133.61487 188.37135
180.20459 133.46432 186.33922
180.65787 133.46533 186.28879
180.99756 133.39058 185.24663
181.44859 133.39162 185.19423
182.0182 133.46848 186.13077
182.47182 133.46957 186.07584
183.04883 133.54651 187.00922
183.75652 133.69928 188.93002
184.21764 133.70049 188.87076
184.67885 133.70171 188.81032
185.14015 133.70296 188.74873
185.60156 133.70422 188.68596
186.3387 133.85721 190.59712
186.94537 133.9344 191.51854
187.55701 134.01164 192.4381
188.17357 134.08891 193.35574
188.79509 134.16623 194.27148
189.57147 134.31947 196.17107
190.20532 134.3969 197.08253
190.99889 134.55025 198.97705
191.6451 134.62776 199.88412
192.61546 134.85715 202.75771
193.27647 134.93478 203.65988
194.1069 135.08839 205.54346
195.11403 135.31799 208.40714
196.47443 135.69957 213.23228
197.34409 135.85342 215.10522
198.5719 136.15927 218.93867
199.99585 136.5412 223.74863
201.26524 136.84726 227.57181
203.0985 137.38142 234.33139
204.96596 137.91577 241.08316
205.56369 137.91823 240.97008
205.97293 137.8447 239.87628
206.56866 137.84723 239.76053
206.19676 137.4696 234.75246
206.19275 137.24402 231.703
206.76967 137.2466 231.58638
207.3468 137.24922 231.46825
208.12747 137.32797 232.32466
208.70749 137.3307 232.2029
209.49594 137.40958 233.0547
210.50012 137.56464 234.87846
211.51431 137.71979 236.69849
212.10751 137.72276 236.56773
212.91891 137.80194 237.40833
213.51509 137.80502 237.27377
213.8887 137.73196 236.16568
214.70824 137.81133 236.99969
215.30524 137.81454 236.86017
215.67233 137.74161 235.74886
216.26746 137.74492 235.60661
217.09795 137.82454 236.43166
217.45859 137.75171 235.31711
218.05461 137.75519 235.16985
218.65094 137.75871 235.0209
219.49248 137.83861 235.83679
220.0919 137.84225 235.68382
220.69165 137.84596 235.52911
221.29175 137.84972 235.37273
221.89215 137.85353 235.21458
222.75012 137.93379 236.01807
223.3537 137.93774 235.85576
224.48187 138.09457 237.61574
225.09113 138.09868 237.44859
225.43369 138.02638 236.31898
225.77167 137.95412 235.18896
226.10513 137.88187 234.05856
226.70847 137.88615 233.88629
227.58914 137.96701 234.67009
228.47516 138.04797 235.45059
229.36653 138.12903 236.22784
230.83202 138.36333 238.91307
231.45226 138.36804 238.72726
231.7836 138.29619 237.5854
232.40222 138.30099 237.39655
232.43266 138.15257 235.30051
233.04718 138.15747 235.10939
233.66217 138.16245 234.91638
234.27759 138.16747 234.72142
234.89348 138.17256 234.52455
236.12332 138.33122 236.22308
237.05438 138.41327 236.96858
237.99092 138.49542 237.71043
238.93295 138.57767 238.44864
239.56369 138.58321 238.23779
239.87569 138.51195 237.08037
241.14847 138.67136 238.75366
242.10751 138.75401 239.47864
242.74527 138.75986 239.25784
244.04218 138.91968 240.91714
244.68604 138.9257 240.69038
245.33038 138.93179 240.46149
246.31213 139.01498 241.16887
247.63884 139.17532 242.80977
248.29236 139.18169 242.57167
249.29085 139.26523 243.26701
249.60101 139.19463 242.08887
249.90668 139.12404 240.91035
250.55981 139.13065 240.66435
251.92261 139.2917 242.2798
252.58188 139.29849 242.02734
253.96097 139.45984 243.63245
254.26422 139.38951 242.44453
254.19826 139.24188 240.32845
254.48987 139.17154 239.14096
255.88631 139.33328 240.73085
255.80406 139.18562 238.61488
256.83682 139.27017 239.27223
257.49771 139.27736 239.00237
258.53909 139.36208 239.65189
259.58606 139.4469 240.29698
259.48331 139.29924 238.17873
260.92139 139.46172 239.7365
261.97995 139.54675 240.37015
72.177437 137.12875 205.39735
72.360825 137.20229 206.55875
73.320557 137.116 205.88203
72.741837 137.34927 208.88191
73.700844 137.26306 208.20114
74.276215 137.25674 208.43852
75.226807 137.1707 207.75055
76.171906 137.08475 207.05852
77.111519 136.99887 206.36241
78.413635 136.83342 204.7359
79.705185 136.66812 203.10339
80.623245 136.58261 202.39337
81.53582 136.49721 201.67946
82.442909 136.4119 200.96169
82.989182 136.40627 201.17145
83.535049 136.40068 201.3793
84.080475 136.39516 201.58534
84.625481 136.38968 201.78952
85.170052 136.38425 201.99187
85.714203 136.37888 202.19237
86.257919 136.37357 202.39105
86.125854 136.52708 204.46373
86.003403 136.68056 206.53824
86.555893 136.67532 206.73509
87.107941 136.67014 206.93013
87.331932 136.74429 208.06482
88.861031 136.50139 205.4301
90.052055 136.33792 203.7316
90.592392 136.33305 203.91605
90.814713 136.40746 205.04362
91.986992 136.24432 203.33397
91.898354 136.39796 205.40552
92.439568 136.39331 205.58386
92.672745 136.46783 206.70869
93.825966 136.30508 204.98645
94.666191 136.22154 204.20906
95.200851 136.21716 204.37906
95.437462 136.29187 205.49873
95.678642 136.36659 206.61836
95.631699 136.52032 208.69073
95.884567 136.59506 209.81082
97.293098 136.354 207.11304
97.830528 136.34991 207.27466
98.650429 136.26695 206.47871
99.465019 136.1841 205.67972
99.440704 136.33798 207.74977
99.425934 136.49185 209.82109
100.2395 136.40915 209.0173
101.04782 136.32655 208.21045
101.85087 136.24403 207.40067
102.64868 136.16159 206.58789
103.17816 136.15804 206.7338
103.44673 136.23328 207.84036
104.49438 136.07231 206.05806
105.02051 136.06891 206.19867
106.05282 135.90813 204.40938
106.32266 135.98357 205.51051
106.84547 135.98033 205.64594
107.12212 136.05582 206.746
107.64684 136.05267 206.8791
107.68932 136.20686 208.94539
107.74135 136.36104 211.01262
108.74722 136.20074 209.20656
108.80853 136.35497 211.27322
109.57291 136.27341 210.43156
110.56089 136.11336 208.61696
111.76515 135.87483 205.82768
112.28296 135.87209 205.94791
112.80054 135.86938 206.06671
113.53687 135.78819 205.21152
113.40197 136.02112 208.24626
113.49557 136.17551 210.3092
114.02202 136.17293 210.42448
114.54826 136.17039 210.53835
115.07429 136.16789 210.65077
115.80447 136.08699 209.78601
116.32765 136.08458 209.8951
116.85065 136.08223 210.00278
117.57051 136.00148 209.13181
117.70145 136.15602 211.19168
118.22631 136.15378 211.29565
118.94076 136.07318 210.41954
119.83749 135.91426 208.56197
120.16963 135.99052 209.64001
121.0539 135.83173 207.77736
121.74825 135.75137 206.89211
121.90469 135.90607 208.94751
122.07066 136.06078 211.00334
122.59175 136.05884 211.09586
123.11269 136.05693 211.18703
123.63348 136.05507 211.27684
124.31964 135.97495 210.3822
125.16391 135.81657 208.50189
125.677 135.81485 208.5865
126.03172 135.89142 209.65402
126.39113 135.968 210.72105
127.06209 135.88809 209.81738
127.72809 135.80823 208.91162
128.24055 135.80666 208.98962
128.16823 136.11806 213.01099
128.97762 135.96007 211.11476
129.49455 135.95859 211.18956
130.15031 135.87891 210.27583
130.93762 135.72108 208.37257
132.51971 135.09413 200.53943
132.74632 135.24922 202.58185
132.5947 135.63887 207.58987
132.9745 135.71577 208.64444
133.2346 135.87085 210.68747
133.74832 135.86961 210.75156
135.09924 135.32129 203.88622
136.53354 134.69489 196.02547
137.58479 134.30307 191.12993
138.72424 133.83318 185.23982
139.50479 133.59779 182.3179
139.94812 133.59688 182.36662
140.18108 133.75224 184.39702
140.73184 133.67323 183.45242
141.07706 133.7505 184.48999
141.62288 133.67155 183.54269
142.0683 133.67075 183.58617
142.51367 133.66995 183.62859
142.95898 133.6692 183.66985
143.31595 133.74655 184.70308
143.84946 133.66774 183.74916
144.29462 133.66705 183.78717
144.90189 133.51021 181.83679
145.34215 133.50957 181.87222
146.01117 133.2747 178.92453
146.44412 133.27411 178.95726
146.94849 133.19547 177.99455
147.44801 133.11685 177.03046
147.87604 133.11633 177.05971
148.30402 133.11584 177.08791
148.79382 133.03729 176.12003
149.27878 132.95877 175.15082
149.70187 132.95834 175.1756
150.12492 132.95793 175.19939
150.54796 132.95755 175.22211
150.87131 133.11328 177.23523
151.20425 133.26901 179.24777
151.59181 133.34673 180.26381
151.98415 133.42444 181.27899
152.38126 133.50218 182.29337
152.89659 133.34581 180.31815
153.36688 133.26752 179.33781
153.76636 133.34531 180.34909
154.23181 133.26704 179.3665
154.63606 133.34488 180.37582
155.07089 133.3447 180.38762
155.48232 133.42256 181.39505
155.91953 133.42242 181.40479
156.33815 133.50034 182.41026
156.76155 133.57826 183.41475
157.18977 133.6562 184.41824
157.62277 133.73416 185.42075
158.07855 133.65608 184.42842
158.51636 133.73409 185.42882
158.96733 133.65604 184.43427
159.41348 133.57802 183.43866
159.85484 133.50002 182.44194
160.29443 133.50006 182.44115
160.73404 133.50014 182.43929
161.1658 133.4222 181.43944
161.59277 133.34427 180.43857
162.02759 133.34439 180.43355
162.43233 133.18846 178.43382
162.86235 133.18863 178.42682
163.31224 133.26685 179.4155
163.76695 133.34509 180.40306
164.20183 133.34531 180.39282
164.66377 133.4236 181.3781
165.10109 133.42386 181.36568
165.57028 133.50218 182.34865
166.0443 133.58054 183.33037
166.48648 133.58087 183.31464
166.9287 133.58121 183.29778
167.37093 133.58157 183.27989
167.76932 133.50391 182.26491
168.16292 133.42627 181.24911
168.55174 133.34863 180.23245
169.03798 133.42712 181.20625
169.47556 133.4276 181.18321
169.91316 133.42809 181.15915
170.4091 133.50665 182.12924
170.9099 133.58525 183.09798
171.35243 133.58582 183.07042
171.72949 133.5083 182.04695
172.23763 133.58698 183.01202
172.75061 133.66568 183.97568
173.26845 133.74442 184.9379
173.79115 133.82318 185.89867
174.4738 134.05815 188.84583
174.93109 134.05888 188.80954
175.38844 134.05963 188.77209
175.9306 134.13852 189.72691
176.3033 134.0612 188.69392
176.67123 133.98392 187.66023
177.21838 134.06287 188.61122
177.86484 134.21999 190.55313
178.32735 134.22089 190.50848
178.78995 134.22182 190.46271
179.35423 134.3009 191.40755
179.6113 134.1456 189.37624
179.96524 134.06844 188.33603
180.31444 133.9913 187.29521
180.65889 133.91417 186.25381
180.9986 133.83707 185.21181
181.44965 133.83813 185.15941
181.90079 133.83923 185.10585
182.47293 133.91855 186.04077
183.04999 133.99789 186.97395
183.75769 134.15547 188.89436
184.21884 134.15669 188.83505
184.81065 134.23616 189.76294
185.14142 134.15923 188.71298
185.73825 134.23877 189.63788
186.34003 134.31834 190.56096
187.08699 134.4762 192.46919
187.5584 134.47762 192.4015
188.175 134.55731 193.31894
188.94406 134.71533 195.22043
189.57298 134.79514 196.13367
190.35921 134.95325 198.03012
191.00049 135.03316 198.93898
191.80391 135.19139 200.83032
192.93636 135.5063 204.68698
193.60225 135.5864 205.58817
194.43756 135.74484 207.47049
195.44962 135.98169 210.33276
196.81493 136.37531 215.1561
197.51779 136.45566 216.04576
198.74808 136.77113 219.87799
200.17455 137.16508 224.68651
201.62544 137.55917 229.48917
203.28224 138.03178 235.2662
205.15222 138.58295 242.01611
205.75244 138.58548 241.90253
206.16415 138.50964 240.80844
206.38007 138.35541 238.73529
206.00571 137.96587 233.72865
205.99928 137.73315 230.68018
206.77225 137.81424 231.54095
207.55031 137.8954 232.39925
208.33347 137.97662 233.25491
209.32748 138.13641 235.08348
209.91512 138.1393 234.95854
210.50298 138.14221 234.83202
211.51724 138.30225 236.65161
212.326 138.38383 237.49413
212.70399 138.3084 236.38835
213.29776 138.31154 236.25426
213.89182 138.31473 236.11858
214.71141 138.39658 236.9523
215.30846 138.39989 236.81274
215.90579 138.40326 236.67152
216.73604 138.48531 237.49797
217.5715 138.56744 238.32162
217.69954 138.41367 236.23778
218.29807 138.41725 236.08984
218.89691 138.42088 235.94022
219.49606 138.42458 235.78888
220.09555 138.42833 235.63583
220.44553 138.35339 234.51599
221.04321 138.35724 234.36015
221.89597 138.43991 235.1664
222.754 138.52267 235.96957
223.61729 138.60553 236.7697
224.74802 138.76729 238.52853
225.35979 138.77151 238.36061
225.97192 138.77579 238.1909
226.58444 138.78014 238.01938
226.65334 138.62677 235.92792
227.26169 138.6312 235.75418
228.14737 138.71461 236.53622
229.03842 138.79814 237.31503
229.93483 138.88176 238.09052
230.83662 138.96548 238.8627
231.45692 138.97031 238.67679
232.07767 138.97519 238.48898
232.40698 138.90112 237.3461
232.73178 138.82706 236.20279
233.34886 138.83211 236.0108
233.66708 138.75812 234.86601
234.28258 138.76328 234.67099
234.89851 138.76851 234.474
236.12848 138.93213 236.17204
237.3689 139.0959 237.86487
238.6198 139.25984 239.55244
239.56689 139.3447 240.2887
240.20273 139.35042 240.07605
240.20047 139.19766 237.97272
241.15408 139.28276 238.70114
242.1132 139.368 239.4258
242.75105 139.37399 239.20491
243.71873 139.45943 239.92278
244.69197 139.54498 240.6368
245.3364 139.55122 240.40779
246.31824 139.63699 241.11482
247.98444 139.88181 243.69244
248.98247 139.96785 244.38966
249.98608 140.05402 245.08279
250.64835 140.06076 244.83739
250.61212 139.90843 242.72258
251.27039 139.91525 242.47453
251.9292 139.92215 242.22424
252.58853 139.92909 241.97165
253.96771 140.09546 243.57619
254.27101 140.02289 242.3884
254.20503 139.87057 240.27258
254.49667 139.79799 239.08517
255.89322 139.96475 240.6745
256.55573 139.97205 240.40814
257.59363 140.05925 241.06305
258.25967 140.06668 240.79099
259.30621 140.15405 241.43803
259.5932 140.08168 240.23973
259.49042 139.92934 238.12177
260.15323 139.93687 237.84238
261.20673 140.02448 238.47783
72.953148 137.50887 203.51303
73.131409 137.58475 204.67213
72.928612 137.74292 206.75029
72.352386 137.98331 209.75067
72.552544 138.05902 210.91333
73.513771 137.97023 210.23192
74.845139 137.79933 208.62328
76.165939 137.6286 207.00848
77.476181 137.45801 205.38754
78.407829 137.36971 204.68675
79.699471 137.1994 203.05479
80.254654 137.19341 203.2733
80.449005 137.2695 204.41907
81.363762 137.18155 203.70454
82.273026 137.0937 202.98621
82.118332 137.25186 205.0603
83.024216 137.16415 204.33722
83.576836 137.15846 204.54433
84.474281 137.07094 203.81465
84.680771 137.14725 204.953
85.912537 136.97806 203.28099
85.78299 137.13625 205.35426
85.99826 137.21263 206.49072
86.218117 137.28902 207.62718
87.433083 137.12019 205.94243
87.654587 137.19667 207.07613
88.85614 137.02811 205.38342
89.724609 136.94135 204.62845
90.267517 136.93634 204.81383
90.174706 137.09462 206.88684
91.352081 136.9265 205.17937
91.893753 136.92166 205.35954
92.435028 136.91689 205.53798
92.668236 136.99371 206.6627
93.821564 136.82602 204.94093
94.964546 136.65846 203.21426
95.496788 136.65399 203.38353
95.433212 136.81247 205.45351
95.969681 136.80806 205.621
95.627518 137.04794 208.64503
95.880402 137.12498 209.76503
96.71347 137.03931 208.97638
97.255905 137.03508 209.13957
98.363655 136.86826 207.38969
99.461174 136.70155 205.63525
99.436859 136.86015 207.70499
99.69754 136.93745 208.81808
100.78166 136.77103 207.05525
101.31464 136.76718 207.20659
101.84726 136.7634 207.35635
102.37958 136.75967 207.50455
102.64848 136.83719 208.61253
102.922 136.91472 209.72032
103.71649 136.82997 208.9025
104.50575 136.7453 208.08182
105.54305 136.57959 206.2943
106.31944 136.49512 205.46732
106.8423 136.49179 205.60283
107.11899 136.56961 206.70273
107.40031 136.64743 207.8024
107.44527 136.80632 209.86894
107.49976 136.96521 211.93646
108.27206 136.88104 211.09984
108.57192 136.95894 212.19838
109.57001 136.79391 210.38806
110.55806 136.629 208.5739
111.3098 136.54512 207.72662
111.83253 136.54227 207.84804
112.79789 136.37761 206.0244
113.31528 136.37488 206.14183
113.39937 136.534 208.20367
113.9212 136.53134 208.31937
114.23116 136.60959 209.40761
114.755 136.60699 209.52097
115.07184 136.68532 210.60797
115.5977 136.6828 210.71902
115.92143 136.76115 211.80472
116.64883 136.67789 210.93689
117.1741 136.67549 211.04373
117.50456 136.75395 212.12668
117.83969 136.83241 213.20921
118.74881 136.66856 211.35579
119.27335 136.66634 211.45703
119.79771 136.66415 211.5569
120.86938 136.41975 208.7157
121.74626 136.2562 206.85078
121.90273 136.41562 208.90584
122.24393 136.49434 209.9801
122.58984 136.57307 211.05386
123.11082 136.57112 211.14507
123.46369 136.6499 212.21742
124.31784 136.48665 210.34052
124.99905 136.40413 209.44395
125.67529 136.32169 208.54527
125.87177 136.48125 210.59676
126.38947 136.47952 210.6795
126.90704 136.47783 210.76094
127.4245 136.47617 210.84102
127.94183 136.47455 210.91978
127.87434 136.79544 214.9411
128.54486 136.71323 214.03233
129.2104 136.63107 213.12157
130.00995 136.46838 211.22174
130.79973 136.30573 209.31921
132.38431 135.65962 201.48798
132.87671 135.65829 201.55434
132.85194 135.97928 205.57277
133.1001 136.13911 207.61517
133.23335 136.37952 210.6465
133.7471 136.37825 210.7106
134.97847 135.89371 204.83617
136.29803 135.32874 197.96712
137.23936 135.00546 194.06323
138.38611 134.52121 188.17514
139.17393 134.27863 185.25461
139.62451 134.27768 185.30417
140.07503 134.27673 185.35258
140.62822 134.19531 184.40846
141.17654 134.11392 183.46271
141.62206 134.11308 183.50732
142.16302 134.03175 182.55865
142.51289 134.11145 183.59323
142.86752 134.19116 184.62715
143.2269 134.27087 185.66042
143.76285 134.18965 184.70691
144.12694 134.26942 185.73839
144.82014 134.0273 182.79535
145.34151 133.94617 181.83736
145.9343 133.78461 179.88406
146.36967 133.784 179.91699
146.94794 133.62248 177.96048
147.44748 133.54147 176.99658
147.87552 133.54094 177.02583
148.30354 133.54044 177.05403
148.79337 133.45949 176.08636
149.2189 133.45903 176.11234
149.70145 133.37814 175.14217
150.12453 133.37772 175.16594
150.54758 133.37732 175.18867
150.92078 133.45737 176.20589
151.25133 133.61787 178.21797
151.63649 133.69797 179.23372
152.02644 133.77806 180.24861
152.42117 133.85818 181.26268
152.89632 133.77747 180.2838
153.36664 133.69676 179.30365
153.76613 133.77695 180.31474
154.2316 133.69629 179.33237
154.63586 133.7765 180.34151
155.07071 133.77631 180.35329
155.48216 133.85657 181.36053
155.91939 133.85641 181.3703
156.33803 133.93671 182.37556
156.76146 134.01701 183.37985
157.1759 134.17776 185.37985
157.61133 134.2581 186.3822
158.06055 134.25806 186.3868
158.50319 134.33844 187.38704
158.96315 134.1776 185.39598
159.40996 134.17761 185.39731
159.85551 134.0168 183.40405
160.30055 134.09727 184.39998
160.73955 134.01692 183.40134
161.17374 133.9366 182.40167
161.60312 133.85629 181.40096
162.04036 133.85641 181.39592
162.46255 133.77615 180.39319
162.87997 133.69589 179.38951
163.33228 133.7765 180.37794
163.78941 133.85715 181.36525
164.22672 133.85738 181.35495
164.66403 133.85762 181.34357
165.10136 133.85789 181.33116
165.53871 133.85818 181.31767
166.01036 133.93893 182.2993
166.48682 134.0197 183.27969
166.88998 133.93961 182.26685
167.37131 134.02043 183.24495
167.81358 134.02083 183.22595
168.20961 133.9408 182.21022
168.60086 133.86079 181.19363
169.08952 133.9417 182.16713
169.52953 133.94217 182.14395
169.96956 133.94267 182.11974
170.52623 134.10411 184.08453
170.97116 134.10466 184.05789
171.41611 134.10522 184.03017
171.86111 134.10582 184.00134
172.37408 134.1869 184.96588
172.89189 134.26802 185.92897
173.41458 134.34915 186.89066
173.86697 134.34985 186.85693
174.55208 134.59201 189.80334
174.93184 134.51227 188.77328
175.47157 134.59354 189.72922
175.9314 134.59433 189.69044
176.39128 134.59515 189.65056
176.76164 134.5155 188.61685
177.31125 134.59688 189.56741
177.86572 134.67828 190.51642
178.42508 134.75972 191.46379
178.69165 134.59964 189.43417
179.25357 134.68112 190.37903
179.61227 134.60159 189.33965
179.96623 134.52208 188.29962
180.31546 134.44258 187.25899
180.77119 134.44363 187.20825
180.99965 134.28362 185.1759
181.45073 134.28471 185.12346
181.90189 134.28584 185.0699
182.47406 134.36757 186.00461
183.05115 134.44933 186.93758
183.75891 134.61172 188.85759
184.22008 134.61298 188.79825
184.81194 134.69487 189.72595
185.1427 134.61559 188.6761
185.875 134.77815 190.58833
186.47922 134.86015 191.51083
187.08839 134.9422 192.4315
187.7025 135.02429 193.35027
188.32156 135.10645 194.26714
188.79807 135.10797 194.1963
189.57454 135.27086 196.09505
190.36081 135.43381 197.99112
191.15689 135.59682 199.88443
191.8056 135.6792 200.79068
193.09772 136.08441 205.63039
193.9281 136.24765 207.51442
194.76833 136.41095 209.39552
195.95215 136.73575 213.23903
197.32483 137.1414 218.0601
197.86328 137.14349 217.96643
199.27266 137.54936 222.77838
200.52989 137.8746 226.60359
201.80673 138.19998 230.42386
203.64749 138.76779 237.17929
205.52246 139.3358 243.92688
205.94128 139.25761 242.83313
206.54419 139.26027 242.71744
206.76498 139.10133 240.64369
206.39548 138.69991 235.63701
206.58997 138.54094 233.56538
207.17181 138.54367 233.44766
207.55302 138.46559 232.35216
208.33624 138.54929 233.2076
209.33032 138.71394 235.03571
209.918 138.7169 234.91071
210.50591 138.71989 234.7841
211.30716 138.80388 235.62958
212.32907 138.96887 237.44554
212.70709 138.8911 236.33986
213.30092 138.89433 236.20575
213.895 138.89761 236.06996
214.93999 139.06293 237.87439
215.53952 139.06633 237.73416
216.13936 139.06981 237.5923
216.73947 139.07332 237.44873
217.57501 139.15796 238.27213
217.70306 138.99947 236.18861
218.30165 139.00314 236.0406
218.90054 139.00687 235.89088
219.49976 139.01067 235.73949
220.09927 139.01451 235.58638
220.94897 139.09955 236.39641
221.55164 139.10353 236.23923
222.40939 139.18874 237.04388
223.01518 139.19284 236.88254
223.88103 139.27823 237.6817
224.75217 139.36371 238.4778
225.36398 139.36803 238.30978
226.24327 139.45367 239.1002
226.85832 139.45816 238.92793
227.20172 139.38141 237.79495
227.81509 139.38599 237.61971
228.70581 139.47197 238.40004
229.32245 139.4767 238.22037
230.22142 139.56287 238.99487
231.41016 139.73053 240.72122
231.7486 139.65411 239.57922
232.37187 139.65915 239.39056
232.99561 139.66425 239.20004
233.32541 139.58795 238.05533
233.6507 139.51167 236.91023
234.27078 139.51694 236.71545
234.89131 139.52228 236.51871
235.20801 139.44612 235.37097
236.13376 139.53316 236.1194
237.065 139.6203 236.86426
238.00171 139.70755 237.6055
238.62958 139.71329 237.39725
239.57477 139.80075 238.132
239.88684 139.72495 236.97476
240.83803 139.81259 237.70374
241.79474 139.90036 238.42892
242.43013 139.90649 238.20876
243.39539 139.99448 238.92717
245.02994 140.2462 241.52127
245.67694 140.25264 241.29126
246.66138 140.341 241.99707
247.99083 140.51138 243.63596
248.98894 140.60001 244.33281
249.30371 140.52489 243.15518
249.96095 140.53174 242.91148
250.2692 140.45667 241.73221
250.925 140.46364 241.485
251.93594 140.55272 242.16695
252.59534 140.55983 241.91425
253.97462 140.73123 243.51817
254.27795 140.6564 242.33047
254.21198 140.4994 240.21497
254.50365 140.42456 239.02762
255.53044 140.51414 239.69093
256.19043 140.52159 239.42548
257.22586 140.61136 240.08104
258.26691 140.70125 240.73222
258.93347 140.70891 240.45763
259.60052 140.7166 240.18069
259.49771 140.55957 238.06306
260.16055 140.56729 237.78352
261.21411 140.6575 238.41862
73.337852 137.96419 202.54462
73.513565 138.04239 203.70251
73.308182 138.20531 205.77924
72.72934 138.45287 208.77798
72.926941 138.53088 209.93948
73.507469 138.52423 210.17921
74.46328 138.43295 209.494
76.159843 138.17258 206.95689
77.470169 137.99698 205.33656
78.769936 137.82156 203.71016
80.059128 137.64629 202.07777
80.248848 137.72467 203.22336
80.443214 137.80304 204.369
81.35804 137.71252 203.65485
82.267387 137.62213 202.93683
82.465538 137.70061 204.07872
83.018646 137.69472 204.28783
83.571312 137.68889 204.49507
84.123558 137.68312 204.70044
84.675369 137.6774 204.90393
85.226738 137.67175 205.10559
85.439957 137.75038 206.24289
85.992981 137.74481 206.44177
86.212868 137.82349 207.57811
87.427933 137.6497 205.89391
87.649467 137.72847 207.02751
88.525955 137.63904 206.27722
89.397011 137.54971 205.52344
89.942467 137.54456 205.70978
89.852165 137.70753 207.78331
91.032143 137.53442 206.07721
91.57637 137.52945 206.2583
92.430374 137.44058 205.49071
92.66362 137.51968 206.6153
93.511848 137.43097 205.84264
94.051987 137.42627 206.01608
94.891975 137.33774 205.23761
94.53566 137.58473 208.25975
95.07962 137.58017 208.4297
95.037666 137.74329 210.50298
95.876144 137.655 209.7178
96.70929 137.5668 208.92947
97.822441 137.39496 207.18323
98.359619 137.39072 207.34335
99.73761 137.13539 204.63319
99.988754 137.21503 205.74492
100.24452 137.29468 206.85646
101.05083 137.20703 206.05109
101.31088 137.28676 207.16086
101.57552 137.3665 208.27051
101.84478 137.44627 209.3799
102.11865 137.52606 210.48911
102.39713 137.60587 211.59808
103.45479 137.43503 209.81941
104.5023 137.26431 208.03653
106.04624 136.92668 204.32193
106.56697 136.92325 204.45837
107.33578 136.83638 203.62823
107.8535 136.83307 203.76106
107.88403 136.99672 205.82504
107.92411 137.16035 207.89001
107.97372 137.32399 209.95595
108.74119 137.23737 209.11839
109.03619 137.31763 210.21559
109.79825 137.23114 209.37389
110.55516 137.14471 208.52951
111.30695 137.05838 207.68254
111.82974 137.05547 207.80399
112.35228 137.0526 207.92404
113.09361 136.96645 207.07045
113.18015 137.13029 209.13249
113.91858 137.04425 208.27551
114.22856 137.12483 209.36362
114.75245 137.12218 209.47705
114.8625 137.28607 211.53873
115.39085 137.28348 211.65033
115.71706 137.36417 212.73637
116.24742 137.36165 212.84567
116.7776 137.35918 212.95352
117.50224 137.27354 212.08264
118.22182 137.18799 211.20937
118.93636 137.10248 210.33372
119.45851 137.1002 210.43454
119.79556 137.18112 211.51321
120.5023 137.09578 210.63203
121.20401 137.0105 209.7486
121.54541 137.09151 210.82407
121.8915 137.17255 211.89903
122.58789 137.0874 211.01062
123.1089 137.08539 211.10184
123.46181 137.16652 212.17401
124.15047 137.08151 211.28027
124.83415 136.99655 210.38435
125.67354 136.82858 208.50278
125.87003 136.9929 210.55392
126.54362 136.90808 209.6524
127.05882 136.90636 209.73346
127.7249 136.82164 208.82819
128.08882 136.90302 209.89166
128.01892 137.23343 213.91187
128.68706 137.1488 213.00299
129.20889 137.14723 213.07854
129.86954 137.0627 212.16597
130.66177 136.89523 210.26424
132.24887 136.22997 202.43492
132.74371 136.22859 202.50163
132.72136 136.5591 206.51961
132.97194 136.72366 208.56195
133.10762 136.97119 211.59305
133.62381 136.96989 211.65749
134.73802 136.55392 206.7739
136.17969 135.88925 198.91719
137.12349 135.55641 195.0144
138.16031 135.14072 190.118
139.17296 134.72511 185.21768
139.62357 134.72412 185.26723
140.0741 134.72318 185.31569
140.73009 134.55644 183.38052
141.27603 134.47264 182.43475
141.62122 134.55467 183.47086
142.0667 134.55382 183.51439
142.5121 134.55299 183.55679
142.95746 134.5522 183.59813
143.31447 134.63429 184.631
143.93393 134.4678 182.68463
144.29323 134.54994 183.7155
144.98166 134.30066 180.77269
145.41956 134.29999 180.80795
145.93367 134.21648 179.84851
146.2952 134.29871 180.87529
146.8759 134.13242 178.91934
147.30881 134.13184 178.95
147.80835 134.04845 177.98524
148.23878 134.04793 178.01363
148.73103 133.96458 177.04633
149.27789 133.79845 175.08289
149.70102 133.79799 175.10768
150.12411 133.79756 175.13147
150.54718 133.79715 175.15421
150.87057 133.9624 177.16656
151.15611 134.21048 180.17381
151.59113 134.21013 180.19405
151.98351 134.2926 181.20885
152.42087 134.29228 181.22708
152.89604 134.20917 180.2484
153.36638 134.12608 179.26846
153.76588 134.20863 180.27936
154.23138 134.1256 179.29718
154.63567 134.20819 180.30614
155.04474 134.2908 181.31418
155.48199 134.29062 181.32497
155.89825 134.37328 182.33107
156.31932 134.45595 183.33621
156.74516 134.53864 184.34038
157.16203 134.70415 186.34
157.59988 134.78688 187.34218
158.06052 134.70403 186.35027
158.50974 134.70399 186.35379
158.96315 134.62119 185.35966
159.41176 134.53839 184.36443
159.85556 134.45563 183.3681
160.30061 134.53848 184.36385
160.73962 134.45575 183.36542
161.17383 134.37303 182.36592
161.60324 134.29034 181.36542
162.05313 134.37329 182.35686
162.46272 134.20782 180.35785
162.8976 134.20801 180.35074
163.37218 134.37381 182.33531
163.81189 134.37402 182.32602
164.2516 134.37427 182.31566
164.7184 134.45734 183.30042
165.1311 134.3748 182.2917
165.57088 134.37511 182.27815
166.01068 134.37543 182.26352
166.48717 134.45859 183.24373
166.92941 134.45895 183.22687
167.41318 134.54216 184.20465
167.85788 134.54257 184.18556
168.25633 134.46017 183.16991
168.65001 134.37779 182.15338
169.14108 134.46109 183.12653
169.53001 134.37875 182.10812
169.97006 134.37927 182.08389
170.41016 134.37981 182.05858
170.8503 134.38037 182.03221
171.35358 134.46379 182.99931
171.86171 134.54724 183.96504
172.37471 134.63072 184.92937
172.96289 134.7971 186.88635
173.48801 134.88065 187.84766
173.94283 134.88136 187.81374
174.55281 135.04784 189.76579
174.9326 134.96573 188.73596
175.38998 134.96652 188.69852
175.93221 135.05022 189.65288
176.56648 135.21683 191.59845
176.94168 135.13483 190.56448
177.49612 135.21861 191.51439
178.05545 135.30243 192.46272
178.52284 135.30339 192.4176
178.69261 135.05565 189.3965
179.15291 135.05664 189.34978
179.61328 135.05766 189.30194
179.96727 134.97578 188.2621
180.20763 134.81099 186.23103
180.77228 134.895 187.17088
181.00073 134.73024 185.1389
181.45184 134.73137 185.08646
182.02155 134.81548 186.02235
182.7171 134.98259 187.94572
183.1757 134.98381 187.88898
183.88591 135.15102 189.80826
184.47771 135.23529 190.73688
184.94382 135.23663 190.67574
185.27704 135.155 189.62579
185.87637 135.23938 190.54991
186.61847 135.40683 192.45918
187.23009 135.4913 193.37926
187.84665 135.57584 194.29744
188.46817 135.66042 195.21373
188.94713 135.66199 195.1425
189.72607 135.82971 197.0405
190.5148 135.99748 198.93573
191.46812 136.2484 201.81268
192.27892 136.41632 203.70201
193.41875 136.75047 207.55583
194.41608 137.00165 210.42191
195.42809 137.2529 213.28427
196.45479 137.50426 216.14279
197.66551 137.83882 219.97954
198.38058 137.92413 220.86661
199.62317 138.2589 224.69502
200.88535 138.5938 228.51852
202.34615 139.01198 233.31737
204.19431 139.59663 240.06999
205.70892 140.01514 244.85591
205.94389 139.85146 242.78291
206.73558 139.93738 243.64568
206.57649 139.6073 239.61575
206.20456 139.19395 234.6105
206.59265 139.11349 233.51675
207.5715 139.28279 235.35213
208.15852 139.28568 235.23183
208.74576 139.2886 235.10995
209.74481 139.45815 236.93658
210.33739 139.4612 236.81046
210.71957 139.381 235.70876
211.52332 139.46745 236.55342
