ply
format ascii 1.0
comment PCL generated
element vertex 1255
property float x
property float y
property float z
element camera 0
property float view_px
property float view_py
property float view_pz
property float x_axisx
property float x_axisy
property float x_axisz
property float y_axisx
property float y_axisy
property float y_axisz
property float z_axisx
property float z_axisy
property float z_axisz
property float focal
property float scalex
property float scaley
property float centerx
property float centery
property int viewportx
property int viewporty
property float k1
property float k2
end_header
-0.022196665 -0.075045861 0.011785179
-0.021306602 -0.075638443 0.011992604
-0.020381533 -0.076162569 0.012386352
-0.01928075 -0.076051854 0.012882799
-0.018224783 -0.076115273 0.013202816
-0.017224519 -0.076433793 0.013430208
-0.016057707 -0.07600648 0.013448656
-0.014964988 -0.075893864 0.013658911
-0.013912017 -0.075981013 0.013760835
-0.012788823 -0.075667202 0.014078766
-0.011700138 -0.07551907 0.01413703
-0.010750601 -0.076329269 0.014033228
-0.0095853433 -0.075617708 0.014091253
-0.0083459495 -0.074070305 0.014151752
-0.0076135639 -0.077223286 0.013962358
-0.006487269 -0.076766014 0.013985902
-0.005276267 -0.074922994 0.013767421
-0.0043109404 -0.076519191 0.013769567
-0.0031835642 -0.075344354 0.014116704
-0.0021311736 -0.07565666 0.014238
-0.001069739 -0.075951464 0.014297813
0 -0.076096632 0.014132023
0.0010741818 -0.076266907 0.014332026
0.0021616721 -0.076739356 0.014035434
0.0031759997 -0.075165331 0.013488412
0.0042958115 -0.076250657 0.013179868
0.0053546098 -0.076035455 0.012508631
0.0063882186 -0.075593919 0.011306077
0.0075173387 -0.07624729 0.0055782795
-0.028155413 -0.082119957 0.0040782094
-0.024802776 -0.075486705 0.0094421804
-0.023713106 -0.075450793 0.012091517
-0.022358542 -0.074528471 0.012396097
-0.021152513 -0.074033797 0.012928188
-0.020668374 -0.07614664 0.013112545
-0.019348381 -0.075243704 0.013149291
-0.018268267 -0.075222269 0.013361156
-0.017213626 -0.075309612 0.013453126
-0.015859285 -0.07401 0.013456076
-0.015004151 -0.075020753 0.013763189
-0.013745484 -0.074014142 0.014078766
-0.012701348 -0.074091196 0.014033228
-0.011837886 -0.075332001 0.014026254
-0.010773807 -0.075416654 0.014122576
-0.0095580928 -0.074340723 0.014033228
-0.0085796313 -0.075071774 0.014137298
-0.007640779 -0.07640779 0.013932377
-0.006544813 -0.07635615 0.014031112
-0.0054836213 -0.076770701 0.01371336
-0.004351221 -0.076146372 0.013807654
-0.0031742938 -0.074066855 0.014222682
-0.0021394121 -0.074879423 0.014249384
-0.0010665325 -0.074657269 0.014397025
0 -0.074178196 0.01425153
0.0010656916 -0.074598409 0.014342457
0.0021451782 -0.075081229 0.014074445
0.0032119523 -0.074945554 0.013516963
0.0042479178 -0.074338563 0.01316154
0.0052770204 -0.073878288 0.012378246
0.0064359908 -0.075086564 0.010707825
0.0075201304 -0.075201303 0.0055782795
-0.029651402 -0.08183787 0.0046103895
-0.025989128 -0.074718744 0.0088559985
-0.024451692 -0.073355071 0.011834264
-0.023276918 -0.073004879 0.012459308
-0.022376768 -0.07352367 0.01286763
-0.021432683 -0.073942758 0.013094455
-0.020420475 -0.074158564 0.01331377
-0.019092876 -0.073189363 0.013451904
-0.01829637 -0.074261732 0.013454646
-0.016916342 -0.072951719 0.013513118
-0.016201029 -0.07452473 0.013514042
-0.014978522 -0.073822722 0.014078766
-0.013895714 -0.073754169 0.014013588
-0.012847965 -0.0738758 0.014018774
-0.011790676 -0.073959701 0.014225036
-0.010606549 -0.073185183 0.014225036
-0.0096032126 -0.073624633 0.01413703
-0.0085592186 -0.073823258 0.014225036
-0.0074337232 -0.073275276 0.014154375
-0.006445914 -0.074128017 0.014031112
-0.0054153348 -0.074731626 0.013767421
-0.0042648506 -0.073568672 0.013869017
-0.0032050149 -0.073715344 0.014141113
-0.0021382715 -0.073770359 0.014035434
-0.0010665016 -0.07358861 0.014180928
0 -0.073364936 0.013962328
0.0010586301 -0.07304547 0.014106691
0.0021528124 -0.074272029 0.013908505
0.0032167316 -0.073984832 0.013379723
0.0042155809 -0.072718769 0.012696147
0.0053182999 -0.07339254 0.012110174
0.0064513213 -0.074190199 0.0096636117
-0.030823641 -0.080615677 0.0046450794
-0.026624721 -0.072419241 0.0095159709
-0.025605289 -0.072548322 0.011834264
-0.024688216 -0.072991244 0.012398124
-0.02349522 -0.072621591 0.012925506
-0.022469258 -0.072757594 0.013002574
-0.021449983 -0.072929941 0.013311774
-0.020211041 -0.072334252 0.013409466
-0.019420773 -0.073367365 0.013743669
-0.01815694 -0.07262776 0.013566256
-0.017074257 -0.072565593 0.013585091
-0.015961763 -0.072359987 0.013622373
-0.014849332 -0.072125323 0.013877511
-0.01391789 -0.07280127 0.013692051
-0.012938389 -0.073317535 0.013908148
-0.011683869 -0.07222756 0.014148474
-0.01066925 -0.0725509 0.014089435
-0.0095428405 -0.072101466 0.014159143
-0.0083997836 -0.071398161 0.01424855
-0.0075163324 -0.073015802 0.014295697
-0.0063670902 -0.072160356 0.014294326
-0.0052802395 -0.071811259 0.014210582
-0.0043387571 -0.07375887 0.014250219
-0.0031904788 -0.072317526 0.014129877
-0.0021394014 -0.072739646 0.014235854
-0.0010746396 -0.073075496 0.014222682
0 -0.071722694 0.014087051
0.0010683278 -0.07264629 0.014059782
0.0021318272 -0.072482124 0.013749868
0.0031659533 -0.071761608 0.013211221
0.0042634988 -0.072479486 0.012378246
0.0053328346 -0.072526552 0.011462539
0.0064190226 -0.072748922 0.0054622889
-0.03166068 -0.078565389 0.0060732961
-0.027732639 -0.071464881 0.0096644461
-0.026524561 -0.071085818 0.011345148
-0.025539396 -0.071297482 0.01203984
-0.024603026 -0.071669683 0.012323141
-0.023845673 -0.072620913 0.012620091
-0.022604572 -0.072119348 0.012940586
-0.021417918 -0.07175003 0.013142973
-0.020371117 -0.071834989 0.013362288
-0.01927192 -0.071734376 0.013629407
-0.01828797 -0.072076119 0.013702214
-0.01727258 -0.072328933 0.013706088
-0.016016081 -0.071538493 0.013762206
-0.015091858 -0.072225325 0.013859093
-0.01389234 -0.071598984 0.013750166
-0.012678961 -0.070790865 0.014078766
-0.011777932 -0.07173831 0.01408425
-0.010676029 -0.071529403 0.01413703
-0.0095159104 -0.070840672 0.014280289
-0.0086038085 -0.072056897 0.014234096
-0.0074087181 -0.070912018 0.014234096
-0.0064021735 -0.071490943 0.014335334
-0.0053717033 -0.071980834 0.01423949
-0.0042563481 -0.071293831 0.014262289
-0.0032098286 -0.071686171 0.01410237
-0.0021637324 -0.072485037 0.014100224
-0.0010703899 -0.071716122 0.014116704
0 -0.07165993 0.014086008
0.0010762232 -0.072106957 0.013857961
0.0021189905 -0.070986181 0.013692856
0.0032165037 -0.07183525 0.012668163
0.0042568292 -0.071301892 0.011667907
0.0054186075 -0.072609343 0.0089075565
-0.032740217 -0.077173367 0.0063121319
-0.028585833 -0.069876477 0.0095409453
-0.027837474 -0.070664361 0.011390477
-0.026581787 -0.070175916 0.012178451
-0.025577078 -0.07033696 0.012521625
-0.024728993 -0.070961453 0.012577236
-0.023573784 -0.070721351 0.012784958
-0.022483736 -0.070663169 0.012929618
-0.021486651 -0.070905946 0.013304263
-0.020206923 -0.070192464 0.013456792
-0.019231016 -0.070513725 0.013718903
-0.018228935 -0.070771158 0.013550311
-0.016929446 -0.069833957 0.013585091
-0.016204717 -0.071300752 0.013585091
-0.014825223 -0.069890335 0.013761759
-0.013797114 -0.070046887 0.013635844
-0.012808927 -0.070449099 0.013829708
-0.011663615 -0.069981687 0.013876081
-0.010594942 -0.069926612 0.013829708
-0.0095533207 -0.070057683 0.01387009
-0.008611137 -0.071041882 0.01413703
-0.007454664 -0.070286833 0.014239073
-0.0064657605 -0.071123362 0.014035195
-0.005339887 -0.070486508 0.013807654
-0.0042705829 -0.070464619 0.013809204
-0.0032371162 -0.071216553 0.013749361
-0.002137054 -0.070522778 0.013612598
-0.0010710636 -0.070690192 0.013696432
0 -0.069876418 0.013581902
0.0010622197 -0.070106499 0.013547808
0.0021560648 -0.071150139 0.013082683
0.0032335066 -0.071137145 0.012212485
0.0042393003 -0.06994845 0.0099428892
-0.033445317 -0.074963637 0.0064991713
-0.029558923 -0.068618931 0.010255009
-0.028540431 -0.068708442 0.01126489
-0.027798556 -0.069496386 0.012158453
-0.026798094 -0.069675043 0.012521625
-0.025722785 -0.069665872 0.012633622
-0.024523223 -0.069304757 0.012672633
-0.02343772 -0.069247812 0.01286763
-0.022541905 -0.069772556 0.013068378
-0.02140623 -0.069570251 0.01338473
-0.020473117 -0.070039615 0.01346314
-0.019411836 -0.070098296 0.013786823
-0.018156454 -0.069421738 0.013803303
-0.017171931 -0.069760971 0.013812393
-0.015986528 -0.069274962 0.013562977
-0.014888392 -0.069124676 0.013875157
-0.013867517 -0.069337584 0.01362139
-0.012891277 -0.06982775 0.013773501
-0.011684807 -0.069046587 0.013750166
-0.010709271 -0.06961026 0.013717294
-0.0096129067 -0.069426551 0.013688922
-0.0085688364 -0.069621801 0.013759047
-0.0074786972 -0.069445044 0.013688922
-0.0064333137 -0.069694236 0.013728559
-0.0053224573 -0.069191948 0.013745695
-0.0042908224 -0.069725864 0.01377219
-0.0032021159 -0.069379181 0.013776153
-0.0021175633 -0.068820812 0.013675541
-0.0010660137 -0.069290891 0.013350844
0 -0.069877908 0.013097495
0.0010722128 -0.069693834 0.013151914
0.0021419986 -0.069614954 0.011871547
0.0032335322 -0.070059866 0.0094838738
-0.034503262 -0.07360696 0.0070734918
-0.030579483 -0.06748575 0.0092409849
-0.030063272 -0.068716049 0.011563629
-0.028812749 -0.068296887 0.012102783
-0.027812559 -0.068461686 0.012390703
-0.02698887 -0.069091506 0.012494862
-0.02583383 -0.068890214 0.012672633
-0.024583984 -0.068407603 0.012815446
-0.023855608 -0.069398135 0.0130229
-0.022471188 -0.068483621 0.013244331
-0.021466341 -0.068692289 0.013501048
-0.020719975 -0.069793604 0.013501048
-0.01926787 -0.068507984 0.013808817
-0.018181985 -0.068449825 0.013741016
-0.017102623 -0.068410493 0.013904363
-0.015831249 -0.067546666 0.013837159
-0.015022285 -0.068673305 0.013984412
-0.01378847 -0.067881696 0.013760835
-0.012655846 -0.067497842 0.014128476
-0.011739712 -0.068303779 0.014105141
-0.010777881 -0.068978444 0.01384601
-0.0094400709 -0.067129396 0.013990819
-0.0087036761 -0.069629408 0.013869345
-0.0074942778 -0.068519115 0.014009297
-0.0063780462 -0.068032496 0.014005482
-0.0054025142 -0.069152184 0.013792664
-0.0042852834 -0.068564534 0.013696432
-0.0031975941 -0.06821534 0.013694257
-0.0021513901 -0.068844482 0.01367116
-0.0010905165 -0.069793053 0.013466686
0 -0.068972483 0.012429237
0.0010663725 -0.06824784 0.011984855
0.0021460915 -0.068674929 0.0070912242
-0.034861799 -0.070848174 0.0078421235
-0.031739581 -0.066653125 0.0096769035
-0.03103555 -0.067422055 0.011009544
-0.029935207 -0.067354217 0.012281954
-0.02845875 -0.066403754 0.012412012
-0.027938934 -0.067698188 0.01263535
-0.026850488 -0.06766323 0.012741894
-0.025915952 -0.068029374 0.012876242
-0.024740083 -0.067766316 0.013056159
-0.023448016 -0.067146592 0.013105571
-0.022621345 -0.067864038 0.013471484
-0.021621421 -0.068107478 0.013704777
-0.020229558 -0.067076959 0.01359731
-0.019321891 -0.067626618 0.013528943
-0.018418178 -0.068255603 0.013316989
-0.017122716 -0.067420691 0.014008254
-0.016044131 -0.067385346 0.013829321
-0.015040736 -0.067683317 0.01392743
-0.013904154 -0.067381673 0.01365298
-0.012900604 -0.067728177 0.014105141
-0.011791943 -0.067535676 0.014126748
-0.010612247 -0.066857159 0.014105141
-0.0096832728 -0.067782909 0.013725758
-0.008593346 -0.067672603 0.013585091
-0.0073804045 -0.06642364 0.013854802
-0.0064863935 -0.068107136 0.013763398
-0.0053142626 -0.066959716 0.013544798
-0.0042734509 -0.067306854 0.013230681
-0.0031934113 -0.06706164 0.013252586
-0.0021331897 -0.067195475 0.012713283
-0.0010667251 -0.067203686 0.012362123
0 -0.067253217 0.010980636
0.0010931673 -0.068869546 0.0061066747
-0.035604857 -0.068984412 0.0078395903
-0.032666117 -0.065332234 0.010019809
-0.032016627 -0.066167697 0.011029512
-0.031178046 -0.066656515 0.01191169
-0.030143498 -0.066746317 0.01256609
-0.029099397 -0.066820838 0.012648076
-0.028124651 -0.067066476 0.012870044
-0.026953908 -0.066845693 0.012986004
-0.025973441 -0.067098059 0.012922585
-0.024658168 -0.066469848 0.013224214
-0.023764029 -0.066971354 0.013309181
-0.022618575 -0.066778652 0.013544858
-0.021512894 -0.066689976 0.013718963
-0.020508293 -0.0669218 0.013602912
-0.01943543 -0.066944264 0.013647825
-0.018176492 -0.066290736 0.013527185
-0.017220754 -0.066730425 0.013830274
-0.016044822 -0.066318594 0.013810545
-0.01494361 -0.066178851 0.01376
-0.01405351 -0.067024432 0.013829321
-0.01292142 -0.066760674 0.013902336
-0.011724878 -0.066085681 0.014034182
-0.010677131 -0.066198215 0.013660192
-0.0096522644 -0.066493385 0.013587564
-0.0085252933 -0.066071026 0.013473541
-0.0075531751 -0.066899553 0.013548374
-0.0064263274 -0.066405386 0.013454318
-0.0053620804 -0.066489801 0.013003796
-0.0042738756 -0.066245072 0.012450963
-0.0032145132 -0.066433273 0.012652993
-0.0021355699 -0.06620267 0.011939973
-0.0010682165 -0.066229425 0.010905325
0 -0.066860996 0.0048513412
-0.0367775 -0.067982651 0.0080970824
-0.033626009 -0.06409958 0.010019809
-0.033209316 -0.065347359 0.01135689
-0.032019563 -0.065106444 0.011987627
-0.031018822 -0.065246485 0.012564629
-0.030085729 -0.065543912 0.012788236
-0.028994979 -0.065507174 0.012848437
-0.027944358 -0.065561764 0.013159782
-0.027144488 -0.066232547 0.013079822
-0.02571455 -0.065357819 0.013118505
-0.024582965 -0.065198302 0.013259739
-0.023705393 -0.06572859 0.01328814
-0.02224401 -0.064613551 0.01349172
-0.021266887 -0.06486401 0.013602912
-0.020544577 -0.06595891 0.013579488
-0.019403692 -0.065756962 0.013673961
-0.018238593 -0.065444358 0.01372835
-0.017177099 -0.06548769 0.014155328
-0.015983976 -0.065001503 0.014012307
-0.015055485 -0.065598898 0.014049858
-0.014032936 -0.065846853 0.013814598
-0.012723099 -0.064675756 0.013751835
-0.011802189 -0.065448508 0.013763398
-0.010708858 -0.065324038 0.013548374
-0.0095680226 -0.064849935 0.013640612
-0.0086389026 -0.065871634 0.013368458
-0.0075235255 -0.065562151 0.013095051
-0.0064460994 -0.065535344 0.013128191
-0.0053662038 -0.065467685 0.012242705
-0.0042928397 -0.0654658 0.012200087
-0.0031904043 -0.06487155 0.012004673
-0.0021413148 -0.065310098 0.010732353
-0.0011007462 -0.067145519 0.0040402114
-0.038186248 -0.067387491 0.0081472397
-0.034994099 -0.063625641 0.010312349
-0.034473214 -0.064637274 0.011329114
-0.033283032 -0.06441877 0.011745989
-0.03240839 -0.06481678 0.012156576
-0.031318035 -0.064795926 0.012692153
-0.030078273 -0.064453438 0.012964398
-0.028796092 -0.063991316 0.012964398
-0.027973425 -0.064554058 0.013079822
-0.026739197 -0.064174071 0.013079822
-0.025791924 -0.064479813 0.013027281
-0.024873115 -0.064886384 0.013027281
-0.023654524 -0.064512342 0.012876242
-0.022479843 -0.064228117 0.013308257
-0.021551777 -0.064655334 0.01349172
-0.0202443 -0.063929364 0.013471484
-0.019304588 -0.064348631 0.013579488
-0.018291414 -0.064557932 0.01353693
-0.017111136 -0.064166762 0.013772458
-0.016115518 -0.064462073 0.013755143
-0.014859397 -0.06368313 0.014152378
-0.013864179 -0.063988522 0.014074534
-0.012957807 -0.064789034 0.013798088
-0.011796603 -0.064345106 0.013727099
-0.01062179 -0.063730739 0.013151318
-0.0096241888 -0.064161263 0.013179392
-0.0086010993 -0.064508244 0.01298067
-0.0075233518 -0.064485878 0.012828201
-0.0065078116 -0.065078117 0.012280643
-0.005371504 -0.06445805 0.011900336
-0.0042724786 -0.064087175 0.011434674
-0.0032659327 -0.065318651 0.010603786
-0.038223654 -0.064434163 0.0081750154
-0.035823144 -0.062163692 0.010284841
-0.035346024 -0.063194409 0.011439532
-0.034091197 -0.062855646 0.011861086
-0.033015393 -0.062835746 0.012077123
-0.032571718 -0.064057708 0.01264593
-0.031477686 -0.06404081 0.01309514
-0.029632527 -0.062439971 0.01283893
-0.028826026 -0.062990203 0.012805313
-0.028147904 -0.063874096 0.013356805
-0.026789531 -0.063223295 0.013374895
-0.026006496 -0.063932635 0.013256967
-0.024558004 -0.062996618 0.012887418
-0.023803569 -0.06383685 0.012769669
-0.02266258 -0.06367106 0.013171464
-0.021504169 -0.063437305 0.013541937
-0.02038331 -0.063295543 0.013565272
-0.019414648 -0.063636906 0.013675094
-0.01805933 -0.062676497 0.013679534
-0.017167501 -0.063305162 0.013785452
-0.015964944 -0.062795445 0.013619035
-0.015017565 -0.063288316 0.013833225
-0.013921734 -0.063183255 0.013585687
-0.012812018 -0.062992424 0.013549
-0.011727929 -0.06290435 0.013580799
-0.010760735 -0.063488334 0.013091207
-0.0097009633 -0.063595213 0.012944192
-0.0086143594 -0.0635309 0.012702405
-0.0075509986 -0.063644134 0.012148201
-0.0063983528 -0.062917136 0.011785924
-0.0053300289 -0.062894344 0.010892212
-0.0043056407 -0.063508205 0.0097814798
-0.039803781 -0.064128317 0.0081978738
-0.036934745 -0.061206155 0.0091894567
-0.036610741 -0.06245362 0.011270523
-0.035612643 -0.062591925 0.01186648
-0.0340783 -0.061766922 0.012179732
-0.033562455 -0.062794276 0.012474567
-0.032191548 -0.062236998 0.012773901
-0.031008886 -0.062017772 0.013218522
-0.030192597 -0.062541805 0.01344049
-0.029190699 -0.062705949 0.013555318
-0.027968489 -0.062391244 0.013680637
-0.027029464 -0.062708355 0.013473094
-0.025703499 -0.062116791 0.013340235
-0.024726121 -0.062352829 0.013340235
-0.023696739 -0.062473226 0.012805313
-0.022511218 -0.06217384 0.013298482
-0.021403365 -0.062069762 0.013605773
-0.020494813 -0.062563114 0.013565272
-0.019145964 -0.061692555 0.013727129
-0.018225677 -0.062181722 0.013727129
-0.017092599 -0.061960675 0.013825774
-0.016118998 -0.062326793 0.013605148
-0.015014492 -0.062202897 0.013598114
-0.013932202 -0.062159058 0.013600409
-0.012740601 -0.06157957 0.013554245
-0.011835637 -0.062406089 0.013513565
-0.010846024 -0.062906951 0.013197511
-0.0096034445 -0.061888866 0.012866735
-0.0085966885 -0.062325995 0.012334496
-0.0074324873 -0.061583467 0.01208362
-0.0064125899 -0.061988369 0.011434674
-0.0054275757 -0.062959887 0.0093386471
-0.044495698 -0.066743545 0.0045051575
-0.040153977 -0.061858829 0.0083673596
-0.038150955 -0.060405679 0.010522157
-0.03757913 -0.061200302 0.011338204
-0.03680966 -0.061710313 0.011772752
-0.035359047 -0.061074719 0.012233347
-0.034483064 -0.061422959 0.012602091
-0.033202901 -0.061050493 0.012727737
-0.032145035 -0.061075561 0.013250262
-0.031189125 -0.061302759 0.013510972
-0.030010952 -0.061093722 0.013623297
-0.028955368 -0.061127994 0.013601482
-0.028050346 -0.061494987 0.013680637
-0.02675125 -0.060992848 0.013339251
-0.025698056 -0.061032884 0.013256788
-0.024909459 -0.061732136 0.012769669
-0.023447799 -0.060751114 0.012789786
-0.022429239 -0.060879361 0.013012648
-0.021547141 -0.061409354 0.013406247
-0.02017664 -0.060529917 0.013450444
-0.019242791 -0.060935505 0.013504267
-0.018340768 -0.061495513 0.013463527
-0.016910415 -0.060243353 0.013600409
-0.016143668 -0.061345939 0.013554245
-0.015122816 -0.061571464 0.013286233
-0.013835138 -0.060661759 0.013562173
-0.012784183 -0.060724869 0.013475329
-0.011882949 -0.061575279 0.013365507
-0.010676041 -0.060853437 0.012850046
-0.0095503358 -0.060485464 0.012652993
-0.0086016459 -0.061286729 0.011981636
-0.0074824239 -0.060928307 0.011188179
-0.0064532361 -0.061305743 0.0088190138
-0.045634117 -0.065525912 0.0047104061
-0.041225705 -0.06075367 0.0084744692
-0.039386798 -0.059612449 0.01038602
-0.038488861 -0.059871562 0.011372238
-0.037564673 -0.06010348 0.011756182
-0.036460191 -0.060052078 0.012034297
-0.035538048 -0.060306992 0.012602091
-0.034267623 -0.059968341 0.01280883
-0.033061277 -0.059723597 0.013083935
-0.032506589 -0.060678963 0.013491154
-0.030965809 -0.059796043 0.013645321
-0.029970689 -0.059941377 0.013827622
-0.029274445 -0.060717363 0.013614744
-0.027751356 -0.059772152 0.013724089
-0.026745409 -0.059909713 0.013623297
-0.025909465 -0.060455419 0.013171464
-0.02452009 -0.059701085 0.013019413
-0.023673447 -0.060259681 0.012998492
-0.022624414 -0.060331769 0.013382912
-0.021396566 -0.059910383 0.01343596
-0.020328017 -0.059914153 0.01344806
-0.019413408 -0.060397275 0.013492644
-0.018084535 -0.059572585 0.013443083
-0.017119002 -0.059916507 0.013584882
-0.016090415 -0.060070883 0.013443083
-0.014897387 -0.05958955 0.013130575
-0.013979586 -0.060219754 0.013424098
-0.012846552 -0.059950575 0.012995183
-0.011750274 -0.059819579 0.013074338
-0.010832468 -0.060661819 0.012596011
-0.0096981702 -0.060344175 0.01230064
-0.0084674517 -0.059272163 0.01134786
-0.0075496784 -0.060397428 0.0090145469
-0.04715262 -0.064834855 0.0047104061
-0.042075776 -0.059337635 0.0088287592
-0.040437449 -0.058527883 0.010276854
-0.039791819 -0.059150003 0.01132527
-0.038618825 -0.059000988 0.01196143
-0.037741661 -0.059308328 0.012104899
-0.036611684 -0.059224781 0.012315094
-0.035516288 -0.059193816 0.012727678
-0.034115419 -0.058635876 0.012895256
-0.033412281 -0.059279855 0.013112724
-0.03211458 -0.058876731 0.013233125
-0.030988526 -0.058771338 0.013592422
-0.030200198 -0.059321817 0.013429254
-0.02904677 -0.059169345 0.013587952
-0.027749792 -0.058701485 0.013993889
-0.026957963 -0.059307519 0.013272256
-0.025848787 -0.059236806 0.013155997
-0.024527019 -0.058651567 0.013147682
-0.02377039 -0.059425976 0.012910575
-0.022502877 -0.058936104 0.013376951
-0.021460542 -0.059016496 0.013418645
-0.020438103 -0.05916293 0.013236254
-0.019190805 -0.058638573 0.013479769
-0.018288702 -0.05916933 0.013255596
-0.017119026 -0.058846653 0.013373077
-0.015988132 -0.05862315 0.013124347
-0.015152629 -0.059528183 0.013096541
-0.013949804 -0.059018403 0.012941927
-0.012870483 -0.058989719 0.012709975
-0.011713753 -0.058568764 0.012370586
-0.01074255 -0.059084028 0.011902004
-0.0095900465 -0.058605842 0.010716438
-0.0086036855 -0.059150342 0.0083610713
-0.007842279 -0.061617911 0.0040079057
-0.047194328 -0.06215838 0.0046953857
-0.043512158 -0.058741417 0.0086196065
-0.041815266 -0.057898063 0.010494053
-0.04090808 -0.058132537 0.011263281
-0.040105596 -0.058532488 0.011890739
-0.038733479 -0.058100224 0.012352258
-0.037621442 -0.058044516 0.012411803
-0.036892038 -0.058593236 0.012492299
-0.035329346 -0.057811659 0.012874275
-0.034435179 -0.058109365 0.013013333
-0.033195525 -0.057824463 0.013124794
-0.032155994 -0.057880789 0.013181686
-0.031304717 -0.058291543 0.013466448
-0.03009716 -0.058044527 0.013622075
-0.02888714 -0.057774279 0.013699234
-0.028155705 -0.058477238 0.013850361
-0.026871955 -0.05804342 0.013342857
-0.025774883 -0.057993487 0.013303101
-0.024775248 -0.058167975 0.013182461
-0.023516811 -0.057723086 0.012687773
-0.022472367 -0.057786085 0.013224155
-0.021595653 -0.058308266 0.013224155
-0.020152476 -0.057275459 0.01314941
-0.019404754 -0.05821427 0.013424456
-0.018236306 -0.057927091 0.01303193
-0.017038761 -0.057505824 0.013280839
-0.016208144 -0.058349315 0.013060838
-0.015106963 -0.058269717 0.012892991
-0.013858678 -0.057566818 0.012653172
-0.01294654 -0.058259435 0.012366712
-0.011796737 -0.057911258 0.011933446
-0.010676672 -0.057654027 0.010632098
-0.0096416427 -0.057849862 0.0089033544
-0.048523165 -0.061231609 0.0047101974
-0.044354461 -0.057336248 0.0092935562
-0.042542219 -0.056368444 0.011106163
-0.041657582 -0.056611586 0.011572629
-0.041152377 -0.057396732 0.011817694
-0.039726671 -0.056905769 0.01204291
-0.038715761 -0.056998204 0.012141228
-0.037625283 -0.056975432 0.012294203
-0.036656268 -0.057140652 0.012430221
-0.035295147 -0.056686144 0.012909889
-0.034367364 -0.056920942 0.01276952
-0.033180211 -0.056727454 0.013064831
-0.032506485 -0.057428125 0.013121724
-0.030926792 -0.056521375 0.013324738
-0.029978678 -0.056745354 0.013562113
-0.029080601 -0.057084139 0.013530225
-0.027924955 -0.056923945 0.013585359
-0.026646964 -0.056491561 0.013530225
-0.025819527 -0.05701812 0.013343424
-0.024605693 -0.056700073 0.013153076
-0.023509907 -0.056637503 0.012704015
-0.02272946 -0.057364825 0.013201058
-0.021367276 -0.056623284 0.01303193
-0.020408032 -0.056927666 0.013023138
-0.019339377 -0.056943726 0.013182193
-0.018109843 -0.056460101 0.012941927
-0.017156452 -0.056830745 0.013100982
-0.01610473 -0.056903381 0.012799382
-0.014857348 -0.056245673 0.012558311
-0.013948049 -0.056865122 0.012252778
-0.012881186 -0.056891903 0.01192838
-0.011720851 -0.056473192 0.010566384
-0.010909202 -0.05781877 0.0083249211
-0.049226467 -0.059529681 0.0046341121
-0.044747204 -0.055401299 0.0094311237
-0.043803811 -0.055556048 0.011271775
-0.042981826 -0.055876374 0.011786938
-0.042163819 -0.056218427 0.012124717
-0.041241027 -0.05643509 0.012222975
-0.039438616 -0.055427242 0.012330055
-0.038834393 -0.056094125 0.01243794
-0.037517149 -0.055739768 0.01264599
-0.03647954 -0.055792235 0.012727737
-0.035513289 -0.055960335 0.012998343
-0.03419514 -0.055567101 0.012884021
-0.033396441 -0.056019835 0.013091415
-0.032220237 -0.055848412 0.013374358
-0.031316254 -0.056153279 0.013562113
-0.030010259 -0.055733338 0.013798833
-0.028912384 -0.055683106 0.013579398
-0.027857054 -0.055714108 0.013807178
-0.026893917 -0.055939347 0.013577014
-0.025690207 -0.055662114 0.013375282
-0.024417829 -0.055205524 0.013384193
-0.023710074 -0.056041993 0.012732416
-0.022617573 -0.056005418 0.012897879
-0.021536006 -0.055993617 0.012978256
-0.020528214 -0.056182478 0.012592167
-0.019225998 -0.055541772 0.012910575
-0.018195784 -0.055657692 0.012542039
-0.017183246 -0.055845547 0.012748599
-0.016022002 -0.055542938 0.012632221
-0.015136248 -0.056220345 0.012325168
-0.013848838 -0.055395354 0.011539817
-0.012611907 -0.054651596 0.010226399
-0.012025823 -0.056849346 0.0087000132
-0.04919903 -0.057026152 0.0048529506
-0.045538392 -0.054010648 0.0097536147
-0.045001261 -0.054644387 0.011232346
-0.043657169 -0.054305255 0.012007445
-0.043209583 -0.055092219 0.012014747
-0.041949295 -0.05485677 0.012141049
-0.040707063 -0.054633163 0.012411803
-0.039921239 -0.055026568 0.012423545
-0.038675252 -0.054789945 0.012543291
-0.037571125 -0.054746494 0.012727737
-0.036820937 -0.055231407 0.012727737
-0.035329498 -0.054600134 0.01307407
-0.034680557 -0.055272136 0.013002187
-0.032900307 -0.054126311 0.013064831
-0.031929992 -0.054280989 0.013374358
-0.031243894 -0.054946158 0.013399005
-0.029980859 -0.054607995 0.013358921
-0.028989939 -0.054758772 0.013562113
-0.027922336 -0.054770738 0.013579398
-0.026820902 -0.054714639 0.013375282
-0.025669329 -0.054547325 0.013248205
-0.024826935 -0.055051029 0.013065875
-0.023637837 -0.054796807 0.012687534
-0.022499137 -0.054640759 0.012729466
-0.021499312 -0.05482325 0.012840956
-0.020403832 -0.054768179 0.012738973
-0.019217936 -0.054450821 0.012949884
-0.018264202 -0.054792609 0.012718767
-0.017176108 -0.054748844 0.012899071
-0.016038856 -0.054532107 0.012621552
-0.014943003 -0.054435227 0.011845618
-0.013868938 -0.054408912 0.010447383
-0.012977201 -0.055153105 0.0048632622
-0.050570678 -0.056189641 0.0044871271
-0.046877287 -0.053269647 0.010388106
-0.045811083 -0.053268705 0.011241347
-0.045012563 -0.053586386 0.011909306
-0.044386309 -0.054129642 0.012260705
-0.042827908 -0.053534888 0.012202382
-0.041959859 -0.053794697 0.012185812
-0.041078974 -0.054051284 0.012164146
-0.039893411 -0.053910013 0.012289256
-0.038671989 -0.053711098 0.012307882
-0.037816893 -0.054024134 0.012327403
-0.036340326 -0.053441659 0.01237461
-0.035429955 -0.05368175 0.01264599
-0.034448072 -0.053825114 0.012499303
-0.032989014 -0.053208087 0.012710482
-0.032301888 -0.05383648 0.012786776
-0.03110129 -0.053622913 0.012836188
-0.02997154 -0.053520609 0.013147533
-0.028886437 -0.053493403 0.01316008
-0.02785876 -0.05357454 0.013002992
-0.02667672 -0.05335344 0.013335049
-0.025884563 -0.053926174 0.013052732
-0.024677627 -0.053647015 0.01286149
-0.023538832 -0.053497348 0.012652993
-0.022436321 -0.05341981 0.012849748
-0.021466091 -0.053665232 0.012806058
-0.020311402 -0.053451061 0.012728333
-0.019321816 -0.053671714 0.012955874
-0.018223625 -0.053598896 0.012690574
-0.017267527 -0.053961027 0.01267007
-0.01611276 -0.053709198 0.011671245
-0.01480288 -0.052867427 0.010353297
-0.014510813 -0.05581082 0.0044553876
-0.050506305 -0.053800192 0.0062115192
-0.047941435 -0.052202892 0.010276496
-0.046907287 -0.05223766 0.011570305
-0.045907699 -0.052313425 0.012043625
-0.045033719 -0.052539334 0.01219064
-0.044150356 -0.052765053 0.012240529
-0.042901058 -0.052553792 0.012291998
-0.042028915 -0.052805558 0.012221575
-0.040876154 -0.052708723 0.012230873
-0.039557587 -0.052387074 0.012309939
-0.038876828 -0.052915681 0.01232174
-0.037758689 -0.052862167 0.01247859
-0.036501013 -0.052604396 0.01249361
-0.035494428 -0.052703846 0.012766153
-0.034168903 -0.052321132 0.012584895
-0.033573311 -0.05306749 0.012880981
-0.03213061 -0.052479994 0.012928814
-0.031173743 -0.052672874 0.013020962
-0.030171666 -0.052800413 0.01316008
-0.029015854 -0.052658398 0.013420612
-0.027724316 -0.05224967 0.01352188
-0.026853958 -0.052633755 0.01329124
-0.025651725 -0.052372269 0.013121635
-0.024630923 -0.052474573 0.013146937
-0.023838479 -0.053094793 0.012870729
-0.022327635 -0.052097812 0.012923092
-0.021446019 -0.05254275 0.012797236
-0.020512853 -0.052901566 0.012690574
-0.019276541 -0.052475024 0.012834877
-0.01830421 -0.052759193 0.01259461
-0.017182795 -0.052622307 0.011703104
-0.016115848 -0.052645102 0.010657847
-0.052495163 -0.053612079 0.0059876144
-0.048902553 -0.051028747 0.01009208
-0.048353586 -0.051577155 0.01142478
-0.047373958 -0.051680684 0.011933148
-0.046105046 -0.0514661 0.012178332
-0.044907935 -0.051323354 0.012221575
-0.043953508 -0.051457763 0.012342751
-0.043072801 -0.051687364 0.012328118
-0.041561928 -0.051153142 0.012214273
-0.040959261 -0.051738016 0.012184799
-0.040060055 -0.051969796 0.012227148
-0.03867995 -0.051573265 0.012199968
-0.03767278 -0.051665526 0.012281597
-0.036770277 -0.051910982 0.012281597
-0.035254069 -0.051278647 0.012694925
-0.034215741 -0.051323611 0.012204856
-0.033465393 -0.051817384 0.012535483
-0.032105744 -0.051369186 0.012815237
-0.031104205 -0.051482819 0.012839377
-0.029972633 -0.051381655 0.013261348
-0.028905425 -0.051387418 0.013530225
-0.028117411 -0.051909067 0.01352188
-0.02665953 -0.051186293 0.01329124
-0.025903033 -0.051806066 0.01323992
-0.02464938 -0.051442184 0.013182461
-0.023614174 -0.051521834 0.012854189
-0.022386344 -0.051168784 0.012955874
-0.021557625 -0.051738299 0.012777418
-0.020310996 -0.051311992 0.012603074
-0.019184308 -0.05115816 0.012652069
-0.018353885 -0.051822737 0.011391938
-0.016966272 -0.050898813 0.01048696
-0.052671116 -0.051573802 0.005982101
-0.049816117 -0.049816117 0.010462672
-0.049057838 -0.05012431 0.010970563
-0.048261948 -0.050406922 0.011751205
-0.047284361 -0.050508298 0.012074679
-0.046390273 -0.050705649 0.012309939
-0.045070197 -0.050435696 0.012248755
-0.044161383 -0.050624024 0.012322038
-0.042947888 -0.05046377 0.012397528
-0.041743245 -0.050305963 0.012244731
-0.041175053 -0.050927039 0.012102604
-0.039493777 -0.050167769 0.012151241
-0.038934395 -0.050831016 0.012011349
-0.037666835 -0.05058118 0.012075961
-0.036265988 -0.050132398 0.012019306
-0.035262331 -0.05022211 0.012282759
-0.034376379 -0.050490305 0.012023807
-0.032999702 -0.050031804 0.012415081
-0.032169446 -0.050398801 0.012602001
-0.03123413 -0.050620832 0.012698889
-0.030010123 -0.050374135 0.012994945
-0.02930866 -0.051018778 0.013369292
-0.027867923 -0.050376631 0.012966335
-0.026754946 -0.050299298 0.013174683
-0.025990387 -0.05089784 0.013067394
-0.02472193 -0.050518725 0.013009936
-0.02359313 -0.050403506 0.012791157
-0.022588464 -0.050555132 0.012777418
-0.021409081 -0.050311342 0.012411982
-0.02021464 -0.050004635 0.011728704
-0.019211695 -0.050163873 0.01126352
-0.018244047 -0.050439425 0.009894371
-0.053702958 -0.050415024 0.0075924695
-0.051378101 -0.049237348 0.010558695
-0.050172385 -0.049104888 0.01103723
-0.049259983 -0.049259983 0.011876643
-0.048725318 -0.049808104 0.012169391
-0.047276564 -0.049425501 0.012417197
-0.04606672 -0.049280677 0.012585133
-0.045105759 -0.049401544 0.012435973
-0.044173919 -0.049560983 0.012314081
-0.0427696 -0.049185041 0.012394428
-0.042140748 -0.049704473 0.012151241
-0.040691745 -0.04925843 0.01196751
-0.039853189 -0.04954721 0.012110472
-0.038754325 -0.04951942 0.011972308
-0.03770924 -0.049560715 0.011964232
-0.036477443 -0.049351834 0.011725575
-0.035447706 -0.049411952 0.012159646
-0.034274098 -0.049269017 0.011884391
-0.033400428 -0.049561922 0.01232031
-0.032403342 -0.049685124 0.01260519
-0.031113382 -0.049352262 0.012920767
-0.030154051 -0.049538802 0.01310876
-0.028928634 -0.049285822 0.013433933
-0.027778437 -0.049146466 0.01310876
-0.026800375 -0.049312692 0.013173789
-0.025820762 -0.049489796 0.01303342
-0.024631629 -0.049263258 0.013070911
-0.023893962 -0.049960103 0.012695253
-0.022500915 -0.049287722 0.012637168
-0.021443037 -0.049318988 0.011813968
-0.020553829 -0.049761903 0.010727823
-0.019322854 -0.049380627 0.009641856
-0.055263624 -0.049737263 0.0085102022
-0.052129209 -0.047873769 0.010327667
-0.051785093 -0.048548527 0.01069656
-0.050053336 -0.047923408 0.011555463
-0.049741641 -0.048660304 0.01189974
-0.048391979 -0.048391979 0.012092382
-0.047061756 -0.048131347 0.012295306
-0.046395581 -0.048553519 0.01239109
-0.044855043 -0.048058975 0.012283474
-0.043491695 -0.04773479 0.01229766
-0.043015443 -0.048392378 0.01222831
-0.041952536 -0.048406772 0.012023419
-0.040886458 -0.048418175 0.011888325
-0.039790612 -0.048393987 0.012075394
-0.038515259 -0.048144076 0.011972308
-0.037897222 -0.048725002 0.011964232
-0.036653895 -0.048512507 0.011999309
-0.035250332 -0.048068635 0.012255102
-0.034480818 -0.04848865 0.011973768
-0.033087619 -0.048030414 0.012507558
-0.031935629 -0.047903445 0.012917221
-0.031283319 -0.048543081 0.013121724
-0.029957682 -0.048146278 0.013385594
-0.028833881 -0.048056468 0.013543069
-0.027893111 -0.04827654 0.012969106
-0.026918244 -0.048452839 0.013223559
-0.025768468 -0.048315883 0.013099313
-0.024919579 -0.048755702 0.012882084
-0.023509314 -0.048087239 0.012214065
-0.022535171 -0.048289657 0.011728704
-0.021449042 -0.04826035 0.010825783
-0.020505536 -0.048565745 0.0093408823
-0.055452995 -0.047841795 0.0080992877
-0.053218521 -0.046832297 0.010159492
-0.05283023 -0.047439393 0.010581613
-0.051114477 -0.046854939 0.011137843
-0.050782751 -0.047541298 0.011682808
-0.049491983 -0.047340155 0.011896014
-0.04829127 -0.047218125 0.012006313
-0.047578231 -0.047578231 0.012155652
-0.045752544 -0.046816554 0.012283474
-0.044705197 -0.046834014 0.012190014
-0.044306993 -0.047548965 0.012266815
-0.043162242 -0.047478467 0.012185961
-0.041665155 -0.047006842 0.011953086
-0.041044343 -0.04752503 0.011691034
-0.039611638 -0.047105726 0.011957288
-0.038730048 -0.047336727 0.01200521
-0.037759624 -0.04746924 0.011957288
-0.036462657 -0.047186967 0.012032777
-0.035568934 -0.047425244 0.012159646
-0.03418475 -0.047004029 0.011973768
-0.033109769 -0.046994507 0.012458175
-0.032386795 -0.047500629 0.012547463
-0.031120064 -0.047216646 0.012723923
-0.029970953 -0.047097214 0.01318875
-0.02909812 -0.047419157 0.01325798
-0.027903888 -0.047221962 0.012969732
-0.02684848 -0.047253326 0.01299566
-0.025852481 -0.047396217 0.012805223
-0.024497742 -0.046865243 0.012482166
-0.023486463 -0.046972927 0.011800289
-0.022735823 -0.04763696 0.010957748
-0.021379856 -0.047035687 0.0094955862
-0.056056071 -0.046354059 0.0085002482
-0.054114942 -0.045626324 0.010328114
-0.053948551 -0.046395753 0.010855615
-0.052546386 -0.046112135 0.01140973
-0.051552784 -0.046182703 0.011758566
-0.050855648 -0.046527505 0.012041926
-0.049505111 -0.046276513 0.012343884
-0.048209187 -0.046066556 0.012351573
-0.047426458 -0.046348587 0.012389004
-0.046049837 -0.046049837 0.012373388
-0.044861432 -0.045929562 0.012203455
-0.04414073 -0.046293933 0.012292802
-0.042860024 -0.046074525 0.012230426
-0.042041026 -0.046352923 0.012028575
-0.040608022 -0.045951184 0.01183489
-0.039843332 -0.046304412 0.01196751
-0.038927324 -0.046496529 0.011957288
-0.037346903 -0.045883339 0.011742413
-0.036554545 -0.046230748 0.011990428
-0.035514623 -0.046276629 0.012133539
-0.034478169 -0.046330038 0.012116879
-0.033011802 -0.045790564 0.012529969
-0.032150589 -0.046082512 0.012659073
-0.03102492 -0.046002466 0.012688398
-0.030124603 -0.046262782 0.01318875
-0.029024241 -0.046223793 0.013450414
-0.027672257 -0.045765657 0.013345569
-0.026913153 -0.046290621 0.012807608
-0.025785331 -0.046198718 0.012277514
-0.024656048 -0.04609609 0.012165338
-0.023753786 -0.046427857 0.011117458
-0.02267326 -0.046426196 0.0094507039
-0.056993578 -0.045164723 0.0083952546
-0.055395041 -0.044742148 0.010285586
-0.055175181 -0.045438383 0.01057905
-0.053598423 -0.045022674 0.01123485
-0.052863799 -0.045311827 0.01164186
-0.051811818 -0.045335341 0.011787266
-0.050076168 -0.044748917 0.011971951
-0.04963712 -0.045320846 0.012286246
-0.048265088 -0.045047414 0.012309164
-0.047340631 -0.045188785 0.012335151
-0.046152547 -0.045079231 0.01229766
-0.045030151 -0.045030151 0.012126595
-0.044008747 -0.04508213 0.012125373
-0.04302324 -0.045174405 0.012110472
-0.041922495 -0.045147303 0.011971921
-0.040756252 -0.045046382 0.012004107
-0.040068209 -0.045482833 0.012102127
-0.038706984 -0.045158148 0.012102604
-0.037625182 -0.04515022 0.012125909
-0.036697622 -0.045332357 0.012256354
-0.035557792 -0.045255374 0.012434632
-0.034421399 -0.045178086 0.012510538
-0.033378426 -0.045222383 0.01265797
-0.031970311 -0.044758435 0.012725472
-0.031222466 -0.045218743 0.013131499
-0.03010199 -0.045152985 0.013356924
-0.028852129 -0.044881091 0.013171434
-0.028027222 -0.045274742 0.012997657
-0.02691263 -0.045213219 0.012424022
-0.025851645 -0.04524038 0.012187481
-0.024726558 -0.045152847 0.011374742
-0.023807967 -0.045451574 0.0088436604
-0.05732777 -0.043526642 0.0078742802
-0.056749783 -0.04390078 0.0097030401
-0.055962708 -0.044124443 0.010675818
-0.054667395 -0.043948296 0.011351436
-0.053985175 -0.044267844 0.011772692
-0.052652936 -0.044056542 0.011785507
-0.05125539 -0.043780647 0.011818856
-0.050694816 -0.044223141 0.012146711
-0.049311489 -0.043951545 0.01231581
-0.048369549 -0.044070035 0.012309462
-0.04740835 -0.044175964 0.012309462
-0.04627059 -0.044118471 0.01212588
-0.045142941 -0.044068109 0.012060016
-0.044066928 -0.044066928 0.012028903
-0.042838607 -0.043909576 0.01196751
-0.041770685 -0.043912776 0.011986583
-0.040860705 -0.044086549 0.011849254
-0.039470512 -0.043737594 0.011846393
-0.038812533 -0.044203166 0.011846393
-0.037698217 -0.044160772 0.011933565
-0.036596004 -0.044130474 0.012169093
-0.035387311 -0.043966055 0.012286097
-0.034435984 -0.044121105 0.012375146
-0.033006351 -0.043653559 0.012510538
-0.032170828 -0.0439668 0.012510538
-0.031323425 -0.044284843 0.012530833
-0.029770814 -0.043592978 0.012687415
-0.029106246 -0.044198375 0.0126746
-0.027807757 -0.043850694 0.012065738
-0.026728807 -0.043835245 0.011958003
-0.02587424 -0.044201829 0.011193275
-0.024965491 -0.0445037 0.0088436604
-0.057299674 -0.042444199 0.0091984868
-0.057388626 -0.043312173 0.010428548
-0.056026567 -0.043097358 0.010975748
-0.054367766 -0.042641383 0.011418164
-0.054124936 -0.043299947 0.011662155
-0.052716106 -0.043033555 0.011729568
-0.05197943 -0.043316189 0.011818856
-0.050735675 -0.043179296 0.012090296
-0.049401324 -0.042957671 0.01233238
-0.048595876 -0.043196332 0.012343168
-0.047247592 -0.042952355 0.012402594
-0.046359882 -0.043125469 0.012294292
-0.045065422 -0.042919446 0.012079149
-0.044374831 -0.043292515 0.012047678
-0.043018285 -0.043018285 0.012022495
-0.042146109 -0.043226779 0.01183489
-0.040795106 -0.042942215 0.011714906
-0.039739631 -0.042961761 0.011933565
-0.038811304 -0.043123674 0.012006491
-0.03735641 -0.042693041 0.011875093
-0.036490001 -0.042929411 0.012170941
-0.035525825 -0.043061607 0.01234448
-0.034518104 -0.043147627 0.012459517
-0.033173971 -0.042805124 0.012588024
-0.032226037 -0.04296805 0.012560576
-0.031015342 -0.042779777 0.012607992
-0.030308694 -0.043298133 0.012537301
-0.028940253 -0.042874448 0.012371391
-0.027817843 -0.042796679 0.012095302
-0.026842965 -0.042948741 0.011246413
-0.026024604 -0.043374341 0.0088658035
-0.059106141 -0.041911628 0.0070896447
-0.058586631 -0.042312566 0.0092901587
-0.056525487 -0.041594226 0.010507643
-0.055758364 -0.041818772 0.011011779
-0.055366464 -0.04233906 0.011535972
-0.053782649 -0.041950464 0.011718065
-0.052619591 -0.041880898 0.011817098
-0.051575441 -0.041905046 0.011923283
-0.050631762 -0.042013589 0.012251705
-0.049241289 -0.041748051 0.012465894
-0.048395917 -0.041943125 0.012474567
-0.04733599 -0.041956902 0.012485355
-0.046687651 -0.042344615 0.012382418
-0.04485577 -0.041651785 0.012243032
-0.043823663 -0.04168592 0.012109429
-0.043147065 -0.042068388 0.012060016
-0.041633341 -0.041633341 0.011872381
-0.041000146 -0.042079095 0.012095034
-0.039530139 -0.041666903 0.012029618
-0.038594414 -0.041810613 0.012116879
-0.037740018 -0.042053163 0.012093753
-0.036772311 -0.042180002 0.012170941
-0.035422679 -0.041863166 0.012319237
-0.034487773 -0.04203197 0.012434632
-0.032985084 -0.041497361 0.012209237
-0.032070473 -0.041691612 0.012568057
-0.031126456 -0.041859716 0.012195915
-0.030139772 -0.041980397 0.012272716
-0.028553292 -0.041243643 0.012020886
-0.028037187 -0.042055782 0.011154473
-0.027261386 -0.042527758 0.0083010793
-0.059172902 -0.040883098 0.0080400407
-0.057551015 -0.040498864 0.010119796
-0.057017174 -0.04088024 0.010734618
-0.056018747 -0.040936776 0.0110192
-0.054596309 -0.040679604 0.011548787
-0.053370599 -0.040561654 0.011719257
-0.052575856 -0.040773116 0.011859894
-0.051173851 -0.040512633 0.012114972
-0.050606832 -0.04091616 0.012313753
-0.049333334 -0.040753622 0.012348711
-0.04846704 -0.040927719 0.012349457
-0.047286078 -0.040837977 0.012350559
-0.046083551 -0.040725 0.012262493
-0.044982988 -0.040698893 0.012154758
-0.044064268 -0.040840052 0.01211524
-0.0427006 -0.040565569 0.012097508
-0.041963637 -0.040887646 0.01204589
-0.040862862 -0.040862862 0.012095034
-0.039731827 -0.04080566 0.011956692
-0.03874284 -0.04089522 0.012007773
-0.037594441 -0.040816825 0.012006491
-0.036246318 -0.040510591 0.012087137
-0.035327252 -0.040679868 0.011990666
-0.034341034 -0.040779978 0.012083292
-0.033161759 -0.040649898 0.012157857
-0.032486681 -0.041149795 0.012146711
-0.031139107 -0.040802967 0.011981726
-0.030002801 -0.040718086 0.01191169
-0.028895298 -0.040667456 0.011070788
-0.028543107 -0.041716851 0.0081419051
-0.059090447 -0.039751757 0.0080052912
-0.058246538 -0.039909665 0.0095747113
-0.05698872 -0.03978458 0.011050731
-0.055796716 -0.03970151 0.011413187
-0.054863758 -0.039803121 0.011632055
-0.054087754 -0.04002494 0.011894077
-0.052623328 -0.039735984 0.011965454
-0.051891662 -0.039999824 0.012084067
-0.050539069 -0.039786078 0.012293845
-0.048728637 -0.039194774 0.012552589
-0.048502598 -0.039879914 0.01248607
-0.047562495 -0.039995737 0.01248607
-0.046234321 -0.039783023 0.012271971
-0.045173407 -0.039795622 0.012109429
-0.043985244 -0.039694 0.01211828
-0.042981096 -0.039757516 0.01211524
-0.042095851 -0.03993709 0.012033224
-0.040890649 -0.03981458 0.012128174
-0.039633602 -0.039633602 0.012116879
-0.038784429 -0.039861776 0.012116879
-0.037560772 -0.039707102 0.012007773
-0.036513861 -0.039735675 0.012027115
-0.035315435 -0.039596099 0.011990666
-0.034259874 -0.039612979 0.012134463
-0.033248238 -0.039683379 0.011846304
-0.03231981 -0.039861098 0.01190713
-0.030882873 -0.039402287 0.011527866
-0.030060619 -0.039722964 0.010841548
-0.029539887 -0.040480584 0.0068439245
-0.058997676 -0.038616657 0.0068398118
-0.058402486 -0.038934987 0.0093430877
-0.057084363 -0.038774282 0.010759115
-0.055708911 -0.038567707 0.011297375
-0.05491285 -0.038762011 0.011575431
-0.053617686 -0.038604733 0.011785507
-0.052404661 -0.038501382 0.011866182
-0.051590636 -0.038692974 0.012007594
-0.050227165 -0.03847187 0.012306422
-0.049447257 -0.03869785 0.012543917
-0.048412949 -0.038730353 0.012511373
-0.047169384 -0.038593132 0.012517661
-0.04660039 -0.03901428 0.012313068
-0.044980571 -0.038554773 0.012115002
-0.043908399 -0.038553711 0.012265056
-0.042973801 -0.038676422 0.012157232
-0.041723393 -0.038513899 0.012301713
-0.040371396 -0.038246583 0.01251471
-0.039917715 -0.038838856 0.012403607
-0.03861893 -0.03861893 0.012403607
-0.037556496 -0.038629539 0.012319237
-0.036651686 -0.038807664 0.012359738
-0.035379298 -0.038595598 0.012212127
-0.034569781 -0.038891003 0.012287647
-0.0329873 -0.038307827 0.011851251
-0.032067273 -0.038480725 0.011593342
-0.03129033 -0.038843166 0.010766506
-0.030437186 -0.039133523 0.0061655939
-0.057534128 -0.037290636 0.0091538429
-0.05706799 -0.037686408 0.010278851
-0.055990368 -0.037685826 0.011085182
-0.054737277 -0.037564799 0.011395782
-0.05392468 -0.037747271 0.011704832
-0.052678984 -0.037627846 0.011722088
-0.051387597 -0.037470125 0.011955261
-0.050878916 -0.037888553 0.012222648
-0.049210932 -0.037443098 0.012416989
-0.048309386 -0.037573963 0.012396514
-0.047400162 -0.037704673 0.012396395
-0.046348222 -0.037725296 0.012180746
-0.044990364 -0.03749197 0.012254745
-0.044096354 -0.037643228 0.012477249
-0.042528633 -0.037212554 0.012459517
-0.0418103 -0.037522063 0.012484521
-0.041002963 -0.037765883 0.012473524
-0.039371397 -0.037243214 0.012553543
-0.038524993 -0.037454858 0.012497187
-0.037715085 -0.037715085 0.012286097
-0.036464199 -0.037536673 0.012329996
-0.035205238 -0.03733889 0.012128234
-0.034197569 -0.037403587 0.011846304
-0.032889377 -0.037133165 0.011593342
-0.032448646 -0.037856754 0.010903805
-0.031529106 -0.038052365 0.0054791272
-0.058521703 -0.036846995 0.0069527924
-0.057009764 -0.0365723 0.0095747113
-0.055585444 -0.036344331 0.01097092
-0.054982424 -0.036654949 0.011187941
-0.054394249 -0.036988091 0.011532873
-0.052518696 -0.036441546 0.011662036
-0.051659055 -0.036591832 0.011922091
-0.050518118 -0.036545023 0.012222648
-0.048721541 -0.036011573 0.012347996
-0.048414696 -0.036579989 0.012454182
-0.047489908 -0.036696747 0.012507796
-0.045952797 -0.036334768 0.012311012
-0.045299366 -0.036670916 0.012267917
-0.043662112 -0.036207605 0.012800545
-0.043001957 -0.036551666 0.012726814
-0.042208306 -0.036796983 0.012507766
-0.040577248 -0.036305957 0.012528688
-0.039778206 -0.036552947 0.012485564
-0.038633388 -0.036487091 0.012385726
-0.037396856 -0.036328375 0.012181312
-0.036424603 -0.036424603 0.011958122
-0.035478488 -0.036553591 0.011607021
-0.034600206 -0.036762718 0.011287719
-0.033410914 -0.036644228 0.010696679
-0.057602551 -0.035865739 0.0091823339
-0.055976003 -0.035523232 0.010169417
-0.055005971 -0.035592098 0.010972112
-0.053636525 -0.035400104 0.011364222
-0.052656554 -0.035462577 0.011612833
-0.051747847 -0.035576645 0.011847168
-0.05001219 -0.03511494 0.012222648
-0.049706336 -0.035658892 0.012343168
-0.048098527 -0.035272252 0.012507796
-0.046936184 -0.035202138 0.01253745
-0.046125934 -0.035398971 0.012456596
-0.045141146 -0.035468042 0.012264699
-0.043636397 -0.035121977 0.012732893
-0.043112401 -0.035567731 0.012624681
-0.041549433 -0.035157211 0.012479842
-0.040868383 -0.03549096 0.012173802
-0.040072996 -0.035740778 0.012463808
-0.038558554 -0.035345342 0.012100756
-0.037546542 -0.035401024 0.012057185
-0.036621533 -0.035544429 0.011761308
-0.035539776 -0.035539776 0.011384249
-0.034396064 -0.035470936 0.010750741
-0.056200255 -0.034584772 0.0090646446
-0.054875445 -0.034431651 0.0096868873
-0.053674325 -0.034351569 0.011145413
-0.052986305 -0.034603301 0.011355847
-0.051349685 -0.034233123 0.011559844
-0.050572589 -0.0344324 0.011944622
-0.049713459 -0.034583274 0.012130916
-0.048249457 -0.034310725 0.012268782
-0.047354944 -0.034439962 0.012456596
-0.046244282 -0.034414351 0.012256682
-0.044726152 -0.034077067 0.012240618
-0.044118624 -0.034434047 0.012744635
-0.042801674 -0.034241341 0.012646794
-0.042147577 -0.034582626 0.012485921
-0.040839761 -0.034391381 0.012167722
-0.039642092 -0.034285054 0.012170941
-0.0386273 -0.034335379 0.011940569
-0.037740558 -0.034505654 0.011894614
-0.03642913 -0.034286238 0.011072397
-0.035374984 -0.034303013 0.010615706
-0.054673787 -0.033233088 0.0092945099
-0.054073773 -0.033525739 0.010737091
-0.052887116 -0.033459198 0.011273891
-0.051805794 -0.033457909 0.011528641
-0.050868977 -0.033551879 0.011874348
-0.049089614 -0.033082131 0.012159586
-0.048508897 -0.03341724 0.012354285
-0.047100864 -0.0331847 0.012573659
