ply
format ascii 1.0
comment PCL generated
element vertex 1310
property float x
property float y
property float z
element camera 0
property float view_px
property float view_py
property float view_pz
property float x_axisx
property float x_axisy
property float x_axisz
property float y_axisx
property float y_axisy
property float y_axisz
property float z_axisx
property float z_axisy
property float z_axisz
property float focal
property float scalex
property float scaley
property float centerx
property float centery
property int viewportx
property int viewporty
property float k1
property float k2
end_header
0.044250511 0.036383752 0.038268298
0.045562562 0.036648151 0.038257211
0.047115188 0.037090681 0.038736731
0.046650987 0.035960138 0.038736731
0.049253713 0.037191581 0.039131641
0.050683547 0.037505824 0.038339555
0.049463399 0.035885211 0.037825793
0.051817052 0.036869828 0.036922038
0.052665837 0.036766719 0.035599291
0.054298446 0.037204489 0.03272444
0.056552801 0.038044613 0.031256348
0.057019431 0.037673555 0.028518826
0.058096517 0.037711777 0.025026709
0.061667353 0.03933952 0.020444691
0.062251113 0.039038833 0.01453793
0.064811058 0.039966822 0.0093405247
0.068580426 0.041597962 0.0060735047
-0.061104786 0.040736526 0.010584444
-0.059383389 0.040295873 0.016761214
-0.056946766 0.039345037 0.025842607
-0.055056002 0.038743112 0.029372841
-0.05429326 0.038927246 0.034596622
-0.052055642 0.038040664 0.037010849
-0.050625276 0.037720796 0.038976997
-0.050108727 0.038082633 0.040076077
-0.048052568 0.03726526 0.041084319
-0.047814917 0.037853476 0.042268246
-0.047367927 0.038297471 0.042768061
-0.04521367 0.03735042 0.043251842
-0.045011315 0.038009554 0.043534756
-0.043436285 0.037513155 0.043510318
-0.042097047 0.037202042 0.043350101
-0.041661248 0.037693508 0.042599499
-0.040340457 0.037388716 0.041540593
-0.039351817 0.037384227 0.040523827
-0.039341055 0.038332313 0.038239449
-0.037994608 0.037994608 0.035873204
-0.037566874 0.038582191 0.033535719
-0.037051652 0.039110079 0.029011279
-0.03612978 0.039226618 0.025416493
-0.0358309 0.040046301 0.01760897
-0.036073927 0.041539673 0.0042926371
-0.0087607624 0.041613623 0.0073578358
-0.0074374531 0.040374745 0.0096946955
-0.0063275099 0.040074229 0.013532937
-0.0052615721 0.039987948 0.017449915
-0.0041693132 0.039608475 0.021161795
-0.0030920892 0.039166462 0.024555296
-0.0021039157 0.039974399 0.026774138
-0.0010178532 0.038678419 0.028247684
0 0.038542442 0.02929908
0.0010242268 0.038920619 0.031049997
0.0020032725 0.038062178 0.032770127
0.0030347269 0.038439877 0.033570379
0.0040435446 0.038413674 0.033995658
0.0049644574 0.037729878 0.034748554
0.0060751378 0.038475875 0.03482908
0.0070550865 0.038299043 0.035004288
0.0080688931 0.038327243 0.035297543
0.0090764817 0.038322922 0.035494894
0.010037052 0.038140804 0.035494894
0.010946594 0.037815511 0.035622984
0.01233989 0.039076317 0.03545025
0.013281998 0.038824305 0.035164028
0.014335619 0.038910966 0.034774899
0.015613896 0.039555203 0.0342049
0.015933139 0.037841208 0.034290463
0.01775308 0.039683353 0.033917338
0.018333618 0.038704306 0.034513712
0.019308466 0.038616933 0.034747064
0.020608412 0.039155982 0.035352558
0.021667918 0.039208613 0.036298066
0.022218 0.038376547 0.038428694
0.023146626 0.038242251 0.041669548
0.023589607 0.037350211 0.044056922
0.02443096 0.037135061 0.046312571
0.025675094 0.037525136 0.047801346
0.025914194 0.036471829 0.048467994
0.026949111 0.036573794 0.049179971
0.027997982 0.036687009 0.049372613
0.029059861 0.036809158 0.049586743
0.029972227 0.036740147 0.049892217
0.031575937 0.037496425 0.049220681
0.031549964 0.03633026 0.04878059
0.033593398 0.037545562 0.046911746
0.034047078 0.0369654 0.045464516
0.035042681 0.036989499 0.043644547
0.037305199 0.038313445 0.042152673
0.037794817 0.037794817 0.039988905
0.038945194 0.0379466 0.039603502
0.041248497 0.039186072 0.038354039
0.041969623 0.038898673 0.037245095
0.04217599 0.038159229 0.036530584
0.042956118 0.037961222 0.035676003
0.043489385 0.037559018 0.035676003
0.044234928 0.03735394 0.036879748
0.046706181 0.038583364 0.037017047
0.046472482 0.037573494 0.037621915
0.048367508 0.038290944 0.038006037
0.048956044 0.037965916 0.037873775
0.049277447 0.037450857 0.037637234
0.051396146 0.038295168 0.036931545
0.052168336 0.038123015 0.035899669
0.051604431 0.036999404 0.033191204
0.055523816 0.039072316 0.031549543
0.056391057 0.038961094 0.030260533
0.057531655 0.03903934 0.027686983
0.059087031 0.039391354 0.023060203
0.060865797 0.03987759 0.016956657
0.061854266 0.03983834 0.010032535
0.065095313 0.041227031 0.0065006614
-0.061760858 0.041528851 0.0064788461
-0.060771983 0.041580833 0.013416976
-0.059379596 0.041353647 0.022807837
-0.056764781 0.040251389 0.028734386
-0.055160034 0.039837804 0.032653064
-0.05313893 0.039102234 0.036260217
-0.051983971 0.038987976 0.038135171
-0.051086251 0.039065953 0.039446473
-0.049594101 0.038683396 0.040580869
-0.04838074 0.038507123 0.041095614
-0.04770533 0.03876058 0.041873544
-0.045996938 0.03816767 0.042411
-0.045649566 0.038702894 0.043006569
-0.044514906 0.038579583 0.043191195
-0.042828813 0.0379619 0.043041617
-0.042743605 0.038767453 0.042184472
-0.041821275 0.038834039 0.040720701
-0.040439855 0.038467176 0.040088236
-0.040260449 0.039253939 0.038560361
-0.039143302 0.039143302 0.036219418
-0.038334608 0.039343413 0.033888727
-0.037886683 0.039934609 0.029692888
-0.036949318 0.040028431 0.026577413
-0.036339186 0.040492233 0.020218074
-0.036560539 0.041937087 0.0076855123
-0.0074700858 0.041619048 0.0079201162
-0.0064104693 0.04166805 0.01034677
-0.0052742749 0.041139346 0.014309287
-0.0041775438 0.04073105 0.018538117
-0.0031417822 0.04084317 0.022058517
-0.0020508594 0.039991755 0.025546193
-0.0010157898 0.039615802 0.02791369
0 0.040103488 0.028527558
0.0010079005 0.039308116 0.030951887
0.0020483104 0.039942052 0.032316118
0.0030330934 0.039430212 0.033540249
0.0039903917 0.038906317 0.034189314
0.0050388239 0.03930283 0.03493917
0.0060441983 0.039287291 0.03498891
0.0069922414 0.038956773 0.035339653
0.0081014354 0.039494496 0.035535634
0.0090202596 0.039087791 0.035781533
0.01007167 0.039279513 0.035972416
0.011345044 0.040223338 0.035963535
0.012404649 0.040315107 0.035622984
0.013245717 0.03973715 0.035391212
0.014411174 0.040145412 0.03480503
0.015115311 0.039299808 0.034273744
0.016158322 0.039385911 0.034290463
0.017233467 0.039535601 0.033612013
0.018307431 0.039666101 0.034152299
0.019777255 0.04059542 0.034385651
0.020725951 0.040415604 0.035103619
0.021063322 0.039117597 0.03592217
0.02269798 0.040237326 0.037480295
0.023326466 0.039553571 0.040739983
0.023866061 0.038782351 0.043085903
0.024837039 0.03874578 0.04570201
0.025184026 0.037776038 0.047248363
0.026035566 0.037606928 0.048057139
0.027063075 0.037694998 0.048944861
0.027808784 0.037398018 0.049313307
0.028833287 0.037483271 0.049385279
0.030154577 0.037936401 0.049486369
0.030772809 0.03750436 0.048966378
0.032113343 0.037952133 0.048557073
0.033178348 0.038057517 0.04667902
0.033988237 0.037872605 0.045264482
0.035902642 0.03889453 0.04324472
0.037488677 0.039515089 0.041904509
0.037161402 0.038139336 0.03986004
0.039715752 0.039715752 0.038988024
0.040767722 0.039748527 0.037241578
0.041650303 0.039618578 0.035549432
0.043425981 0.040324125 0.034310311
0.042798094 0.038816877 0.034462959
0.044219717 0.039194752 0.034631491
0.045054991 0.039047658 0.035316885
0.045899186 0.038914528 0.035622925
0.046688195 0.038741268 0.036724031
0.048220187 0.039178904 0.037080795
0.048575561 0.038662184 0.0368388
0.050193325 0.039150793 0.036333323
0.051338028 0.039258491 0.035729259
0.051411238 0.038558431 0.033337772
0.05319633 0.039144471 0.031639665
0.055364657 0.039985586 0.030262262
0.056159601 0.039822262 0.028249085
0.058810744 0.040957484 0.023934752
0.058977321 0.040352903 0.019375205
0.060506683 0.040685527 0.012590587
0.063628852 0.042059746 0.007117182
-0.063231111 0.042868547 0.0054018795
-0.062278956 0.042951003 0.011877596
-0.060195867 0.042242713 0.018138021
-0.057659205 0.041185144 0.026414096
-0.056886714 0.041372154 0.030658931
-0.054559052 0.04041411 0.034764022
-0.052494925 0.039618813 0.037120253
-0.051905766 0.039927512 0.038576961
-0.050570525 0.039663155 0.039231628
-0.049792893 0.039834313 0.040273517
-0.048634689 0.039701786 0.040667951
-0.046985354 0.039154463 0.041592777
-0.046897858 0.039913069 0.041998178
-0.045477722 0.039545845 0.04220897
-0.044490598 0.039547194 0.042119324
-0.04378178 0.039801616 0.041582525
-0.042411599 0.03945265 0.040523827
-0.041448731 0.039474979 0.039806068
-0.04129871 0.040291421 0.038645446
-0.039948829 0.039948829 0.036471963
-0.039428223 0.040439203 0.034086078
-0.039101142 0.041159097 0.030140042
-0.037975863 0.041054983 0.026812673
-0.03729932 0.041443687 0.023096472
-0.038086277 0.043527175 0.011054963
-0.0076054204 0.043459546 0.0053726435
-0.0064201872 0.042801246 0.0085892975
-0.0052505387 0.04200431 0.011231065
-0.0042279707 0.042279702 0.016149968
-0.0031031554 0.041375402 0.019133836
-0.0020598227 0.041196451 0.023431033
-0.0010374443 0.041497774 0.026094854
0 0.040590234 0.028332174
0.0010257346 0.041029379 0.030983746
0.002031428 0.04062856 0.032009602
0.0030141505 0.040188674 0.033177495
0.0040197512 0.04019751 0.033799827
0.0050099883 0.040079907 0.034540147
0.0059706504 0.039804336 0.034839809
0.0070826807 0.040472459 0.035232931
0.0080290884 0.040145438 0.035413414
0.0091763716 0.040783875 0.035852581
0.010243893 0.040975571 0.036089957
0.011346274 0.041259181 0.035903215
0.012229142 0.040763803 0.035894215
0.01331501 0.04096926 0.035580158
0.013989993 0.039971408 0.035129547
0.014880618 0.039681647 0.034778744
0.01613207 0.040330175 0.034371078
0.016746977 0.039404653 0.034175575
0.018503711 0.041119359 0.034303695
0.019574374 0.041209206 0.034772992
0.020220354 0.040440708 0.035419554
0.021458993 0.040874269 0.035717338
0.022315262 0.040573206 0.037118882
0.022674339 0.039433632 0.040172547
0.023964904 0.039941508 0.04209736
0.024732588 0.039572138 0.044983596
0.025102332 0.038618971 0.04668209
0.026349589 0.039036427 0.047675669
0.026853122 0.038361602 0.048805028
0.027828343 0.03838392 0.048889905
0.029349037 0.039132047 0.049373746
0.029903457 0.038585104 0.049427062
0.031148547 0.038935684 0.049134642
0.032073613 0.038877107 0.048383921
0.032679025 0.038445909 0.046604097
0.034030765 0.038892303 0.04546681
0.03586565 0.039850723 0.042867959
0.036086906 0.039012868 0.040882796
0.038306955 0.040323108 0.039577186
0.040057056 0.041084159 0.037499607
0.041161153 0.041161153 0.035500556
0.042565785 0.041527592 0.033908278
0.04240169 0.04038256 0.032826573
0.043802056 0.040746097 0.032460064
0.044588521 0.040535018 0.031669587
0.044922017 0.039930679 0.033206761
0.046004567 0.04000397 0.033874929
0.047404844 0.040344547 0.03556481
0.047835533 0.039862942 0.035764545
0.049328204 0.040267922 0.035754114
0.050852571 0.040682055 0.034526914
0.050714802 0.039776314 0.032939166
0.052259333 0.040199488 0.031658977
0.053078346 0.040059131 0.030329257
0.054133672 0.040099014 0.028249085
0.057164434 0.041574132 0.024178058
0.057087123 0.040776517 0.019478709
0.059189174 0.041536264 0.014104724
0.061512705 0.042422552 0.0070150793
-0.063049182 0.04381384 0.010548383
-0.061072793 0.043172147 0.016517937
-0.058185317 0.041852601 0.022888631
-0.057719056 0.042258594 0.029459357
-0.055550564 0.041410424 0.033036679
-0.053896349 0.040921304 0.035961419
-0.053282011 0.041218162 0.038135171
-0.051911745 0.040930416 0.039062202
-0.050880294 0.040903769 0.039681226
-0.049768571 0.040810231 0.039941221
-0.049009185 0.04100769 0.040523827
-0.047329348 0.040427152 0.041143656
-0.046385065 0.040463567 0.041071266
-0.04487323 0.039995708 0.041121036
-0.044829521 0.040844675 0.040869981
-0.043585226 0.040613506 0.040531814
-0.042494461 0.040517975 0.039211065
-0.042155538 0.041151837 0.038333088
-0.041075692 0.041075692 0.037045687
-0.040076543 0.041078459 0.034431905
-0.039809301 0.041850805 0.03052634
-0.038944568 0.04201914 0.027828872
-0.038104989 0.042224448 0.023964554
-0.03860591 0.043967847 0.013121098
-0.038007013 0.044522502 0.0042926371
-0.0064116647 0.043813046 0.0063031614
-0.0053817499 0.044130351 0.009149611
-0.0042431667 0.043492462 0.013457268
-0.003119847 0.042637911 0.017154902
-0.0020981273 0.043011609 0.021408916
-0.0010276006 0.042131625 0.024921209
0 0.042285945 0.027881175
0.0010306335 0.042255975 0.029708266
0.00201345 0.041275728 0.03180033
0.0030379612 0.041518807 0.032456219
0.0040430059 0.041440815 0.033559024
0.0049705221 0.040758286 0.033890903
0.0060808738 0.04155264 0.034427732
0.007125908 0.041737463 0.034839809
0.0082036788 0.042043854 0.035177708
0.0093137948 0.042429514 0.035372168
0.010035763 0.041146629 0.035977542
0.011017279 0.041064404 0.035903215
0.012318482 0.042088147 0.035836995
0.013071295 0.041224856 0.035790354
0.013864281 0.040602539 0.034932166
0.015145119 0.041396663 0.034854084
0.015965115 0.040910609 0.034714311
0.017103383 0.041249339 0.034114182
0.018675786 0.042539291 0.034375459
0.01913202 0.041284885 0.034991413
0.020615149 0.04226106 0.035289198
0.02146635 0.041910496 0.036114663
0.021839324 0.040700562 0.037019491
0.023288494 0.041514274 0.039214849
0.024034491 0.041058924 0.040995896
0.024570525 0.04029566 0.043713093
0.025604414 0.04037619 0.045794636
0.026057051 0.039568115 0.047298193
0.02696164 0.039479546 0.04786694
0.02842145 0.040182054 0.0482997
0.029067706 0.03972587 0.048853815
0.02993913 0.039596915 0.048948228
0.030933755 0.039633874 0.048624367
0.031856161 0.039578866 0.047880024
0.033468246 0.040358767 0.046552986
0.034477033 0.040387385 0.045389622
0.034908444 0.039756842 0.042655945
0.036627725 0.040587477 0.040166318
0.038581997 0.041627944 0.038988024
0.038818013 0.040808681 0.035899937
0.042283297 0.043340381 0.033447832
0.041778348 0.041778348 0.03221935
0.041859079 0.040862434 0.03109625
0.043562982 0.041536797 0.030433506
0.044527076 0.041491143 0.029316992
0.045515824 0.041469973 0.030820042
0.047298886 0.042157706 0.031766325
0.047353484 0.041308358 0.033433974
0.048433725 0.041370474 0.033685863
0.049826451 0.041691523 0.033392757
0.049401388 0.040509138 0.032040298
0.051751882 0.041604456 0.030427665
0.052377842 0.041297916 0.028632671
0.052791167 0.040838454 0.027499288
0.055383194 0.042050201 0.024065942
0.05743134 0.042812455 0.019740671
0.057904094 0.042394072 0.014208227
0.061632551 0.044332188 0.0075223148
-0.06494952 0.045464668 0.0098196268
-0.062332422 0.044372234 0.015189677
-0.059233274 0.04289306 0.02240923
-0.058896236 0.043397229 0.027312756
-0.056796376 0.042597283 0.031182766
-0.054710429 0.041778874 0.034501463
-0.054827221 0.042643394 0.037097156
-0.052554794 0.041647196 0.038157105
-0.051745404 0.041794367 0.039057404
-0.05112211 0.042100564 0.039512455
-0.048952606 0.041120186 0.040006518
-0.048132543 0.041256469 0.040220559
-0.047308702 0.041395117 0.040727615
-0.04620913 0.041293267 0.040742218
-0.045976002 0.041978087 0.040595382
-0.044609342 0.041635383 0.040143371
-0.043531738 0.041553024 0.039179385
-0.043349687 0.042341556 0.038278013
-0.042142306 0.042142306 0.037188083
-0.040573034 0.041562621 0.034607798
-0.040957041 0.043004896 0.030914307
-0.039712083 0.042766862 0.027905524
-0.038670834 0.042741448 0.024508238
-0.03934205 0.044658542 0.016008943
-0.038472142 0.044884171 0.0064279735
-0.0053166999 0.044660281 0.006787926
-0.0042466871 0.044590212 0.010493726
-0.0031843563 0.044580989 0.014347732
-0.0020964972 0.044026442 0.01864329
-0.0010338256 0.043420676 0.022074491
0 0.043726448 0.025675714
0.0010159969 0.04267187 0.028399557
0.0020328239 0.042689301 0.031024903
0.0030373638 0.042523094 0.032007873
0.0040126191 0.042132504 0.032983392
0.0050580809 0.042487882 0.033535838
0.0061004153 0.042702906 0.033791363
0.0070324033 0.042194422 0.034599096
0.008134638 0.042706851 0.034939677
0.0091166114 0.04254419 0.035224646
0.010095024 0.042399105 0.035290629
0.011194494 0.042742614 0.035783678
0.011982909 0.041940186 0.035580605
0.012921388 0.041746028 0.035506159
0.014126301 0.042378902 0.035194933
0.015052157 0.042146042 0.035148591
0.016302293 0.04279352 0.035071671
0.017293673 0.042725544 0.034738064
0.01786733 0.041690439 0.03494665
0.019479303 0.043059513 0.035329074
0.020254947 0.042535391 0.035578251
0.020763937 0.041527875 0.036849856
0.022294659 0.042562533 0.037441999
0.023077842 0.042142145 0.039349049
0.024018174 0.042031806 0.041083157
0.024833582 0.04172042 0.042879641
0.025298923 0.040867493 0.045396745
0.026205594 0.040764257 0.047154069
0.027307084 0.040960625 0.047832072
0.028170381 0.040798482 0.048105448
0.028757313 0.04026024 0.048711628
0.03005895 0.04072503 0.048805028
0.030736294 0.040341385 0.048472852
0.032109316 0.040866405 0.047852516
0.033377536 0.041231077 0.046277314
0.034081303 0.040897563 0.044766188
0.035814993 0.041784164 0.041772455
0.037045162 0.042051267 0.039426535
0.037571918 0.041526854 0.036051303
0.040333543 0.043436121 0.034247249
0.041331179 0.04339774 0.03221935
0.042381171 0.043414857 0.03025651
0.043332908 0.043332908 0.028350532
0.043857884 0.042837933 0.027226657
0.045011792 0.042965803 0.02644366
0.046233814 0.043151557 0.027030587
0.046876732 0.042800494 0.028792799
0.047774628 0.042692222 0.030525625
0.04937239 0.043200843 0.0306907
0.049518883 0.042444758 0.028843999
0.050634608 0.04253307 0.02845341
0.05112211 0.042100564 0.027652532
0.0530589 0.042855266 0.025260448
0.054351974 0.043071378 0.023536086
0.055401687 0.043090202 0.019741654
0.057099633 0.043603357 0.014408469
0.060072437 0.045054331 0.0094756782
0.060597174 0.044650551 0.0043615103
-0.06863451 0.048381701 0.0066169798
-0.064932838 0.046535201 0.01509583
-0.060536236 0.04411963 0.020970792
-0.060383953 0.044767413 0.0258573
-0.058018848 0.043768607 0.030658931
-0.05580657 0.042851474 0.033511221
-0.055865839 0.043676928 0.035975724
-0.054180358 0.043143615 0.037614107
-0.0525476 0.04263296 0.038576961
-0.052573085 0.043473896 0.039153934
-0.050550632 0.042621121 0.039532721
-0.049526539 0.042592824 0.039862096
-0.04868333 0.04272211 0.03983435
-0.047336902 0.042405978 0.040191412
-0.046876404 0.042886924 0.040030569
-0.045875419 0.042883541 0.039335668
-0.044294104 0.042325478 0.038943529
-0.043989796 0.042990029 0.038251013
-0.043271035 0.043271035 0.036395311
-0.04213642 0.043139666 0.034513831
-0.041912675 0.043957192 0.030914307
-0.040659226 0.043708671 0.028047174
-0.039939445 0.044035796 0.025495291
-0.039903894 0.045154404 0.016319662
-0.039345205 0.04572551 0.0090568662
-0.0043173498 0.046411511 0.0074027181
-0.0032208043 0.046164863 0.011297703
-0.0021368084 0.045941379 0.015354007
-0.0010613815 0.045639403 0.019820154
0 0.043991968 0.024184018
0.0010328266 0.044411544 0.026891738
0.0020321687 0.043691628 0.029668242
0.0030327467 0.043469369 0.031596065
0.0040983786 0.044057567 0.032263786
0.0050619058 0.04353239 0.033157736
0.0060344352 0.043246787 0.033725083
0.0071421526 0.043873224 0.034055382
0.0079807248 0.042896397 0.034654051
0.0089516593 0.042769041 0.035150826
0.010093587 0.043402426 0.035224646
0.01100423 0.043016538 0.035277933
0.012035033 0.043125533 0.035819471
0.013106266 0.043351494 0.035802692
0.013929194 0.042782523 0.035421371
0.014861004 0.042601548 0.035347372
0.01602081 0.043055926 0.035421371
0.016813405 0.042528022 0.034997672
0.018291088 0.043695375 0.035204679
0.019420119 0.043950796 0.035551488
0.019967472 0.042930067 0.036714703
0.021462867 0.043947775 0.037409008
0.022513893 0.044004425 0.037754297
0.022890823 0.042795885 0.039481103
0.024160039 0.043286737 0.041055769
0.02453059 0.042192612 0.042365015
0.025364663 0.04194925 0.044390887
0.026796509 0.04267592 0.046632558
0.027047623 0.041537419 0.047423601
0.027968371 0.041470341 0.047798723
0.029482558 0.042258333 0.048493057
0.030124184 0.041785158 0.048694551
0.031633355 0.042507321 0.0482997
0.032272425 0.042051949 0.047298193
0.03279167 0.041471817 0.045507401
0.035051171 0.043062866 0.044029653
0.036266517 0.043318342 0.042173356
0.036649078 0.042592168 0.039385766
0.038637832 0.043721754 0.035232544
0.040593687 0.044757143 0.032760531
0.041467633 0.044577707 0.030639231
0.043290064 0.045401771 0.027888864
0.043445744 0.044480167 0.026103616
0.044022761 0.044022761 0.024882078
0.046246432 0.045195375 0.024202913
0.046126928 0.044076841 0.024744481
0.047404878 0.044313256 0.024996459
0.049259424 0.045067132 0.026411057
0.049339373 0.044199858 0.026891977
0.050647296 0.044445589 0.027080178
0.052056413 0.044768512 0.024943531
0.052231561 0.044038378 0.02358067
0.05390187 0.0445727 0.022290051
0.054981451 0.044607595 0.018729389
0.05541984 0.044130612 0.013453364
0.057986826 0.045335155 0.0083314776
0.059999801 0.046071276 0.0044107139
-0.069113806 0.049048506 0.0053040385
-0.066163681 0.04772462 0.01269415
-0.063415885 0.046504982 0.019491374
-0.06142962 0.045811918 0.023574412
-0.059122421 0.044851489 0.029548138
-0.057596512 0.044460464 0.033072054
-0.056679372 0.044533793 0.034346968
-0.054691806 0.043753445 0.036605239
-0.053974669 0.043979358 0.037901521
-0.05264838 0.04370809 0.038774937
-0.051727746 0.043769632 0.039294899
-0.050564867 0.043624587 0.039558381
-0.04967884 0.043717377 0.039829731
-0.048125036 0.043214321 0.039755523
-0.048292119 0.044267777 0.039910138
-0.047180876 0.044169329 0.039343119
-0.045907572 0.043911591 0.038772851
-0.045049444 0.044048339 0.037996888
-0.044863567 0.044863567 0.036487222
-0.043023717 0.044024266 0.034474045
-0.043110121 0.045162983 0.030864209
-0.041599922 0.044643816 0.028050154
-0.041217759 0.045339536 0.02630049
-0.040867571 0.046107002 0.016662538
-0.040599506 0.047009956 0.010673672
-0.0032123022 0.047113765 0.00839746
-0.0021557505 0.047426511 0.011383802
-0.0010399434 0.04575751 0.016119599
0 0.046120342 0.021591276
0.0010350947 0.045544166 0.024961323
0.0020186524 0.044410352 0.028093547
0.0030644785 0.044945687 0.029968977
0.0040373979 0.044411372 0.031767368
0.0049432744 0.043500815 0.032633126
0.0060680853 0.044499293 0.033189386
0.0069862478 0.043913558 0.033798546
0.0079582203 0.043770213 0.034180701
0.0090730507 0.04435714 0.034924507
0.0099927187 0.043967962 0.035212547
0.010898641 0.043594565 0.036115021
0.01208996 0.044329856 0.036593169
0.012948394 0.043825332 0.036638081
0.01389323 0.043664437 0.036639869
0.014742544 0.043244794 0.036553532
0.01574132 0.04328863 0.036724418
0.017112583 0.044291388 0.035551488
0.018128149 0.044313256 0.03644833
0.019192904 0.044446725 0.036554635
0.020434296 0.044955451 0.037210137
0.021379579 0.044795308 0.037568629
0.021527927 0.043055855 0.038313597
0.023178356 0.044341199 0.039545774
0.02376442 0.043568105 0.04114911
0.024610225 0.043313995 0.042359799
0.025760459 0.043594621 0.044285834
0.026061114 0.04246996 0.045786887
0.027111497 0.04260378 0.046868503
0.028137963 0.04269208 0.047114879
0.029008674 0.042546056 0.047790974
0.030127378 0.042761438 0.047872275
0.031311691 0.043053575 0.04721579
0.032190055 0.042920072 0.046153158
0.033594023 0.043474615 0.044871926
0.034646627 0.043555759 0.043618709
0.035396233 0.043262064 0.041467249
0.037523638 0.044622701 0.037609071
0.03928563 0.045488622 0.034285098
0.039197102 0.044222374 0.030852795
0.042624254 0.046886679 0.028176755
0.043765578 0.046967935 0.025689662
0.044748239 0.046879109 0.024111271
0.045182418 0.046233173 0.023049295
0.045287732 0.045287732 0.019382477
0.046366774 0.045336399 0.018142223
0.048788395 0.046667159 0.018419147
0.048768193 0.045655329 0.019398242
0.050034065 0.04586456 0.019643575
0.050692849 0.045520108 0.019831777
0.050623156 0.044548374 0.019533575
0.054232497 0.046788819 0.017113894
0.055166051 0.046678968 0.013570964
0.055511542 0.046085052 0.01024431
0.056848735 0.046321191 0.0073111653
-0.069545887 0.049675632 0.0047858059
-0.067301884 0.048848141 0.010478765
-0.063997082 0.047210965 0.018975616
-0.063409641 0.047557231 0.022795796
-0.061483849 0.046894465 0.027994841
-0.058254283 0.045197289 0.031695157
-0.058302555 0.046028338 0.033435822
-0.056630488 0.045506645 0.034922868
-0.055251602 0.045205858 0.036798596
-0.054410882 0.045342404 0.0370076
-0.052831568 0.044856995 0.038383067
-0.050951295 0.044092469 0.038840562
-0.051406536 0.04535871 0.039042294
-0.049999129 0.044999219 0.039393961
-0.049031578 0.045029003 0.039294899
-0.04804511 0.045042291 0.039203286
-0.046834309 0.04484136 0.038495779
-0.046770211 0.045753472 0.037549317
-0.045606282 0.045606282 0.036495209
-0.043889321 0.044886809 0.033824295
-0.044154562 0.046208266 0.030944437
-0.043462895 0.046567388 0.028276563
-0.041724544 0.045795232 0.02621752
-0.042127881 0.04739387 0.017123848
-0.041148107 0.047478586 0.01191327
-0.0032675888 0.049013834 0.0041327477
-0.002147645 0.048322015 0.0083946884
-0.0010583205 0.047624428 0.01338318
0 0.047651839 0.018294185
0.0010162083 0.045729373 0.022084236
0.0020612399 0.046377901 0.026012003
0.0030456414 0.045684621 0.028397083
0.0040273215 0.045307368 0.030538708
0.0050585498 0.045526952 0.031801194
0.0060893204 0.045669906 0.032861114
0.0069694859 0.044803839 0.03344506
0.0080582965 0.04532792 0.033990771
0.0090820091 0.045410048 0.034693986
0.0099239489 0.044657774 0.035494864
0.010894317 0.044567663 0.036319613
0.012004515 0.045016933 0.036816299
0.012890517 0.044621024 0.036974967
0.014047109 0.045151424 0.037127882
0.014884732 0.044654198 0.036958307
0.015843563 0.044560019 0.037127882
0.017105835 0.045280151 0.036699474
0.018057805 0.045144513 0.036813468
0.019591292 0.046400432 0.037152559
0.02043717 0.045983635 0.037765563
0.021043332 0.045092855 0.038114995
0.022167599 0.045342822 0.038719326
0.022934083 0.044871032 0.039425284
0.023620008 0.044287514 0.041753709
0.024904365 0.044827856 0.042457551
0.025706246 0.044491585 0.043987662
0.026120912 0.043534853 0.045236945
0.027347811 0.043951839 0.046013236
0.028118005 0.04363139 0.046228349
0.029225532 0.0438383 0.046485871
0.030394461 0.044120993 0.046897233
0.031076998 0.043702029 0.046208203
0.032392517 0.04417162 0.045362622
0.033281039 0.044048436 0.044079185
0.033927277 0.043620788 0.042895764
0.035771154 0.044713944 0.040170044
0.037191935 0.045233432 0.03613767
0.038286928 0.045339782 0.032297969
0.040856443 0.047142055 0.02815938
0.042328063 0.047619075 0.025524378
0.044729937 0.049093835 0.023714185
0.045333434 0.048571538 0.020063698
0.046170186 0.048317637 0.017547697
0.046839129 0.047903657 0.013568133
0.047730781 0.047730781 0.01192826
0.048553627 0.047498114 0.011462569
0.049365971 0.047265295 0.012424916
0.051536724 0.048315682 0.012633532
0.051026911 0.046861451 0.012952447
0.05329733 0.047967598 0.012292385
0.054582655 0.048161168 0.0097254515
0.05484803 0.047464646 0.0065386593
0.057158582 0.048530877 0.0059275627
-0.068131767 0.049747005 0.0096688271
-0.064926311 0.048171137 0.018845886
-0.063789546 0.048103593 0.022603899
-0.062644489 0.048027441 0.027963519
-0.059355818 0.046277419 0.031151801
-0.059052002 0.046834346 0.03237918
-0.057705324 0.046569213 0.033759803
-0.055405319 0.04551151 0.035377055
-0.054952487 0.045960262 0.036486149
-0.054048978 0.04604172 0.037068605
-0.052463669 0.045534506 0.038041592
-0.052792903 0.046701413 0.038440049
-0.050981637 0.045983437 0.038575798
-0.050090507 0.046083268 0.038774937
-0.049209539 0.046196714 0.038407058
-0.04755253 0.045571178 0.037654757
-0.04699384 0.045993973 0.037208498
-0.046366896 0.046366896 0.035842657
-0.045168314 0.046172053 0.033619314
-0.045164846 0.047217794 0.030707955
-0.043854814 0.046914455 0.028156072
-0.04300293 0.047098447 0.025695294
-0.043299239 0.048579633 0.017587245
-0.042159569 0.048483506 0.012679487
-0.042267725 0.049854245 0.0062380135
-0.0021641243 0.049774859 0.0042360127
-0.0010801338 0.049686156 0.0086531341
0 0.047933593 0.013471007
0.0010416073 0.047913942 0.01896596
0.0020813781 0.047871694 0.0242773
0.0030326108 0.046500031 0.026031047
0.0040952447 0.047095314 0.028504133
0.0050922618 0.046848811 0.030884445
0.0060294652 0.046225902 0.031982571
0.0071434788 0.046942864 0.033318311
0.0080201812 0.046116047 0.033831298
0.0091034435 0.046528712 0.034654051
0.010166424 0.046765555 0.035238773
0.01086595 0.04543943 0.036302
0.011879807 0.045539264 0.036958307
0.013119092 0.046421405 0.037251949
0.01384908 0.045504123 0.037439138
0.01487511 0.045617007 0.037421525
0.015934998 0.045813121 0.037328273
0.016820155 0.045513362 0.037127882
0.018003726 0.046009526 0.037158698
0.019193769 0.046469122 0.037418246
0.020051496 0.046118446 0.037756354
0.021045063 0.046098709 0.038485885
0.022375638 0.046785425 0.038943857
0.02280526 0.045610521 0.040739506
0.024108279 0.046207536 0.0416587
0.024927629 0.045866836 0.042235345
0.025746213 0.045550995 0.043882668
0.026709255 0.045504659 0.044833511
0.027485687 0.04515506 0.04584977
0.028192505 0.044719145 0.045813113
0.029123139 0.044655479 0.046125174
0.030191259 0.044799931 0.0465312
0.031261563 0.044938501 0.04577297
0.032331683 0.045068409 0.044872403
0.033130154 0.044823151 0.044030845
0.034481786 0.04531892 0.042443007
0.035904549 0.045878042 0.039722383
0.03674189 0.045679107 0.035739958
0.039023373 0.047238823 0.03187409
0.040348925 0.047591042 0.026445061
0.042844348 0.049271002 0.024111271
0.046805382 0.052513354 0.018806756
0.04659874 0.051036716 0.01498729
0.047970414 0.051317185 0.011637717
0.048768278 0.050985023 0.0084541142
0.04870094 0.049783181 0.0056321025
0.051920019 0.050815336 0.0050176084
0.051626403 0.049475305 0.0050087869
0.053025261 0.049778815 0.0055465996
0.054031022 0.049708541 0.0041727424
-0.0686813 0.05043783 0.0063519478
-0.065609828 0.048947014 0.017195731
-0.065149345 0.049387407 0.021809489
-0.06297908 0.048524868 0.025979936
-0.060847949 0.047664229 0.030196309
-0.061414346 0.048923291 0.03190136
-0.059174478 0.047951728 0.032917768
-0.056595407 0.046666391 0.033901066
-0.056437738 0.04736739 0.034645766
-0.05404269 0.046181936 0.035425961
-0.053693429 0.046733167 0.036650926
-0.053470362 0.047417115 0.037477791
-0.051650558 0.046684157 0.037520528
-0.05017367 0.046238478 0.037878305
-0.050127447 0.0471198 0.037634999
-0.048638906 0.046653647 0.037388027
-0.048589736 0.047577452 0.036036462
-0.047769304 0.047769304 0.034954786
-0.046389755 0.047398224 0.032495767
-0.046293013 0.048350476 0.029456764
-0.045525536 0.048629548 0.027448267
-0.044212654 0.04832546 0.024607003
-0.044551596 0.049855359 0.017537147
-0.043538906 0.049910452 0.013126642
-0.043025024 0.050554406 0.0081568062
-0.0010775834 0.050646421 0.0045248568
0 0.050128553 0.0088248253
0.0010471829 0.049217597 0.013779134
0.0020521979 0.048226651 0.019498467
0.0030993235 0.048556067 0.024314404
0.0040960084 0.048128098 0.027171373
0.0050323675 0.047304258 0.029274136
0.0060865935 0.047678318 0.031868488
0.0071062515 0.047713403 0.032515138
0.0080813356 0.047477849 0.033549249
0.0091738505 0.047907889 0.034417033
0.0099667553 0.046843752 0.034555525
0.010956729 0.046815116 0.035957485
0.012183665 0.047719356 0.03688094
0.012945373 0.046802502 0.037174582
0.014016271 0.047054622 0.037297398
0.015105054 0.047329169 0.037273407
0.015610937 0.045857128 0.037152559
0.017219575 0.047607061 0.037102371
0.018209837 0.047547914 0.037273407
0.018968752 0.046922702 0.037696481
0.02016552 0.047388975 0.037926197
0.020978088 0.046950955 0.038256615
0.021789223 0.046549704 0.038974792
0.022937803 0.046872899 0.040628999
0.023441259 0.045905799 0.041671485
0.024616787 0.046279557 0.042247683
0.025837852 0.046706889 0.043882668
0.026228517 0.045657046 0.044556856
0.027197044 0.045652181 0.045200616
0.028650409 0.046433419 0.045629501
0.028826768 0.045161936 0.04583329
0.030223832 0.045823228 0.045994103
0.031250726 0.045899503 0.045362741
0.031756815 0.045229401 0.044582367
0.033886008 0.046842422 0.044007033
0.034421295 0.04622288 0.042256534
0.035416618 0.046238363 0.038888127
0.037271418 0.04734477 0.03503558
0.039399475 0.048730932 0.029693156
0.040375076 0.048657145 0.024313539
0.042856291 0.050356142 0.020806193
0.045930017 0.05265148 0.014599621
0.04576841 0.051217027 0.011306763
0.048021544 0.052488666 0.0087037683
-0.069991119 0.051685747 0.0056912601
-0.066618256 0.04996369 0.016839385
-0.066457793 0.050634507 0.020147771
-0.064429544 0.049880933 0.025990576
-0.061526064 0.048413951 0.029175401
-0.061437715 0.049150173 0.03138271
-0.060647488 0.049340326 0.032485664
-0.058114842 0.04809504 0.033225864
-0.057816058 0.048687208 0.033672005
-0.055158917 0.047279071 0.034064204
-0.054551732 0.047608782 0.035048813
-0.054235313 0.048209168 0.035741448
-0.052930072 0.04793667 0.036393255
-0.051957279 0.047960564 0.036635995
-0.051326271 0.04830708 0.036698163
-0.050194107 0.048186339 0.035919249
-0.048763279 0.047768112 0.03581807
-0.048373725 0.048373725 0.034093976
-0.047501143 0.048511803 0.031317741
-0.047441617 0.049504295 0.028435886
-0.046081979 0.049154107 0.026720256
-0.045305818 0.049424529 0.02362439
-0.045134332 0.050382506 0.01755476
-0.044998981 0.051427405 0.013236135
-0.043709032 0.051171549 0.0064029694
0 0.052615687 0.0045194924
0.0010567446 0.050723743 0.0088567436
0.0021329639 0.051191129 0.014990926
0.0031367377 0.050187804 0.02010107
0.0041120024 0.049344029 0.025184393
0.0051586269 0.049522817 0.027263999
0.0060681044 0.048544835 0.02903837
0.007087647 0.048601005 0.031729847
0.0082116518 0.049269911 0.032728821
0.0091215959 0.048648514 0.033904254
0.009953551 0.047777046 0.034410119
0.011114625 0.048500184 0.03515926
0.01195862 0.047834478 0.036878496
0.012875512 0.047540352 0.037172139
0.014024032 0.048082396 0.037394911
0.014877396 0.047607664 0.037383974
0.015857061 0.047571182 0.037217587
0.01700066 0.048001863 0.037135363
0.017871389 0.047657039 0.037495822
0.019774411 0.049956407 0.037888348
0.020364009 0.048873622 0.038377106
0.021069724 0.048159368 0.039009809
0.022175193 0.048382241 0.039314955
0.023043716 0.048091233 0.040761918
0.023709999 0.047419999 0.041900754
0.02478333 0.047583994 0.042492718
0.025720363 0.047483746 0.044000715
0.026106706 0.04641192 0.044728607
0.027701518 0.047488317 0.045336872
0.028160496 0.046610475 0.045452833
0.029412456 0.047059927 0.045677334
0.030572444 0.047337975 0.04547888
0.030967401 0.046451099 0.045020789
0.032587864 0.04740053 0.04445076
0.033494655 0.04728657 0.04326874
0.034521069 0.04734318 0.041518092
0.036127046 0.048169397 0.037125438
0.037691113 0.048896577 0.034949511
0.038387138 0.048489016 0.027395695
0.041627731 0.051234134 0.022504151
0.043190878 0.051829055 0.01557979
0.045689519 0.053490169 0.011637717
0.046668138 0.053335015 0.0080592036
-0.071835294 0.053332262 0.0056912601
-0.068452172 0.051602405 0.015961289
-0.067161202 0.051420294 0.019771695
-0.064972974 0.050534531 0.022328138
-0.062174343 0.049137782 0.028741956
-0.0626105 0.050293677 0.031038582
-0.060809154 0.049660809 0.032192051
-0.058559299 0.048633989 0.032961547
-0.058796223 0.049672667 0.033225864
-0.057928935 0.049798556 0.033322752
-0.055616096 0.048664082 0.034059942
-0.055713188 0.049635384 0.034292787
-0.052939877 0.048038032 0.034711123
-0.052590139 0.04862107 0.035090089
-0.052753557 0.04971008 0.035185426
-0.050815102 0.048822351 0.035123616
-0.050251417 0.049246382 0.034598947
-0.04963506 0.04963506 0.03348884
-0.048382558 0.049390528 0.030944437
-0.048351735 0.050409254 0.02833277
-0.047704242 0.050815385 0.02566275
-0.046422966 0.050549448 0.022981644
-0.046359297 0.051627398 0.01736781
-0.045661855 0.052033275 0.012386411
-0.044674702 0.052120484 0.0052817464
0.0010916532 0.053491008 0.0040951073
0.0021627089 0.052986365 0.0099039972
0.0031234545 0.05101642 0.015306532
0.0042335093 0.051860489 0.020913124
0.0051664668 0.050631374 0.025184393
0.0060829949 0.049677789 0.027091384
0.0071778749 0.050245125 0.029062182
0.0081036687 0.049634967 0.031489104
0.0089930771 0.048962306 0.032902598
0.010302716 0.050483309 0.033421665
0.011020132 0.049089681 0.034242272
0.012015305 0.049062494 0.034943402
0.013132752 0.049500372 0.036305696
0.013908915 0.048681203 0.036785603
0.014990896 0.04897026 0.03710711
0.016022632 0.049069308 0.036591619
0.016619351 0.047902834 0.037002534
0.018227387 0.049619 0.037225157
0.019260809 0.049672611 0.037729532
0.019790933 0.048487782 0.038166374
0.021640964 0.05049558 0.039092839
0.022001067 0.049002375 0.039512217
0.022478167 0.047888268 0.040739506
0.023990041 0.048979666 0.04188171
0.02473367 0.048477992 0.042268217
0.02551328 0.04808272 0.043539673
0.026697325 0.048450697 0.044446886
0.027524227 0.048167396 0.045037359
0.02796481 0.047250882 0.045036823
0.02938018 0.047987625 0.045136243
0.030451126 0.048132423 0.045114666
0.03146404 0.04817931 0.044631094
0.033057928 0.049086016 0.044031322
0.033142287 0.04776388 0.043022335
0.034403205 0.048164487 0.040524155
0.036196638 0.04926765 0.036261827
0.036573876 0.048435669 0.033651143
0.039630543 0.051102538 0.026445061
0.040826004 0.051294211 0.02025497
0.042785421 0.052412141 0.011916012
0.04585623 0.054803781 0.0089721084
-0.072333187 0.053979989 0.0040670335
-0.069295786 0.05249681 0.012771457
-0.06668853 0.051298872 0.02014026
-0.066762626 0.052158304 0.021703541
-0.064057328 0.050839148 0.02591306
-0.064028226 0.051635668 0.029270411
-0.062102851 0.05090398 0.030423462
-0.060712039 0.050593369 0.031576931
-0.060177214 0.050997641 0.032504588
-0.058559842 0.050482623 0.032543093
-0.05704768 0.050041828 0.03289184
-0.056079384 0.050070878 0.033090889
-0.054892004 0.049901821 0.033334315
-0.054177262 0.050164133 0.033726513
-0.053394664 0.050372329 0.034289002
-0.05225721 0.050247319 0.033803642
-0.050876398 0.049878821 0.03360486
-0.051164027 0.051164027 0.032690436
-0.049658414 0.050671853 0.02874577
-0.049902234 0.051981494 0.027448267
-0.048825849 0.051942393 0.024902403
-0.047756258 0.051908977 0.019692749
-0.047377709 0.052641898 0.016055733
-0.046848178 0.053236566 0.012082309
-0.045875762 0.053343911 0.0041224658
0.0021322821 0.053307053 0.0040944815
0.0032210625 0.053684376 0.0098968744
0.004211891 0.052648641 0.015448213
0.0051228446 0.051228452 0.021137089
0.0062103667 0.051753059 0.025245488
0.0071756886 0.051254921 0.02649945
0.0080842627 0.050526641 0.028738052
0.0091765253 0.050980698 0.030612171
0.010193123 0.050965622 0.03194952
0.010976195 0.0498918 0.032593757
0.012191631 0.050798465 0.033802986
0.013065863 0.05025332 0.034931511
0.0140359 0.050128218 0.036619663
0.015099703 0.050332345 0.036636978
0.015775928 0.049299777 0.036558628
0.017005838 0.050017171 0.036980867
0.018006422 0.050017841 0.037273407
0.01873821 0.049311079 0.037766844
0.020375926 0.050939821 0.038255602
0.021441519 0.051051237 0.038974792
0.021951854 0.049890578 0.039292365
0.022947887 0.049886711 0.039780617
0.023363799 0.048674583 0.041436195
0.024609916 0.049219832 0.042051077
0.025690783 0.049405351 0.042961508
0.026319224 0.048739303 0.043880373
0.027400957 0.048930284 0.044248343
0.028577624 0.049271762 0.044600308
0.029213795 0.04868966 0.044464409
0.030367097 0.048979189 0.044487298
0.031464167 0.04916276 0.044221908
0.032005165 0.048492674 0.043471277
0.033665229 0.049507689 0.042135447
0.03516918 0.05024169 0.039682359
0.035723586 0.049616095 0.035733283
0.03803863 0.051403552 0.031309515
0.039659776 0.052183915 0.025020897
0.039954055 0.051223148 0.017493486
0.043434814 0.054293521 0.0095180571
-0.070828155 0.053913966 0.010377049
-0.067718655 0.052328054 0.018424541
-0.068038508 0.053384058 0.021173447
-0.065346919 0.052073326 0.025230616
-0.064060487 0.051858492 0.027792096
-0.063345313 0.05210663 0.029385358
-0.060854569 0.050878413 0.03014797
-0.060966395 0.051821437 0.031173348
-0.06000708 0.051870525 0.031869501
-0.057802387 0.050826237 0.032522529
-0.057576511 0.051515825 0.032190919
-0.055931449 0.050937571 0.032266647
-0.054400612 0.050444204 0.032346666
-0.054636624 0.051601253 0.032589048
-0.05306052 0.05105824 0.03284198
-0.052534472 0.051524192 0.032212883
-0.052351259 0.052351259 0.030764401
-0.050965298 0.051984604 0.028089851
-0.050731815 0.052802507 0.02566275
-0.049711086 0.05281803 0.02362439
-0.048551109 0.052683115 0.019043624
-0.048377428 0.053635843 0.013740152
-0.048328884 0.054772735 0.010284245
0.0032570784 0.055370335 0.0040765703
0.0042284862 0.053913198 0.0099367499
0.0053196326 0.054260258 0.015695989
0.0063238316 0.053752568 0.020320684
0.007214101 0.052559882 0.025055975
0.0083217137 0.053050924 0.026293159
0.0092542237 0.052440602 0.02846238
0.010159725 0.051814605 0.030115128
0.011229515 0.052064117 0.031479955
0.012038391 0.051163163 0.032431781
0.013136471 0.051535383 0.033695221
0.014030699 0.051111832 0.034796834
0.014852941 0.050499998 0.03507638
0.01591222 0.0507202 0.036136508
0.016820779 0.050462335 0.036391228
0.017775692 0.050364461 0.036770791
0.019301791 0.051810067 0.037579864
0.020386528 0.051985651 0.037700206
0.020659832 0.050173875 0.038854659
0.02212443 0.051288456 0.039357543
0.022817168 0.050594587 0.039929867
0.023849262 0.050679684 0.041119158
0.024759265 0.050508898 0.041710049
0.025342282 0.04970986 0.04231751
0.026102515 0.049304746 0.043262064
0.027666193 0.050391994 0.043790191
0.028138399 0.049484771 0.044175893
0.029011145 0.049318947 0.044142485
0.030537201 0.05023862 0.044097573
0.031261507 0.049823031 0.04346329
0.032321546 0.049951483 0.042524248
0.033833131 0.050749697 0.041244805
0.034072161 0.049648009 0.038609356
0.036133341 0.051188901 0.035364419
0.037389528 0.051536918 0.031059504
0.038533151 0.051715545 0.023714185
0.041176803 0.053846594 0.017440826
0.042908628 0.054708503 0.0092647076
-0.07161925 0.054767661 0.0068042576
-0.070126921 0.054426864 0.016032815
-0.069076233 0.054423697 0.019394815
-0.066329584 0.053063668 0.021909803
-0.065578997 0.053282931 0.025607824
-0.063660547 0.052545216 0.02802375
-0.061980661 0.051983777 0.0293203
-0.061849602 0.052724253 0.030432492
-0.060847037 0.052734099 0.031338036
-0.059353083 0.052311193 0.031881273
-0.05859676 0.052535024 0.031869501
-0.057708796 0.052646622 0.032049984
-0.056417171 0.052387375 0.032186598
-0.056024704 0.052968811 0.031634927
-0.054088876 0.052085582 0.031010181
-0.053558752 0.052548211 0.030764401
-0.053319555 0.053319555 0.028066367
-0.051833197 0.052849535 0.025639713
-0.051327456 0.053380549 0.023555517
-0.051407184 0.054554563 0.022744209
-0.050150942 0.054330185 0.017761022
-0.049955834 0.055270284 0.01078546
-0.05016692 0.056710429 0.005669564
0.0053554359 0.055696532 0.0091759861
0.0063033295 0.054628856 0.015561432
0.0073197349 0.054375172 0.018694639
0.0082605602 0.053693637 0.022905886
0.0092714261 0.05356824 0.026137263
0.010305214 0.053587113 0.02701956
0.011098305 0.052464716 0.029589236
0.012206474 0.052894723 0.031069726
0.013181027 0.052724108 0.032392442
0.014121016 0.052449491 0.033511788
0.014950666 0.051828977 0.033841491
0.016002895 0.052009407 0.03460601
0.016724059 0.051155943 0.035357177
0.018107146 0.052309535 0.036391228
0.018991582 0.051976956 0.037150741
0.019989954 0.051973883 0.037486553
0.021259453 0.052642453 0.038492024
0.022183862 0.052434586 0.038773
0.022700278 0.051322367 0.039472103
0.023975015 0.051945865 0.040397048
0.024691105 0.051357497 0.041490674
0.02557433 0.05114866 0.04224664
0.026540622 0.051115271 0.043073237
0.02745986 0.050996885 0.043480515
0.028255465 0.050664969 0.043440729
0.02943979 0.051028971 0.043531507
0.030464044 0.051100977 0.043524951
0.031492781 0.051175769 0.043073237
0.032305419 0.050905511 0.041786432
0.033238642 0.050835572 0.040593654
0.03524217 0.052359793 0.036283612
0.036594655 0.052858949 0.034425586
0.037299812 0.052421357 0.029479593
0.039559636 0.054134239 0.022817999
0.041393917 0.055191889 0.015400082
0.042502858 0.055253718 0.008366704
-0.07093206 0.055285279 0.0078285038
-0.070072949 0.055430833 0.016032815
-0.0680978 0.054684594 0.019364476
-0.065963499 0.053785622 0.020941794
-0.064947024 0.053784255 0.025317818
-0.063538916 0.053453371 0.027854353
-0.06238712 0.053330921 0.029119939
-0.062147293 0.053996827 0.030076832
-0.060375825 0.053331975 0.03063342
-0.059856616 0.053769499 0.031162143
-0.059338234 0.054222867 0.031172752
-0.05615532 0.052214596 0.030764401
-0.056986082 0.053933255 0.030764401
-0.055842262 0.053811632 0.029616058
-0.054650854 0.053638797 0.028025091
-0.054663051 0.054663051 0.025884956
-0.053324465 0.054349933 0.024053067
-0.052795451 0.054865859 0.022364855
-0.052849855 0.056020845 0.017771125
-0.051352624 0.055544674 0.012828648
-0.052030791 0.057450663 0.0087350905
0.0065007512 0.057423305 0.0060705841
0.0074447179 0.056367148 0.01304397
0.0083947219 0.055615034 0.018114597
0.0093706883 0.055182941 0.021896571
0.010286786 0.054519966 0.024574161
0.011337998 0.054628536 0.025985986
0.012321449 0.054419734 0.028766602
0.013260033 0.054060135 0.031027913
0.014195969 0.053741883 0.032073021
0.015142469 0.05350339 0.033103466
0.015810261 0.052371487 0.033429384
0.016894238 0.052670274 0.034890592
0.018012187 0.053035885 0.035859704
0.018837476 0.052546643 0.036811113
0.020258825 0.053685889 0.037256092
0.0211081 0.053272821 0.037832618
0.021839449 0.052613217 0.03843087
0.023148257 0.053341635 0.039079428
0.02366464 0.052259412 0.0394063
0.024462959 0.051861472 0.040228397
0.02590018 0.05279652 0.041591376
0.026479989 0.051979236 0.042235166
0.027145436 0.05138243 0.042690516
0.028594343 0.052258622 0.042904586
0.028943883 0.051134191 0.042904586
0.030330963 0.05185616 0.042991549
0.031698655 0.052500892 0.041593373
0.032764267 0.052621398 0.040589303
0.033983693 0.052974578 0.038546473
0.035110749 0.053167704 0.035553336
0.035676934 0.052524377 0.033337712
0.037964955 0.054382227 0.028996468
0.039469235 0.055049196 0.020912111
0.04022152 0.054660011 0.013173282
0.042830955 0.056751017 0.0054205358
-0.071363226 0.056670796 0.0065218806
-0.068740524 0.055402812 0.012696862
-0.067166813 0.054954667 0.018503338
-0.067047559 0.055701055 0.020668805
-0.064273059 0.054230392 0.022591889
-0.063834496 0.054715287 0.026493311
-0.063278057 0.055113144 0.028064162
-0.060326856 0.053404104 0.028291643
-0.061321121 0.05518901 0.02967909
-0.059237652 0.054217514 0.029893905
-0.058538578 0.054501437 0.02967909
-0.058036901 0.054982327 0.028805703
-0.05707163 0.05503336 0.027884454
-0.056584954 0.055556141 0.026483029
-0.056040127 0.056040127 0.023019403
-0.055051852 0.056090567 0.022323579
-0.054077003 0.056156892 0.018525004
-0.055236612 0.058485825 0.014733315
-0.053561382 0.057846293 0.0081410408
0.0074029411 0.057108406 0.005056113
0.0085659623 0.057820249 0.012671649
0.009392079 0.056352478 0.015412182
0.010338381 0.055827264 0.019893259
0.011425307 0.056087874 0.023910254
0.012278267 0.055252206 0.025307536
0.013126918 0.054527201 0.028131872
0.014303762 0.055171654 0.03074953
0.015132069 0.054475449 0.031642079
0.016213728 0.054721333 0.032513291
0.016952334 0.053848591 0.03361097
0.017724849 0.053174552 0.034693271
0.018911583 0.053748712 0.036394536
0.020229252 0.054618988 0.037018508
0.020990936 0.053976692 0.03732425
0.022046017 0.054112952 0.037700057
0.02291589 0.053802527 0.038215637
0.023519363 0.052918568 0.038560778
0.024866585 0.053711824 0.03935492
0.025623605 0.053218257 0.040227473
0.026096914 0.052193828 0.04129836
0.027904563 0.053815946 0.042049825
0.028011693 0.052159704 0.041987747
0.029201988 0.052563582 0.041987747
0.03083469 0.05371204 0.041297436
0.031237241 0.052712847 0.040313035
0.033093434 0.054152898 0.039363265
0.034554038 0.054879945 0.03620562
0.03457886 0.05335024 0.035215199
0.036742199 0.055113304 0.031271279
0.038333315 0.055945918 0.027578533
0.038189866 0.054269813 0.01988855
0.041418836 0.057349157 0.01252076
-0.069416873 0.056984 0.010614425
-0.068545669 0.057121396 0.018045753
-0.065975167 0.05582514 0.019540042
-0.065565623 0.056345455 0.020746589
-0.064667217 0.056455508 0.024010777
-0.062280092 0.055248469 0.027190179
-0.062493235 0.056346361 0.028039217
-0.061462391 0.056340527 0.028663605
-0.059211202 0.055196885 0.028663605
-0.060201392 0.057087526 0.026785195
-0.059136156 0.057061203 0.025458634
-0.057739805 0.056708738 0.022943556
-0.057863422 0.057863422 0.020603657
-0.056781523 0.057833031 0.017233968
-0.055478163 0.057571683 0.014571071
