ply
format ascii 1.0
comment PCL generated
element vertex 1308
property float x
property float y
property float z
element camera 0
property float view_px
property float view_py
property float view_pz
property float x_axisx
property float x_axisy
property float x_axisz
property float y_axisx
property float y_axisy
property float y_axisz
property float z_axisx
property float z_axisy
property float z_axisz
property float focal
property float scalex
property float scaley
property float centerx
property float centery
property int viewportx
property int viewporty
property float k1
property float k2
end_header
0.0020011296 0.015008471 0.041225374
0.0030171846 0.015085923 0.041991442
0.003917051 0.014688941 0.042054117
0.0049784286 0.014935287 0.042683184
0.0060196049 0.015049012 0.043925434
0.0069146915 0.014817196 0.045571059
0.0079591563 0.014923418 0.045848042
0.0087885503 0.014647584 0.046761096
0.0097364578 0.014604687 0.048045456
0.010700022 0.01459094 0.048767775
0.011603212 0.014504015 0.048869044
0.012547791 0.014478221 0.049105138
0.013805142 0.014791223 0.049081534
0.014601736 0.014601736 0.049297035
0.015662327 0.014683432 0.049619704
0.016706783 0.01474128 0.049253911
0.017517775 0.014598147 0.048862129
0.018585995 0.014673153 0.048068762
0.019748053 0.01481104 0.047394723
0.020373739 0.014552671 0.047039986
0.02157262 0.014708605 0.04610762
0.022941798 0.014962042 0.046138525
0.023475943 0.014672465 0.046043694
0.024821352 0.01489281 0.046003222
0.025620401 0.014781001 0.045969993
0.026230454 0.014572474 0.045502633
0.027787885 0.014886367 0.045572877
0.028554915 0.014769782 0.04568404
0.029304475 0.014652237 0.045707434
0.030669166 0.014839918 0.045627147
0.030791271 0.014433409 0.046361029
0.032502599 0.014773909 0.046414346
0.033319559 0.014699806 0.045649588
0.034107383 0.014617451 0.044994503
0.035766736 0.014902808 0.044499457
0.036558893 0.014821173 0.043700933
0.037372291 0.01475222 0.043233156
0.038755819 0.014906084 0.042191565
0.039926596 0.014972473 0.041007906
0.041008964 0.015003279 0.03976202
0.042380199 0.015135785 0.038992047
0.042148255 0.014702879 0.037902832
0.044260155 0.01508869 0.036601216
0.045106515 0.015035505 0.035435885
0.046073675 0.015024025 0.033249199
0.047610752 0.015194921 0.031276584
0.049503956 0.015469987 0.027545601
0.050357215 0.015415475 0.02545464
0.053285956 0.015985787 0.015862703
0.055962458 0.016459547 0.0044827461
0.072698124 0.016275698 0.0087957382
0.073944934 0.016311383 0.013241291
0.070344187 0.015292215 0.016790837
0.074308306 0.015923208 0.018394947
0.07395754 0.015624833 0.018944561
0.075165391 0.015659457 0.021232873
0.076022826 0.015621128 0.022110403
0.07693249 0.015594424 0.022819549
0.076998308 0.015399661 0.023537457
0.079081364 0.015608164 0.023884177
0.078610651 0.015313763 0.023863524
0.080364175 0.01545465 0.02358374
0.081630006 0.015499368 0.022860289
0.083417349 0.015640752 0.021799743
0.085348085 0.015805202 0.020387143
0.086242102 0.015775993 0.018975377
0.086190984 0.015576684 0.017516315
0.08966545 0.016011687 0.01388973
0.093230389 0.016452422 0.0075469613
0.093546458 0.016316243 0.0044306815
-0.058806766 0.017424228 0.0056220889
-0.055819172 0.016851071 0.01208815
-0.055346001 0.017029539 0.01815477
-0.053315546 0.016726445 0.020613402
-0.051503442 0.016481102 0.024425983
-0.050547995 0.016505469 0.025942981
-0.049107235 0.016369078 0.027679563
-0.048803542 0.016613971 0.029144138
-0.046189003 0.016065739 0.029954702
-0.045213912 0.016076058 0.030595571
-0.045039359 0.016377948 0.030872315
-0.044368781 0.016509315 0.03133148
-0.042075839 0.01602889 0.031653583
-0.04226245 0.016492663 0.031550139
-0.040383525 0.01615341 0.031070083
-0.03934807 0.016142799 0.030383289
-0.039304793 0.016549386 0.029665142
-0.037673261 0.01629114 0.028057367
-0.037349291 0.016599685 0.025724053
-0.036483366 0.016678112 0.023043782
-0.035749916 0.016823491 0.019526154
-0.035024252 0.016981456 0.0169653
-0.034683008 0.017341504 0.01388672
-0.033530403 0.017306015 0.012945056
-0.033322521 0.017772011 0.010651261
-0.032113697 0.017717902 0.013037294
-0.029497216 0.016855553 0.015497148
-0.029224936 0.01731848 0.017573327
-0.027962213 0.017207516 0.018886119
-0.026238838 0.016792856 0.02122134
-0.025077807 0.016718538 0.022974998
-0.023560749 0.016390085 0.02502799
-0.022666669 0.016484851 0.026978523
-0.02175553 0.016575642 0.028938532
-0.02057007 0.016456056 0.029976249
-0.019066384 0.016055902 0.030516595
-0.018599611 0.016532987 0.031427532
-0.017115995 0.016109172 0.031782538
-0.016444927 0.016444927 0.032042444
-0.015313583 0.016334489 0.032746792
-0.014016922 0.016019339 0.033587962
-0.013335836 0.016413337 0.033557415
-0.012240075 0.0163201 0.033814907
-0.011125071 0.016181923 0.034091294
-0.010242269 0.016387632 0.034158021
-0.0090760561 0.016135212 0.034827262
-0.0080621867 0.016124373 0.03562814
-0.0071216905 0.01627815 0.036089838
-0.0060862778 0.016230075 0.036400139
-0.0049986611 0.015995717 0.036600262
-0.0040519233 0.016207693 0.037112832
-0.0029655329 0.015816176 0.037852138
-0.0020081252 0.016065001 0.03826943
-0.0010016959 0.016027134 0.038346231
0 0.015735708 0.039005607
0.00099383632 0.015901381 0.039164543
0.0019855825 0.01588466 0.039258659
0.0029843587 0.01591658 0.039882511
0.0040487549 0.01619502 0.040977865
0.0050812108 0.016259875 0.041297436
0.0058735446 0.015662786 0.041944236
0.0069532529 0.01589315 0.043433219
0.0078511778 0.015702356 0.045098245
0.0088469069 0.015727835 0.046030313
0.0097671878 0.015627502 0.046470672
0.010699658 0.01556314 0.047559649
0.011556782 0.015409042 0.047944486
0.012705697 0.01563778 0.048223615
0.013545514 0.015480587 0.048425734
0.014644162 0.015620439 0.048530251
0.015787443 0.015787443 0.048617035
0.016614106 0.015636805 0.048442602
0.017634407 0.015675029 0.04832837
0.018828183 0.01585531 0.047200382
0.019309238 0.01544739 0.046847671
0.02067459 0.015752068 0.045954674
0.021856952 0.015895966 0.045348197
0.022389775 0.015575496 0.045125693
0.024134891 0.016089927 0.045090616
0.024469312 0.015660359 0.045249313
0.025934087 0.015959438 0.045249313
0.026744936 0.015848851 0.044727445
0.027519731 0.01572556 0.044815153
0.028219098 0.015569157 0.045205414
0.0297792 0.015882241 0.045249552
0.030059857 0.015514765 0.045217156
0.031583186 0.015791593 0.046228498
0.032593656 0.015802985 0.045792192
0.033161558 0.015605439 0.045354962
0.03466706 0.015847798 0.044686168
0.035389747 0.015728777 0.044182926
0.03594033 0.015541765 0.0435929
0.037852731 0.015937991 0.043223262
0.038851433 0.015939049 0.042175025
0.039980974 0.01599239 0.041007906
0.041387729 0.016151309 0.039809018
0.041803531 0.015925154 0.039025187
0.042303119 0.015740696 0.037902832
0.044874147 0.016317872 0.036577076
0.045393731 0.016139993 0.035206795
0.046244692 0.016085109 0.0323973
0.048450883 0.016493918 0.029938817
0.04874137 0.016247123 0.026551217
0.05148736 0.0168122 0.022870421
0.054350972 0.017392311 0.013292193
0.07297311 0.017426413 0.0059942603
0.071189106 0.016750379 0.010857522
0.073780298 0.017108474 0.015313387
0.073830813 0.016875613 0.017614067
0.073937826 0.016662046 0.018810391
0.076548576 0.017010795 0.020121723
0.075136222 0.016468212 0.021625668
0.076371111 0.016512673 0.022294134
0.078778669 0.016806116 0.02301544
0.078710042 0.016570535 0.023763746
0.080330916 0.016692139 0.023658484
0.081406221 0.016698712 0.023379683
0.080432422 0.016290111 0.022963315
0.084642731 0.016928546 0.02234304
0.083584301 0.016510481 0.02153632
0.084349759 0.016458489 0.020091772
0.087178275 0.01680545 0.018843621
0.089421742 0.017032713 0.016145051
0.088196449 0.016601684 0.010643959
0.09460336 0.017600626 0.0044669807
-0.057483703 0.018096721 0.010804236
-0.056748178 0.018202247 0.016198665
-0.054781217 0.017909244 0.020292848
-0.052801609 0.017600536 0.023221523
-0.052145049 0.017729316 0.025001615
-0.050735466 0.017602101 0.026139766
-0.049410015 0.01749938 0.027844548
-0.048116092 0.017403692 0.028844655
-0.046214934 0.017079433 0.029577881
-0.046228196 0.017463984 0.030096531
-0.044773657 0.017298914 0.030372053
-0.043171361 0.017067747 0.030612558
-0.042911306 0.017368862 0.030758083
-0.041838225 0.017347556 0.030299783
-0.040401228 0.017170522 0.030035079
-0.040152792 0.017502498 0.028716803
-0.03909798 0.017491201 0.026394665
-0.038261961 0.01757982 0.024892479
-0.03763381 0.017771522 0.022946745
-0.037288934 0.018111767 0.017874837
-0.036503706 0.018251853 0.015501052
-0.036757782 0.018935828 0.01259762
-0.035239119 0.018720781 0.0077945292
-0.035157569 0.019279957 0.0061618686
-0.033346444 0.018896319 0.0063783526
-0.031458437 0.018441154 0.0077069104
-0.03058153 0.018567357 0.010933518
-0.02933518 0.018470298 0.014439881
-0.027682742 0.018100256 0.017434865
-0.027193779 0.018491769 0.019687563
-0.025305834 0.017924966 0.021950752
-0.024189221 0.017878989 0.024389535
-0.022826267 0.017638478 0.026601702
-0.021449234 0.017363666 0.02825281
-0.020464519 0.017394843 0.029108107
-0.019370815 0.017331783 0.03005147
-0.018484866 0.01745793 0.030761302
-0.017291173 0.017291173 0.031603694
-0.016296171 0.017314682 0.031429589
-0.015163164 0.017184919 0.032108307
-0.014352166 0.017427631 0.032746792
-0.013267974 0.017350428 0.032941192
-0.012072943 0.017103337 0.033102751
-0.011315511 0.017487608 0.03351295
-0.01018884 0.01732103 0.033623487
-0.0090811523 0.017153289 0.034069777
-0.0082255648 0.017479327 0.034295142
-0.0070936694 0.017227484 0.035092324
-0.0060205953 0.017058354 0.03574577
-0.0051007895 0.017342685 0.036089957
-0.0039808415 0.016918575 0.036230803
-0.0030216991 0.017122962 0.03678605
-0.0019981712 0.016984455 0.037353247
-0.00099440408 0.01690487 0.03739953
0 0.017104803 0.03773275
0.0010092077 0.017156532 0.037825823
0.0020036539 0.017031059 0.038417339
0.0030184095 0.01710432 0.03933695
0.0040456578 0.017194046 0.039258778
0.0049981466 0.016993698 0.040672183
0.0060480065 0.017136019 0.041241854
0.0069380412 0.016849529 0.042268693
0.0079697492 0.016935717 0.043774277
0.0089315083 0.016870627 0.045108259
0.0097588748 0.016590087 0.045932144
0.010665732 0.016483406 0.046284437
0.011763849 0.016665453 0.047275871
0.012553205 0.016415728 0.047622919
0.013626802 0.016546831 0.047833443
0.014690142 0.016648827 0.047735721
0.015514088 0.016483719 0.047727019
0.016920744 0.016920744 0.047391117
0.017664364 0.016683012 0.04681468
0.018545294 0.016593158 0.046512544
0.019689357 0.016735954 0.045554429
0.020433562 0.016541455 0.044930995
0.021546913 0.016649889 0.044041187
0.023236591 0.017174872 0.044008166
0.0236756 0.016770218 0.043809444
0.024659848 0.016768696 0.043965101
0.026263356 0.017172195 0.043878794
0.026254781 0.016530788 0.043707222
0.027590081 0.01675112 0.043979764
0.028852319 0.016913427 0.044156402
0.029061727 0.016468313 0.044388682
0.030644251 0.016804911 0.044681549
0.031267092 0.016610641 0.045244932
0.032301806 0.016640326 0.045249552
0.033711284 0.016855642 0.044668108
0.034578554 0.016795298 0.044156402
0.03548006 0.016754474 0.043611139
0.036109488 0.016590847 0.04321906
0.038005587 0.017002499 0.042824358
0.038710315 0.016873728 0.042141885
0.03978049 0.016906708 0.040662825
0.040859234 0.016941633 0.03976202
0.042679738 0.017275132 0.039025187
0.042569697 0.01682988 0.037369907
0.044533856 0.017206263 0.036124229
0.044533696 0.016823839 0.034525394
0.047091905 0.01740353 0.031528056
0.048056375 0.017382093 0.02852723
0.049328718 0.017470589 0.024927735
0.052296963 0.018143846 0.018876851
0.053263392 0.018109553 0.007691741
0.073477253 0.018369313 0.0086855292
0.072182223 0.017784026 0.014108509
0.073428564 0.017832652 0.016744137
0.074731126 0.017893368 0.018481553
0.075522117 0.017831611 0.018944561
0.076086886 0.017718863 0.021279275
0.078291886 0.017985974 0.022172898
0.077347219 0.017532036 0.02301544
0.078106336 0.017471153 0.023863524
0.081023119 0.017888222 0.023778915
0.081328183 0.017725375 0.023722947
0.080580272 0.017340058 0.023724735
0.08304289 0.017646614 0.023070902
0.082260482 0.017264547 0.021968603
0.086587727 0.017951114 0.020701736
0.087610312 0.01794428 0.019531786
0.087745152 0.017757948 0.017892033
0.090816669 0.018163335 0.01235497
0.092970267 0.018377844 0.0051153302
-0.058990397 0.019305946 0.0083053112
-0.058070835 0.019356944 0.014249474
-0.055567496 0.01887198 0.018466592
-0.053814143 0.018627971 0.02076602
-0.053427689 0.018856831 0.023807108
-0.05053464 0.01819247 0.025571078
-0.050264865 0.018464644 0.026886851
-0.049364053 0.018511521 0.027873695
-0.047343187 0.018131431 0.028825969
-0.047231585 0.018481923 0.029275835
-0.045896333 0.018358532 0.029880375
-0.044579674 0.018237138 0.029961884
-0.043856848 0.018358679 0.030000091
-0.043021176 0.018437644 0.030000091
-0.041667238 0.018292932 0.029457539
-0.041504852 0.018677184 0.028687984
-0.03997821 0.01845148 0.026638865
-0.039450925 0.018687278 0.024552703
-0.039050046 0.018997317 0.022291452
-0.038191047 0.019095523 0.017673045
-0.037329491 0.019198023 0.015074432
-0.037907153 0.020068493 0.0075612068
-0.036789857 0.020067194 0.0041376352
-0.033098638 0.019859182 0.0041376352
-0.032984342 0.020473039 0.0051623881
-0.031354062 0.020156182 0.006790638
-0.028836425 0.019224282 0.010735065
-0.028330872 0.019613679 0.014737487
-0.027038833 0.019467959 0.018013299
-0.024780646 0.018585484 0.020878166
-0.024304081 0.019020583 0.024076939
-0.02262173 0.018508689 0.026457042
-0.021385582 0.018330498 0.028024584
-0.020643588 0.01857923 0.029080808
-0.01947275 0.018447867 0.03000772
-0.018246258 0.018246258 0.030322254
-0.017285151 0.018301923 0.031486839
-0.016164875 0.018185481 0.031550795
-0.0153843 0.018461158 0.031973839
-0.01415543 0.018199839 0.032261163
-0.013267321 0.018370135 0.032246321
-0.01239676 0.01859514 0.032623589
-0.011256673 0.018420011 0.032883525
-0.010179203 0.018322565 0.032866895
-0.0091875866 0.018375173 0.033115119
-0.0081213787 0.0182731 0.033269674
-0.0070187137 0.018048121 0.033760697
-0.0061233584 0.018370075 0.034572244
-0.0049574007 0.017846642 0.035141259
-0.0040106191 0.018047784 0.035200238
-0.0030348923 0.018209353 0.035664976
-0.0019939328 0.017945394 0.036409289
-0.00099502655 0.017910477 0.036558658
0 0.018482879 0.036765546
0.00099533109 0.017915959 0.037258387
0.0020433944 0.018390547 0.037501991
0.0030707086 0.018424252 0.037710071
0.0039813817 0.017916217 0.038435131
0.0050527239 0.018189805 0.03957653
0.0061080102 0.018324031 0.040077388
0.0070161559 0.018041544 0.041467816
0.0079615721 0.017913537 0.041423738
0.0088713402 0.01774268 0.044301957
0.0097377142 0.017527886 0.04455018
0.010710116 0.017525643 0.045322508
0.011597441 0.017396161 0.045944631
0.0124996 0.017307138 0.046205044
0.013648327 0.017547848 0.046535134
0.01472689 0.017672267 0.046925098
0.015742224 0.01771 0.046751022
0.016769918 0.017756382 0.046590865
0.017743494 0.017743494 0.045639247
0.018773332 0.01778526 0.044723928
0.019922048 0.017929843 0.044104576
0.020599959 0.017657107 0.042225778
0.021863036 0.017887937 0.041831851
0.022957118 0.017966438 0.04185766
0.023769338 0.017827002 0.04194656
0.025430791 0.018310169 0.042375654
0.02548451 0.017643122 0.042397618
0.026612937 0.017741958 0.04241389
0.027906952 0.017940182 0.042757869
0.028158525 0.017477704 0.043366879
0.029198891 0.017519334 0.043731153
0.030640924 0.017791504 0.043913335
0.031026646 0.017452488 0.044126511
0.032552734 0.017756036 0.044637233
0.033728268 0.017856142 0.043974251
0.033935513 0.017452549 0.043851674
0.035432536 0.017716268 0.043536574
0.036074158 0.017549589 0.042924196
0.037443813 0.017736541 0.042531937
0.038604457 0.017817441 0.04144448
0.039693758 0.017862191 0.040560514
0.040611334 0.017829364 0.039526105
0.041774403 0.017903315 0.038777709
0.042666666 0.017860465 0.037141174
0.04475018 0.018306892 0.035579652
0.045332469 0.018132987 0.03418237
0.046168201 0.018065818 0.031201005
0.047309063 0.018118363 0.027656347
0.050621089 0.018982908 0.022315055
0.051144779 0.018787878 0.01498121
0.054965224 0.019787479 0.0040626228
0.073751226 0.019522382 0.0045954585
0.072406523 0.018888658 0.011329323
0.074802674 0.019234974 0.015521616
0.07462953 0.018920163 0.017570734
0.074629232 0.018657308 0.018850982
0.076411314 0.018841144 0.021142155
0.077716254 0.018903952 0.021756709
0.07691247 0.018458992 0.022585601
0.078434676 0.018576633 0.023848325
0.07870239 0.018397961 0.023863524
0.079967178 0.018453965 0.023855239
0.082677454 0.018837901 0.023863524
0.083062842 0.018689139 0.023609877
0.084626369 0.01880586 0.022719711
0.086148039 0.018910544 0.021351635
0.086893208 0.018844308 0.020213068
0.089348488 0.019146103 0.018665522
0.089414351 0.018934803 0.013653606
0.091803044 0.019214591 0.0073994696
-0.060363419 0.020480447 0.0057533383
-0.059634186 0.0206009 0.011855304
-0.057428658 0.020206379 0.017778993
-0.055183575 0.019782793 0.020450413
-0.055516627 0.020284923 0.022357613
-0.052136693 0.019423474 0.02448374
-0.051214866 0.019461649 0.025710016
-0.050001428 0.019388311 0.026886851
-0.04835118 0.01913901 0.027592301
-0.048153769 0.019466417 0.028402448
-0.04679478 0.019328279 0.02903378
-0.045515236 0.019217543 0.029278398
-0.045416374 0.019611616 0.029324263
-0.044187762 0.019524826 0.029162616
-0.04270079 0.019317023 0.028633952
-0.042226397 0.01956833 0.027970761
-0.040877089 0.019416617 0.02591911
-0.040666346 0.019811811 0.023927212
-0.039987884 0.019993942 0.019578099
-0.03909494 0.020075779 0.016969442
-0.038693324 0.020421479 0.01388672
-0.038799029 0.021062329 0.0066277683
-0.030532166 0.020718256 0.0041431189
-0.030385273 0.021382229 0.00654006
-0.028808013 0.02105201 0.010855913
-0.026549418 0.020177556 0.017989457
-0.025287038 0.020018905 0.020779341
-0.023957243 0.019790765 0.024076939
-0.022517446 0.019446885 0.026601702
-0.021812292 0.01973493 0.028072089
-0.020511035 0.019485483 0.02894637
-0.019443922 0.019443922 0.029867351
-0.018477438 0.019503962 0.030326784
-0.017212816 0.019237852 0.030991435
-0.016306151 0.019363554 0.031184673
-0.015346007 0.019438276 0.031669557
-0.014127382 0.019172875 0.031886101
-0.013242049 0.019353764 0.031755507
-0.012285017 0.019451277 0.031739801
-0.011049101 0.019084811 0.031689912
-0.010142716 0.019271161 0.031501085
-0.0091404924 0.019296596 0.032351255
-0.0081613623 0.019383235 0.032386273
-0.007149199 0.019404968 0.03275612
-0.0060302061 0.019095654 0.032930076
-0.0050140768 0.019053493 0.03387174
-0.0040323255 0.019153545 0.034216583
-0.0030202905 0.019128507 0.034776539
-0.0020349971 0.019332474 0.035317153
-0.0010072757 0.019138239 0.035317153
0 0.018993646 0.03555283
0.0010008805 0.01901673 0.036349297
0.0020425497 0.019404221 0.036367089
0.0030263199 0.019166693 0.036588877
0.0040615592 0.019292407 0.036597341
0.0050347839 0.019132178 0.037433028
0.0060046278 0.019014657 0.038719654
0.0070745996 0.019202486 0.039518297
0.007896835 0.018754985 0.040886402
0.0088730566 0.018732009 0.041873604
0.0098601952 0.018734371 0.043718696
0.010631193 0.018362971 0.044065326
0.011613637 0.01838826 0.044304132
0.012632691 0.018463165 0.044936895
0.013550458 0.018389907 0.045273811
0.01458277 0.018471509 0.045294017
0.015709251 0.018654736 0.045091808
0.016627297 0.018583449 0.044524878
0.017993351 0.018992983 0.044093728
0.018954964 0.018954964 0.042990535
0.019627765 0.018646378 0.041473895
0.020878591 0.018890154 0.040952891
0.021863196 0.018881852 0.040832162
0.022751689 0.018794874 0.040738672
0.024011742 0.019009296 0.041313559
0.024912683 0.018933639 0.041574717
0.025710715 0.0187886 0.04182893
0.027066011 0.019046452 0.041874498
0.027643459 0.018758062 0.042200327
0.02817291 0.018458113 0.042487711
0.029758573 0.018847097 0.043247938
0.030471751 0.018676234 0.044000745
0.031716682 0.01883178 0.043948382
0.032134354 0.018501598 0.044309258
0.032993957 0.018437799 0.04373908
0.034687649 0.018830439 0.043700635
0.03555296 0.018764064 0.043405592
0.036099203 0.018537428 0.042377919
0.037702203 0.018851101 0.042333603
0.038774997 0.018890383 0.041260689
0.039492864 0.018759111 0.040515512
0.041168131 0.019077914 0.039438099
0.042286098 0.019129425 0.038743615
0.043008137 0.019003596 0.037151426
0.04487028 0.019375803 0.035411537
0.04585842 0.019362444 0.03292495
0.046939518 0.019388063 0.030577034
0.049868163 0.02015947 0.025018245
0.049027525 0.01940673 0.018727481
0.052359458 0.020302648 0.011418939
0.075214662 0.020711284 0.0090535879
0.074307121 0.020169077 0.013598621
0.074731886 0.019998675 0.016069889
0.077409089 0.0204274 0.018066913
0.076638989 0.019947134 0.019878864
0.075784057 0.019458069 0.02158758
0.07783331 0.019717772 0.022535831
0.078034841 0.01950871 0.024001569
0.078210071 0.019298589 0.024204791
0.081748918 0.019913198 0.024245858
0.081086852 0.019501902 0.024386168
0.082647488 0.019628778 0.02415055
0.084002875 0.019704379 0.023743063
0.084592357 0.019600669 0.021993667
0.087141 0.019947939 0.020736247
0.087961629 0.019896083 0.019591391
0.089146212 0.019926799 0.016769469
0.092893995 0.020523092 0.010180533
0.09856014 0.021524629 0.004044205
-0.061529636 0.021589346 0.0044597089
-0.061308678 0.021895956 0.01077649
-0.057732303 0.020993564 0.016409427
-0.056691762 0.020996947 0.019901782
-0.056143321 0.021186158 0.02148059
-0.053157821 0.020445315 0.02343756
-0.053291991 0.020898821 0.024686784
-0.05171635 0.020686539 0.026046425
-0.050676696 0.020684365 0.027055889
-0.048983917 0.020409966 0.027825117
-0.04807977 0.020459475 0.028323621
-0.046597131 0.020259621 0.028402448
-0.046168823 0.020519475 0.028670579
-0.045264423 0.020574737 0.028538287
-0.044099137 0.020511225 0.02849564
-0.04429318 0.02109199 0.027458757
-0.042616256 0.020788416 0.025916725
-0.041427247 0.020713624 0.023813307
-0.041325707 0.02119267 0.01924029
-0.040190402 0.021152843 0.016754419
-0.039538976 0.021372417 0.013878226
-0.029623656 0.021943448 0.0045161843
-0.028479032 0.021906948 0.0087398291
-0.027207198 0.021765757 0.016992867
-0.025103062 0.020919219 0.019831091
-0.023808906 0.020703396 0.024001271
-0.023039123 0.020944659 0.026450604
-0.021683211 0.020650676 0.027878523
-0.020637494 0.020637494 0.028538942
-0.019629957 0.020663111 0.029433727
-0.018091917 0.02010213 0.029908776
-0.017190039 0.020223575 0.030147642
-0.016373299 0.020466624 0.030304253
-0.015311283 0.020415043 0.031258732
-0.014382992 0.020547131 0.031416744
-0.013313238 0.020481905 0.031370699
-0.012233123 0.020388538 0.031417996
-0.011304232 0.020553149 0.03136155
-0.010256547 0.020513095 0.031253636
-0.0090467762 0.020103948 0.031323105
-0.0082076201 0.020519048 0.031166583
-0.0069940346 0.019982956 0.032024562
-0.0060554137 0.020184711 0.032167047
-0.0051057232 0.020422893 0.032909393
-0.0040223352 0.020111676 0.033337742
-0.0030124327 0.020082885 0.033334672
-0.0020330446 0.020330446 0.033969373
-0.0010064226 0.020128449 0.034163028
0 0.020224733 0.03422299
0.0010110509 0.020221015 0.034260571
0.0020058837 0.020058837 0.035071999
0.0030560964 0.020373976 0.035176337
0.0040803086 0.020401543 0.035107195
0.0050280821 0.020112328 0.035696954
0.0061138705 0.020379568 0.036557764
0.007042625 0.020121785 0.037013888
0.0079548154 0.019887038 0.039172858
0.0089843096 0.019965133 0.040829659
0.009855344 0.019710688 0.041668624
0.010827446 0.019686265 0.043536991
0.011715953 0.019526588 0.043800443
0.012495849 0.019224383 0.044103891
0.013590564 0.019415092 0.044225901
0.014808301 0.0197444 0.044114918
0.015577855 0.019472318 0.043961346
0.016928347 0.0199157 0.043876499
0.018094108 0.020104563 0.041636437
0.018426778 0.019396609 0.040696084
0.02002804 0.02002804 0.039991319
0.021093173 0.020088736 0.039131373
0.02204382 0.020039838 0.038902223
0.023445325 0.020387238 0.03871575
0.024167862 0.020139884 0.039062083
0.025540275 0.020432219 0.039940625
0.026127901 0.020098384 0.040524095
0.02716117 0.020119384 0.040877283
0.028072178 0.020051556 0.041149586
0.028780736 0.019848781 0.041843921
0.029918943 0.01994596 0.042302042
0.030366426 0.019591242 0.042724997
0.031808034 0.019880021 0.043495744
0.032549076 0.019726714 0.043579489
0.033726521 0.019839128 0.043403834
0.034668598 0.019810628 0.043215066
0.034928534 0.019404741 0.042515934
0.036958687 0.019977668 0.042143077
0.037460361 0.019715978 0.04208374
0.038463023 0.019724626 0.040909648
0.040033489 0.020016745 0.040174812
0.040969431 0.019985087 0.039003789
0.042095311 0.020045385 0.038132668
0.04288841 0.019948097 0.036577076
0.044278909 0.020126777 0.034608066
0.044839829 0.019928813 0.031201005
0.047342997 0.020583911 0.028272122
0.048656847 0.020705041 0.024098635
0.050861776 0.021192405 0.015254945
0.053878609 0.021991268 0.0045268238
0.075893201 0.021998027 0.0049610138
0.073126748 0.020893358 0.0098084807
0.075119026 0.02116029 0.015592396
0.075842045 0.021067236 0.017767012
0.076594979 0.020984923 0.019356132
0.078150459 0.021121744 0.021282881
0.076432452 0.020381985 0.021993667
0.077620976 0.020426571 0.022886425
0.080167189 0.020822646 0.023889661
0.079114333 0.020285726 0.024190694
0.079500839 0.020126795 0.024385035
0.082981817 0.020745454 0.024314493
0.082910039 0.020471614 0.023924142
0.08575663 0.02091625 0.022519767
0.085923165 0.020704376 0.021227211
0.086474426 0.020589147 0.020117134
0.089034565 0.020949308 0.017941982
0.093359411 0.021711489 0.012124658
0.093459204 0.021484874 0.0048948824
-0.062033929 0.022854606 0.0087142587
-0.059271362 0.022226762 0.014904737
-0.057764884 0.022055684 0.018744826
-0.056218661 0.021862812 0.020644069
-0.054978091 0.021783773 0.022425026
-0.053666104 0.02167285 0.024401098
-0.05302652 0.02183445 0.025594532
-0.051836733 0.021771427 0.026154011
-0.050229035 0.02152673 0.026806921
-0.049610391 0.021704547 0.027143031
-0.047803678 0.021359092 0.027491987
-0.047459468 0.021666279 0.027934581
-0.046310034 0.021611348 0.028091967
-0.044766013 0.021365598 0.02784881
-0.044564776 0.021764193 0.027187347
-0.043717839 0.021858919 0.02563557
-0.042019773 0.021522323 0.023478866
-0.042078804 0.022091374 0.019122362
-0.04126611 0.022220213 0.016907752
-0.040388029 0.022319701 0.013414741
-0.030410737 0.024562519 0.0065871477
-0.026933294 0.022623966 0.016793817
-0.024726417 0.021635616 0.020991355
-0.023969464 0.021885164 0.024305761
-0.022593442 0.021566469 0.026560485
-0.021588504 0.021588504 0.027860075
-0.020672569 0.021706199 0.028289527
-0.019459886 0.021508295 0.029017508
-0.018229764 0.021268059 0.029635787
-0.017398831 0.021492673 0.029926121
-0.01617359 0.021227837 0.030038387
-0.015417945 0.021585122 0.030770183
-0.014194576 0.021291865 0.031230539
-0.01317071 0.021275762 0.0311611
-0.012272462 0.021476809 0.031280696
-0.011259267 0.021494966 0.031149298
-0.010162711 0.021341695 0.03090167
-0.0092236847 0.021521933 0.030869246
-0.0081325416 0.021347921 0.030568808
-0.0069858958 0.020957688 0.031071305
-0.0061291629 0.021452069 0.031373739
-0.0050654938 0.021275075 0.031683177
-0.0040201163 0.021105612 0.031990796
-0.0030754344 0.021528041 0.031553209
-0.0020182927 0.021192074 0.031623542
-0.0010079381 0.021166699 0.031978875
0 0.021252438 0.03200081
0.00099703844 0.020937806 0.031897068
0.0020407005 0.021427356 0.032763213
0.003030132 0.021210924 0.03300193
0.0040218215 0.021114564 0.033467025
0.0051330784 0.021558931 0.035193026
0.0061675203 0.021586321 0.034604251
0.0070067788 0.021020336 0.035860687
0.0081364373 0.021358149 0.036778003
0.0090100095 0.021023355 0.038449764
0.0098339971 0.020651396 0.04061836
0.010882307 0.020775314 0.041218787
0.011780191 0.020615336 0.041507363
0.012617677 0.020382402 0.042827278
0.01376689 0.020650337 0.042951792
0.014815538 0.020741753 0.042744279
0.016034381 0.021045124 0.041537076
0.016927222 0.020910097 0.040928602
0.017574985 0.020504151 0.04031527
0.019065812 0.02107274 0.038290173
0.020235911 0.021247707 0.037370712
0.021077715 0.021077715 0.037088901
0.022665674 0.021635417 0.037024945
0.023112364 0.021102594 0.037172377
0.024039328 0.021034414 0.037498832
0.025617547 0.021518739 0.037889451
0.0258481 0.020877311 0.038072109
0.027290585 0.021226009 0.038842767
0.027770964 0.020828223 0.039987981
0.02837023 0.020543959 0.04071188
0.02955992 0.020691944 0.041304976
0.030893298 0.020927718 0.04212445
0.031333949 0.020562904 0.04221034
0.032356698 0.020590628 0.042412281
0.033561338 0.020729061 0.042354971
0.034112193 0.020467315 0.042210132
0.035541981 0.020732824 0.041991442
0.036267512 0.020584265 0.041132122
0.037584618 0.020770447 0.041007936
0.038581058 0.020774417 0.040117532
0.039555825 0.020766808 0.039302886
0.040961765 0.020980416 0.038195342
0.042209536 0.021104768 0.037107468
0.043729085 0.021356067 0.035636961
0.044278644 0.021132991 0.032638937
0.04664224 0.021766378 0.030864716
0.047726609 0.021788234 0.027366579
0.048559759 0.021696914 0.02195859
0.05194363 0.022725338 0.011966944
0.076716043 0.023014814 0.0091916025
0.07619524 0.02253662 0.013477206
0.075081848 0.021898873 0.017075866
0.077368289 0.02225663 0.018920928
0.077245742 0.021921089 0.019815922
0.078766204 0.022054538 0.021639645
0.079061784 0.021846019 0.022946179
0.079931706 0.021799557 0.023863524
0.078507856 0.021136731 0.024171263
0.082440771 0.021914637 0.024797916
0.081481189 0.021388812 0.024526685
0.084442019 0.021892376 0.024254769
0.086338006 0.022110952 0.023658484
0.084863469 0.02147148 0.02156505
0.087660283 0.021915071 0.020548671
0.087768041 0.021683868 0.018754035
0.0888936 0.021706577 0.013522774
0.094695419 0.022857517 0.007037878
-0.063070841 0.023923421 0.0064435601
-0.060349133 0.023292648 0.01321429
-0.05874357 0.023077831 0.017237872
-0.057627901 0.023051159 0.020251989
-0.056478437 0.023009732 0.021673918
-0.054542191 0.022640156 0.02343756
-0.054268114 0.022959586 0.024848223
-0.052945603 0.02283928 0.025646925
-0.051313352 0.022577872 0.026154011
-0.050977517 0.022887865 0.026391715
-0.049177293 0.022539593 0.026760131
-0.048186719 0.022555485 0.027004391
-0.04734746 0.022644436 0.026702762
-0.046532612 0.022749277 0.026979238
-0.045545634 0.022772817 0.026257396
-0.044957139 0.023001326 0.025070935
-0.043500964 0.022786217 0.022992015
-0.04310187 0.023127832 0.018870056
-0.041813932 0.022997662 0.016861886
-0.041449696 0.023381878 0.012609243
-0.02937359 0.024854576 0.0054966807
-0.025685528 0.022603264 0.016377866
-0.02521758 0.023116114 0.021089077
-0.02385582 0.02281861 0.024001271
-0.022490118 0.022490118 0.026741773
-0.022031225 0.02308033 0.028024584
-0.020572513 0.022629766 0.02870062
-0.019500038 0.02257899 0.029020816
-0.018533869 0.022652507 0.029420823
-0.0172114 0.022273578 0.029926121
-0.016519891 0.02271485 0.030038387
-0.015477939 0.022700977 0.030425906
-0.01419864 0.022312149 0.031149298
-0.013400731 0.022678159 0.031100512
-0.012316097 0.02257951 0.031096518
-0.011250395 0.022500791 0.03102088
-0.010196651 0.022432633 0.030633241
-0.0091473991 0.02236031 0.030313581
-0.008164566 0.022452556 0.030313581
-0.0071132225 0.022355841 0.030367792
-0.0060724569 0.022265675 0.030246079
-0.0050553796 0.022243671 0.030538619
-0.0040743705 0.022409039 0.030351132
-0.003002512 0.022018421 0.030017257
-0.0020267896 0.022294685 0.030084014
-0.0010196144 0.022431515 0.030289888
0 0.022394082 0.030178159
0.001012004 0.022264088 0.029615819
0.0020496815 0.022546496 0.030315548
0.0030744744 0.022546146 0.031045437
0.0040619508 0.022340728 0.030917853
0.0052060545 0.022906641 0.031693995
0.0060403137 0.022147818 0.031835556
0.0071639307 0.022515209 0.03283754
0.0080939559 0.022258379 0.034619212
0.0089786723 0.021947868 0.036011636
0.0098898932 0.021757767 0.036536843
0.010732228 0.021464456 0.038010687
0.011836305 0.021699894 0.039900213
0.012952194 0.021919096 0.040079087
0.013897937 0.021839615 0.040123791
0.014814467 0.021727884 0.040039659
0.01614612 0.022200914 0.039655209
0.016665401 0.021566989 0.038363367
0.018245935 0.02230059 0.037146598
0.018935004 0.021924742 0.036542445
0.020090915 0.022100007 0.034919143
0.021335367 0.022351336 0.034594476
0.022514191 0.022514191 0.034394145
0.02308551 0.022081792 0.034602284
0.024507245 0.022464974 0.034762055
0.025364991 0.022321191 0.03529796
0.025882564 0.02190063 0.036517709
0.027672376 0.022547862 0.036859542
0.02785399 0.021885278 0.037835777
0.028838398 0.021877404 0.03869015
0.029738123 0.021807956 0.040143371
0.03072547 0.021805171 0.040899575
0.031617206 0.021736829 0.041042715
0.03272083 0.021813886 0.041944921
0.033210352 0.02148905 0.042040139
0.034351781 0.021592548 0.042043686
0.035694435 0.021813266 0.041289002
0.03626718 0.021564268 0.040770471
0.037828375 0.021900637 0.039772272
0.038868982 0.021926094 0.039044261
0.039766248 0.021871436 0.038771808
0.041428156 0.02222974 0.037496507
0.042359076 0.022188086 0.036318272
0.04348642 0.022248866 0.034295321
0.045188807 0.022594403 0.031023175
0.045892794 0.022436475 0.029407144
0.047631264 0.022780169 0.025282115
0.050406348 0.02359446 0.0178684
0.050169658 0.022994427 0.0074481964
0.077344202 0.024308177 0.0065951347
0.074810527 0.023180727 0.010585576
0.076884188 0.02349239 0.015803427
0.076899149 0.023175083 0.018295348
0.077275611 0.022973828 0.019512326
0.077705748 0.022793686 0.021398097
0.078701511 0.022782015 0.023181885
0.07826402 0.022361148 0.024099231
0.080889009 0.022814848 0.024360031
0.0817459 0.022764681 0.024969935
0.082277901 0.022626422 0.025062948
0.084730841 0.023013316 0.024859488
0.083661288 0.02244571 0.024152189
0.085535429 0.02267204 0.022877574
0.087864257 0.023012066 0.021197468
0.087361924 0.02261132 0.020072579
0.092117645 0.023564979 0.016930252
0.093156338 0.023556774 0.010883421
0.094711833 0.023677958 0.0045807362
-0.064727075 0.025232591 0.0041534305
-0.062352829 0.024726121 0.010265619
-0.060141593 0.024267662 0.016522229
-0.059066359 0.024259398 0.020015031
-0.057447493 0.024023497 0.021275818
-0.055532418 0.023652697 0.022425026
-0.055561401 0.024111552 0.023977816
-0.053654775 0.023731921 0.024959564
-0.052901343 0.023857469 0.025688857
-0.05266843 0.024227478 0.02615115
-0.050259881 0.023591375 0.026248872
-0.049248833 0.023598399 0.026323378
-0.048273828 0.023623364 0.026419401
-0.047352038 0.023676019 0.026282549
-0.046890952 0.023966486 0.025900066
-0.045518022 0.023793513 0.024314404
-0.044180512 0.023631439 0.022732079
-0.044451024 0.024342228 0.018787444
-0.043878004 0.024614491 0.016861886
-0.042164303 0.024244476 0.013496757
-0.028227562 0.024970535 0.0052032769
-0.026573546 0.024447663 0.017686188
-0.02493988 0.023900719 0.022123456
-0.023712706 0.023712706 0.025467932
-0.022691572 0.023723008 0.026664525
-0.021442175 0.023484288 0.027774245
-0.020341031 0.023392187 0.028392911
-0.019407196 0.023492923 0.028893471
-0.018185368 0.023236861 0.029285878
-0.017292742 0.023396062 0.029643208
-0.01638522 0.023553753 0.029976785
-0.015293275 0.023449689 0.030292451
-0.014484537 0.023796026 0.030756265
-0.013377498 0.023667881 0.030692518
-0.012242815 0.023465397 0.03041169
-0.011369977 0.023773588 0.030218542
-0.010158709 0.023365032 0.029957294
-0.0091148969 0.023293627 0.029931039
-0.0082359714 0.023678418 0.029788136
-0.0070998697 0.023328144 0.029832661
-0.0061245612 0.023477485 0.029710531
-0.0051992382 0.023916496 0.029944181
-0.0040657641 0.023378145 0.029619098
-0.0030992446 0.023760876 0.028308421
-0.0020678998 0.023780849 0.028449029
-0.0010256198 0.023589255 0.028551906
0 0.023751743 0.028331995
0.0010287245 0.023660664 0.02783221
0.0020657084 0.023755647 0.028234541
0.0031096539 0.023840683 0.028556287
0.0041811774 0.02404177 0.028723717
0.0051520634 0.023699494 0.029788017
0.0062753931 0.024055675 0.030345708
0.007300118 0.023986103 0.030541301
0.0080840578 0.023241667 0.031707585
0.009107776 0.023275429 0.032543302
0.0098489523 0.022652591 0.034284711
0.010920158 0.022833057 0.035652429
0.011942714 0.022890201 0.036226302
0.012832526 0.022703702 0.037377477
0.013812521 0.022692 0.03811571
0.015174652 0.0232678 0.037310421
0.01594143 0.022915805 0.036159247
0.01718211 0.023246383 0.036191732
0.018105458 0.023134755 0.034503073
0.018891919 0.022869166 0.033869475
0.020300904 0.02334604 0.032699227
0.021567283 0.023621311 0.032699227
0.022259645 0.023271447 0.032699227
0.023964314 0.023964314 0.03279525
0.024465904 0.023446493 0.032699227
0.025487518 0.023448516 0.032919109
0.026438067 0.023387522 0.033200234
0.027004352 0.023003707 0.035140812
0.028062651 0.023051463 0.036311805
0.029061517 0.023048788 0.036429167
0.029615602 0.022705296 0.037918478
0.030852893 0.022890856 0.038853675
0.031789508 0.02284871 0.039504617
0.032439984 0.022609686 0.040709764
0.033970859 0.022980288 0.04071188
0.034996502 0.022997702 0.040752828
0.035558507 0.022717938 0.040190309
0.036800418 0.022875937 0.039279521
0.037830029 0.022897122 0.038824737
0.038539864 0.022728637 0.038053274
0.040012717 0.023007313 0.03736034
0.04093824 0.022965353 0.036318272
0.042162489 0.023088982 0.034809738
0.043680798 0.023364149 0.031590313
0.044402435 0.023210365 0.030286103
0.046733059 0.023885787 0.02749899
0.047927912 0.023963956 0.022947818
0.049634974 0.024289457 0.015398502
0.076706961 0.024848737 0.0091569126
0.076515682 0.024442513 0.012416929
0.077194743 0.024321631 0.016545743
0.078230843 0.02431499 0.018737316
0.077286847 0.023701299 0.020457923
0.077849962 0.023559857 0.022308201
0.080412313 0.024019264 0.023848325
0.079298086 0.02338277 0.024578363
0.080725156 0.023502262 0.025200814
0.082639314 0.023758804 0.025794715
0.082244888 0.023353487 0.025852263
0.085185625 0.023893528 0.02484858
0.084757052 0.023486895 0.02426067
0.085265033 0.023346379 0.022279769
0.089025632 0.02408929 0.020724684
0.091491058 0.024468539 0.018740892
0.091818921 0.024273969 0.013061285
0.097629249 0.025516735 0.0053442419
-0.063943297 0.026010832 0.0080941319
-0.06037337 0.024982082 0.014809072
-0.061012272 0.025689378 0.018230021
-0.058436751 0.02504432 0.020649374
-0.057114217 0.024922566 0.022180766
-0.057273619 0.02545494 0.023064166
-0.054632369 0.024739187 0.023985624
-0.053709827 0.024789151 0.024864227
-0.052952234 0.024918698 0.025594056
-0.051214315 0.024582868 0.02590704
-0.050190467 0.024583086 0.026141286
-0.049462192 0.024731096 0.026071876
-0.047300842 0.02415362 0.025900066
-0.048076753 0.025083523 0.024823099
-0.046748083 0.02493231 0.023939729
-0.045801613 0.024982698 0.02194342
-0.04526709 0.025265353 0.019122362
-0.04444205 0.025395455 0.01696068
-0.043434724 0.025425203 0.01297316
-0.028725633 0.026515968 0.0052032769
-0.026124695 0.025079707 0.018922716
-0.024630027 0.024630027 0.022450119
-0.02417605 0.025227182 0.02541092
-0.02267088 0.024731869 0.026656449
-0.021225879 0.024258146 0.027841717
-0.020793989 0.024952788 0.028314233
-0.019142142 0.024179546 0.028895855
-0.018436633 0.024582177 0.029275656
-0.017411171 0.024580475 0.029578239
-0.016200859 0.024301289 0.029710472
-0.015528252 0.024845203 0.030101597
-0.014377673 0.024647439 0.030307323
-0.013309111 0.024570666 0.029855281
-0.012436682 0.024873365 0.029594034
-0.011303393 0.024661949 0.029343635
-0.010199208 0.0244781 0.02914837
-0.0091776391 0.024473706 0.02903077
-0.0080629149 0.024188744 0.028588831
-0.0071418569 0.024486367 0.028213829
-0.0063084341 0.025233736 0.028052211
-0.0051269648 0.024609432 0.02793321
-0.0041033914 0.024620347 0.027487874
-0.003139327 0.025114616 0.026144028
-0.0020789183 0.024947019 0.02542606
-0.001023522 0.024564527 0.02534467
0 0.024776416 0.025129408
0.0010220003 0.024528008 0.02525717
0.0020617542 0.02474105 0.025313079
0.0031468133 0.025174506 0.025499165
0.0041024173 0.024614504 0.025950789
0.0051713935 0.02482269 0.026366442
0.0062927324 0.02517093 0.026964366
0.0071277991 0.024438169 0.028190821
0.0081690438 0.02450713 0.028888732
0.0091727106 0.024460562 0.030668348
0.0099260043 0.023822412 0.031359404
0.011059107 0.024128962 0.03218019
0.011927825 0.023855651 0.033682674
0.012926342 0.023864016 0.03413716
0.014101753 0.024174433 0.034894556
0.014873182 0.023797091 0.034611762
0.016085062 0.024127593 0.033829331
0.017234391 0.024330903 0.032699227
0.018183807 0.024245076 0.032266378
0.019283069 0.024357561 0.031391978
0.020296725 0.024356069 0.030155629
0.021377774 0.024431743 0.030155629
0.022973051 0.025061511 0.030155629
0.023703655 0.024734247 0.030155629
0.02454691 0.02454691 0.03017965
0.025564294 0.024541721 0.030862212
0.026385261 0.024355626 0.031286448
0.027033212 0.024029521 0.032404184
0.02846149 0.024395563 0.033141345
0.028949894 0.023958532 0.034322351
0.029835263 0.023868211 0.036206275
0.031568918 0.024440451 0.036709338
0.031893611 0.023920208 0.037665457
0.033205964 0.02414979 0.037965238
0.034221616 0.024156433 0.038853467
0.034494817 0.023653587 0.038482547
0.036507051 0.024338035 0.03823182
0.037200972 0.024130357 0.037568837
0.037241988 0.023521256 0.037516743
0.039030425 0.024018724 0.036585063
0.040137738 0.024082644 0.035692722
0.041108571 0.024063554 0.033478588
0.042062316 0.024035608 0.031176716
0.042961448 0.023978483 0.030064136
0.044491854 0.024268284 0.02743426
0.046576604 0.024840854 0.024098516
0.048660886 0.025388287 0.01727441
0.050252885 0.025661048 0.0086728334
0.076232269 0.025768654 0.0064825714
0.076155461 0.025385154 0.010321468
0.078390285 0.025772147 0.015086234
0.07895501 0.025607029 0.017644048
0.076849647 0.024591886 0.019433528
0.079956837 0.025249528 0.022063643
0.078523152 0.024474747 0.023790091
0.079119146 0.024344351 0.024536818
0.081487477 0.024755688 0.025518894
0.080201954 0.024060586 0.025719106
0.084398255 0.02500689 0.026018947
0.085017182 0.024883077 0.025807559
0.084270254 0.024367303 0.025157988
0.086564124 0.024732606 0.024114937
0.089053661 0.025144562 0.021994114
0.087117761 0.024311934 0.020058811
0.091438681 0.025224464 0.016428053
0.095496833 0.02604459 0.0084626675
-0.064816855 0.027007025 0.0048806965
-0.061791725 0.026182935 0.012612939
-0.061017599 0.026300689 0.01721254
-0.060264777 0.026431922 0.019984007
-0.058590017 0.026156258 0.021371961
-0.057765555 0.026257072 0.022147685
-0.05603721 0.025943153 0.023304701
-0.054413136 0.025666574 0.024386853
-0.05354172 0.025741212 0.024833977
-0.053021256 0.025990812 0.025166899
-0.050593674 0.025296837 0.025181144
-0.051242579 0.026144175 0.025242418
-0.049388044 0.025722941 0.025178224
-0.048535157 0.025816573 0.024757206
-0.047902644 0.026034046 0.023345023
-0.046964202 0.026091222 0.021750808
-0.046673071 0.026518792 0.01876229
-0.04547362 0.026438152 0.016840607
-0.044425178 0.026443558 0.014102221
-0.04515576 0.027534001 0.0045989156
-0.027761262 0.026693521 0.0099222362
-0.02597799 0.02597799 0.019081056
-0.025486475 0.026548412 0.02188611
-0.023681885 0.025741179 0.025179029
-0.022762349 0.025866305 0.026656449
-0.02156979 0.025678322 0.027841717
-0.02044802 0.025560027 0.028396875
-0.01928822 0.025379237 0.029132962
-0.018486353 0.025675492 0.029395044
-0.017227631 0.025334753 0.029976934
-0.016523352 0.025817739 0.029985458
-0.015203875 0.025339793 0.03017801
-0.014229879 0.025410498 0.030378371
-0.013283362 0.025544927 0.029838294
-0.012444276 0.025925577 0.029521912
-0.011169175 0.025384489 0.029181808
-0.010259707 0.025649272 0.028613001
-0.0092435917 0.025676645 0.028285861
-0.0082218284 0.025693214 0.028062642
-0.0072540664 0.025907381 0.027488321
-0.0062454049 0.026022522 0.026537389
-0.0051733432 0.025866719 0.025395662
-0.0042020786 0.026262993 0.024784356
-0.0030780539 0.025650451 0.024433553
-0.0020845651 0.026057065 0.023951769
-0.001039858 0.02599645 0.022901475
0 0.025953932 0.022898048
0.0010304252 0.025760632 0.02294594
0.0020983184 0.026228981 0.02277872
0.0031028828 0.025857357 0.023031592
0.004218631 0.026366444 0.023409933
0.0052582324 0.026291164 0.023454398
0.0062132762 0.025888652 0.024336249
0.0073643825 0.026301367 0.025081992
0.0082500605 0.02578144 0.026028365
0.0092671365 0.025742048 0.026826471
0.010053467 0.025133669 0.027531773
0.011161144 0.025366237 0.028951764
0.01206032 0.025125669 0.03056097
0.013322107 0.025619436 0.031415105
0.014223918 0.025399856 0.031942338
0.015294184 0.025490308 0.031972677
0.016405627 0.025633793 0.031377375
0.017009534 0.025014021 0.029166549
0.018618766 0.025859401 0.027916402
0.019739818 0.025973445 0.027729899
0.020454099 0.025567627 0.027237147
0.022302354 0.026550421 0.027237147
0.023299757 0.026476998 0.027335584
0.02331157 0.025338665 0.027949214
0.024691891 0.025720721 0.02873531
0.02576844 0.02576844 0.029182315
0.026378093 0.025363553 0.02941975
0.027237313 0.025219735 0.03022334
0.028661149 0.025590312 0.031048417
0.029181374 0.025156356 0.032074004
0.03037874 0.025315618 0.032973647
0.031161608 0.02513033 0.034508556
0.032508034 0.025396902 0.035278857
0.033455122 0.025344791 0.036206484
0.033587605 0.024696769 0.036316961
0.035191946 0.025137106 0.036298066
0.036350965 0.025243729 0.036390603
0.036888167 0.024924437 0.036449701
0.038267761 0.025176158 0.035692841
0.039629269 0.025403379 0.034415722
0.040875301 0.025547065 0.032779485
0.041057687 0.025035175 0.031025887
0.042849094 0.025505414 0.029185057
0.043886457 0.025515383 0.027433127
0.045092016 0.025620466 0.024505377
0.047029514 0.026127508 0.021072388
0.047830336 0.025994748 0.013505757
0.052185591 0.027758293 0.0044583082
0.077545822 0.026925633 0.0091138482
0.076709129 0.026270248 0.01361236
0.078008942 0.026354373 0.016139805
0.078816816 0.026272271 0.018695772
0.078318261 0.025762588 0.02151674
0.079068415 0.025671564 0.022887945
0.081744738 0.026200239 0.024171263
0.080621742 0.025513211 0.025157988
0.082114249 0.025660705 0.026501358
0.084062159 0.025945112 0.026826084
0.083660252 0.025506174 0.026742876
0.08620178 0.025964392 0.025919765
0.087872341 0.026152482 0.024757296
0.086687617 0.02549636 0.023447067
0.090477295 0.02630154 0.020666718
0.092682645 0.026632946 0.017638624
0.093495242 0.026561148 0.010973483
0.097717509 0.02744874 0.0041964054
-0.06281013 0.027217723 0.0095739961
-0.062900923 0.027719051 0.016533673
-0.060788065 0.027249821 0.01823619
-0.058998656 0.026911668 0.020540744
-0.059238952 0.0275038 0.021623731
-0.056698907 0.026803119 0.022260815
-0.055807043 0.026870057 0.023298144
-0.055405334 0.027179975 0.023886234
-0.053768698 0.026884349 0.024427593
-0.052742075 0.026888117 0.024648786
-0.051621269 0.02684306 0.024465591
-0.050737377 0.026921874 0.024512947
-0.050006703 0.027086964 0.023977816
-0.049268894 0.027255131 0.023360223
-0.047397394 0.026789831 0.021448463
-0.047555465 0.02747649 0.019112408
-0.047083579 0.027822115 0.016978562
-0.046140272 0.027898768 0.014429241
-0.045811035 0.02835921 0.004943639
-0.027174331 0.027174331 0.010750502
-0.026268419 0.027319154 0.019122452
-0.024744837 0.026806906 0.022304803
-0.02391566 0.027035091 0.025449485
-0.022526171 0.026621839 0.026955038
-0.021525541 0.026650669 0.028208882
-0.020520139 0.026676182 0.028560758
-0.019326739 0.026447115 0.029220998
-0.018289762 0.026418546 0.029315978
-0.017121555 0.026185907 0.030012757
-0.01635536 0.02657746 0.029983193
-0.015133972 0.026232218 0.030142903
-0.014351067 0.026651982 0.030142903
-0.013316042 0.026632084 0.029521912
-0.012234299 0.026507648 0.029301196
-0.011358757 0.026847972 0.0287036
-0.010205161 0.026533417 0.027981967
-0.0091364598 0.026394218 0.027724981
-0.0082896333 0.026941307 0.026854515
-0.0071524112 0.026566098 0.025309265
-0.0062108301 0.026913598 0.024468452
-0.005278388 0.027447619 0.023854285
-0.0041997083 0.027298104 0.022580653
-0.0032058882 0.027784366 0.02232489
-0.0021037052 0.027348166 0.020987034
-0.0010310527 0.02680737 0.020660132
0 0.027144425 0.020349324
0.0010401189 0.027043089 0.020415097
0.0020832608 0.027082389 0.020633936
0.0031852617 0.027605601 0.020620972
0.0042590923 0.027684098 0.020463884
0.0052345814 0.027219824 0.020501316
0.0063820351 0.027655486 0.020439744
0.0073491605 0.027296882 0.020607024
0.0083446279 0.027120041 0.021575183
0.0094780913 0.027381154 0.022287279
0.0102155 0.026560303 0.024018586
0.011196842 0.026465265 0.025618732
0.012306552 0.026664196 0.026628345
0.013206939 0.026413878 0.026862234
0.014230177 0.026427472 0.027181089
0.01546779 0.026810836 0.027565718
0.01614913 0.026242336 0.026975095
0.01748017 0.026734378 0.025984079
0.018646454 0.026933769 0.024035007
0.019506887 0.026693635 0.022684753
0.021189842 0.027546797 0.023907572
0.022288613 0.027595425 0.022915483
0.022650478 0.026768748 0.024169624
