ply
format ascii 1.0
comment PCL generated
element vertex 1281
property float x
property float y
property float z
element camera 0
property float view_px
property float view_py
property float view_pz
property float x_axisx
property float x_axisy
property float x_axisz
property float y_axisx
property float y_axisy
property float y_axisz
property float z_axisx
property float z_axisy
property float z_axisz
property float focal
property float scalex
property float scaley
property float centerx
property float centery
property int viewportx
property int viewporty
property float k1
property float k2
end_header
-0.075075418 0.035951607 0.017667145
-0.073031321 0.03547236 0.017887115
-0.073026285 0.035983965 0.017913401
-0.07128074 0.03564037 0.017932862
-0.070285201 0.035667118 0.017877996
-0.069477648 0.035791516 0.017811567
-0.067960851 0.035548754 0.018337607
-0.067886032 0.036064457 0.01837182
-0.066000193 0.035619155 0.018122107
-0.064727753 0.035495862 0.018226445
-0.064224139 0.035797063 0.017908931
-0.062624834 0.035487406 0.017779917
-0.061312523 0.035332639 0.017639101
-0.061410807 0.03599944 0.01682505
-0.059632502 0.035570264 0.016170919
-0.058370575 0.035439279 0.015341282
-0.058277924 0.036026355 0.014264345
-0.05646671 0.035553113 0.013715893
-0.055547647 0.035634343 0.013130873
-0.055745237 0.03644881 0.012542695
-0.05410637 0.036070913 0.011335313
-0.053034697 0.036063593 0.010630012
-0.052447774 0.036392335 0.0098352432
-0.050827995 0.036003161 0.0081546605
-0.050943546 0.036852777 0.006103009
0.03628052 0.03628052 0.0049244463
0.037415922 0.036346897 0.0060123503
0.038398109 0.036264881 0.0070234239
0.039021593 0.035857677 0.008312881
0.041806933 0.037406202 0.008312881
0.042399332 0.036963522 0.0070515573
0.042733528 0.036323499 0.0060784519
0.044336159 0.03676657 0.0060302317
0.044774018 0.036245633 0.0054550171
0.047142532 0.037275489 0.0049810112
0.0485688 0.037530437 0.0049343705
0.048732586 0.036820177 0.0049580038
0.049368493 0.036489755 0.0046317279
0.052253861 0.037800666 0.0044687986
0.050075114 0.035469875 0.0049602091
0.054374523 0.037729263 0.0048413277
0.055841226 0.037972033 0.0048639178
0.055163782 0.036775853 0.0042790473
-0.091386393 0.038077664 0.0048786402
-0.088570789 0.037349127 0.0065354407
-0.08766377 0.03741746 0.009478569
-0.087500073 0.037808675 0.011179
-0.083997399 0.03674886 0.012070209
-0.085444622 0.037855212 0.012925297
-0.082960792 0.037225995 0.01450178
-0.081746817 0.037157644 0.015927106
-0.080472648 0.037059769 0.016393542
-0.079203419 0.036961593 0.016487509
-0.076780975 0.036315322 0.016834676
-0.076850042 0.036845908 0.017482609
-0.075391211 0.036648508 0.017834455
-0.074511983 0.036731258 0.018132091
-0.074138775 0.037069388 0.018093169
-0.072560847 0.03680623 0.018134266
-0.071335144 0.036716618 0.018153071
-0.071085475 0.037134204 0.018183857
-0.069241628 0.036719047 0.018057704
-0.068048015 0.036641236 0.018271744
-0.066958159 0.036617741 0.018608421
-0.065914579 0.036619209 0.018307537
-0.065023147 0.036706612 0.018442988
-0.064232685 0.036854818 0.018053979
-0.062233243 0.036302727 0.017736822
-0.061781909 0.036650285 0.017590106
-0.061237536 0.036953684 0.017031699
-0.05962684 0.036612973 0.016408592
-0.059183732 0.036989834 0.015466213
-0.057623543 0.036669526 0.014419466
-0.056789678 0.036808122 0.01384896
-0.056225374 0.037129965 0.013268501
-0.054834474 0.036907818 0.01279372
-0.054137997 0.037153527 0.011441618
-0.053499717 0.037449799 0.010573953
-0.052170809 0.037264865 0.0096047819
-0.052519575 0.038295522 0.0071606338
-0.051111434 0.038061704 0.0051186383
0.037075397 0.038165849 0.0041078031
0.039614923 0.039614923 0.0049181879
0.038069785 0.037012294 0.0058891773
0.039982382 0.03782117 0.0059614778
0.0420991 0.038775485 0.0059614778
0.041251477 0.037020557 0.0056116581
0.044305697 0.038767487 0.0050108433
0.044041846 0.037596695 0.0050700009
-0.092075132 0.038996525 0.0048139989
-0.09052325 0.038795676 0.0063661933
-0.089045726 0.038622241 0.0090316832
-0.087791622 0.038542662 0.011077702
-0.086579837 0.038479928 0.011344075
-0.085104108 0.038296849 0.012458354
-0.08361885 0.038104791 0.014194041
-0.081962034 0.037828628 0.015749365
-0.082436718 0.038541842 0.016279936
-0.080369376 0.038069703 0.016997159
-0.07843437 0.037648495 0.017723411
-0.078019798 0.037955575 0.017546445
-0.076790057 0.037869066 0.018109828
-0.075538687 0.037769344 0.018274277
-0.075324051 0.038192473 0.018233597
-0.073712513 0.037909292 0.018354595
-0.072834432 0.038000572 0.018529415
-0.071568251 0.037889071 0.018529415
-0.069886275 0.037550833 0.018575549
-0.069317758 0.037809685 0.01819852
-0.068341263 0.037850544 0.018486083
-0.066797927 0.037573833 0.018703073
-0.065942004 0.037681144 0.018436015
-0.065046377 0.037768859 0.018496364
-0.063614547 0.03754301 0.017829955
-0.062911771 0.037747063 0.017597616
-0.062108915 0.037896965 0.017416477
-0.060819935 0.0377503 0.016821712
-0.06035427 0.038118485 0.016170919
-0.059032854 0.037949692 0.01526767
-0.057859287 0.037871532 0.014224023
-0.057047166 0.03803144 0.013671458
-0.056254692 0.038210735 0.013069153
-0.055076279 0.038129728 0.012549877
-0.054559506 0.038512591 0.011434376
-0.053177755 0.038287979 0.0099650919
-0.052765034 0.038766146 0.0087845623
-0.052157946 0.039118458 0.0063901842
-0.0506921 0.038827989 0.0047473907
0.04076127 0.039659608 0.0041401982
0.040178407 0.038063753 0.0042025149
0.042128865 0.038888179 0.0041646659
-0.090984792 0.039605144 0.005982846
-0.089854643 0.039578829 0.0074447691
-0.088833928 0.039600667 0.0098355412
-0.087406695 0.039439604 0.011313319
-0.086541742 0.039531417 0.011910945
-0.084694967 0.039171424 0.012937158
-0.083497092 0.039106235 0.014669895
-0.083190113 0.039461978 0.016321599
-0.081390217 0.039109584 0.016630679
-0.079689868 0.038796384 0.017175227
-0.078967825 0.038957458 0.017929733
-0.07748574 0.03874287 0.01822868
-0.076027527 0.0385345 0.018303216
-0.076270856 0.039194748 0.018343806
-0.074500963 0.038824446 0.018354595
-0.073340431 0.038765658 0.018718809
-0.072611973 0.038936857 0.018763483
-0.071373403 0.038835529 0.018767565
-0.069778606 0.038534459 0.018714726
-0.069270857 0.038833663 0.018158048
-0.067998938 0.038707089 0.018432647
-0.0674394 0.038988404 0.018606275
-0.065995462 0.038759239 0.018259168
-0.064723216 0.038625147 0.018350422
-0.064252265 0.038972691 0.017705739
-0.063088812 0.038904771 0.017476827
-0.062286556 0.039061062 0.017266631
-0.061642952 0.039323952 0.016588718
-0.060536195 0.039295428 0.015665978
-0.059464272 0.039288897 0.015024155
-0.058488298 0.039346673 0.014338344
-0.057401679 0.039330781 0.01342389
-0.057020623 0.039806854 0.01293093
-0.055784192 0.039692599 0.012292087
-0.054157227 0.03929054 0.010939658
-0.053229172 0.039389588 0.0099331737
-0.052844822 0.039903235 0.0069803894
-0.052102908 0.040162664 0.0057794452
-0.091191716 0.040768061 0.0063581765
-0.091197215 0.041255884 0.0079568028
-0.089050978 0.040770326 0.0098933578
-0.086977534 0.040306661 0.011359721
-0.086999595 0.040814627 0.011922151
-0.084318832 0.040051449 0.013490289
-0.084537126 0.040663429 0.014818251
-0.082381323 0.040134493 0.016301423
-0.080788985 0.03986989 0.016705126
-0.080383673 0.040191837 0.017623365
-0.078484662 0.039765563 0.017688155
-0.077300467 0.039694831 0.017923325
-0.077340201 0.040259279 0.018250197
-0.075647101 0.03992486 0.018274128
-0.074670918 0.039964717 0.018488169
-0.073981114 0.040161178 0.01867497
-0.071873188 0.039582334 0.018591136
-0.070767149 0.039546348 0.018680573
-0.070496969 0.039983355 0.018357784
-0.068666138 0.039535049 0.018145233
-0.067609623 0.039525628 0.018225104
-0.066910014 0.039727818 0.018342793
-0.065489344 0.039501511 0.018103182
-0.065400362 0.040084094 0.018052131
-0.064212047 0.040000949 0.0174326
-0.063942611 0.040496986 0.016836405
-0.062846422 0.040477358 0.016846031
-0.06199481 0.040617291 0.015647262
-0.060495004 0.040330004 0.01516524
-0.060090415 0.040775638 0.014618486
-0.058613889 0.040496867 0.014025748
-0.057898626 0.040743478 0.013429165
-0.056577008 0.040564649 0.013028234
-0.055110928 0.040273372 0.01192233
-0.054304548 0.040462211 0.010768622
-0.054099474 0.041115601 0.0084022284
-0.052959684 0.041070778 0.0059155524
-0.054072779 0.042807616 0.0053039491
-0.093079723 0.042210575 0.0040952563
-0.0928616 0.042607084 0.0063661933
-0.089804143 0.041694783 0.0082054734
-0.08860638 0.041634321 0.010132521
-0.087367207 0.041552693 0.011438906
-0.085399091 0.041118085 0.01220867
-0.085056596 0.041465092 0.014113158
-0.084131978 0.041533511 0.015196413
-0.081321485 0.040660743 0.016306967
-0.0815598 0.041309509 0.016705126
-0.079803206 0.040951643 0.017539263
-0.07833235 0.04073282 0.017868072
-0.077521138 0.040855736 0.017904818
-0.076529033 0.04088537 0.01825732
-0.075440377 0.04086354 0.018328279
-0.074831873 0.041104831 0.018242747
-0.073641747 0.041028973 0.018203735
-0.07216607 0.040789519 0.018184721
-0.071487226 0.041000027 0.018127143
-0.070103616 0.04080658 0.017955631
-0.069065206 0.040811259 0.018012375
-0.06834159 0.041004952 0.017959833
-0.066077456 0.040265951 0.018001527
-0.06639953 0.041104466 0.017668009
-0.06543348 0.041159768 0.017202437
-0.064310551 0.04111658 0.015790641
-0.064521924 0.041939247 0.015389413
-0.06257315 0.041361909 0.015321881
-0.061579697 0.041407038 0.01480332
-0.061069954 0.041784704 0.014538497
-0.060480282 0.042120196 0.014125079
-0.058997013 0.041834243 0.013644993
-0.057397876 0.041454021 0.012998939
-0.056232113 0.041378349 0.011953771
-0.055523634 0.041642725 0.010859877
-0.054752372 0.041869462 0.0096984208
-0.054065701 0.042171244 0.0076791942
-0.054325756 0.043238871 0.0057050884
-0.054305922 0.044123564 0.0049658716
-0.091386721 0.043005515 0.0063661933
-0.090486526 0.04308882 0.0083803236
-0.088674381 0.042734638 0.010727555
-0.086766601 0.042325169 0.011479199
-0.086111329 0.042524114 0.012456328
-0.08423683 0.042118415 0.014113158
-0.083359659 0.042207424 0.015090823
-0.083527692 0.04283471 0.016220719
-0.081031255 0.04209416 0.016691685
-0.079571418 0.041879695 0.017474741
-0.07929796 0.042292245 0.017512918
-0.077008262 0.041626085 0.01785627
-0.076306105 0.041811559 0.018121749
-0.075874016 0.04215223 0.018199503
-0.074377194 0.041902643 0.017908722
-0.073080331 0.041760188 0.01798138
-0.072994784 0.042315815 0.017901808
-0.071095988 0.041821167 0.017861754
-0.070323512 0.041984186 0.017717719
-0.069230534 0.0419579 0.017346859
-0.06774912 0.041691765 0.017512918
-0.067507409 0.042192131 0.017288268
-0.065964513 0.041882228 0.016921043
-0.065098129 0.041998789 0.015381068
-0.064792827 0.0424871 0.014677346
-0.063552365 0.042368241 0.01448375
-0.062682137 0.042496361 0.01448375
-0.061982904 0.042746827 0.014160246
-0.061031349 0.042829018 0.014013648
-0.059570637 0.042550452 0.013330877
-0.058516677 0.042557582 0.013126135
-0.057127573 0.042316716 0.012541384
-0.056199476 0.042414699 0.011032403
-0.055738702 0.042875923 0.01024574
-0.055313237 0.043382928 0.0082889497
-0.054498233 0.043598581 0.0068040192
-0.054663856 0.044623554 0.0055702329
-0.053121671 0.04426806 0.0048184693
-0.051605202 0.043919321 0.0042166114
-0.091425337 0.044099282 0.0069839656
-0.090235382 0.044043459 0.009213388
-0.087666944 0.04330536 0.010777742
-0.086472809 0.043236405 0.011500686
-0.086750455 0.043910727 0.012859046
-0.084197491 0.043151218 0.014463842
-0.084529169 0.043869574 0.015477657
-0.082801521 0.043523878 0.01647529
-0.080424495 0.042823434 0.01665917
-0.080122925 0.043224212 0.017303675
-0.078688435 0.043016344 0.017558515
-0.077205911 0.042776249 0.017512918
-0.076470576 0.042949229 0.018059105
-0.075374112 0.042921375 0.017941326
-0.074494831 0.043018147 0.017665565
-0.073305182 0.042935897 0.017490596
-0.072333507 0.042980783 0.017332613
-0.071237281 0.042951893 0.017310888
-0.070635095 0.043224465 0.016687721
-0.069434874 0.043133788 0.016439319
-0.068082877 0.042944588 0.016582072
-0.068453215 0.04385284 0.015681118
-0.066590197 0.043336477 0.014251858
-0.066271588 0.043824762 0.013566196
-0.065490328 0.04401809 0.013235986
-0.063633971 0.043483216 0.013276458
-0.063027933 0.043799073 0.01340276
-0.062235817 0.043994285 0.013297737
-0.060934205 0.043829869 0.0133439
-0.059636742 0.043662619 0.012964219
-0.058016397 0.043248586 0.012755543
-0.056766149 0.043100223 0.011738569
-0.056478869 0.043691203 0.01066345
-0.056369368 0.044445083 0.010068029
-0.055658668 0.044745203 0.0086580217
-0.054710515 0.044862624 0.0070576966
-0.054750673 0.045811791 0.0062126815
-0.052862812 0.045153655 0.0050196946
-0.051784996 0.045174148 0.0045702457
-0.093036883 0.045971166 0.0069839656
-0.090686895 0.045343447 0.0092996359
-0.088542521 0.044804651 0.010799676
-0.087591656 0.044864018 0.011407912
-0.086579792 0.044893228 0.013283998
-0.086460635 0.045391835 0.014311999
-0.083995894 0.044656046 0.015272498
-0.081824467 0.044059329 0.016388476
-0.081945539 0.044697568 0.016547531
-0.080397442 0.044430166 0.017026246
-0.078919314 0.044194814 0.017326713
-0.078210667 0.04438984 0.017464161
-0.075907119 0.043672588 0.017561704
-0.075394057 0.043979868 0.017611951
-0.074972384 0.044349864 0.017231315
-0.073709317 0.044225592 0.017346859
-0.072336093 0.04403067 0.016877413
-0.071975783 0.044455629 0.016681701
-0.070473179 0.044177216 0.016149133
-0.069607109 0.044295434 0.015670538
-0.069377206 0.044828352 0.014727741
-0.067834318 0.044516269 0.013873637
-0.067747369 0.045164913 0.01284954
-0.065913118 0.044650819 0.012795508
-0.065579966 0.04515342 0.012312204
-0.064301752 0.045011226 0.012392998
-0.062895283 0.044772912 0.012920976
-0.061781541 0.044738356 0.012964815
-0.061240584 0.045124643 0.012849182
-0.059810083 0.044857565 0.012596279
-0.057872899 0.044193853 0.011900097
-0.057339285 0.04459722 0.01137659
-0.056152344 0.044498086 0.010376841
-0.056342635 0.045507513 0.0099357963
-0.055650752 0.045830034 0.0089757442
-0.054567307 0.045836538 0.0083456933
-0.054601144 0.046800986 0.0068738759
-0.052288719 0.04575263 0.005574733
-0.050928276 0.045510374 0.0049729049
-0.050246846 0.045877554 0.0040167868
-0.092085771 0.046584569 0.005923748
-0.090025984 0.046084728 0.0081392527
-0.08966849 0.046454757 0.010020822
-0.08718475 0.04571883 0.011251032
-0.086904548 0.046134517 0.012764066
-0.085668162 0.046046637 0.014219403
-0.083081707 0.04522169 0.014887929
-0.082908653 0.045706052 0.016003668
-0.081191182 0.045340531 0.016142607
-0.080195948 0.045374025 0.016478509
-0.079757512 0.04572764 0.016847908
-0.07796137 0.045301873 0.016721308
-0.076214418 0.044893421 0.017000079
-0.075929157 0.045346584 0.01679638
-0.074982964 0.04541222 0.016394615
-0.07340204 0.045089826 0.016163349
-0.072804153 0.045370705 0.01576674
-0.071286693 0.045078348 0.015307277
-0.071084231 0.045621224 0.014167249
-0.070781767 0.046115395 0.013594419
-0.069429472 0.04593027 0.012358665
-0.069058478 0.046398666 0.012430578
-0.067179076 0.045852385 0.011990309
-0.065584145 0.04548578 0.01178059
-0.06540224 0.046103217 0.011649221
-0.06422767 0.046029832 0.011794597
-0.062797718 0.045767825 0.011996478
-0.062211134 0.046122044 0.012362957
-0.061105065 0.046096805 0.012362957
-0.059502125 0.045689132 0.012229979
-0.058568284 0.045789748 0.01192531
-0.056720976 0.045166701 0.011399686
-0.056450047 0.045799095 0.01066345
-0.056415625 0.046651382 0.010234892
-0.055375639 0.046689264 0.0097877383
-0.055729389 0.047927275 0.0090141296
-0.054758057 0.048052993 0.0076298416
-0.052110471 0.046682298 0.0064153969
-0.051500928 0.04711787 0.0053975582
-0.050195031 0.046921439 0.0048082173
-0.092641756 0.047955733 0.005780071
-0.091567725 0.047964044 0.0072285831
-0.088118032 0.046713173 0.0098410547
-0.087347314 0.046869285 0.0111112
-0.086920619 0.04721614 0.012178302
-0.084585495 0.046522021 0.013596028
-0.084596626 0.047117107 0.014302433
-0.082571574 0.046578836 0.014918804
-0.080367967 0.045924552 0.015541315
-0.08043316 0.046566565 0.015599877
-0.079111166 0.046411883 0.016003668
-0.077742599 0.046225324 0.016130447
-0.077448398 0.046681222 0.016264379
-0.075677425 0.046247315 0.015731752
-0.074637115 0.046253987 0.015477598
-0.07397227 0.046496853 0.014452398
-0.072962411 0.046526752 0.013791084
-0.072198696 0.046716806 0.011989087
-0.071918875 0.047230303 0.011389673
-0.07037244 0.046914961 0.010715276
-0.069839112 0.047275707 0.010317624
-0.068450421 0.047059663 0.010650307
-0.067285955 0.046993364 0.011024147
-0.066391446 0.047116507 0.011016428
-0.065015867 0.046896689 0.011141956
-0.063897863 0.046858434 0.011416316
-0.063021794 0.046999302 0.01178059
-0.062118206 0.047124155 0.011920512
-0.061431032 0.047420446 0.012094736
-0.059983987 0.047130276 0.012094736
-0.0581697 0.04653576 0.01192531
-0.057377487 0.046752024 0.011642069
-0.0561294 0.046597991 0.010943145
-0.055291083 0.046784762 0.010694116
-0.055351797 0.047754489 0.0102714
-0.055753741 0.049063291 0.0097488761
-0.054086126 0.048567135 0.0087088943
-0.052775539 0.048377577 0.0072726309
-0.05064128 0.047408856 0.0064499676
-0.049306389 0.04716263 0.0058121383
-0.04838885 0.047313537 0.0047863722
-0.048047464 0.048047464 0.0044079721
-0.046172366 0.047246139 0.004140228
-0.094093926 0.049814433 0.0053465962
-0.089914337 0.048168398 0.0073024333
-0.088749923 0.048117429 0.009432584
-0.087757587 0.048159651 0.010799676
-0.085901663 0.047723152 0.011558086
-0.085594863 0.048147112 0.012764066
-0.084123313 0.047918346 0.013783902
-0.081853725 0.047223303 0.014352977
-0.081693955 0.047743224 0.014607728
-0.08020819 0.047491692 0.014817894
-0.078576393 0.047145836 0.015319318
-0.078886189 0.047971331 0.015241295
-0.077392973 0.047707997 0.015203238
-0.075734586 0.04733412 0.014505565
-0.07565099 0.047947813 0.013882369
-0.074270129 0.047745086 0.012053639
-0.073602267 0.048001479 0.011528671
-0.073475443 0.048623458 0.010632873
-0.072035819 0.048382267 0.009211421
-0.070764057 0.04824822 0.0087638199
-0.070356987 0.048708685 0.0092474818
-0.068121865 0.047898192 0.009711802
-0.067890204 0.048493005 0.010248631
-0.067060538 0.04867297 0.010762841
-0.065601394 0.048394475 0.010659903
-0.065171614 0.048878714 0.011141956
-0.064051867 0.048853118 0.01160562
-0.062063232 0.048152506 0.011712104
-0.062077913 0.049008884 0.011856973
-0.060482033 0.048601635 0.012125701
-0.058896959 0.048188422 0.012125701
-0.057640903 0.048034087 0.011250645
-0.056413531 0.047898285 0.011499554
-0.054751158 0.047380812 0.011112571
-0.055410407 0.048891537 0.010953963
-0.055098262 0.049588438 0.010728508
-0.053308133 0.048956454 0.0097488761
-0.051932383 0.048686612 0.0087595284
-0.050169311 0.048034448 0.0075059831
-0.050168112 0.0490775 0.0068323016
-0.048622314 0.048622314 0.0066185892
-0.046931889 0.047998529 0.0062386096
-0.046672799 0.048843626 0.0060396492
-0.045401778 0.048644762 0.0057761967
-0.044285059 0.048605554 0.0044428706
-0.09249679 0.050057087 0.0046976507
-0.090064496 0.049321033 0.0068929195
-0.089469597 0.049585558 0.0081368983
-0.087242335 0.048940822 0.010132104
-0.085955456 0.048814211 0.010936141
-0.085029885 0.048892185 0.011643857
-0.083673239 0.048721127 0.012764066
-0.082652628 0.048743859 0.013561577
-0.080925077 0.048344854 0.013879687
-0.079915017 0.048369613 0.01410529
-0.07995306 0.049037874 0.014264345
-0.078785405 0.048974711 0.014129311
-0.077119581 0.048595902 0.014244676
-0.076813094 0.049075034 0.013013273
-0.075376257 0.048835326 0.011785626
-0.074876554 0.049204592 0.0095923841
-0.075019971 0.050013319 0.0084008574
-0.07312233 0.049465109 0.0074165165
-0.072748788 0.049946927 0.0065338612
-0.073017254 0.050890815 0.0074165165
-0.070271663 0.049730714 0.0085191429
-0.069757268 0.050138034 0.0085625052
-0.068735033 0.050187487 0.009560585
-0.067005023 0.049713407 0.010121971
-0.065682039 0.049530718 0.010397553
-0.064521022 0.049466118 0.010840178
-0.06268695 0.048874576 0.011372566
-0.061886188 0.049082149 0.011267811
-0.061845448 0.049910363 0.011537105
-0.061090324 0.05018134 0.012507409
-0.059392389 0.049673636 0.012205839
-0.057154909 0.048687514 0.011985004
-0.056114674 0.048703302 0.0120323
-0.055667002 0.049243886 0.011843115
-0.054138489 0.048830796 0.011860728
-0.054268472 0.049926996 0.011739284
-0.05357331 0.050293311 0.010923386
-0.051074941 0.04894682 0.0096802115
-0.050257221 0.049187917 0.0088980794
-0.049487002 0.049487002 0.0082391202
-0.048327088 0.049401022 0.0076076686
-0.047454085 0.049611092 0.007314086
-0.046398249 0.049635336 0.0069835782
-0.045217097 0.049523488 0.0066978633
-0.044779278 0.050240166 0.0060293972
-0.043673795 0.050224863 0.0044634044
-0.0913684 0.050521348 0.0040070117
-0.091244861 0.051053673 0.0063410997
-0.088952698 0.050370801 0.0073674917
-0.086838767 0.049773436 0.0091794729
-0.086893566 0.050419725 0.010475338
-0.084355429 0.049558818 0.011165053
-0.083941206 0.049939707 0.011959463
-0.082124308 0.049485162 0.012920678
-0.081456877 0.049720433 0.012762994
-0.080670789 0.04988851 0.012937993
-0.079466529 0.049799025 0.012989163
-0.078133263 0.049625181 0.012731791
-0.077915959 0.050165068 0.012147248
-0.07693769 0.050223216 0.009991318
-0.076642558 0.050735217 0.0080515742
-0.076597326 0.051429633 0.0062313676
-0.075155586 0.051192939 0.0060628951
-0.073934354 0.051101688 0.0059833527
-0.073104717 0.051282413 0.0057751834
-0.071628198 0.05100796 0.0061063468
-0.070656173 0.051089846 0.0068243742
-0.069140628 0.050775152 0.0080187619
-0.068331324 0.050977334 0.0086607039
-0.066989973 0.050782721 0.0097361803
-0.064783387 0.049915068 0.0096992552
-0.063482255 0.049727768 0.010321796
-0.06288147 0.050092019 0.011041731
-0.062025253 0.05026184 0.011242121
-0.061031718 0.050324399 0.011986703
-0.060683504 0.050930798 0.012173176
-0.058745354 0.050200578 0.012324989
-0.057566643 0.050104298 0.012235671
-0.056302514 0.049928647 0.01261276
-0.054592561 0.049343277 0.012414008
-0.053614587 0.04940952 0.012217641
-0.053610105 0.050393496 0.012236983
-0.052485947 0.050343666 0.012132019
-0.05158294 0.050508294 0.01096195
-0.050483309 0.050483309 0.010338992
-0.04899418 0.05005927 0.0093854666
-0.048419029 0.050570983 0.0088656247
-0.047379717 0.050610155 0.008227706
-0.046439469 0.05075942 0.0078764558
-0.045996089 0.051471811 0.0074151754
-0.044606015 0.051133722 0.0066873729
-0.043492664 0.051103879 0.0059859753
-0.091816679 0.052466672 0.005261004
-0.089444481 0.051726926 0.0066103637
-0.088555902 0.051837597 0.0081789494
-0.086455658 0.051232986 0.0099897981
-0.085505053 0.051303033 0.010560423
-0.083964482 0.051016394 0.010980636
-0.08189252 0.050395396 0.011562467
-0.082436636 0.051389072 0.011528075
-0.080742933 0.050995532 0.0112032
-0.079658315 0.050981317 0.01130411
-0.079309672 0.05144411 0.0095344484
-0.078550532 0.051649664 0.0071853995
-0.077731155 0.05182077 0.0056046546
-0.077814557 0.052607022 0.0049388409
-0.076575555 0.052508954 0.0042262375
-0.075904168 0.052802902 0.0046085715
-0.075301632 0.053154092 0.004948169
-0.073187932 0.052433144 0.0050543845
-0.071879856 0.052276257 0.0055632591
-0.070896305 0.052354194 0.0061063468
-0.069071144 0.051803354 0.0070801675
-0.068775296 0.052400224 0.0083752871
-0.067883447 0.052554924 0.0099315941
-0.065509737 0.051548645 0.0097261071
-0.064222172 0.05137774 0.010466725
-0.062859915 0.051140271 0.010993004
-0.060860537 0.05036734 0.011383027
-0.0609117 0.051294062 0.011841953
-0.059604939 0.05108995 0.012224376
-0.058959417 0.05145549 0.012428284
-0.058237024 0.051766243 0.012391239
-0.056365848 0.051048316 0.012550741
-0.054898437 0.050675478 0.012663394
-0.053988159 0.050812382 0.012671381
-0.053029899 0.0509087 0.012601972
-0.052453138 0.051382668 0.012501031
-0.050904371 0.050904371 0.012035608
-0.049903475 0.05096525 0.011160493
-0.04938123 0.051528238 0.010551721
-0.047958288 0.051155504 0.010146677
-0.046857584 0.051117364 0.0094942153
-0.046570987 0.051986217 0.0089757442
-0.045474436 0.051970784 0.0080704689
-0.044151064 0.051689047 0.0074973404
-0.043607775 0.052329332 0.006678462
-0.042203512 0.051942784 0.0050468147
-0.090834811 0.052986972 0.0048972368
-0.089802638 0.053016011 0.0058727562
-0.087504365 0.052289188 0.0076560676
-0.086358748 0.052241713 0.0082857609
-0.085428245 0.052324802 0.009642452
-0.084569059 0.052454226 0.010522395
-0.084042653 0.052796025 0.010956854
-0.082321338 0.052386303 0.010296911
-0.080525286 0.051917616 0.0089931488
-0.081415899 0.053191718 0.0078878105
-0.079828583 0.052859459 0.0059639215
-0.079462513 0.053337846 0.0047420263
-0.074508697 0.053690091 0.0043053627
-0.073374674 0.053662073 0.0050115883
-0.072860219 0.05409319 0.0056240857
-0.070821293 0.053388361 0.0064017475
-0.0699462 0.053552553 0.0071614683
-0.068193935 0.053039726 0.0085521042
-0.0670477 0.052989312 0.0097665191
-0.066154972 0.053140875 0.010618299
-0.064400956 0.052594114 0.011204571
-0.062541217 0.051941011 0.011348128
-0.061958052 0.052343868 0.011757642
-0.060723074 0.052200537 0.012042105
-0.059221555 0.051818859 0.012772858
-0.058988303 0.05255321 0.013132304
-0.056917738 0.051647574 0.012752563
-0.056304775 0.052055359 0.012814134
-0.055831183 0.052610151 0.01277855
-0.053534389 0.051434997 0.012687594
-0.052939221 0.051880434 0.013053447
-0.0522434 0.0522434 0.012683123
-0.050733607 0.051790554 0.01260519
-0.050275858 0.052415252 0.012272179
-0.049092826 0.052294526 0.011864573
-0.04789542 0.052152786 0.0111444
-0.047418214 0.052806646 0.01093635
-0.046308808 0.052770503 0.010404974
-0.044983156 0.052480344 0.0095762312
-0.044323165 0.052971583 0.0081563592
-0.04301428 0.052692495 0.0071823895
-0.042071205 0.052858692 0.0063901842
-0.04090821 0.052750058 0.0048343837
-0.088935278 0.053575467 0.0049613118
-0.087969795 0.05364012 0.0064999461
-0.087818153 0.054208741 0.0071040094
-0.085194305 0.053246442 0.0080367327
-0.085111819 0.053868242 0.0083870888
-0.083763137 0.053694319 0.008681953
-0.082814239 0.053775482 0.007864207
-0.082349755 0.054177474 0.0065640211
-0.081570379 0.054380253 0.0048927367
-0.072861046 0.054373916 0.0043585598
-0.07164453 0.054276161 0.005322367
-0.070652723 0.054348249 0.0064114034
-0.069653876 0.054417096 0.0061063468
-0.06776692 0.053783268 0.0077379644
-0.067168646 0.054168262 0.0093945861
-0.065646268 0.053808417 0.0097261071
-0.064195044 0.053495869 0.010787159
-0.062783942 0.053206731 0.011342496
-0.061637364 0.05313566 0.011526436
-0.060062952 0.052686803 0.01218766
-0.059388433 0.053025387 0.012913167
-0.057750691 0.052500628 0.013271004
-0.057700567 0.053426448 0.013222218
-0.056586776 0.053383753 0.01374805
-0.055252787 0.053127684 0.013594687
-0.053600986 0.052549988 0.013497889
-0.052869298 0.052869298 0.013282388
-0.052207112 0.053272568 0.013245046
-0.051398955 0.05354058 0.013189882
-0.05000088 0.053192429 0.012777537
-0.048812591 0.053057164 0.012606859
-0.04820301 0.053558901 0.012201011
-0.047160462 0.053591438 0.011939466
-0.045617059 0.053043094 0.011785775
-0.045068171 0.053652585 0.011040717
-0.043808807 0.053425372 0.0093513429
-0.042625602 0.053282008 0.0077300966
-0.042051461 0.053912129 0.0068719685
-0.040964525 0.053900689 0.0059922636
-0.03985551 0.053858798 0.0043979585
-0.08888647 0.055283044 0.005261004
-0.087518148 0.055104021 0.0059638619
-0.086516805 0.055154469 0.0066129267
-0.085541219 0.055222813 0.00714463
-0.084136412 0.055012271 0.0072032809
-0.084386013 0.055892032 0.0058324933
-0.071520418 0.055265781 0.0046782196
-0.070379034 0.055220477 0.0057900548
-0.069078408 0.055046856 0.0060792565
-0.068066388 0.055101361 0.0079420805
-0.066670112 0.054841541 0.0094702244
-0.065184906 0.054498859 0.010368735
-0.063952975 0.054360028 0.010928214
-0.062623605 0.054132268 0.011973023
-0.061285254 0.053888757 0.012641937
-0.060683034 0.05429535 0.012841552
-0.05902813 0.053757761 0.013299048
-0.058033034 0.053812448 0.013662905
-0.057566416 0.05436828 0.013572782
-0.056156296 0.054037195 0.014013708
-0.055469859 0.054403134 0.014014751
-0.054401729 0.054401729 0.013717949
-0.052414931 0.053463228 0.013999075
-0.051579162 0.053684436 0.013938993
-0.050821032 0.053997349 0.01395449
-0.049703188 0.053933248 0.013603002
-0.049273107 0.054628879 0.01327166
-0.047706716 0.054067608 0.012665421
-0.046733256 0.054168094 0.012542576
-0.04619788 0.054792836 0.012308538
-0.044607088 0.054165747 0.011731535
-0.043462258 0.05406281 0.010830611
-0.042725649 0.054475203 0.009234786
-0.041587703 0.054383922 0.007450074
-0.040491961 0.054344472 0.0065790415
-0.040309016 0.055561077 0.005741328
-0.087078549 0.05590228 0.0045841634
-0.086851068 0.056453194 0.0053401589
-0.085210428 0.056087874 0.0049788654
-0.085773133 0.057182088 0.0044905245
-0.071915843 0.056660969 0.0045619607
-0.069814079 0.055851262 0.0056907833
-0.068418786 0.055590264 0.0070696771
-0.067578644 0.055779193 0.008951962
-0.066082567 0.055424087 0.010938138
-0.065204851 0.055584464 0.011172533
-0.063409247 0.054954678 0.012067884
-0.061905261 0.054560568 0.01248771
-0.0615752 0.055205349 0.012909472
-0.060633484 0.055314757 0.013250858
-0.059358608 0.055118706 0.014109045
-0.058242366 0.055065509 0.014030516
-0.05705012 0.05493715 0.013714582
-0.0557766 0.054724209 0.014226735
-0.05551184 0.05551184 0.013977617
-0.053815719 0.05487093 0.013878137
-0.052890655 0.055006277 0.013896376
-0.05238368 0.055590846 0.014010757
-0.050836872 0.05507328 0.014282495
-0.049907845 0.055217188 0.0142048
-0.049108475 0.055513926 0.014150262
-0.047762111 0.05519177 0.013344586
-0.046969898 0.05550988 0.012992114
-0.045839559 0.055433884 0.012538016
-0.044034887 0.054519381 0.012404114
-0.043734748 0.055468455 0.011541814
-0.042550996 0.055316299 0.010617882
-0.041591089 0.055454787 0.0089417398
-0.040945929 0.056031268 0.0070740283
-0.039605711 0.055662073 0.0064251423
-0.038788859 0.056028355 0.0048188865
-0.072841667 0.057621013 0.0040760934
-0.071160935 0.057144385 0.0049612224
-0.069660246 0.056799892 0.0060406625
-0.068309389 0.056568708 0.0075644255
-0.067305274 0.056621894 0.0091001391
-0.066517368 0.05686162 0.011287659
-0.065085858 0.056550004 0.011325955
-0.063127361 0.055762496 0.012275428
-0.062358581 0.05601703 0.012960702
-0.061437752 0.056141388 0.013319314
-0.059884224 0.055681821 0.01364997
-0.059430353 0.056246582 0.014041871
-0.058144867 0.056030504 0.014033407
-0.056870278 0.055817124 0.014161438
-0.055990793 0.055990793 0.014490992
-0.055064015 0.05612294 0.014298052
-0.053933207 0.056048233 0.014013708
-0.0536507 0.056869738 0.014171898
-0.052167092 0.056425631 0.014446139
-0.051154919 0.056483556 0.014598817
-0.050083853 0.056477536 0.01455313
-0.0486812 0.056089208 0.01455313
-0.047982089 0.056512237 0.014248788
-0.046978727 0.056588013 0.013998151
-0.04530802 0.055844769 0.013251752
-0.044700097 0.056407265 0.012731433
-0.043437239 0.056150574 0.011914909
-0.042332891 0.056091081 0.010975301
-0.041723285 0.05670087 0.0097544491
-0.040278789 0.056178309 0.0077927411
-0.039336912 0.056347467 0.006408304
-0.038804628 0.057129037 0.0056514442
-0.037625283 0.056975432 0.004332751
-0.071863823 0.057920098 0.0044860244
-0.071106687 0.058178205 0.0054131746
-0.070048995 0.058194552 0.0070696771
-0.068073593 0.0574371 0.0078904927
-0.067904323 0.058203705 0.009096235
-0.066029437 0.057509508 0.010963589
-0.064266764 0.056891896 0.0109694
-0.064093284 0.05768396 0.011877686
-0.062349111 0.057065289 0.012835443
-0.06080047 0.056607332 0.013275087
-0.060076397 0.056914482 0.013532341
-0.058435824 0.05634883 0.013911635
-0.058106355 0.057049878 0.014001697
-0.057447035 0.057447035 0.014001697
-0.05580442 0.056857336 0.014404982
-0.054725233 0.056830052 0.014484376
-0.05416343 0.057349518 0.014481068
-0.053483419 0.057762094 0.014661521
-0.05170342 0.056979284 0.014535338
-0.051152758 0.057546854 0.014707088
-0.049878616 0.057307348 0.014796019
-0.048949882 0.057462908 0.01483652
-0.047825996 0.057391193 0.014557183
-0.046347618 0.056881174 0.014347106
-0.045613691 0.05728231 0.013985038
-0.044602271 0.057345778 0.013224483
-0.043112546 0.05678238 0.012219489
-0.042768914 0.05773804 0.011609614
-0.041308586 0.057196505 0.010450691
-0.040597167 0.05769071 0.0095143318
-0.039693695 0.057931338 0.0080320835
-0.038590472 0.057885714 0.0062732697
-0.037749976 0.058242824 0.0055215061
-0.037049677 0.058843609 0.0043972433
-0.073154718 0.059169255 0.0041173697
-0.07160487 0.058780115 0.0049374998
-0.071260586 0.059383824 0.0061378479
-0.070456468 0.059617013 0.0077385008
-0.069154911 0.059430003 0.0084097683
-0.0683221 0.059646275 0.0095593929
-0.066341035 0.058850918 0.011413336
-0.065127485 0.058721505 0.011389852
-0.063799858 0.058483202 0.012116224
-0.061954875 0.057754546 0.012957186
-0.061505366 0.058324054 0.013130933
-0.060121477 0.058011953 0.013443142
-0.058905859 0.057853967 0.013775826
-0.058136661 0.058136661 0.013697773
-0.057004612 0.058060255 0.013717473
-0.055630535 0.057729803 0.014060467
-0.05489416 0.05806113 0.014016688
-0.05378494 0.05800337 0.01411429
-0.053037174 0.058340888 0.014429122
-0.052376907 0.058790412 0.014559805
-0.05081341 0.058223702 0.014735281
-0.049972147 0.058478046 0.014915466
-0.04901379 0.058603443 0.014844209
-0.047526535 0.058087982 0.014524221
-0.046707507 0.058384385 0.014418274
-0.045482378 0.058175135 0.013964593
-0.044282176 0.057988562 0.013513356
-0.043522093 0.058383293 0.01268217
-0.04252873 0.058477003 0.011668205
-0.04134649 0.058309153 0.010541648
-0.040965371 0.059291981 0.0099003315
-0.039395638 0.058561083 0.0087842047
-0.038692471 0.059113499 0.0073575079
-0.037893321 0.059546649 0.0060112774
-0.036695592 0.059360519 0.0055812895
-0.035784509 0.059640851 0.0042572618
-0.072721526 0.059888314 0.0044860244
-0.072543077 0.060633019 0.0055439174
-0.070863307 0.060126442 0.0068816841
-0.070611365 0.060834404 0.0077552795
-0.069364801 0.060694199 0.0085246861
-0.067329608 0.059848536 0.0093277395
-0.066570625 0.060128305 0.010997117
-0.064770736 0.059461657 0.011166751
-0.063108437 0.058901206 0.01190868
-0.06268163 0.059494425 0.012609452
-0.06144673 0.059327874 0.012971371
-0.060496774 0.059435427 0.01344341
-0.0596365 0.0596365 0.013666987
-0.05756766 0.058614343 0.0137375
-0.056898292 0.059005633 0.013788432
-0.056357648 0.059547707 0.01415813
-0.05478235 0.058996379 0.014097989
-0.053843312 0.059122067 0.014197201
-0.05303438 0.059398502 0.014480621
-0.051812984 0.059214842 0.014793545
-0.050828021 0.059299361 0.014993906
-0.04969319 0.059208903 0.015039742
-0.048428774 0.058956768 0.015039742
-0.047656398 0.059305735 0.014793545
-0.046271823 0.058891412 0.014802575
-0.04507719 0.058705177 0.01424247
-0.044527102 0.059369467 0.013435274
-0.043433543 0.059323858 0.012733728
-0.042733133 0.059826389 0.01196894
-0.041803733 0.060025875 0.010881662
-0.040554032 0.059763838 0.0096302927
-0.039533645 0.059834704 0.0088283122
-0.039114643 0.060845003 0.0077836215
-0.03778366 0.060453858 0.00696069
-0.036783446 0.060584497 0.0057859123
-0.035939246 0.060987815 0.0050913692
-0.073915482 0.061958563 0.0043414831
-0.071325622 0.060680002 0.0053344071
-0.070347905 0.060755011 0.0070374012
-0.070734747 0.06202893 0.0075727999
-0.068395048 0.060914341 0.0084981918
-0.067829154 0.061369233 0.0091317892
-0.066255853 0.060912639 0.010421216
-0.064279109 0.060064085 0.010577768
-0.063821502 0.06063043 0.011104047
-0.062558182 0.06043756 0.012173176
-0.061179824 0.060124997 0.012692839
-0.060782887 0.060782887 0.012828767
-0.059401944 0.060462691 0.013333917
-0.058650166 0.060782898 0.013485283
-0.057702851 0.060908563 0.013516605
-0.055976842 0.060201507 0.013554931
-0.055367686 0.060691498 0.013816148
-0.054197606 0.060573794 0.014148474
-0.053249944 0.060704932 0.014272243
-0.051642619 0.060074069 0.014732718
-0.050649542 0.060146332 0.015046984
-0.049290121 0.059777379 0.015017182
-0.048815042 0.060488202 0.015017182
-0.047621202 0.060320184 0.014973223
-0.046208464 0.059860963 0.014824629
-0.045513466 0.060331803 0.014478981
-0.044141151 0.059905842 0.013693303
-0.043332472 0.060242705 0.012867421
-0.042622369 0.060736876 0.012185097
-0.041843291 0.06115558 0.01108256
-0.040499009 0.060748514 0.010118365
-0.039564557 0.060950805 0.0096372664
-0.038458325 0.060892351 0.0083115101
-0.037928548 0.061769348 0.0074303448
-0.036795344 0.061686307 0.0068511665
-0.03545038 0.061232474 0.0054734051
-0.03438678 0.061251454 0.005235225
-0.073064685 0.062319878 0.0048442781
-0.072134808 0.062445059 0.0053418875
-0.070999861 0.062393822 0.0068485141
-0.069730699 0.06222124 0.007692188
-0.06915354 0.062670395 0.0084159672
-0.067678131 0.062306855 0.0093110204
-0.065656163 0.061420284 0.01041609
-0.06449721 0.061325222 0.010570228
-0.063448541 0.061333593 0.011160344
-0.062557749 0.061497454 0.01165849
-0.062187672 0.062187672 0.012476981
-0.060877711 0.061945744 0.012576491
-0.059525367 0.061651275 0.012930691
-0.058485199 0.061675299 0.012915015
-0.057127353 0.061359007 0.01328975
-0.056214325 0.061517566 0.013360053
-0.056039438 0.062505528 0.01349172
-0.054114703 0.061542213 0.013937682
-0.052860174 0.061317805 0.014252633
-0.051941723 0.061482042 0.014844418
-0.050424863 0.060930047 0.015080303
-0.049673043 0.061298653 0.015180588
-0.048538815 0.061201118 0.015210241
-0.047234904 0.060880542 0.014865786
-0.046461623 0.061244871 0.015022129
-0.045247335 0.061031293 0.014638931
-0.044239216 0.061092254 0.014098078
-0.043851521 0.062033858 0.013147563
-0.042122297 0.06107733 0.012396842
-0.041685801 0.061994269 0.011641681
-0.04086614 0.062374633 0.010567456
-0.03924391 0.061517477 0.0093809068
-0.038680751 0.062318992 0.0086772442
-0.037906881 0.062817119 0.008120805
-0.036571898 0.062387355 0.0075123906
-0.035322867 0.062082618 0.0062560737
-0.034605749 0.062722921 0.0054533482
-0.033258427 0.062225446 0.0045661628
-0.032633867 0.063092142 0.0040357411
-0.073609613 0.063867167 0.0045894384
-0.072927073 0.064219363 0.0053112507
-0.070468232 0.062994331 0.0067467093
-0.069795407 0.063352756 0.0073314607
-0.068866283 0.063486099 0.0078570247
-0.067166328 0.062901802 0.0086861849
-0.06609901 0.06290067 0.0092785656
-0.065049529 0.062916756 0.0095458925
-0.063472867 0.062414985 0.010028213
-0.063303575 0.063303575 0.010724306
-0.062768474 0.063850686 0.011523843
-0.061183199 0.06332998 0.01210469
-0.059561346 0.062752135 0.012487859
-0.058257531 0.062494446 0.012525797
-0.057233185 0.062532552 0.013049781
-0.057066299 0.063526638 0.013209373
-0.054597899 0.061947618 0.013506591
-0.054370347 0.062899031 0.013839602
-0.053086996 0.062642656 0.014456391
-0.051486183 0.061993573 0.015049398
-0.050591085 0.062184878 0.015382051
-0.049520329 0.062163819 0.015406191
-0.048003342 0.061569501 0.015428334
-0.047512274 0.062293872 0.015373737
-0.045941211 0.061602991 0.015351295
-0.045151364 0.061951876 0.014853954
-0.044601552 0.062654562 0.014198363
-0.043309413 0.062323298 0.013631344
-0.042189009 0.062228791 0.013044357
-0.041877091 0.063352525 0.011870414
-0.040445406 0.062796816 0.010890275
-0.039556716 0.063076921 0.010106325
-0.039067186 0.06402678 0.0094928741
-0.03735283 0.062966205 0.0084832609
-0.036348391 0.063075148 0.0084219873
-0.035429351 0.063343391 0.0072442889
-0.034293249 0.063228182 0.0064781308
-0.033462882 0.063687421 0.0055840313
-0.032393049 0.063706331 0.0044496953
-0.074048601 0.065337002 0.0041723549
-0.071705498 0.064213879 0.0051752627
-0.070466831 0.064060755 0.0064313114
-0.069987372 0.064603724 0.0073314607
-0.068041354 0.063788772 0.0077326894
-0.067739315 0.064513631 0.0083772838
-0.066345289 0.064205118 0.0088487864
-0.064826339 0.063763618 0.008875072
-0.064856783 0.064856783 0.0091909766
-0.063502818 0.064579137 0.0099875927
-0.062337585 0.064487159 0.010739893
-0.060994606 0.064204849 0.011157572
-0.059596956 0.063853882 0.011351377
-0.058949862 0.064308941 0.01190871
-0.057671048 0.064078942 0.012283325
-0.056383595 0.063830487 0.012478858
-0.055063527 0.063534841 0.013184488
-0.054427158 0.064031951 0.013499081
-0.052553304 0.063063964 0.014239341
-0.051652521 0.063247986 0.014881939
-0.051075939 0.063844927 0.015178651
-0.049007077 0.062562227 0.015331417
-0.048192807 0.062860183 0.015411824
-0.047408901 0.063211866 0.015416145
-0.045842923 0.062513083 0.015430421
-0.045413587 0.063367799 0.015039742
-0.044540156 0.063628793 0.014560312
-0.042892881 0.062770069 0.013870597
-0.042605869 0.063908808 0.013044357
-0.041611522 0.064017728 0.011853904
-0.040727407 0.064306431 0.011409044
-0.039849062 0.064620093 0.01060757
-0.038294122 0.063823543 0.0097637773
-0.037574846 0.064414024 0.0091618598
-0.036557954 0.064514033 0.0087146759
-0.035301518 0.064184584 0.0083551407
-0.034629028 0.064929426 0.0073921084
-0.033227116 0.064310543 0.0066124499
-0.032045774 0.064091548 0.0058663487
-0.031679094 0.065542951 0.0048376322
-0.073128641 0.065600693 0.004359901
-0.072094083 0.065637894 0.0052554309
-0.071509466 0.066092081 0.0064663887
-0.069629461 0.065344565 0.0073306262
-0.069175206 0.065932617 0.0076747835
-0.06797003 0.065812245 0.0080786347
-0.066723987 0.065647796 0.0091183186
-0.065715536 0.065715536 0.00872913
-0.064096339 0.065164611 0.0089927614
-0.063145511 0.065286033 0.0094669461
-0.062394608 0.065621912 0.0101372
-0.061271898 0.065571681 0.010593772
-0.059909716 0.065258794 0.011262596
-0.058984309 0.065418959 0.011352003
-0.057162914 0.064572915 0.011693925
-0.056353606 0.064859807 0.012082249
-0.055808302 0.065467432 0.012585312
-0.054337204 0.064991556 0.013273805
-0.053075578 0.064752199 0.013967693
-0.052003171 0.064738639 0.014514446
-0.050344761 0.063979805 0.015051633
-0.049371935 0.064078465 0.015178651
-0.048158694 0.063862614 0.015206128
-0.047477864 0.064358875 0.01495263
-0.046543371 0.064526036 0.015331417
-0.045471739 0.064506419 0.014732093
-0.044473514 0.064592481 0.014248967
-0.04354845 0.064791597 0.013421625
-0.04256868 0.064917237 0.012677789
-0.041502684 0.06491445 0.011788398
-0.040828794 0.065540954 0.011263132
-0.039547939 0.065200657 0.010607064
-0.038530812 0.06528832 0.0097062886
-0.037476983 0.065317027 0.0093303919
-0.036146291 0.064850695 0.0091948807
-0.035357948 0.065358631 0.0087836981
-0.034416329 0.065606125 0.0085756183
-0.033054672 0.065043055 0.0078087449
-0.032389265 0.06585817 0.0073955655
-0.031083334 0.065382183 0.0058157742
-0.030382074 0.06618952 0.00438416
-0.073627241 0.067130722 0.0043494701
-0.072920099 0.067478299 0.0053772926
-0.070631579 0.066350877 0.0064663887
-0.06979733 0.066575915 0.0073297918
-0.069519348 0.067346871 0.0076098442
-0.068095155 0.067014284 0.0080010593
-0.06710203 0.06710203 0.0089063644
-0.065673232 0.066749848 0.0085904896
-0.064094253 0.066230729 0.0088013411
-0.063470572 0.066697888 0.0091544092
-0.061752398 0.066011183 0.0094586313
-0.061290156 0.066666491 0.0094921589
-0.060288742 0.066748254 0.010606378
-0.058348477 0.065774649 0.010817021
-0.056845106 0.065266609 0.011489272
-0.056956612 0.066628493 0.011702478
-0.055765938 0.066490158 0.012268841
-0.054003078 0.065650806 0.012709469
-0.052807778 0.06548164 0.013461441
-0.051342007 0.064963356 0.014246941
-0.050570257 0.065319918 0.014637858
-0.049800936 0.065694854 0.015017182
-0.04841074 0.065249264 0.0151501
-0.047842935 0.065916933 0.015286356
-0.046449665 0.065451801 0.015324116
-0.045210093 0.06518665 0.015145034
-0.044683546 0.065961428 0.014296412
-0.043544557 0.065847866 0.013659656
-0.042519275 0.065904878 0.012836903
-0.04186853 0.066560231 0.012006789
-0.040635783 0.066300489 0.011681288
-0.039502136 0.066192769 0.01132527
-0.03858776 0.066456705 0.010833681
-0.03728652 0.06605041 0.010307223
-0.036349215 0.066283867 0.0097658932
-0.035344761 0.066405311 0.0094331801
-0.034011357 0.065897003 0.0092253983
-0.033446498 0.066892996 0.0088037848
-0.032357343 0.066871844 0.0082609057
-0.030954948 0.066179544 0.0068839192
-0.030406069 0.067327723 0.0052592754
-0.074472427 0.068996519 0.0042046309
-0.072474979 0.068148114 0.0053356886
-0.071464621 0.068216234 0.0058049262
-0.071383372 0.069186963 0.0069622099
-0.068461619 0.06739191 0.0074177086
-0.068216048 0.068216048 0.0079765916
-0.065899469 0.066962361 0.0084712803
-0.064620547 0.066739261 0.0082812011
-0.064477883 0.067701779 0.0086091161
-0.063309729 0.067601912 0.0085944831
-0.062140856 0.067497827 0.0089510381
-0.061491627 0.067964435 0.0090706944
-0.059711546 0.067175493 0.0094646513
-0.058431681 0.066930838 0.010519177
-0.057381574 0.066945165 0.010934323
-0.056431968 0.067079514 0.011401027
-0.055965595 0.067804471 0.012125313
-0.05425407 0.067019738 0.012227833
-0.052417316 0.066045821 0.013290524
-0.051832542 0.066641845 0.014060467
-0.051168527 0.067158699 0.014340162
-0.049607851 0.066495635 0.014634192
-0.048659563 0.066642441 0.014775783
-0.047531284 0.066543795 0.014769107
-0.046519112 0.066606909 0.0151501
-0.045767393 0.067054555 0.014441282
-0.044558488 0.066837728 0.014051944
-0.043248028 0.066454284 0.013594866
-0.042678248 0.067218244 0.013130546
-0.041752171 0.067445815 0.012261897
-0.040444952 0.067053474 0.011790633
-0.039411735 0.06710647 0.011715829
-0.038113117 0.066697963 0.011366129
-0.037083384 0.066750087 0.010942787
-0.036610957 0.067837946 0.010672897
-0.03519864 0.067197405 0.010116905
-0.034277085 0.067483008 0.0098058283
-0.033167586 0.06740509 0.0091760159
-0.031831488 0.066846125 0.0092166364
-0.031073881 0.067505322 0.0074758232
-0.030212821 0.067978851 0.005972296
-0.029244132 0.068236306 0.0042281449
-0.072913334 0.069648556 0.0047994852
-0.072171114 0.069984108 0.0053356886
-0.070239685 0.069159076 0.0058049262
-0.068823993 0.068823993 0.006613791
-0.067781717 0.068857618 0.0074738264
-0.066188201 0.068323299 0.0083433986
-0.065602124 0.068828456 0.007915318
-0.06461785 0.068925701 0.0080039203
-0.06321191 0.068568848 0.0079439878
-0.062777556 0.069271788 0.0081736445
-0.061611027 0.0691773 0.0086070895
-0.060019527 0.06859374 0.0090508163
-0.059400469 0.069120549 0.0095889866
-0.057572454 0.068234019 0.010267347
-0.056537069 0.068271175 0.011237442
-0.056391466 0.069404885 0.011646628
-0.054032322 0.067805268 0.01189217
-0.052770808 0.067546628 0.012847751
-0.051815696 0.067677647 0.013486773
-0.05042002 0.067226693 0.013901293
-0.049836278 0.067862168 0.014240921
-0.048646469 0.067682043 0.013737381
-0.047198042 0.067126103 0.013939828
-0.046675138 0.067891113 0.014230937
-0.045752451 0.068096675 0.013659328
-0.044390503 0.067642674 0.013659328
-0.044093534 0.068828933 0.013440877
-0.042623542 0.068197675 0.013025403
-0.040960152 0.067216657 0.012277931
-0.040456772 0.06813772 0.011980087
-0.039119296 0.067665808 0.011891305
-0.038038027 0.067623161 0.011690587
-0.037203506 0.06802927 0.011480421
-0.036190931 0.068124108 0.011412501
-0.035113811 0.068099514 0.011028856
-0.034133289 0.068266578 0.010320127
-0.032847747 0.0678147 0.0097001791
-0.032089438 0.068457469 0.0095332265
-0.031014889 0.068446651 0.008164227
-0.029678125 0.067835718 0.0061104596
-0.029221511 0.069265805 0.0047485828
-0.070555635 0.069486611 0.0049206913
-0.070174158 0.070174158 0.0056914687
-0.068603583 0.069675513 0.0060152709
-0.067339823 0.069477595 0.0067809522
-0.066524275 0.069743194 0.0080005229
-0.065736659 0.070047259 0.0077028275
-0.064439401 0.069809355 0.0083694458
-0.064164475 0.070689671 0.0080277324
-0.062756859 0.070330955 0.008245796
-0.061339308 0.069948331 0.0084754527
-0.060901176 0.070688866 0.0087528527
-0.059259474 0.070033923 0.0091603696
-0.058265429 0.070134312 0.0098724067
-0.057201587 0.070152894 0.011045754
-0.055478755 0.069348447 0.011470795
-0.054389063 0.06931939 0.01184538
-0.053273052 0.069254965 0.01242435
-0.052041575 0.06903474 0.01281634
-0.051074676 0.06916362 0.013047725
-0.049600594 0.068596564 0.013728052
-0.048360769 0.068335868 0.013649464
-0.047855373 0.069124423 0.013399392
-0.046570141 0.068796799 0.013596207
-0.045317762 0.068503588 0.013318419
-0.044858519 0.069423899 0.013318419
-0.043872613 0.069554143 0.012911141
-0.041842703 0.067994393 0.012516826
-0.041532993 0.06922166 0.012268901
-0.040238354 0.068828769 0.012038589
-0.039090745 0.068672925 0.012028784
-0.038292974 0.069140092 0.011971056
-0.037105054 0.068909384 0.011693448
-0.036078937 0.068974435 0.011739045
-0.035436638 0.069799446 0.011665493
-0.033872284 0.068803079 0.011196941
-0.032888867 0.068960525 0.01081568
-0.031925645 0.069172233 0.0098194778
-0.030863494 0.069176793 0.0088630319
