ply
format ascii 1.0
comment PCL generated
element vertex 1275
property float x
property float y
property float z
element camera 0
property float view_px
property float view_py
property float view_pz
property float x_axisx
property float x_axisy
property float x_axisz
property float y_axisx
property float y_axisy
property float y_axisz
property float z_axisx
property float z_axisy
property float z_axisz
property float focal
property float scalex
property float scaley
property float centerx
property float centery
property int viewportx
property int viewporty
property float k1
property float k2
end_header
-0.049265455 -0.042839523 0.013159037
-0.04856332 -0.04316739 0.013312668
-0.047106944 -0.042824496 0.013412029
-0.046261303 -0.043033771 0.013204038
-0.044999521 -0.042856686 0.013103604
-0.04428079 -0.043200769 0.013138086
-0.042892706 -0.042892706 0.013131678
-0.041938853 -0.04301421 0.012970746
-0.040703293 -0.04284557 0.012855321
-0.039632332 -0.04284576 0.013073981
-0.038696002 -0.042995557 0.013144046
-0.037288714 -0.042615671 0.013068229
-0.036399554 -0.042823005 0.013196379
-0.03546197 -0.042984203 0.013364583
-0.034423266 -0.043029081 0.013438016
-0.033117715 -0.042732533 0.013476521
-0.032102607 -0.042803477 0.013418466
-0.03096796 -0.042714424 0.013566911
-0.030212093 -0.043160129 0.013636887
-0.028943522 -0.042879287 0.013373762
-0.027751727 -0.042694964 0.012858242
-0.026724881 -0.042759806 0.012123674
-0.025931576 -0.043219294 0.0100272
-0.058838278 -0.041721687 0.0085974634
-0.058372263 -0.042157743 0.010500968
-0.056372423 -0.041481595 0.011484921
-0.055592488 -0.041694365 0.01188907
-0.055182237 -0.042198181 0.012272507
-0.053713392 -0.041896444 0.012686938
-0.052492663 -0.041779876 0.012726635
-0.051396113 -0.041759342 0.012890965
-0.050563768 -0.04195717 0.013142735
-0.049102616 -0.041630477 0.013454854
-0.048412204 -0.041957241 0.013454854
-0.047227159 -0.041860439 0.013495505
-0.046493042 -0.042168107 0.013371378
-0.044782255 -0.041583519 0.013257384
-0.043786533 -0.041650601 0.013174117
-0.042997297 -0.041922368 0.013136208
-0.041586228 -0.041586228 0.012935579
-0.040844023 -0.041918866 0.013145328
-0.039512251 -0.041648049 0.013097107
-0.038455144 -0.041659743 0.013167173
-0.03762152 -0.041921124 0.013195097
-0.036605772 -0.041988973 0.013191044
-0.035278969 -0.041693326 0.013308614
-0.034435503 -0.041968267 0.01337707
-0.032925062 -0.041421849 0.013418466
-0.031974249 -0.041566521 0.013753384
-0.03107555 -0.041791257 0.013318807
-0.030055016 -0.041862343 0.013236463
-0.028481355 -0.041139733 0.012905598
-0.028002547 -0.042003818 0.012031734
-0.02717053 -0.042386025 0.0095612109
-0.059100129 -0.040832818 0.0092132092
-0.057450306 -0.040427994 0.01076892
-0.056991655 -0.040861942 0.01156798
-0.055965528 -0.040897887 0.011928707
-0.054381326 -0.04051942 0.012272507
-0.053238075 -0.040460937 0.012686938
-0.052434135 -0.040663209 0.012783259
-0.051202781 -0.040535536 0.012979627
-0.050397139 -0.040746622 0.013170093
-0.049316686 -0.040739872 0.013358146
-0.048306875 -0.040792473 0.013338059
-0.047296695 -0.040847149 0.01338926
-0.046013474 -0.040663071 0.013257384
-0.044891704 -0.040616304 0.013164192
-0.0439578 -0.040741373 0.013168156
-0.042647447 -0.040515076 0.013160706
-0.041982487 -0.040906012 0.013122439
-0.040819228 -0.040819228 0.013145328
-0.039666966 -0.040739045 0.013167173
-0.038714543 -0.040865354 0.013153017
-0.037554227 -0.040773164 0.013189763
-0.036194906 -0.040453129 0.013167173
-0.035273347 -0.040617798 0.013284445
-0.034207426 -0.040621318 0.013288498
-0.033051062 -0.040514205 0.013141841
-0.032403141 -0.041043982 0.013344586
-0.031082921 -0.040729344 0.012957931
-0.029996019 -0.040708885 0.013020813
-0.028818438 -0.040559284 0.012123674
-0.028371435 -0.041465946 0.0089890063
-0.058878701 -0.039609309 0.0091784596
-0.05810681 -0.039813925 0.010934561
-0.056864299 -0.039697722 0.011884093
-0.055781059 -0.039690372 0.012290597
-0.054673307 -0.039664946 0.012426913
-0.053940136 -0.039915703 0.012962729
-0.052478623 -0.039626718 0.013034105
-0.051799063 -0.039928444 0.013105422
-0.050595757 -0.039830703 0.013317496
-0.048606541 -0.039096568 0.013628781
-0.048309818 -0.039721407 0.013495505
-0.047488134 -0.039933208 0.0135566
-0.046262875 -0.039807592 0.013292909
-0.045122679 -0.039750934 0.013174117
-0.043930762 -0.039644834 0.013169765
-0.042952094 -0.03973069 0.013178438
-0.041916728 -0.039767154 0.013126105
-0.040801063 -0.039727353 0.013145328
-0.039553069 -0.039553069 0.013174862
-0.038544949 -0.039615646 0.013174862
-0.037418928 -0.039557155 0.01317367
-0.036371928 -0.039581217 0.013248801
-0.035295468 -0.03957371 0.013212204
-0.034228884 -0.039577149 0.013330817
-0.033212584 -0.039640825 0.013070405
-0.032328889 -0.0398723 0.012917995
-0.030851262 -0.039361954 0.012345582
-0.030008046 -0.039653491 0.011894435
-0.02944502 -0.040350582 0.0082976222
-0.05873955 -0.038447704 0.0085761845
-0.058178227 -0.03878548 0.010500699
-0.057004582 -0.038720094 0.011770517
-0.055658799 -0.038533013 0.012174666
-0.054786872 -0.038673084 0.01236859
-0.053424839 -0.038465884 0.012726635
-0.052454878 -0.038538277 0.012908906
-0.051440123 -0.03858009 0.013076246
-0.050042894 -0.038330726 0.01330626
-0.04955272 -0.038780387 0.013628781
-0.048274439 -0.038619548 0.013521522
-0.04703657 -0.038484465 0.013590991
-0.046390072 -0.038838197 0.013335407
-0.044937443 -0.038517807 0.013188332
-0.043720141 -0.038388412 0.013243943
-0.042843271 -0.038558945 0.013198614
-0.041692745 -0.038485609 0.013322115
-0.040355314 -0.038231347 0.013370007
-0.039821502 -0.038745243 0.013382107
-0.038547069 -0.038547069 0.013387442
-0.037450619 -0.038520638 0.013387442
-0.036563218 -0.038713992 0.013302177
-0.035229497 -0.038432177 0.013330817
-0.034372184 -0.038668707 0.013350248
-0.032891568 -0.038196657 0.01296559
-0.031960078 -0.038352091 0.012730241
-0.031155072 -0.03867526 0.012080371
-0.030348977 -0.03902011 0.0082983375
-0.057397593 -0.037202142 0.010129243
-0.056914784 -0.037585236 0.011297822
-0.05587133 -0.037605703 0.011927724
-0.05467581 -0.037522614 0.012273312
-0.053716715 -0.037601698 0.012512118
-0.052534211 -0.037524439 0.012663215
-0.051318116 -0.037419461 0.012942076
-0.050703108 -0.037757631 0.013222486
-0.048991628 -0.037276234 0.013498217
-0.048195295 -0.037485227 0.013429224
-0.047349684 -0.037664521 0.013534725
-0.046194993 -0.037600573 0.013235271
-0.044970065 -0.037475053 0.013281673
-0.04398486 -0.03754805 0.013443649
-0.042424668 -0.037121587 0.013475448
-0.041708909 -0.037431072 0.01345098
-0.04093862 -0.037706621 0.0133349
-0.039250545 -0.037128892 0.013486594
-0.038407382 -0.037340511 0.013463646
-0.037535053 -0.037535053 0.013396293
-0.036427155 -0.037498541 0.013382256
-0.035125326 -0.037254132 0.013252467
-0.034197569 -0.037403587 0.013131112
-0.032756079 -0.036982667 0.012730241
-0.032343246 -0.037733786 0.012243569
-0.031339351 -0.037823353 0.0068845451
-0.058381882 -0.036758963 0.0082782209
-0.056923568 -0.036517005 0.010500699
-0.055572912 -0.036336135 0.01155442
-0.054782622 -0.036521748 0.012028009
-0.054177202 -0.036840498 0.012357414
-0.052430045 -0.03638003 0.012512118
-0.051682223 -0.036608241 0.013019919
-0.050336603 -0.036413711 0.013343364
-0.048688218 -0.035986945 0.013440073
-0.048208203 -0.036423974 0.013597459
-0.047378298 -0.036610503 0.013728499
-0.045942403 -0.036326554 0.013473362
-0.04508872 -0.036500391 0.013399988
-0.043639809 -0.036189109 0.013590157
-0.042910062 -0.036473554 0.013656795
-0.042050291 -0.03665923 0.013466865
-0.040547367 -0.036279224 0.013468564
-0.039695382 -0.036476836 0.013474286
-0.038646456 -0.036499433 0.013318777
-0.037307881 -0.036241941 0.013364583
-0.036391672 -0.036391672 0.013082355
-0.035354599 -0.036425952 0.012677521
-0.034462601 -0.036616515 0.012500703
-0.033375233 -0.036605094 0.011853904
-0.03287179 -0.037254695 0.0062068403
-0.057426933 -0.035756391 0.010048687
-0.056004208 -0.035541132 0.011092931
-0.054913737 -0.035532419 0.011661083
-0.053461645 -0.035284683 0.012240231
-0.052502856 -0.035359066 0.012480497
-0.051582761 -0.035463147 0.012763888
-0.050034884 -0.035130877 0.013222486
-0.049439725 -0.035467628 0.013435245
-0.048079506 -0.035258301 0.013534725
-0.046928212 -0.035196159 0.01362288
-0.04612853 -0.035400964 0.013470352
-0.04513099 -0.035460062 0.013364732
-0.043477762 -0.034994293 0.013590157
-0.043047093 -0.035513852 0.013570696
-0.041627277 -0.035223082 0.01344502
-0.040714353 -0.0353572 0.013147354
-0.04004389 -0.03571482 0.013459474
-0.038458325 -0.035253465 0.013202101
-0.037421525 -0.035283152 0.013094753
-0.03660918 -0.035532437 0.012705654
-0.035451837 -0.035451837 0.012549728
-0.034252618 -0.035323009 0.011907965
-0.033697676 -0.035871718 0.0051609874
-0.056128163 -0.034540407 0.0099594891
-0.054654036 -0.034292728 0.010927379
-0.053629089 -0.034322616 0.011834383
-0.052924223 -0.034562759 0.012165457
-0.051245395 -0.034163598 0.012363464
-0.050373975 -0.034297176 0.01276812
-0.04967735 -0.034558155 0.013184935
-0.048078213 -0.034188952 0.013424188
-0.047158219 -0.034296889 0.0135867
-0.046192307 -0.034375671 0.013344079
-0.044627134 -0.034001626 0.013504058
-0.04407648 -0.034401152 0.013636082
-0.042750865 -0.034200694 0.013620347
-0.041956473 -0.034425825 0.013459474
-0.040782277 -0.034342971 0.0131329
-0.039554756 -0.034209516 0.01344502
-0.038590249 -0.034302443 0.013179392
-0.037660025 -0.034432024 0.012836218
-0.03634882 -0.034210656 0.012291253
-0.03527303 -0.034204155 0.011443317
-0.035029206 -0.035029206 0.0043458939
-0.054606121 -0.033191957 0.010160267
-0.053922959 -0.033432234 0.011354834
-0.052683093 -0.03333012 0.011961192
-0.051820278 -0.033467267 0.012483925
-0.050744109 -0.033469521 0.012731433
-0.048939586 -0.032981027 0.013242364
-0.048457246 -0.033381656 0.013555288
-0.046986531 -0.033104148 0.013813078
-0.045941319 -0.033120487 0.013781846
-0.044871941 -0.033119764 0.013706446
-0.044052776 -0.033308197 0.01374197
-0.042655103 -0.033057705 0.013724238
-0.04165547 -0.03311076 0.01344502
-0.040746491 -0.03324056 0.013000935
-0.039524354 -0.033115 0.013191044
-0.038778663 -0.033392742 0.012650877
-0.037152242 -0.032906275 0.012340456
-0.036151983 -0.032962102 0.011282504
-0.053522721 -0.032113634 0.010082424
-0.052305505 -0.03202378 0.011379838
-0.051766209 -0.032353882 0.012273818
-0.050512332 -0.032241914 0.012496769
-0.049346108 -0.032182243 0.012854218
-0.048039403 -0.032026269 0.013242841
-0.046657581 -0.031811986 0.013506532
-0.046046115 -0.032125197 0.01361233
-0.045144506 -0.032246076 0.013510078
-0.043572471 -0.031882294 0.013778687
-0.042670365 -0.032002777 0.013674527
-0.041490991 -0.031916149 0.01298669
-0.040494211 -0.031969115 0.012666762
-0.039511617 -0.032036446 0.012650877
-0.038373895 -0.03197825 0.0121966
-0.037337326 -0.032003421 0.011190951
-0.052456941 -0.031045947 0.010024875
-0.051166885 -0.030913329 0.01145041
-0.050617993 -0.031232379 0.012312531
-0.049549591 -0.031237785 0.012591928
-0.04807258 -0.030980106 0.013089746
-0.047612973 -0.031381279 0.013371974
-0.046038866 -0.031049469 0.013315737
-0.044601433 -0.030796226 0.01314804
-0.044128571 -0.031212891 0.013195574
-0.042612758 -0.03089425 0.01314804
-0.041701552 -0.031008847 0.012926936
-0.040798366 -0.031135596 0.01230517
-0.039352991 -0.030844236 0.012139887
-0.038328543 -0.030875772 0.011076629
-0.051451232 -0.030013219 0.010082424
-0.050521787 -0.030098086 0.011380047
-0.049013417 -0.029834254 0.012312531
-0.04861686 -0.030250488 0.012485564
-0.047169045 -0.030016664 0.01255849
-0.046184763 -0.030073799 0.012810081
-0.044748995 -0.029832663 0.012841105
-0.043786492 -0.02990297 0.012996018
-0.042598445 -0.029818913 0.012926936
-0.041810397 -0.030017722 0.012410671
-0.040635247 -0.02994176 0.011711061
-0.039548162 -0.029928336 0.011175185
-0.050161127 -0.028815966 0.0099973083
-0.049435955 -0.029016757 0.01139003
-0.048323087 -0.028993852 0.012167037
-0.046908271 -0.028784623 0.012096375
-0.046195179 -0.029006278 0.012280971
-0.044896334 -0.028861931 0.012212992
-0.043816242 -0.028854597 0.012402654
-0.043102063 -0.029093893 0.0121966
-0.041706495 -0.028873729 0.011914611
-0.04056849 -0.028824979 0.010889143
-0.049090851 -0.027747001 0.0093362331
-0.048037089 -0.027754761 0.010796368
-0.047488093 -0.028061146 0.01145041
-0.046298966 -0.027994724 0.011890799
-0.0447537 -0.027704671 0.012026578
-0.044029381 -0.027921069 0.011966825
-0.04279184 -0.027814696 0.011128098
-0.04161647 -0.027744314 0.0090692639
-0.047965698 -0.026647609 0.0051578581
-0.047027078 -0.026719932 0.0089862049
-0.045827482 -0.026643885 0.010107607
-0.045088656 -0.026838485 0.0098541975
-0.043815386 -0.0267167 0.0086830556
0.053553931 -0.0094506936 0.0051611662
0.058431219 -0.010113095 0.0055173337
-0.018733248 -0.0088156462 0.0040682256
-0.017433306 -0.0087166531 0.0041169822
0.044072066 -0.0092783291 0.0040437281
0.052614376 -0.0095662503 0.0040242076
0.054754995 -0.0097342208 0.0052971542
0.051465094 -0.0089504505 0.0073005855
0.061564118 -0.010478999 0.0072138906
0.049955588 -0.0083259316 0.0071512461
0.051446613 -0.0083994474 0.0084894896
0.052919134 -0.0084670614 0.0084894896
0.052798022 -0.008282043 0.0084257424
0.054834787 -0.008436121 0.0089255571
0.062389545 -0.0094172899 0.0076977909
0.057405923 -0.0085045807 0.0041977465
-0.023074938 -0.0076916455 0.0040176213
-0.02224442 -0.0077855471 0.0043299794
-0.020957736 -0.0077212714 0.004545182
-0.019522622 -0.0075921314 0.0043861568
-0.018622292 -0.007668002 0.0047184527
-0.018124197 -0.0079293353 0.0044186115
-0.016047241 -0.0074887127 0.0041537583
-0.015575031 -0.0077875154 0.0042591989
0.038879361 -0.0075598764 0.0041077137
0.043867625 -0.00829928 0.0045712888
0.042992439 -0.0079196598 0.0047206879
0.040364821 -0.0072449679 0.0044723451
0.04523905 -0.0073644966 0.0041257739
0.052894115 -0.0084149735 0.0068311393
0.051943991 -0.0080801761 0.010893375
0.053947095 -0.0082093403 0.012021422
0.05658105 -0.0084269643 0.013281018
0.050663944 -0.0073884916 0.014852047
0.051149506 -0.0073070726 0.014766484
0.052446682 -0.0073425355 0.015285075
0.054148305 -0.0074321204 0.01514104
0.05444748 -0.0073294686 0.014484525
0.056187768 -0.007421026 0.013977408
0.059734795 -0.0077433991 0.0063176155
0.059332442 -0.0075514019 0.0040097237
-0.025361845 -0.0066161333 0.0044521987
-0.023829965 -0.0064990814 0.0044935644
-0.022720424 -0.0064915498 0.0069456995
-0.022252629 -0.0066757887 0.0079668462
-0.020743366 -0.0065505365 0.0082024932
-0.01929976 -0.0064332541 0.0080658197
-0.018723493 -0.0066082915 0.0079856515
-0.01713559 -0.0064258459 0.0077919066
-0.016801851 -0.0067207403 0.0076404512
-0.015516804 -0.0066500586 0.0072972476
-0.014037352 -0.0064787776 0.0041288137
0.040194359 -0.0068904618 0.0041269064
0.041930456 -0.0069884094 0.0045020282
0.04027763 -0.0065315068 0.0068799555
0.039373074 -0.0062168008 0.0071205795
0.040981747 -0.0063048843 0.0069232285
0.041415628 -0.0062123444 0.0048795938
0.042390656 -0.0062035103 0.0040176213
0.04783969 -0.0066753058 0.0068784654
0.052957572 -0.0072214874 0.011094719
0.053069353 -0.0070759137 0.015444219
0.054272458 -0.007079016 0.015817583
0.052889265 -0.0067518209 0.015810698
0.050282422 -0.0062853028 0.015948474
0.05130871 -0.0062826993 0.015890777
0.053102165 -0.0063722595 0.016072899
0.053613774 -0.0063075027 0.015987337
0.05450939 -0.006289545 0.015574604
0.055424411 -0.0062744617 0.015169829
0.063538246 -0.0070598046 0.010143876
0.058836505 -0.0064185276 0.0049590468
-0.026680617 -0.0053361231 0.0048070252
-0.02642067 -0.0055043059 0.0051427782
-0.025170913 -0.0054719374 0.0068240762
-0.024031682 -0.0054617459 0.0081193447
-0.02348966 -0.0055927755 0.0082301795
-0.021388683 -0.0053471709 0.0093635917
-0.020449007 -0.0053813173 0.0094350576
-0.020113926 -0.005587202 0.0105564
-0.018091403 -0.0053210007 0.010615677
-0.01732723 -0.0054147593 0.010107785
-0.01649078 -0.0054969261 0.0091396868
-0.014953457 -0.0053405203 0.008425504
-0.01447196 -0.0055661383 0.007352531
-0.0131806 -0.005491917 0.0052685142
-0.011859164 -0.0053905291 0.0049470365
0.039522454 -0.0058121253 0.0042647123
0.039506949 -0.0056438497 0.0068799555
0.037463468 -0.0052032592 0.0078577697
0.03833143 -0.005179923 0.011045814
0.040163241 -0.0052846367 0.011146575
0.040902682 -0.0052439333 0.010749161
0.041795608 -0.005224451 0.0090768933
0.043284848 -0.00527864 0.0077023506
0.04354734 -0.0051842066 0.0067091882
0.050492361 -0.0058712042 0.011146575
0.055935334 -0.0063562877 0.016008139
0.049575791 -0.005508421 0.01617372
0.050498862 -0.0054890062 0.016464025
0.050918739 -0.0054168873 0.016351342
0.049880225 -0.005195857 0.016613245
0.051930223 -0.0052990024 0.016710758
0.052768178 -0.0052768178 0.017345101
0.053467531 -0.0052419147 0.017174393
0.054787904 -0.0052680676 0.016314894
0.055310957 -0.0052180151 0.015751064
0.055530138 -0.0051416792 0.014411151
0.062815093 -0.005710463 0.0078357458
0.060408637 -0.005393628 0.0041657388
-0.027797999 -0.0042766156 0.0048033893
-0.027947122 -0.0044715395 0.0059122145
-0.026067914 -0.0043446524 0.0079483986
-0.024570992 -0.0042732158 0.0084265471
-0.023496607 -0.0042721108 0.011836767
-0.021900941 -0.0041716076 0.012868971
-0.020673141 -0.0041346285 0.013395637
-0.019892981 -0.004187996 0.01347667
-0.019257111 -0.0042793583 0.013937116
-0.017518187 -0.0041219266 0.013816595
-0.017327717 -0.0043319291 0.013199002
-0.015477676 -0.0041273804 0.012995809
-0.015216629 -0.0043476084 0.012269855
-0.014582486 -0.0044869189 0.009234935
-0.012727539 -0.0042425133 0.0079961121
-0.012135048 -0.0044127451 0.007615298
-0.011043557 -0.0044174232 0.0050521791
0.036804952 -0.0044612065 0.0070526302
0.036871299 -0.0043378002 0.0079753697
0.036467992 -0.0041677705 0.01316759
0.037346456 -0.0041496065 0.017520994
0.038714387 -0.004185339 0.017930984
0.039804537 -0.0041899509 0.017884344
0.040610347 -0.0041651637 0.017405897
0.041605052 -0.0041605053 0.017348766
0.042186867 -0.004115792 0.01332882
0.046757579 -0.0044531031 0.01301387
0.051432211 -0.0047843917 0.016842276
0.0461394 -0.0041944911 0.01684165
0.046864238 -0.00416571 0.016907752
0.057572089 -0.0050062686 0.016985744
0.048902247 -0.0041618934 0.017249018
0.050817288 -0.004234774 0.017457515
0.051961314 -0.0042417399 0.017796874
0.052234203 -0.0041787364 0.017843515
0.054058176 -0.0042398567 0.017729282
0.055257894 -0.0042506075 0.017339975
0.054572467 -0.0041186768 0.01702407
0.056034166 -0.0041506789 0.015220046
0.063062675 -0.0045863762 0.01065731
0.06006876 -0.0042906259 0.0053412616
-0.029216172 -0.0032462412 0.0048742592
-0.028899664 -0.0033345765 0.0066949725
-0.026117513 -0.0031341014 0.0084609687
-0.025992526 -0.0032490657 0.010905564
-0.024904748 -0.0032484452 0.012663901
-0.022973415 -0.0031327384 0.014126301
-0.021574074 -0.0030820104 0.015351057
-0.020924492 -0.0031386737 0.015661865
-0.019661976 -0.0031045224 0.015440464
-0.018293777 -0.0030489629 0.015510559
-0.017943176 -0.0031664425 0.015310049
-0.016256787 -0.0030481473 0.014420986
-0.015952362 -0.0031904725 0.013974458
-0.015166628 -0.0032499917 0.012990147
-0.013360376 -0.0030831634 0.012169003
-0.013207588 -0.0033018971 0.009234935
-0.012083018 -0.0032953687 0.0079726875
-0.010718301 -0.0032154901 0.005133152
0.0371424 -0.0035944255 0.005009532
0.034972165 -0.0032786403 0.0081188381
0.034846548 -0.0031678679 0.013535589
0.035461254 -0.0031289342 0.017457515
0.036407132 -0.0031206112 0.017559111
0.037839171 -0.0031532643 0.018560469
0.038892694 -0.0031534615 0.01901409
0.039786946 -0.0031410744 0.018992603
0.040987544 -0.0031528878 0.018589735
0.041737005 -0.0031302755 0.018411279
0.044197198 -0.003233941 0.018143743
0.050061926 -0.0035758519 0.017404974
0.047457866 -0.0033110138 0.01758343
0.046975095 -0.0032028474 0.017652124
0.052435748 -0.0034957163 0.017639101
0.049721152 -0.0032426838 0.01758039
0.048610143 -0.0031027752 0.017996252
0.050458055 -0.0031536284 0.018217236
0.051007528 -0.0031229099 0.018415183
0.05292809 -0.0031756852 0.018755257
0.052260958 -0.003074174 0.018530309
0.05467112 -0.0031541032 0.018341839
0.055749372 -0.0031556247 0.017759383
0.056221355 -0.0031234084 0.016402781
0.056768253 -0.0030964501 0.015289277
0.065345287 -0.0035006406 0.0079857111
0.061083723 -0.0032149327 0.0050252378
-0.030191354 -0.0021565254 0.0048195124
-0.030589826 -0.0022659129 0.0072856247
-0.027906613 -0.0021466627 0.0087768435
-0.025984036 -0.0020787229 0.012270689
-0.024798019 -0.0020665016 0.014107168
-0.023975465 -0.0020848231 0.015440464
-0.022479525 -0.0020435932 0.017587304
-0.022036023 -0.0020986688 0.018060684
-0.020650772 -0.0020650774 0.017989248
-0.019803463 -0.0020845749 0.017719656
-0.018819256 -0.0020910285 0.017575264
-0.017422531 -0.0020497094 0.016862661
-0.016968658 -0.0021210823 0.01669541
-0.016006537 -0.0021342048 0.015471667
-0.014037327 -0.0020053324 0.014323294
-0.013806622 -0.0021240958 0.013728142
-0.012804079 -0.0021340132 0.013075739
-0.011253165 -0.0020460302 0.011699229
-0.011094565 -0.0022189131 0.0088078082
-0.0097371694 -0.0021638155 0.0059307516
0.034552526 -0.0023035016 0.0070896447
0.033532143 -0.0021633641 0.0095683634
0.033395328 -0.002087208 0.017197281
0.03474281 -0.0021056249 0.017742395
0.035205659 -0.002070921 0.01880458
0.036992345 -0.0021138482 0.01921919
0.037785098 -0.0020991722 0.019199848
0.038358636 -0.0020734398 0.01911062
0.03999516 -0.0021050083 0.018877268
0.040462747 -0.0020750128 0.018757552
0.041885693 -0.0020942846 0.018652141
0.049318489 -0.0024057799 0.018159539
0.049084671 -0.0023373652 0.017614216
0.042906951 -0.0019956722 0.017436951
0.050733354 -0.0023060616 0.017753094
0.052613791 -0.0023383906 0.017683625
0.047278173 -0.0020555728 0.017630637
0.049757928 -0.0021173586 0.018099219
0.050528575 -0.0021053574 0.01866141
0.051476873 -0.002101097 0.018865079
0.053019658 -0.0021207863 0.01899755
0.053227287 -0.0020873446 0.018829525
0.0548952 -0.0021113539 0.018663317
0.055160753 -0.0020815379 0.01839897
0.056744304 -0.0021016409 0.017653883
0.057563167 -0.0020932062 0.016417742
0.059036203 -0.0021084358 0.01374498
0.063097529 -0.0022139484 0.0055575073
0.063296422 -0.002182635 0.0040366352
-0.030688953 -0.001096034 0.0072630346
-0.028239556 -0.0010459094 0.0090559721
-0.025782216 -0.00099162373 0.012270689
-0.025608489 -0.0010243396 0.014697164
-0.025549093 -0.0010645456 0.017645746
-0.023802076 -0.0010348728 0.018568277
-0.023572713 -0.001071487 0.021168411
-0.021850815 -0.001040515 0.021442086
-0.02069116 -0.0010345581 0.02162537
-0.020101054 -0.0010579502 0.021383137
-0.018880833 -0.0010489352 0.019404292
-0.017701283 -0.0010412519 0.018969685
-0.016746556 -0.0010466598 0.018475711
-0.015245333 -0.0010163556 0.017031521
-0.014731055 -0.0010522183 0.01592508
-0.013710096 -0.0010546228 0.014818579
-0.012320029 -0.0010266691 0.014139771
-0.011729979 -0.0010663618 0.012906402
-0.010555814 -0.0010555815 0.011410981
-0.0096604507 -0.0010733835 0.0088487566
0.031697214 -0.0011320433 0.0061160922
0.031819921 -0.0010972386 0.0080975294
0.031364251 -0.001045475 0.016132295
0.032286741 -0.0010415078 0.018318504
0.03372629 -0.0010539466 0.018856823
0.034229759 -0.0010372655 0.019398034
0.035778191 -0.0010522996 0.019272357
0.037235055 -0.0010638587 0.01967755
0.037289165 -0.0010358102 0.019647866
0.038473561 -0.001039826 0.019368082
0.039471917 -0.0010387346 0.018875569
0.039753076 -0.0010193097 0.018536776
0.046460807 -0.0011615203 0.018431365
0.047685012 -0.001163049 0.017960221
0.043400299 -0.0010333405 0.017197877
0.046601359 -0.0010837525 0.017257601
0.050464474 -0.0011469199 0.017484844
0.047111809 -0.001046929 0.017639101
0.04850468 -0.0010544495 0.017996252
0.048992738 -0.0010423987 0.018343657
0.050746989 -0.0010572289 0.018922776
0.050973192 -0.0010402693 0.019055247
0.052212413 -0.0010442482 0.019277334
0.05393111 -0.0010574727 0.01899755
0.054710198 -0.0010521192 0.018907696
0.055055533 -0.0010387837 0.018878073
0.057433337 -0.0010635803 0.018515706
0.057327811 -0.0010423238 0.017301112
0.057934333 -0.0010345416 0.016355336
0.065159172 -0.0011431434 0.0080981851
0.062236506 -0.0010730432 0.004578352
-0.032717723 0 0.0060590208
-0.030551096 0 0.0086634159
-0.027866771 0 0.011773139
-0.028126864 0 0.014713377
-0.026562499 0 0.017903566
-0.024592357 0 0.019333631
-0.024300594 0 0.0214535
-0.02263652 0 0.022216558
-0.021602809 0 0.022911221
-0.021205217 0 0.023359746
-0.019243607 0 0.022768885
-0.0183842 0 0.02259481
-0.017806973 0 0.02225861
-0.01629916 0 0.021985114
-0.016012222 0 0.019398093
-0.014942679 0 0.01882562
-0.013489096 0 0.016726196
-0.012678442 0 0.015378147
-0.011730016 0 0.01396969
-0.010149878 0 0.012803614
-0.0096637728 0 0.0098721683
-0.0087104533 0 0.0070439279
0.029939868 0 0.0042394698
0.03019434 0 0.0070696175
0.029723365 0 0.013562471
0.029909972 0 0.017398059
0.031565003 0 0.018712282
0.032396149 0 0.019165099
0.033574682 0 0.01921919
0.034648992 0 0.019253016
0.035846468 0 0.019361913
0.036484681 0 0.019376248
0.03774184 0 0.019292921
0.038493898 0 0.019029886
0.038844619 0 0.019010574
0.044169698 0 0.018551379
0.047011863 0 0.018151969
0.043156385 0 0.017753571
0.046286155 0 0.017665356
0.048796542 0 0.017484009
0.046352357 0 0.017809629
0.04742825 0 0.017996252
0.048192736 0 0.018173099
0.049582072 0 0.018473178
0.051371932 0 0.018900812
0.050727203 0 0.018970251
0.053640485 0 0.019180924
0.053434622 0 0.018968344
0.054358207 0 0.01891458
0.055773333 0 0.018899441
0.056937523 0 0.018685877
0.057889473 0 0.017759383
0.05912485 0 0.017142534
0.059179172 0 0.014291763
0.064998187 0 0.0059600472
0.064119905 0 0.0044533014
-0.0334839 0.00111613 0.0053230524
-0.030437212 0.001049559 0.0078268647
-0.029488238 0.0010531513 0.010476559
-0.028592713 0.0010589893 0.014460027
-0.027745508 0.0010671349 0.016603261
-0.025530897 0.0010212359 0.019501477
-0.025163447 0.001048477 0.022020161
-0.024091899 0.0010474739 0.022894949
-0.022690028 0.0010313649 0.024047017
-0.022243382 0.0010592086 0.024416238
-0.020659491 0.0010329746 0.025231451
-0.019634688 0.0010334047 0.025071234
-0.019077096 0.0010598387 0.024776459
-0.017557327 0.0010327839 0.024274439
-0.017131614 0.0010707258 0.02395615
-0.015965557 0.0010643704 0.022070616
-0.014047695 0.0010034068 0.020815134
-0.013713266 0.0010548666 0.019020379
-0.012839305 0.0010699421 0.017559469
-0.011239192 0.0010217447 0.015474975
-0.010801469 0.0010801469 0.013947785
-0.0094991513 0.0010554612 0.012214392
-0.0085738683 0.0010717335 0.0088253915
-0.0079301018 0.0011328717 0.0048595965
0.02872435 0.0011489739 0.0044687092
0.028253336 0.0010866668 0.0077099502
0.028569717 0.0010581376 0.014619768
0.029105028 0.0010394653 0.017832011
0.030364903 0.0010470656 0.018859476
0.032015469 0.0010671824 0.019310445
0.032582622 0.0010510522 0.019372076
0.033842992 0.0010575935 0.01967755
0.034466393 0.0010444362 0.019684941
0.035303075 0.0010383257 0.019702286
0.036671657 0.0010477616 0.019740403
0.037687067 0.001046863 0.019601524
0.038165793 0.0010315079 0.018995523
0.040576816 0.0010678109 0.018728346
0.047689017 0.0012227953 0.018251687
0.043446586 0.0010861647 0.018232495
0.043773022 0.0010676347 0.01813367
0.044803679 0.0010667542 0.017931193
0.046098225 0.0010720517 0.017950505
0.046248212 0.0010510958 0.018319428
0.046910033 0.0010424451 0.018656701
0.048022613 0.0010439699 0.018805295
0.049647383 0.0010563273 0.018902719
0.049944941 0.0010405197 0.019008458
0.052132756 0.0010639338 0.019106358
0.052871909 0.0010574382 0.019571513
0.052798994 0.0010352744 0.019265413
0.054417778 0.0010464957 0.019193918
0.055443183 0.0010460978 0.019118369
0.05614116 0.0010396511 0.019179016
0.057693273 0.0010489686 0.018817425
0.058833849 0.0010506044 0.01839897
0.059330389 0.0010408841 0.017151296
0.064514987 0.0011123273 0.010359079
0.064664245 0.001096004 0.0057667494
0.065421559 0.0010903593 0.0041089356
-0.033222739 0.0022148492 0.0059007406
-0.030380491 0.0020952062 0.008589983
-0.03045534 0.0021753814 0.012900651
-0.028843762 0.0021365748 0.015618086
-0.026584057 0.0020449276 0.018904954
-0.026238112 0.0020990488 0.021253794
-0.024887128 0.0020739273 0.022339672
-0.023425223 0.0020369759 0.024196655
-0.023214869 0.0021104426 0.024616152
-0.021833986 0.0020794272 0.025459468
-0.021124564 0.0021124566 0.02555564
-0.020923648 0.0022024892 0.025799811
-0.019426681 0.0021585203 0.025715947
-0.017985916 0.0021159903 0.025415421
-0.016969632 0.002121204 0.024910927
-0.015579709 0.0020772945 0.022627085
-0.015078139 0.0021540199 0.021841884
-0.013916746 0.002141038 0.019584179
-0.012213133 0.0020355224 0.018491417
-0.011515319 0.0020936944 0.016298324
-0.010478301 0.0020956604 0.014321864
-0.0091934716 0.0020429939 0.013778061
-0.0087800855 0.0021950214 0.01157549
-0.0078165103 0.0022332887 0.0071898997
0.026328905 0.0021940754 0.0042514801
0.026356781 0.0021085425 0.0070740879
0.027403535 0.0021079644 0.014151871
0.02815059 0.0020852289 0.017357856
0.029457306 0.0021040933 0.018806845
0.030556856 0.0021073692 0.01938954
0.031703245 0.0021135497 0.019343466
0.032297749 0.0020837258 0.019718945
0.033395328 0.002087208 0.019959778
0.034367807 0.0020828976 0.019725978
0.035938978 0.0021140575 0.019553542
0.036377929 0.0020787388 0.019493312
0.036960877 0.0020533821 0.019073546
0.039848052 0.0021539486 0.018874079
0.044654611 0.0023502426 0.018429369
0.043113559 0.0022109519 0.01816991
0.042635597 0.0021317799 0.017843843
0.043295123 0.0021119572 0.017807603
0.047857046 0.002278907 0.017931193
0.044640541 0.0020763043 0.018076926
0.046338454 0.0021062933 0.018469274
0.046934139 0.0020859616 0.019098639
0.048481934 0.0021079101 0.018783122
0.049256988 0.002096042 0.018960357
0.050743613 0.0021143174 0.018975258
0.051595498 0.0021059387 0.019341648
0.052345037 0.0020938015 0.019585073
0.053156339 0.0020845623 0.019395798
0.054505315 0.0020963582 0.019433141
0.055721395 0.0021026942 0.019380182
0.056633361 0.0020975319 0.019398302
0.05767281 0.0020971929 0.019171536
0.05927968 0.0021171314 0.018696547
0.060269184 0.0021147083 0.017820716
0.060485967 0.002085723 0.016154855
0.067375615 0.0022839191 0.0065854788
0.065290704 0.002176357 0.0049059987
-0.033821844 0.0032730813 0.0051511824
-0.031666271 0.0031666271 0.0070554912
-0.031575751 0.0032664568 0.010461658
-0.029502833 0.0031610178 0.015057534
-0.027603181 0.0030670201 0.017225683
-0.027532831 0.0031768649 0.01932022
-0.026260523 0.0031512626 0.021677166
-0.024414919 0.0030518649 0.024131268
-0.024984552 0.0032588546 0.024362236
-0.023665886 0.0032271661 0.024978787
-0.021455156 0.0030650219 0.02548641
-0.020464104 0.0030696157 0.025794506
-0.019003529 0.003000557 0.026491761
-0.018019672 0.0030032787 0.026017517
-0.017121928 0.0030215164 0.025692135
-0.016579445 0.003108646 0.025524974
-0.016041933 0.0032083862 0.024338424
-0.014667558 0.0031430481 0.022378027
-0.013331062 0.003076399 0.0212304
-0.012812655 0.0032031639 0.018877059
-0.011703539 0.0031918741 0.016635597
-0.010251996 0.0030755987 0.015103877
-0.0095883394 0.0031961133 0.013889998
-0.0079630613 0.002986148 0.012435257
-0.0071032858 0.0030442653 0.0086250007
-0.0064725042 0.0032362521 0.0048595965
0.024896964 0.0031121206 0.0066189766
0.026470473 0.0031764566 0.013562471
0.027183212 0.0031365245 0.017040491
0.028255276 0.0031394751 0.018410951
0.029821314 0.0031951407 0.019301981
0.030387074 0.0031434903 0.019343466
0.031505749 0.0031505749 0.019372076
0.032653425 0.0031600087 0.019684941
0.033159468 0.0031087 0.020184666
0.034696147 0.0031541954 0.019960999
0.035589326 0.0031402346 0.019745529
0.036594216 0.0031366469 0.019454241
0.037045572 0.0030871311 0.01900816
0.042329755 0.0034321421 0.018612176
0.043013912 0.0033958349 0.018301874
0.04218749 0.0032451914 0.017988026
0.042586405 0.0031939803 0.018041223
0.045385934 0.0033209219 0.01836729
0.044359408 0.0031685291 0.018188208
0.044504296 0.0031049508 0.018211454
0.046233732 0.0031523001 0.018698424
0.047246981 0.0031497984 0.019127607
0.048369732 0.0031545477 0.019091547
0.049429849 0.0031550967 0.019239694
0.050763175 0.0031726984 0.019395798
0.051037181 0.0031247255 0.019557118
0.052903887 0.0031742333 0.01963383
0.053167861 0.0031275211 0.019534707
0.054664832 0.0031537402 0.01957801
0.055733353 0.0031547181 0.019667923
0.05710889 0.0031727159 0.019488931
0.057562284 0.0031397608 0.019410431
0.059089404 0.0031655037 0.01897496
0.059359904 0.0031242056 0.0184322
0.060044058 0.003105727 0.017259777
0.064114586 0.0032600635 0.013238162
0.066718809 0.0033359402 0.0064426363
0.06580916 0.0032365161 0.0046443045
0.067976147 0.0032891682 0.0040769875
-0.032827973 0.0042358674 0.0054995418
-0.032955192 0.0043940255 0.0066732764
-0.031449851 0.0043379101 0.0090708137
-0.02888057 0.0041257958 0.014511257
-0.02876877 0.0042620399 0.017225683
-0.0272459 0.0041916771 0.01914826
-0.02552514 0.0040840223 0.02152282
-0.025569811 0.0042616352 0.023327291
-0.024580793 0.0042749206 0.024345428
-0.022130448 0.0040237177 0.025231451
-0.021409934 0.0040780827 0.02555564
-0.020632951 0.0041265902 0.026530027
-0.019810822 0.004170699 0.027094662
-0.018604754 0.00413439 0.026925296
-0.017501619 0.0041180281 0.025970876
-0.016345136 0.004086284 0.025551915
-0.015319563 0.0040852171 0.025524974
-0.014949611 0.0042713177 0.022555739
-0.013887704 0.0042731399 0.021893919
-0.012844554 0.004281518 0.020512044
-0.011261459 0.0040950761 0.018619448
-0.01067296 0.0042691841 0.016097754
-0.0094570117 0.0042031165 0.014391243
-0.0082242852 0.0041121426 0.013020933
-0.0075853495 0.0043344852 0.0097138882
-0.0066537964 0.0044358643 0.0052634776
0.023827564 0.004143924 0.0041315258
0.025103845 0.0041839741 0.0071033239
0.026287334 0.0042059734 0.015737116
0.027362965 0.004209687 0.017815113
0.028504323 0.0042228624 0.018842578
0.029410224 0.0042014606 0.019431025
0.030566297 0.004216041 0.019515544
0.031574383 0.0042099175 0.019694626
0.032458611 0.0041882079 0.020102441
0.033425204 0.0041781506 0.020442158
0.034438718 0.0041743903 0.019860238
0.035514191 0.0041781398 0.01981777
0.036455233 0.0041663125 0.019441307
0.040048569 0.0044498416 0.0189147
0.04272645 0.0046190755 0.018221647
0.040459603 0.0042589055 0.018121451
0.041623298 0.0042690565 0.017807603
0.043354779 0.0043354779 0.018121451
0.044382755 0.0043300246 0.018272549
0.04359949 0.0041523324 0.018272549
0.044998623 0.0041859183 0.018346965
0.046606075 0.0042369161 0.01872924
0.047131438 0.004189461 0.019251525
0.048808936 0.0042442554 0.019284844
0.04994962 0.0042510317 0.019395143
0.050032713 0.0041693929 0.019511074
0.05154318 0.0042076069 0.019605696
0.052276555 0.004182124 0.019919753
0.05337647 0.0041863895 0.019859105
0.054871168 0.0042208591 0.019946486
0.05548548 0.0041875835 0.019946486
0.056001533 0.0041482616 0.019859105
0.058328491 0.0042420719 0.019420058
0.058378022 0.0041698585 0.019320875
0.059709579 0.004190146 0.018634945
0.061218705 0.0042219795 0.017284662
0.060653981 0.0041121342 0.015372932
0.068356276 0.0045570852 0.007742852
0.067197591 0.0044063996 0.0057220757
0.06723503 0.0043377439 0.0048202276
0.06873358 0.004364037 0.0041919649
-0.033767391 0.0054463535 0.0054995418
-0.03198025 0.0053300415 0.0065685511
-0.030630693 0.0052811536 0.0079313219
-0.030606622 0.0054654679 0.013933659
-0.029170373 0.0054019205 0.016790479
-0.027048977 0.0052017262 0.019129455
-0.026669966 0.0053339931 0.02123633
-0.025371905 0.0052858135 0.023246735
-0.023261288 0.0050568017 0.02434212
-0.022309296 0.0050702947 0.025388479
-0.021804428 0.0051915301 0.025970876
-0.020780955 0.0051952386 0.027174592
-0.019915564 0.0052409377 0.027625471
-0.01862287 0.0051730196 0.02771464
-0.01751459 0.0051513501 0.026867568
-0.016212111 0.0050662849 0.025634408
-0.015161024 0.0050536748 0.025494188
-0.014758104 0.0052707512 0.022856891
-0.013690055 0.0052654059 0.022103071
-0.012282539 0.0051177242 0.020935237
-0.011768656 0.0053493888 0.018514007
-0.010587328 0.0052936641 0.016067505
-0.0092285285 0.0051269606 0.015240461
-0.0086185783 0.0053866114 0.01318872
-0.0074327928 0.0053091375 0.010751098
-0.0065863058 0.005488588 0.0070439279
0.024118099 0.0052430648 0.0045086145
0.025414264 0.0052946382 0.012152612
0.026312461 0.0052624922 0.017047018
0.027727617 0.0053322338 0.018184453
0.028388552 0.005257139 0.018806845
0.02947071 0.0052626268 0.019343466
0.030517828 0.0052616941 0.019445419
0.031188631 0.0051981052 0.019697905
0.032469008 0.0052369367 0.020118088
0.033679042 0.0052623502 0.020119101
0.034181092 0.0051789531 0.019582212
0.03530458 0.0051918495 0.01963672
0.03813152 0.0054473598 0.019007206
0.041179862 0.0057194256 0.0189147
0.042444468 0.0057357387 0.018221647
0.040654529 0.0053492798 0.018121451
0.040817481 0.0052330103 0.017988026
0.044748943 0.0055936179 0.018232495
0.042342361 0.0051637022 0.018392533
0.044077069 0.0052472698 0.018392533
0.045026049 0.0052355868 0.01839146
0.046170119 0.0052466043 0.018808424
0.046925645 0.0052139601 0.019143254
0.048501085 0.0052718571 0.019239992
0.049330644 0.0052479408 0.019305468
0.050170802 0.005226125 0.019494027
0.051956911 0.0053017256 0.019605696
0.051791102 0.00517911 0.01976949
0.054127622 0.0053066295 0.019768119
0.055265799 0.005314019 0.019946486
0.054641437 0.0051548523 0.020007938
0.05701473 0.005279141 0.019919753
0.057310302 0.0052100271 0.019803166
0.058017988 0.0051801773 0.019503713
0.060753874 0.0053292871 0.019081414
0.060324598 0.0052003963 0.01864931
0.061513536 0.0052130115 0.017177403
0.062739603 0.0052283001 0.015099704
0.068762027 0.0056362315 0.0072808862
0.06672141 0.0053807581 0.0056797266
0.068936594 0.0054711578 0.0046453178
0.069094382 0.0053979987 0.0042159259
-0.033803932 0.0065426962 0.0053114593
-0.031016115 0.006203223 0.0064891279
-0.031123416 0.0064393273 0.0072495937
-0.02949184 0.0063196798 0.013015568
-0.028215129 0.0062700282 0.015395492
-0.028161677 0.0064988486 0.018695593
-0.02728516 0.0065484382 0.021018922
-0.025023406 0.0062558516 0.022197753
-0.02339069 0.0061019189 0.023910224
-0.022735765 0.0062006633 0.025081545
-0.021884231 0.0062526371 0.025820971
-0.020652367 0.00619571 0.02709955
-0.019747101 0.0062359264 0.027475566
-0.018631002 0.0062103337 0.027625471
-0.018056611 0.0063729212 0.027132243
-0.016281735 0.0061056502 0.025658011
-0.015476711 0.0061906846 0.025494188
-0.014151085 0.0060647507 0.022870392
-0.0136579 0.0063036461 0.022256583
-0.012587799 0.0062938994 0.021176308
-0.01170121 0.0063824789 0.018639177
-0.010274292 0.006164575 0.016431898
-0.009358773 0.0062391823 0.015240461
-0.0082871662 0.0062153749 0.013139963
-0.007348048 0.0062983269 0.010932595
-0.0066489913 0.0066489913 0.0069951713
0.024300668 0.0063393046 0.0047504008
0.02531407 0.0063285176 0.01441431
0.026611246 0.0063866987 0.017231971
0.027350187 0.0063115815 0.018096894
0.028298892 0.0062886425 0.01870805
0.029622966 0.0063477783 0.01930204
0.030393342 0.006288277 0.019333601
0.031452037 0.0062904074 0.019454598
0.032496169 0.0062895808 0.019478112
0.03321309 0.0062274542 0.019725978
0.034458641 0.0062652072 0.019374549
0.035799094 0.0063174865 0.019007206
0.039460961 0.0067647365 0.018900603
0.042382967 0.0070638279 0.018850803
0.038682785 0.0062728836 0.01836729
0.039087076 0.0061716437 0.018612176
0.045920763 0.0070647327 0.018516362
0.041435041 0.0062152566 0.018579453
0.042706467 0.0062497263 0.018630832
0.044146881 0.0063066967 0.018630832
0.045227837 0.0063108606 0.018733293
0.045853898 0.0062528043 0.019028932
0.047799222 0.0063732294 0.019498348
0.048050866 0.0062675043 0.019260615
0.049357433 0.006300949 0.019305468
0.050488722 0.0063110902 0.019494027
0.05121382 0.0062710801 0.019605696
0.05236711 0.006284053 0.019859105
0.053650785 0.0063118567 0.01976949
0.054254729 0.0062601613 0.020002425
0.055754356 0.0063118143 0.020189583
0.056689791 0.0062988657 0.020051807
0.057039287 0.0062224674 0.020174414
0.058685523 0.0062877345 0.019821316
0.059664641 0.0062804883 0.019632846
0.060906995 0.0063007232 0.019444942
0.061479438 0.0062521459 0.017511994
0.062335927 0.0062335925 0.016066015
0.067450844 0.0066345097 0.0092260242
0.069012746 0.006678652 0.0072250068
0.068372734 0.0065116892 0.005604893
0.069342516 0.0065008611 0.0049615204
0.071732216 0.0066214348 0.0041342676
0.071282178 0.0064801979 0.004029721
-0.032525007 0.0073443558 0.0050469637
-0.032165725 0.0075053354 0.0063638091
-0.030646045 0.0073973206 0.0071035326
-0.029194346 0.0072985864 0.010927737
-0.028709978 0.0074433275 0.014784545
-0.027749274 0.0074709584 0.018297076
-0.026479347 0.0074142171 0.02010113
-0.025010711 0.0072947904 0.022207409
-0.02336874 0.0071122255 0.024006635
-0.022665204 0.0072116563 0.025365114
-0.021824533 0.0072748442 0.026049733
-0.020613778 0.0072148228 0.027153939
-0.019583156 0.0072148466 0.027396202
-0.018155556 0.0070604943 0.027396202
-0.017661354 0.0072723222 0.026949227
-0.01662806 0.0072747762 0.025771141
-0.015257673 0.0071202475 0.025497824
-0.014029385 0.0070146923 0.024858385
-0.013877561 0.0074725333 0.022501945
-0.012759866 0.0074432557 0.0212304
-0.011655821 0.0074173408 0.018488824
-0.010566423 0.0073964959 0.016067505
-0.0095569706 0.0074331998 0.01467526
-0.0084979748 0.0074357279 0.013438344
-0.0073904195 0.0073904195 0.010938317
-0.0067763706 0.0079057654 0.0072000027
0.025396299 0.0074072541 0.01441431
0.026310496 0.0073669385 0.01712805
0.02744399 0.0073887664 0.018025875
0.02876582 0.0074578049 0.018685997
0.029316954 0.0073292386 0.019179165
0.03020167 0.0072900578 0.019202262
0.031686049 0.0073934114 0.019154668
0.032590955 0.0073592481 0.019236058
0.033548187 0.0073386654 0.019423902
0.033562984 0.0071194209 0.019015312
0.03746856 0.0077141151 0.019243598
0.040904846 0.0081809694 0.018852085
0.036697783 0.0071356799 0.018808424
0.038121935 0.0072122575 0.018498749
0.042259023 0.0077845566 0.018510073
0.041001398 0.0073592258 0.018429369
0.041625075 0.0072843884 0.018784851
0.043132443 0.0073640752 0.0188649
0.043908276 0.0073180459 0.018869668
0.045098297 0.0073415828 0.019062191
0.046958629 0.0074706911 0.019257367
0.047102105 0.0073269936 0.019429982
0.048564363 0.007390229 0.019304127
0.049449366 0.0073647993 0.019308686
0.049722549 0.0072512049 0.019456506
0.051917486 0.0074167843 0.019573092
0.052340813 0.007327714 0.019713551
0.052430335 0.0071963207 0.01976949
0.055249147 0.0074373856 0.020068586
0.055659235 0.0073512197 0.02028653
0.056697324 0.0073496527 0.020337909
0.057512037 0.0073197139 0.020332038
0.058226731 0.0072783413 0.019964039
0.059851483 0.0073501822 0.019833684
0.061104041 0.0073746252 0.019686162
0.062484052 0.0074133622 0.01913926
0.062203225 0.0072570425 0.017628074
0.064209215 0.0073682708 0.015113801
0.071852587 0.0081123887 0.0091922283
0.067728825 0.0075254245 0.0068678856
0.070291422 0.0076881247 0.0054080188
0.070282109 0.0075688427 0.0049414337
0.073216774 0.0077654151 0.0044143796
-0.034894243 0.0087235607 0.0041041672
-0.033669095 0.0086887982 0.0049130917
-0.031934429 0.0085158478 0.0063608885
-0.029792935 0.0082187401 0.0069857836
-0.029198091 0.0083423117 0.010020554
-0.029084723 0.0086176954 0.014029205
-0.027596137 0.0084911184 0.015994221
-0.027144359 0.0086861951 0.018237054
-0.025032908 0.0083443029 0.020910233
-0.02348524 0.0081687784 0.023719609
-0.022889128 0.0083233193 0.024134964
-0.021882322 0.0083361231 0.025273919
-0.020667614 0.008267046 0.026993632
-0.019680586 0.0082865627 0.027449667
-0.018407937 0.0081813056 0.02734375
-0.017448263 0.0082109468 0.026829481
-0.016605841 0.0083029205 0.025947511
-0.015697414 0.0083719548 0.025576591
-0.014101231 0.0080578458 0.024125785
-0.0139181 0.0085649854 0.022244245
-0.012174284 0.0081161894 0.020952612
-0.011727672 0.0085292161 0.01766178
-0.01079325 0.0086346008 0.015847981
-0.0091549987 0.0081377774 0.014332116
-0.0085546272 0.0085546272 0.013438344
-0.0075509311 0.0086296359 0.01085487
-0.0067281416 0.0089708557 0.0073037744
0.025389271 0.0084630903 0.011893362
0.026353378 0.0084330812 0.016744256
0.027561339 0.008480412 0.017691076
0.028299715 0.0083851004 0.018191934
0.029381996 0.008394856 0.019095689
0.030593479 0.00843958 0.019114077
0.031257804 0.0083354153 0.018931091
0.032370869 0.0083537726 0.019030511
0.033153806 0.0082884515 0.019266993
0.035839085 0.0086882627 0.019041508
0.041320689 0.009722515 0.019351453
0.037006717 0.0084586786 0.018900931
0.036986794 0.0082192877 0.018808424
0.041255664 0.0089201434 0.018725097
0.040854875 0.0086010257 0.018854231
0.040119212 0.0082295826 0.018869668
0.042139973 0.0084279943 0.019025326
0.042814661 0.0083540799 0.01917097
0.044094678 0.0083989855 0.019170672
0.045150947 0.0084001767 0.019226998
0.045452654 0.0082641188 0.019429982
0.047339831 0.00841597 0.019890785
0.048475757 0.0084305657 0.019382596
0.04914828 0.0083656646 0.019813657
0.050333291 0.0083888825 0.019823998
0.051203478 0.0083597517 0.019849956
0.052208342 0.0083533349 0.01975596
0.053602993 0.0084083127 0.020099461
0.054300368 0.008353903 0.02059418
0.055025671 0.008305762 0.020727217
0.057412446 0.0085055474 0.020458907
0.057841569 0.0084133195 0.020505399
0.05865344 0.0083790626 0.020504385
0.059841853 0.008398857 0.019964039
0.060859788 0.0083944537 0.019690931
0.06179798 0.0083793877 0.019551307
0.063643694 0.0084858257 0.019250453
0.063868061 0.0083761392 0.017383188
0.065794624 0.0084896283 0.013139635
0.070688792 0.0089763543 0.007694006
0.069086179 0.0086357724 0.0063878298
0.070494026 0.0086761881 0.0049687922
0.07176441 0.0086987168 0.0046241283
-0.035454366 0.0099715395 0.0041041672
-0.034639522 0.010056634 0.0049130917
-0.03173396 0.009520188 0.0063608885
-0.031618055 0.0098124985 0.0069857836
-0.030425914 0.0097797578 0.0092488527
-0.02797799 0.009325996 0.012197018
-0.028640131 0.0099138906 0.014671654
-0.027215935 0.0097977361 0.017165661
-0.025202453 0.0094509199 0.018342882
-0.0234602 0.0091800774 0.021538436
-0.022744631 0.0093046222 0.023620039
-0.021576906 0.0092472443 0.024634838
-0.021156026 0.0095202122 0.025239527
-0.019210983 0.0090999389 0.02650708
-0.018603176 0.0093015879 0.026462674
-0.018017838 0.0095388545 0.025229514
-0.016168348 0.0090946956 0.025388479
-0.0153923 0.0092353793 0.023207188
-0.014197716 0.0091271028 0.022493184
-0.013594199 0.0094113685 0.021534622
-0.012728614 0.0095464597 0.01894933
-0.011686832 0.0095619531 0.017003983
-0.010155233 0.0091397092 0.015523136
-0.0094424766 0.0094424766 0.013850152
-0.0080758538 0.0090853348 0.012634397
-0.0071136346 0.0091461018 0.0094777644
-0.0066129481 0.0099194217 0.0052735806
0.026881937 0.010080726 0.0042204559
0.026612082 0.0095803495 0.015512586
0.027172379 0.0094058234 0.017139673
0.028265374 0.00942179 0.017973602
0.029620528 0.0095208837 0.017997831
0.030299166 0.0094031887 0.018733233
0.031383812 0.0094151432 0.018886387
0.032273069 0.0093695996 0.018634439
0.033957087 0.0095504308 0.01871562
0.03993316 0.010890862 0.019012749
0.038468532 0.010182846 0.018820971
0.035657208 0.0091689955 0.018852085
0.039955262 0.0099888155 0.019466013
0.04185541 0.010181044 0.019460231
0.038966328 0.0092288665 0.019326776
0.040800944 0.0094156023 0.019326776
0.0419388 0.0094362292 0.019195646
0.042931754 0.0094240429 0.019343525
0.044336807 0.0095007438 0.019388378
0.045182455 0.0094567928 0.019529611
0.046290115 0.0094684325 0.019829839
0.047244657 0.0094489306 0.020230919
0.048172347 0.0094250236 0.019645452
0.049097329 0.0094016157 0.02002576
0.049950067 0.0093656369 0.019945681
0.051289748 0.0094205663 0.020198703
0.052057412 0.0093703335 0.020297468
0.053541597 0.0094485162 0.02059418
0.054511286 0.009434646 0.020654708
0.056268726 0.0095550669 0.020727217
0.057024505 0.0095040835 0.020504385
0.058007959 0.009492211 0.020341307
0.059299503 0.009530277 0.020268798
0.059446581 0.009386302 0.020300299
0.060762148 0.0094286082 0.020300299
0.062641621 0.0095555009 0.019607097
0.062573321 0.0093859984 0.019482076
0.063607417 0.009384701 0.018537104
0.065518565 0.0095107583 0.015060484
0.072919644 0.010417092 0.010181665
0.069429323 0.0097634979 0.0071444213
0.070228338 0.0097239232 0.006155014
0.071478844 0.009747115 0.0050426424
0.073326096 0.0098497737 0.0047286153
-0.035154782 0.01098587 0.0040330887
-0.033333749 0.010752821 0.0047311485
-0.032941122 0.010980373 0.0061575472
