ply
format ascii 1.0
comment PCL generated
element vertex 918
property float x
property float y
property float z
element camera 1
property float view_px
property float view_py
property float view_pz
property float x_axisx
property float x_axisy
property float x_axisz
property float y_axisx
property float y_axisy
property float y_axisz
property float z_axisx
property float z_axisy
property float z_axisz
property float focal
property float scalex
property float scaley
property float centerx
property float centery
property int viewportx
property int viewporty
property float k1
property float k2
end_header
-0.0091420412 0.024378777 0.019870073
-0.0082206484 0.024661943 0.019932508
-0.0072108689 0.024722978 0.020192832
-0.0062364982 0.024945993 0.020424306
-0.0051640905 0.024787635 0.019897401
-0.004118972 0.024713833 0.020266533
-0.0030918529 0.024734823 0.020340383
-0.0020634583 0.0247615 0.019771278
-0.0010294869 0.024707684 0.018437743
-0.011256836 0.02558372 0.019877672
-0.010228071 0.02557018 0.021449178
-0.0092348298 0.025652308 0.020833582
-0.0082174474 0.025679523 0.021449178
-0.0071403421 0.025501223 0.021673948
-0.0061544948 0.025643729 0.021673948
-0.0051368321 0.025684163 0.021656305
-0.0040657665 0.02541104 0.021557629
-0.0030645442 0.025537869 0.021015167
-0.0020681338 0.025851674 0.021076143
-0.0010297558 0.025743894 0.021076143
0 0.025734847 0.021076143
0.0010251915 0.025629789 0.020502657
-0.013281256 0.026562512 0.019934297
-0.012257653 0.02655825 0.02133584
-0.01134203 0.026808435 0.021636277
-0.010118784 0.02630884 0.022361785
-0.009231722 0.02666942 0.021269023
-0.0081762364 0.026572768 0.021919966
-0.0072018113 0.026749585 0.021731615
-0.0061823567 0.026790213 0.021656305
-0.0051274989 0.026662994 0.021656156
-0.004081184 0.026527695 0.02166903
-0.0030976443 0.026846251 0.021052301
-0.0020516205 0.026671067 0.020845205
-0.0010193092 0.026502037 0.022021353
0 0.026679309 0.022021353
0.0010131636 0.026342254 0.021864533
0.0020451709 0.02658722 0.02097562
0.0031069536 0.026926931 0.018889219
-0.015420559 0.027757008 0.020720154
-0.014318913 0.027615048 0.02154851
-0.013337563 0.027701093 0.021884263
-0.012175365 0.027394574 0.022618473
-0.0112057 0.027504902 0.022595555
-0.010223549 0.027603583 0.022827327
-0.0092723509 0.027817056 0.021554768
-0.0081865666 0.027629664 0.021805584
-0.0071912566 0.027737705 0.021731615
-0.0061470293 0.027661633 0.021656156
-0.0051281746 0.027692143 0.021427929
-0.0041221217 0.027824322 0.021646142
-0.0030750504 0.027675455 0.021701097
-0.0020590692 0.027797436 0.02219677
-0.0010254681 0.027687641 0.02278167
0 0.027364135 0.022728682
0.0010271716 0.027733633 0.022539377
0.0020539591 0.027728448 0.02289781
0.0030792481 0.027713234 0.022755325
0.004097058 0.027655141 0.019663185
-0.017426787 0.028702941 0.020993888
-0.016320702 0.028561229 0.021662086
-0.015332219 0.028620142 0.021760374
-0.014359019 0.028718038 0.023073733
-0.013246765 0.028531495 0.022456914
-0.012179851 0.028419653 0.022651553
-0.01138036 0.028968189 0.022263199
-0.010160385 0.028449079 0.022010356
-0.0092860898 0.02889006 0.020924598
-0.0082192225 0.02876728 0.021395743
-0.0071776812 0.028710725 0.020958126
-0.0061755367 0.02881917 0.020743966
-0.005173218 0.028970022 0.020740926
-0.0041177669 0.028824368 0.021365792
-0.0030725172 0.028676828 0.021001428
-0.0020677194 0.02894807 0.021717101
-0.0010181152 0.028507225 0.022654861
0 0.028515831 0.02285549
0.0010326528 0.028914278 0.022439063
0.0020498366 0.028697712 0.022333652
0.0030836484 0.028780719 0.022357881
0.0041403938 0.028982755 0.022060275
0.0050859386 0.028481256 0.021667063
-0.019322617 0.029492415 0.020356357
-0.018343825 0.029553942 0.022161752
-0.017445395 0.029759791 0.023066968
-0.016351845 0.029637719 0.022707194
-0.015323125 0.02962471 0.022895604
-0.0144254 0.029881187 0.022945225
-0.013253904 0.029566402 0.022821099
-0.012323586 0.029782003 0.0219962
-0.011260648 0.029687166 0.021695673
-0.010095357 0.029276537 0.021276057
-0.0092373854 0.029764911 0.020998895
-0.0082508447 0.029909311 0.020740926
-0.007203226 0.029841937 0.020935804
-0.0062065497 0.029998325 0.020646781
-0.0051476727 0.029856503 0.020540029
-0.0041153347 0.029836178 0.020296097
-0.0030816423 0.029789209 0.020192802
-0.002061758 0.02989549 0.020628244
-0.0010290033 0.029841097 0.021409273
0 0.029708914 0.021684766
0.0010231042 0.029670022 0.02240482
0.0020713666 0.030034818 0.022719681
0.0030820069 0.029792735 0.022630215
0.0040562241 0.029407626 0.022852868
0.0050728749 0.029422676 0.022417158
0.006132849 0.029642105 0.022736341
0.0071819434 0.029753767 0.022160679
0.0082012285 0.029729454 0.022045344
-0.020603053 0.030904582 0.021447182
-0.019309849 0.030489234 0.022369355
-0.018457461 0.030762436 0.023310304
-0.017356481 0.030629085 0.023140401
-0.016322603 0.030604882 0.022717625
-0.015529949 0.031059898 0.023140401
-0.014188803 0.030404577 0.023140401
-0.013375512 0.030866569 0.022456914
-0.01225496 0.030637402 0.022091866
-0.011363557 0.030991519 0.021276057
-0.010246079 0.030738238 0.020478517
-0.009310646 0.031035488 0.020025402
-0.0082391193 0.030896697 0.019499332
-0.007249143 0.031067755 0.018575728
-0.0062353243 0.031176621 0.018575728
-0.0051759132 0.03105548 0.018206507
-0.004096583 0.030724371 0.018395782
-0.0031160996 0.031160997 0.018670917
-0.0020679466 0.0310192 0.018668294
-0.0010328885 0.030986656 0.019141316
0 0.030882774 0.020044684
0.0010225518 0.030676553 0.020917922
0.0020307347 0.030461019 0.021698952
0.0030788882 0.030788882 0.02170369
0.004113121 0.030848406 0.022613168
0.0051813852 0.031088311 0.022713214
0.006091598 0.03045799 0.023193568
0.0071393466 0.030597199 0.023193568
0.0081457421 0.030546531 0.022773772
0.0092378808 0.030792937 0.021704495
-0.022595756 0.031839475 0.019022137
-0.021617448 0.03191147 0.021650463
-0.02033443 0.03151837 0.022843152
-0.019381193 0.031621948 0.023289502
-0.018418988 0.031721596 0.023815989
-0.017384177 0.031700559 0.023718625
-0.016288415 0.031558804 0.022989899
-0.01519531 0.031403642 0.023407668
-0.014335821 0.031743605 0.023101866
-0.013247387 0.031589925 0.021830291
-0.012273057 0.031705402 0.021830291
-0.011394829 0.032112703 0.020960361
-0.010261763 0.031811468 0.019837409
-0.0092350375 0.031809576 0.019057035
-0.0082759727 0.032069393 0.018083572
-0.007248621 0.032101039 0.018177867
-0.0062049665 0.032058995 0.018161416
-0.0051843547 0.032143001 0.017669886
-0.0041497881 0.03216086 0.017669886
-0.0031027433 0.032061681 0.017808467
-0.0020741206 0.032148868 0.018092543
-0.0010378602 0.032173667 0.018625438
0 0.032160576 0.019008666
0.0010370091 0.032147281 0.01980266
0.0020562473 0.031871837 0.020220309
0.0030733808 0.031758267 0.021532565
0.0040778127 0.031603049 0.022403598
0.0050813179 0.031504173 0.022606015
0.0061214454 0.031627469 0.02318725
0.0071754372 0.031776935 0.023671687
0.0081228036 0.031475864 0.023222506
0.0091524404 0.031525075 0.022326708
0.010231984 0.031719152 0.022376984
0.011122091 0.031344075 0.022216797
-0.023647038 0.032900229 0.018635511
-0.022603365 0.03287762 0.021367878
-0.021363394 0.032553744 0.022981077
-0.020437302 0.032699686 0.023378849
-0.019363567 0.032612324 0.023941159
-0.018448181 0.032796767 0.023992896
-0.01734155 0.03264292 0.023718625
-0.016427105 0.032854211 0.022446215
-0.015251563 0.032536667 0.022640556
-0.014425715 0.032973062 0.021757185
-0.013274019 0.03267451 0.020192355
-0.012393869 0.033050317 0.019797862
-0.011315742 0.03291852 0.01846537
-0.010375813 0.033202603 0.018109679
-0.0092879208 0.033023719 0.017947972
-0.0082403226 0.03296129 0.017460465
-0.007289744 0.033324543 0.017903417
-0.006244957 0.033306438 0.017506212
-0.0051863794 0.033192828 0.017197192
-0.0041314722 0.033051778 0.016857773
-0.0031068767 0.033140019 0.016866028
-0.0020740794 0.03318527 0.016702533
-0.0010332201 0.033063043 0.017053753
0 0.032969788 0.017836899
0.001035773 0.033144735 0.018314391
0.0020716481 0.03314637 0.019046962
0.0030995831 0.03306222 0.020133853
0.0040857671 0.032686137 0.02098754
0.0050909598 0.032582145 0.021751106
0.0061217062 0.0326491 0.023048073
0.0070838477 0.032383304 0.023762286
0.0082408087 0.032963235 0.023466557
0.0091451816 0.032516204 0.024131745
0.010116357 0.032372344 0.023446977
0.011252249 0.032733813 0.022617966
0.012237123 0.032632329 0.022161573
-0.024732135 0.034006685 0.018298417
-0.023804149 0.034153778 0.020522743
-0.022410594 0.033615891 0.022639126
-0.021498006 0.033782579 0.024151623
-0.020305732 0.03350446 0.023892194
-0.019361977 0.033628695 0.024151623
-0.018432446 0.03379282 0.024140239
-0.017421663 0.033818521 0.022994846
-0.016333442 0.033687726 0.022041231
-0.015488056 0.034073722 0.021995127
-0.014319078 0.033752114 0.021757185
-0.013414257 0.034051575 0.020253122
-0.012394287 0.034084287 0.019788444
-0.011288067 0.0338642 0.01846537
-0.010381619 0.034259342 0.018095762
-0.0093587711 0.034315493 0.017390728
-0.0083421906 0.034411535 0.017043322
-0.0072423387 0.034142453 0.01683259
-0.0061988547 0.0340937 0.016288161
-0.0051604197 0.034058772 0.016599566
-0.0041639386 0.034352493 0.016539574
-0.0031312252 0.034443475 0.016539574
-0.0020801022 0.034321684 0.016706735
-0.0010407292 0.034344066 0.016970009
0 0.034081466 0.016773522
0.0010246255 0.033812642 0.01760152
0.0020698933 0.034153238 0.017728209
0.0030745291 0.033819821 0.019842297
0.0041282079 0.034057714 0.020330399
0.0051133274 0.03374796 0.021717757
0.0061142733 0.033628505 0.0228284
0.0070658312 0.033310346 0.023662657
0.008151656 0.03362558 0.024201483
0.0091247465 0.033457406 0.024799258
0.010238855 0.033788223 0.024235606
0.011189172 0.033567518 0.023994476
0.012273287 0.03375154 0.0222435
0.013259499 0.033658728 0.021576256
-0.024607655 0.034860846 0.018505484
-0.023792244 0.035171144 0.021313101
-0.02229384 0.034454118 0.023861438
-0.021341925 0.034553591 0.024522662
-0.020413173 0.034702398 0.024398118
-0.019495176 0.034886103 0.02455616
-0.018260373 0.034491818 0.024286419
-0.017278736 0.034557473 0.023986846
-0.016471867 0.035002716 0.022582859
-0.015356429 0.034807906 0.021835595
-0.014498021 0.035209481 0.019593775
-0.013444629 0.035162874 0.019010693
-0.012435436 0.035233736 0.01880756
-0.011451405 0.03539525 0.018255651
-0.010256165 0.03487096 0.017085522
-0.0092873983 0.03508573 0.015973896
-0.008336084 0.035428356 0.015280068
-0.0072314781 0.035124324 0.014710188
-0.0062631764 0.035491332 0.014162302
-0.0052167578 0.035473954 0.014693439
-0.0041448469 0.035231199 0.014505178
-0.0031118016 0.035267085 0.014715999
-0.0020880541 0.03549692 0.014883846
-0.0010278757 0.034947772 0.015888005
0 0.035261869 0.016330034
0.0010390548 0.035327863 0.017131209
0.0020693413 0.035178803 0.016999662
0.0030799049 0.03490559 0.017728209
0.0041079088 0.034917228 0.020133853
0.0051669413 0.035135202 0.020924896
0.0061417986 0.034803525 0.0217852
0.0071047596 0.034508832 0.02326858
0.0080848439 0.034360588 0.02406767
0.0091250371 0.034472365 0.02476117
0.010200894 0.034683038 0.024348766
0.011135407 0.034418531 0.023897499
0.012261993 0.034742314 0.022700608
0.013221221 0.03457858 0.021891922
0.014316105 0.034767684 0.021136045
-0.024468526 0.035683267 0.019922674
-0.023682555 0.036038671 0.022797555
-0.022433192 0.035689171 0.024248689
-0.021337371 0.035562284 0.024623126
-0.020395471 0.035692073 0.025024712
-0.019247765 0.035456408 0.024853319
-0.018315457 0.035613388 0.024267286
-0.017461786 0.035950735 0.023706347
-0.01629743 0.035650626 0.022364974
-0.01531946 0.035745405 0.020451218
-0.014327493 0.035818733 0.018580437
-0.013373879 0.036006596 0.018042415
-0.012445163 0.03629839 0.017464399
-0.011334072 0.036062956 0.01672408
-0.010294655 0.036031295 0.01529327
-0.0094395401 0.036709324 0.014823914
-0.0083192391 0.036396671 0.014140725
-0.0072966777 0.036483388 0.013909608
-0.0063001001 0.036750585 0.013093293
-0.0052101752 0.036471225 0.012937218
-0.0041830768 0.036601923 0.013488978
-0.0031257134 0.036466658 0.013560534
-0.0020770382 0.036348164 0.01399222
-0.0010413229 0.036446299 0.014413744
0 0.036493186 0.014883846
0.0010248007 0.035868023 0.015487909
0.0020645249 0.036129188 0.016762108
0.0031497672 0.036747284 0.017535299
0.0040445887 0.03539015 0.017963141
0.0051324293 0.035927005 0.020200402
0.0061936895 0.036129855 0.020815402
0.0070917606 0.035458803 0.022923082
0.0081982622 0.035867393 0.023721635
0.0091515062 0.035589192 0.024555057
0.01009305 0.035325676 0.024495929
0.011146383 0.035465766 0.02423799
0.012191611 0.035558868 0.023818225
0.013174198 0.035468992 0.022640467
0.014323243 0.035808109 0.021515429
-0.024796337 0.037194505 0.020192623
-0.023546275 0.036855035 0.023859143
-0.022370905 0.036606934 0.024186909
-0.021342877 0.036587786 0.025319427
-0.020315779 0.036568403 0.025190979
-0.019358797 0.036679823 0.024658412
-0.018253556 0.036507111 0.023768485
-0.01734758 0.036736049 0.022957355
-0.016502595 0.037130836 0.021686435
-0.015489962 0.037175909 0.019123942
-0.014280158 0.036720403 0.017975926
-0.013519284 0.037438016 0.016947031
-0.012424943 0.03727483 0.01666823
-0.011412379 0.037349604 0.016061604
-0.010485454 0.037747633 0.013205022
-0.0094216168 0.037686467 0.0130606
-0.0083907563 0.037758403 0.012329966
-0.0072797709 0.037438821 0.011861086
-0.0063526356 0.038115814 0.011176825
-0.0052566975 0.037848223 0.011176825
-0.004191387 0.03772248 0.010714412
-0.0031377785 0.037653342 0.011609316
-0.0021035448 0.037863802 0.012191713
-0.0010501425 0.037805129 0.01406768
0 0.037486047 0.014503092
0.0010430978 0.037551519 0.015134871
0.0020785243 0.037413433 0.015959173
0.0030592566 0.036711078 0.017056495
0.0042001316 0.037801184 0.018012106
0.0051735039 0.037249226 0.019910723
0.0061445977 0.036867585 0.020200402
0.00717946 0.036922935 0.021002024
0.0081138816 0.036512468 0.023844481
0.009058238 0.036232952 0.02476117
0.010228645 0.03682312 0.024564803
0.011074482 0.036243759 0.024504304
0.012138668 0.036416002 0.02423799
0.013218645 0.036605477 0.023818225
0.014281858 0.036724776 0.021891922
-0.024322364 0.03749698 0.022562742
-0.023464285 0.037746891 0.023988634
-0.02245122 0.037758872 0.024917722
-0.021341881 0.037602361 0.025419801
-0.020238426 0.03744109 0.02497822
-0.019249564 0.037485994 0.024576515
-0.018416479 0.037856102 0.024003267
-0.017463287 0.038008332 0.023120195
-0.016473629 0.038095269 0.021590739
-0.015304441 0.037750956 0.0190368
-0.014418801 0.038106833 0.017661899
-0.013451539 0.038285151 0.016560972
-0.012384995 0.038187068 0.015642852
0 0.038756743 0.01216352
0.0010432869 0.038601615 0.014349312
0.0020843686 0.038560819 0.014599025
0.0030993647 0.038225502 0.016773254
0.0041387109 0.03828308 0.017646551
0.005127104 0.037940569 0.018849224
0.0061362875 0.037840441 0.019924104
0.0072088577 0.038103964 0.020165265
0.0081246728 0.037576616 0.023762137
0.0091457861 0.037599344 0.024369329
0.010068518 0.037253521 0.024438798
0.011170121 0.037572227 0.024482489
0.012181807 0.037560575 0.024882406
0.013281136 0.037800159 0.024656355
0.014153752 0.037406348 0.023058951
-0.024588685 0.038932089 0.023169726
-0.02325256 0.038417272 0.024241626
-0.02217933 0.038309753 0.025419801
-0.021475695 0.038860779 0.025087744
-0.020395003 0.038750507 0.024945319
-0.019278513 0.038557027 0.024208397
-0.018400202 0.038844872 0.023854762
-0.017424185 0.038948178 0.023160905
-0.016303858 0.038721666 0.020706266
-0.015466492 0.03918178 0.018100977
-0.014474058 0.039286729 0.016937107
-0.01346577 0.039361481 0.0159702
0.0020937179 0.039780639 0.014157772
0.0031179476 0.039494004 0.015791297
0.0041083712 0.039029527 0.017026305
0.0051328931 0.039009988 0.017607689
0.0062087891 0.039322332 0.018133998
0.007091199 0.038495082 0.020214349
0.0082577616 0.039224368 0.023026615
0.0090890434 0.038375963 0.024321914
0.010164488 0.038625058 0.024495929
0.011118135 0.038408104 0.024656326
0.012223394 0.038707413 0.024902731
0.013146339 0.038427759 0.024356335
0.014288907 0.038784176 0.023183048
-0.025592661 0.039924551 0.020072073
-0.024491247 0.039798278 0.023875684
-0.023340402 0.039577205 0.024715543
-0.022382025 0.039677229 0.025547236
-0.021375136 0.039696679 0.025087744
-0.02008103 0.039158009 0.024330854
-0.019233616 0.039479524 0.023628473
-0.018455844 0.039987665 0.023526341
-0.017354067 0.039812274 0.022937089
-0.016210716 0.039513618 0.020834833
-0.015544683 0.040416174 0.018247306
-0.014489292 0.040363029 0.016515285
0.0031062807 0.040381651 0.014202923
0.0041758441 0.04071448 0.016576499
0.0051611005 0.040256586 0.016816825
0.0062087653 0.040356975 0.018133998
0.0071307099 0.039728239 0.019897163
0.0082509397 0.04022333 0.023217052
0.009138207 0.039598901 0.024293423
0.010129306 0.039504293 0.024531811
0.011172209 0.039610557 0.024651408
0.012191365 0.039621934 0.025384963
0.01321733 0.03965199 0.024664581
0.014198045 0.039551698 0.022958577
-0.025565233 0.040904369 0.02147907
-0.02446929 0.04078215 0.024025977
-0.023219079 0.040381003 0.024917722
-0.022351248 0.040638633 0.025547236
-0.021078544 0.040149607 0.025164157
-0.020325795 0.04065159 0.024280995
-0.019345226 0.040726788 0.023628473
-0.018353151 0.04078478 0.023439169
-0.01734468 0.04081101 0.022937089
-0.016241681 0.0406042 0.020554036
-0.015505417 0.041347779 0.017403185
0.0041571078 0.041571077 0.014121085
0.005171366 0.041370928 0.016338497
0.0061278967 0.040852647 0.018133998
0.0072088004 0.041193146 0.019253075
0.0081339106 0.040669549 0.023086429
0.0092189535 0.040973127 0.024012148
0.010040701 0.040162805 0.024420053
0.011096092 0.040349428 0.025057912
0.012202214 0.040674049 0.025461286
0.013079297 0.040243987 0.024657577
0.014284564 0.04081304 0.023589939
-0.025772261 0.042266507 0.0230169
-0.024226312 0.041386615 0.02438578
-0.023429172 0.041765049 0.024979651
-0.022309689 0.041577149 0.025256604
-0.021379849 0.04174161 0.02515021
-0.020412803 0.041846249 0.024230719
-0.01935075 0.041756887 0.02370733
-0.018364923 0.041831218 0.022960842
-0.017427916 0.042032033 0.022859514
-0.016449023 0.042150624 0.019472152
0.0051715868 0.042407017 0.015676677
0.0061747618 0.042194206 0.017300457
0.0071874661 0.042098016 0.018615782
0.0081410911 0.041723095 0.021969289
0.0091647962 0.04175074 0.023860067
0.010107922 0.041442484 0.024413019
0.011148674 0.041554153 0.025387585
0.012192612 0.041658092 0.025493354
0.01315799 0.041498277 0.024531811
0.014196969 0.04157684 0.02410689
-0.025702123 0.043179564 0.021179289
-0.024491796 0.042860646 0.024789512
-0.023313174 0.042571884 0.025739729
-0.02222139 0.042422656 0.026210845
-0.021182345 0.04236469 0.025545925
-0.020422114 0.042886443 0.024683923
-0.019297458 0.042657539 0.023683548
-0.018351497 0.042820163 0.022960842
-0.017449202 0.043109793 0.021315455
0.0061764522 0.043235164 0.017885387
0.0071966583 0.043179952 0.019253075
0.0081491889 0.042783245 0.021362096
0.0092066424 0.042964332 0.022945404
0.010143524 0.042602804 0.02436465
0.011137147 0.042523656 0.025313169
0.012103655 0.042362794 0.025712937
0.013209773 0.04267773 0.025167793
0.014185693 0.042557083 0.024090409
-0.024363382 0.043651059 0.025314093
-0.023254171 0.043475188 0.025923967
-0.022256857 0.043502036 0.026450247
-0.02127088 0.04355466 0.025544703
-0.02024601 0.043528922 0.025732309
-0.019399408 0.043903925 0.024035543
-0.018344507 0.043822989 0.023110747
-0.017504351 0.044275712 0.021199524
0.0062137479 0.044531859 0.016120464
0.0072091953 0.044285059 0.018913239
0.0081198961 0.043644439 0.021988362
0.009224955 0.044074785 0.023307472
0.010068738 0.043295577 0.024768025
0.011096894 0.043378767 0.025751233
0.012123022 0.04344083 0.025941759
0.013086573 0.043286357 0.025268644
0.014226931 0.043697003 0.024153769
-0.0242799 0.044513147 0.025284618
-0.023388511 0.044743236 0.026006281
-0.022258883 0.044517767 0.026656061
-0.021176206 0.044369195 0.02550298
-0.020221211 0.044486668 0.025507092
-0.019372353 0.044862289 0.025041223
-0.018287273 0.044702224 0.023031414
-0.017410094 0.045061417 0.021086723
0.0071292054 0.044812147 0.018580705
0.0081860693 0.045023378 0.021562248
0.009193575 0.044946365 0.024156064
0.010058158 0.044255894 0.025541991
0.011071255 0.044285022 0.027104497
0.012174292 0.044639073 0.026860237
0.013068885 0.044233147 0.025751233
0.014187495 0.04458927 0.024441004
-0.025335262 0.045603473 0.021582395
-0.02433132 0.045621227 0.024698675
-0.023085743 0.045167759 0.025597245
-0.022304699 0.04562325 0.02608493
-0.021256814 0.045550317 0.025642186
-0.020130945 0.045294631 0.025710464
-0.019249743 0.0455915 0.02521053
-0.01844025 0.046100631 0.024910837
-0.017262267 0.045694239 0.021562934
0.0072027352 0.046303298 0.018785775
0.0080781672 0.045439694 0.022577971
0.0091539761 0.045769885 0.025580794
0.010072963 0.045328338 0.026995897
0.010952283 0.044804797 0.027425349
0.012138972 0.045521148 0.026956618
0.013114111 0.045395002 0.026052684
0.014172583 0.045554731 0.025001347
-0.025706051 0.047299132 0.022177339
-0.024365149 0.046699874 0.025300384
-0.02295688 0.04591376 0.026694447
-0.022346361 0.046724211 0.026998758
-0.021051416 0.046112627 0.026351035
-0.020107158 0.046246465 0.026320517
-0.019243203 0.046588808 0.026313156
-0.018323978 0.046827946 0.024967372
-0.017043421 0.046117496 0.022409439
0.0072469274 0.047622666 0.021067202
0.0080981888 0.046564583 0.023107052
0.0091530429 0.046782222 0.026098639
0.010070138 0.046322636 0.027188241
0.011063113 0.046263929 0.027585536
0.012110138 0.046422198 0.027029634
0.013063209 0.046223667 0.026080459
0.014160133 0.046526153 0.025270879
-0.025573291 0.048077788 0.021582395
-0.024211654 0.047414489 0.025253266
-0.023296574 0.04760604 0.026694447
-0.022204282 0.047436424 0.028085262
-0.021136837 0.047306255 0.027713954
-0.020322781 0.047758535 0.027172834
-0.019306658 0.047758576 0.026907802
-0.018290423 0.047758326 0.025266945
-0.017267918 0.047740716 0.024181992
0.0071384641 0.047929689 0.021933138
0.0081646489 0.047967311 0.023688287
0.0090877572 0.047458287 0.026769966
0.010097522 0.047458358 0.026778042
0.011125201 0.047534954 0.027713656
0.012167685 0.047656767 0.027149081
0.013142087 0.047513701 0.026107401
0.014186581 0.047626376 0.02578488
-0.025265221 0.048509222 0.021667719
-0.024346735 0.048693471 0.025647849
-0.023271708 0.048567038 0.027675956
-0.022012942 0.048028238 0.028277069
-0.021091308 0.048208706 0.028150082
-0.020212842 0.048510823 0.02771911
-0.019079262 0.048200238 0.027549356
-0.018403742 0.049076647 0.026597977
-0.017280355 0.048791587 0.024952412
0.0071406122 0.048964199 0.021943271
0.0081424071 0.04885444 0.025348723
0.0090191849 0.048102323 0.026584804
0.010072174 0.048346441 0.027603209
0.011125943 0.048549566 0.028332889
0.012068272 0.048273087 0.027740896
0.013061943 0.048228711 0.026271671
0.014172269 0.048590638 0.025384933
-0.025638267 0.050251 0.023363322
-0.024179989 0.049367476 0.025682569
-0.023124412 0.049265046 0.028047264
-0.022285586 0.049636081 0.028341681
-0.021214491 0.049500477 0.029111803
-0.020118564 0.049290486 0.029198229
-0.019198781 0.049512643 0.02771911
-0.018204533 0.049556784 0.027462751
-0.017313238 0.04990286 0.025245041
0.007060538 0.049423765 0.024449497
0.0081046363 0.049640894 0.026728094
0.0089462437 0.048707325 0.027756602
0.01000685 0.04903356 0.028884798
0.011046086 0.049205296 0.028754234
0.012107501 0.049438961 0.028384447
0.013109947 0.049414411 0.026288241
0.014035091 0.049122818 0.025475502
-0.025512729 0.051025458 0.024288774
-0.024153803 0.050320424 0.025851458
-0.023271605 0.050590448 0.027581006
-0.022107363 0.050244007 0.028333753
-0.021040553 0.050096557 0.029306054
-0.020212764 0.050531913 0.029381543
-0.019006915 0.050018199 0.029090643
-0.017999895 0.04999971 0.028276056
-0.017423071 0.05124433 0.027911097
0.0070630456 0.050450329 0.026221961
0.0080344165 0.050215103 0.028093517
0.0089946929 0.049970523 0.029034376
0.0099935196 0.049967602 0.028956085
0.010993493 0.049970422 0.028956085
0.012066804 0.050278351 0.028393865
0.013012405 0.050047711 0.02673316
0.01421283 0.050760109 0.025934368
-0.02535391 0.051721975 0.022549868
-0.024444841 0.051945288 0.025460333
-0.023199122 0.051441528 0.027393699
-0.021886591 0.050737102 0.027846903
-0.021117754 0.051285975 0.028672665
-0.020071181 0.051181514 0.029076517
-0.019130744 0.051350944 0.02907306
-0.018087851 0.051248915 0.028594166
-0.01707248 0.051217437 0.028276563
-0.016107557 0.051342838 0.027305365
0.0060113957 0.051096864 0.026011229
0.0070540793 0.051394008 0.027749747
0.0079782214 0.050861157 0.029613078
0.0090087727 0.051049713 0.029908419
0.010044838 0.051228676 0.029613078
0.010981433 0.050913919 0.029282689
0.01203694 0.051156998 0.028290153
0.013176551 0.051692627 0.026974589
0.014042546 0.05115499 0.02448526
-0.025330825 0.052688114 0.022569925
-0.024364699 0.052790184 0.025090963
-0.02319319 0.052436776 0.027083188
-0.02202181 0.052051552 0.028005987
-0.021031199 0.052077252 0.029349953
-0.020241188 0.05262709 0.029936731
-0.018943381 0.05184504 0.030193031
-0.018047342 0.052136768 0.029711902
-0.016941788 0.051821936 0.029260069
-0.016124699 0.052405272 0.028346002
-0.015344033 0.053192645 0.027077407
0.0050195684 0.052203514 0.025838941
0.0060675354 0.052585308 0.028367996
0.0069727073 0.051797256 0.029274434
0.0079563512 0.051716279 0.02980271
0.0090717534 0.052414577 0.029815584
0.009939502 0.051685411 0.029857278
0.010870913 0.051389772 0.029523075
0.012131771 0.05257101 0.02844125
0.01298304 0.05193216 0.027260363
0.014144706 0.052537479 0.024244756
-0.024174398 0.053385127 0.023976475
-0.023396716 0.053914167 0.026208222
-0.022184694 0.053444948 0.026696712
-0.020915413 0.052786518 0.02928555
-0.020005258 0.053013936 0.030114919
-0.019234417 0.0536539 0.030397594
-0.017954577 0.052866258 0.030397594
-0.017101631 0.053316846 0.030844927
-0.015844084 0.052483529 0.031120241
-0.015083574 0.053295292 0.028389007
-0.014300843 0.054138903 0.026909858
0.0039806222 0.052743241 0.026836544
0.0050276206 0.053292781 0.028520793
0.0059854346 0.052871339 0.029332072
0.0069514215 0.05263219 0.030251533
0.0079639386 0.052761093 0.030612886
0.0089078369 0.052457266 0.030317008
0.010002166 0.053011481 0.029845953
0.011064153 0.053309102 0.029892743
0.012078559 0.053346965 0.028139055
0.0130519 0.053211592 0.027270943
0.014181592 0.053687453 0.024397433
-0.024435759 0.054980457 0.02307871
-0.023228098 0.054535534 0.026029557
-0.022052653 0.054129243 0.026694983
-0.020989669 0.053973433 0.029714465
-0.020062678 0.054169234 0.030275255
-0.0190148 0.054042064 0.030784994
-0.017799826 0.053399481 0.031317532
-0.016962597 0.053881194 0.031443089
-0.015913278 0.053707313 0.031152308
-0.014926455 0.053735238 0.03026095
-0.013810004 0.053267159 0.028858006
-0.013013856 0.054057557 0.028655857
0.003030957 0.054557227 0.027469635
0.0040107355 0.054144934 0.030017227
0.0049589002 0.053556126 0.030165732
0.0059990576 0.053991519 0.030572861
0.006996084 0.053969793 0.030572861
0.0080028903 0.054019507 0.030588537
0.0089272056 0.053563233 0.030435413
0.0099239759 0.053589474 0.029666394
0.010994076 0.053970918 0.029435307
0.012003564 0.054016039 0.027549565
0.01313791 0.054572858 0.025253803
-0.023231452 0.05555347 0.023047864
-0.022383684 0.055959214 0.02595228
-0.020977601 0.054941338 0.028795421
-0.020220092 0.055605251 0.029582888
-0.018993553 0.054981336 0.030338377
-0.017950306 0.054848157 0.030627459
-0.016963091 0.054880589 0.031029046
-0.015963981 0.054876182 0.030390263
-0.014839978 0.054413252 0.030725628
-0.013931324 0.054730203 0.030702144
-0.012741863 0.053907882 0.029938221
-0.012015495 0.055071019 0.030439228
-0.011125906 0.055629533 0.028359741
0.0019807292 0.054470055 0.028766572
0.0029920691 0.054854605 0.030614913
0.0039538224 0.054365061 0.030722231
0.004931571 0.054247282 0.030787349
0.0059640738 0.05467068 0.030677378
0.0069975504 0.054980751 0.030572861
0.0079562468 0.054699201 0.030257642
0.0089769438 0.054859105 0.029969871
0.010052307 0.055287689 0.029492289
0.01100568 0.055028401 0.028732836
0.012060418 0.055276915 0.027077854
-0.021032536 0.056086764 0.026562959
-0.019963533 0.055897895 0.029501498
-0.018960744 0.055884298 0.029729098
-0.018021308 0.056066293 0.030334979
-0.016981944 0.055940524 0.02959162
-0.015825326 0.055388641 0.030168295
-0.015019591 0.05607314 0.030486554
-0.013933349 0.055733398 0.03076002
-0.012821485 0.055231016 0.031026155
-0.011907833 0.055569883 0.031202465
-0.010982019 0.05590846 0.030528694
-0.009893138 0.055401575 0.030282527
-0.0090303989 0.05618915 0.029988199
-0.0081066517 0.056746561 0.029094696
-0.0070048911 0.056039128 0.028277576
-0.0020172531 0.056483086 0.02658996
-0.0010050125 0.056280706 0.027875841
0 0.05624368 0.029391199
0.00098568888 0.05519858 0.031486481
0.0019821085 0.055499036 0.032124251
0.0029752906 0.055538762 0.032079011
0.0039430573 0.055202805 0.031883895
0.0049809166 0.055786271 0.031244636
0.0059823324 0.055835102 0.030400991
0.0069355774 0.055484619 0.030117214
0.0079888003 0.055921603 0.029845774
0.008948897 0.05568203 0.029550701
0.009999387 0.055996567 0.029372394
0.011025842 0.056131564 0.027840316
-0.019034393 0.057103176 0.028432935
-0.0180737 0.057233382 0.028835893
-0.016850991 0.056500379 0.029203743
-0.016007086 0.057025243 0.029962093
-0.014978205 0.056917176 0.031026155
-0.013925154 0.056695268 0.031202465
-0.012817052 0.056197844 0.031664461
-0.011958743 0.056804027 0.032792389
-0.01080431 0.055985969 0.032207429
-0.0098921303 0.056385141 0.031473279
-0.0089083239 0.056419384 0.031951457
-0.0079179564 0.056415439 0.031586081
-0.0069188126 0.056338903 0.030951262
-0.0059795375 0.056805607 0.030305028
-0.0049740616 0.056704305 0.030478388
-0.0040003653 0.057005204 0.030119628
-0.0029865752 0.056744929 0.029975235
-0.0019804565 0.056443006 0.031016409
-0.00099084096 0.056477934 0.031649917
0 0.055555958 0.033088923
0.00099192758 0.056539871 0.032329679
0.0020013428 0.057038266 0.032554954
0.0029566952 0.056177206 0.032546282
0.0039402437 0.056148473 0.031850666
0.0049625929 0.056573559 0.031269401
0.0059541869 0.056564774 0.030619174
0.0069902148 0.05692032 0.03053987
0.0079874843 0.05691082 0.03004384
0.0089865383 0.056914747 0.029079556
0.01000679 0.057038706 0.027841419
-0.018048901 0.058157574 0.027839065
-0.017111557 0.058380604 0.028390139
-0.015994705 0.057980809 0.028954417
-0.014913239 0.057664525 0.029783487
-0.013822316 0.057263885 0.030852079
-0.012891736 0.057516977 0.031940311
-0.011982042 0.057913207 0.032730699
-0.010892077 0.057430957 0.032430887
-0.0099007152 0.05742415 0.031951457
-0.0089676296 0.057791397 0.032174468
-0.0079523353 0.057654433 0.032412946
-0.0069053965 0.057216141 0.032165498
-0.0059611415 0.05762437 0.032087475
-0.0049460633 0.05737434 0.03195405
-0.0039637177 0.057473909 0.031876981
-0.0029871531 0.05775163 0.031842917
-0.0020024485 0.058071006 0.031842917
-0.00099381106 0.057641044 0.032516152
0 0.057424225 0.033281922
0.00099019043 0.057431046 0.033154517
0.0019812076 0.057455022 0.032686323
0.0029654298 0.057331648 0.03233698
0.0039842338 0.057771388 0.032217592
0.0049499855 0.057419837 0.03045097
0.0060176179 0.058170311 0.029651672
0.0070494171 0.05840946 0.028692275
0.0080435583 0.058315799 0.027117789
-0.016025638 0.059094541 0.027799189
-0.015047159 0.059185494 0.028780997
-0.013821595 0.058248155 0.029814035
-0.012826774 0.058213823 0.03153798
-0.011922766 0.05862027 0.032283396
-0.010897469 0.058450062 0.032254487
-0.0098748617 0.058261689 0.032254487
-0.0089475969 0.058656469 0.032734692
-0.0079461122 0.058602579 0.03275466
-0.0069489456 0.058569685 0.032640636
-0.0059894086 0.058895852 0.032847971
-0.0049985796 0.058983244 0.032828838
-0.0039777416 0.058671687 0.032741755
-0.0029853603 0.058712088 0.032771975
-0.0019815841 0.058456734 0.032715231
-0.00099146483 0.058496423 0.032787979
0 0.058856066 0.033281922
0.00098681997 0.058222376 0.033088923
0.0019914771 0.058748573 0.032210231
0.002987351 0.05875124 0.031463981
0.0039376887 0.058080908 0.031548142
0.0049943575 0.058933422 0.02868709
-0.014058718 0.060251649 0.028756618
-0.013018774 0.060086649 0.029586881
-0.011994379 0.059971895 0.030078292
-0.010920693 0.059567418 0.031118721
-0.010005099 0.060030594 0.031808853
-0.0089958878 0.059972588 0.032315075
-0.0079205548 0.059404157 0.032377481
-0.007005082 0.060043562 0.032498717
-0.0059582884 0.059582889 0.032847971
-0.0049563632 0.059476361 0.032915354
-0.0039842539 0.059763808 0.032648891
-0.0029694408 0.059388816 0.032737374
-0.0019937677 0.05981303 0.032538265
-0.00099574728 0.059744839 0.03264451
0 0.059412159 0.032668382
0.00099544588 0.059726749 0.032262772
0.00198822 0.059646603 0.031222224
0.0029806565 0.059613131 0.031094253
-0.012977939 0.060896482 0.027433276
-0.012026101 0.061132681 0.028821856
-0.010915997 0.060534168 0.029679567
-0.010001402 0.061008554 0.02986744
-0.0089545976 0.060692277 0.031519204
-0.0079682525 0.060757928 0.031260282
-0.0069387886 0.060466584 0.031395584
-0.0059680212 0.060674883 0.031941414
-0.0050178193 0.061217397 0.031403005
-0.0039700028 0.060542539 0.031072885
-0.0030128278 0.061260834 0.032143652
-0.0019897758 0.060688164 0.032013476
-0.0009939929 0.060633566 0.031815499
0 0.060424164 0.032013476
0.00099959876 0.060975526 0.031739473
0.0019747065 0.060228545 0.029225796
-0.011060318 0.062339976 0.027938187
-0.0099530742 0.061709061 0.029110193
-0.0090125035 0.062086139 0.029689848
-0.0079821311 0.061861515 0.030076414
-0.0069357632 0.061431047 0.030766219
-0.0060380804 0.062393501 0.030406535
-0.0050138268 0.062171452 0.030369788
-0.0039665843 0.061482061 0.030039668
-0.003016216 0.06233513 0.031127304
-0.0019978262 0.061932616 0.03065905
-0.00098608772 0.061137438 0.030472904
0 0.062452659 0.030472904
-0.0090887379 0.063621171 0.028175771
-0.0080210026 0.063165396 0.028796911
-0.0070574828 0.063517347 0.029614329
-0.006021325 0.063223913 0.028853476
-0.0049935458 0.062918678 0.028798729
-0.0040375893 0.063592039 0.028798729
-0.0030165117 0.063346751 0.028798729
-0.0020064607 0.063203514 0.028312951
-0.0009991437 0.062946051 0.028110862
-0.0080896551 0.064717241 0.026933819
-0.0070239892 0.064219333 0.028239697
-0.0060049067 0.064052343 0.028074771
-0.0050382726 0.064489894 0.027929455
-0.0040184464 0.064295143 0.027890027
-0.0029940305 0.06387265 0.027693599
-0.0020250715 0.064802289 0.026157439
-0.0060321568 0.065348364 0.026475102
-0.0050299745 0.06538967 0.026933819
0 0 0 1 0 0 0 1 0 0 0 1 0 0 0 0 0 918 1 0 0
