ply
format ascii 1.0
comment PCL generated
element vertex 878
property float x
property float y
property float z
element camera 1
property float view_px
property float view_py
property float view_pz
property float x_axisx
property float x_axisy
property float x_axisz
property float y_axisx
property float y_axisy
property float y_axisz
property float z_axisx
property float z_axisy
property float z_axisz
property float focal
property float scalex
property float scaley
property float centerx
property float centery
property int viewportx
property int viewporty
property float k1
property float k2
end_header
-0.011258397 0.026610756 0.02009815
-0.010071946 0.026187062 0.020909488
-0.0092114648 0.0266109 0.02164194
-0.0080876602 0.026284896 0.022292882
-0.0071255816 0.026466446 0.022596568
-0.0061535183 0.026665246 0.0225389
-0.005084605 0.026439946 0.023036331
-0.004044191 0.026287239 0.023211181
-0.0030991046 0.026858907 0.022791594
-0.0020654935 0.026851416 0.020658284
-0.014261882 0.027505059 0.021288067
-0.013252192 0.027523784 0.022590846
-0.012181933 0.02740935 0.023981571
-0.011104688 0.027256964 0.022538811
-0.010081234 0.027219335 0.022906989
-0.0092794672 0.027838403 0.022455066
-0.0082084639 0.027703566 0.022844017
-0.0071674124 0.027645733 0.023255289
-0.0061185607 0.027533526 0.023932904
-0.0050858958 0.027463838 0.023687035
-0.0041194446 0.027806252 0.023774326
-0.0030642825 0.027578544 0.023872048
-0.0020501872 0.027677527 0.0229702
-0.0010181069 0.027488887 0.023327649
0 0.027653232 0.02277413
-0.016282776 0.028494859 0.023434013
-0.015254719 0.028475476 0.024505049
-0.014256041 0.028512081 0.024462581
-0.013171684 0.028369781 0.024268508
-0.012112727 0.028263031 0.02413854
-0.011325515 0.028828584 0.024074793
-0.010115995 0.028324788 0.023443252
-0.0092116576 0.028658491 0.023183703
-0.0081905182 0.028666813 0.023695469
-0.0071121198 0.028448479 0.023990721
-0.0061299214 0.028606299 0.024078101
-0.0051175659 0.02865837 0.023852706
-0.0040829759 0.028580831 0.024518192
-0.0030637586 0.028595081 0.024163842
-0.0020500799 0.028701117 0.024031729
-0.0010113027 0.028316474 0.024330139
0 0.028365955 0.023552924
0.0010265701 0.028743964 0.023212492
0.0020481334 0.028673869 0.022446603
-0.02046469 0.029673802 0.023023397
-0.019268369 0.029409617 0.023709506
-0.018251965 0.029405946 0.025102258
-0.017301815 0.029514862 0.025313914
-0.016261421 0.029473828 0.024948627
-0.015194589 0.029376207 0.024865627
-0.014372645 0.029771907 0.024948835
-0.013249164 0.029555827 0.024576813
-0.01222365 0.029540488 0.024527013
-0.011262655 0.029692456 0.024182796
-0.010093533 0.029271245 0.02394706
-0.0091892313 0.029609747 0.022634894
-0.0081559904 0.029565467 0.023683995
-0.0071517224 0.029628566 0.02363503
-0.0061572939 0.029760256 0.023277611
-0.0050987196 0.029572576 0.023683995
-0.0040759277 0.029550476 0.023872048
-0.0030732499 0.029708084 0.023903817
-0.0020438782 0.029636236 0.023903817
-0.0010210973 0.029611822 0.024677932
0 0.029708914 0.02484718
0.0010175699 0.029509529 0.024910003
0.0020520275 0.029754398 0.023686379
0.0030768986 0.029743355 0.023569942
0.004081036 0.029587513 0.022567034
-0.022450427 0.03061422 0.022510916
-0.021454487 0.030649267 0.023540169
-0.020481594 0.030722393 0.023760557
-0.019202529 0.03031978 0.0251849
-0.018391857 0.030653095 0.025564939
-0.017319303 0.030563476 0.025525093
-0.016110685 0.030207533 0.025221556
-0.015401437 0.030802874 0.025525093
-0.014100324 0.030214982 0.025318325
-0.013242785 0.030560272 0.024619609
-0.012220682 0.030551706 0.024619609
-0.011265272 0.030723471 0.024276286
-0.010077702 0.030233108 0.022634894
-0.009259765 0.030865885 0.022634536
-0.0081968075 0.03073803 0.023028314
-0.0071448786 0.030620908 0.022915006
-0.0061506932 0.030753467 0.023570299
-0.005097785 0.030586712 0.022963256
-0.0040661818 0.030496364 0.023319244
-0.0030746928 0.030746927 0.023775876
-0.0020375447 0.03056317 0.023517936
-0.0010148904 0.03044671 0.023857802
0 0.030421266 0.025596857
0.0010160456 0.030481368 0.0255512
0.0020179658 0.030269487 0.025884032
0.0030435009 0.030435009 0.025194138
0.0040776124 0.030582095 0.024706632
0.0051069055 0.030641433 0.023186326
-0.023668403 0.03190089 0.02256161
-0.022511622 0.031720921 0.024032235
-0.02129107 0.031429674 0.025476664
-0.020208137 0.031322613 0.025787473
-0.019126208 0.031205921 0.025787473
-0.018294366 0.031506967 0.026017785
-0.01721587 0.031393643 0.026224136
-0.016228154 0.03144205 0.025920421
-0.015179819 0.031371627 0.0259718
-0.014181014 0.031400818 0.025765032
-0.013191305 0.031456191 0.024835169
-0.012146178 0.031377625 0.024835169
-0.011338008 0.031952571 0.02328819
-0.010164524 0.031510025 0.02252841
-0.0091507984 0.03151942 0.022302449
-0.0081865024 0.031722698 0.02252841
-0.0071924566 0.031852309 0.022651345
-0.0061469758 0.031759378 0.022834867
-0.0051305564 0.031809453 0.022617787
-0.0040972657 0.031753808 0.022871166
-0.003067727 0.031699847 0.023442626
-0.0020425085 0.03165888 0.02339527
-0.0010207165 0.031642213 0.024211943
0 0.031565044 0.024787784
0.0010239993 0.031743981 0.025040329
0.002024757 0.031383734 0.025426865
0.0030347174 0.031358749 0.025669664
0.0040376908 0.031292107 0.026014149
0.005001077 0.031006681 0.025636137
0.0060915384 0.031472951 0.024386764
-0.024590038 0.03278672 0.02257213
-0.023460018 0.032640025 0.023963839
-0.022232182 0.032337721 0.025417835
-0.02113523 0.032206062 0.026922703
-0.020445803 0.032713287 0.026580751
-0.019339344 0.032571524 0.026784778
-0.018336698 0.032598577 0.026616037
-0.017217668 0.032409728 0.026224136
-0.016249279 0.032498557 0.025571078
-0.015220585 0.032470584 0.025525093
-0.014248827 0.032568749 0.024242759
-0.01320926 0.032515101 0.024233222
-0.012291073 0.032776196 0.023881793
-0.011280319 0.032815475 0.021927446
-0.010281631 0.03290122 0.021592349
-0.009234325 0.032833155 0.021927893
-0.0081717744 0.032687098 0.021941841
-0.0072357175 0.033077568 0.022412062
-0.0061351983 0.032721058 0.022417814
-0.0051037231 0.03266383 0.022651613
-0.0040777442 0.032621954 0.022810102
-0.0030793436 0.032846332 0.023350745
-0.0020388267 0.032621227 0.023400664
-0.0010258657 0.032827701 0.024092048
0 0.032557443 0.024524629
0.0010151074 0.032483436 0.025051534
0.0020272783 0.032436453 0.025025189
0.0030415994 0.032443728 0.025469124
0.0040417635 0.032334108 0.026295781
0.0050535821 0.032342929 0.02652806
0.0060739373 0.032394335 0.026721507
0.0070183356 0.032083821 0.025823921
0.0081883036 0.032753214 0.024286211
-0.024538506 0.033740446 0.023568094
-0.023187382 0.03326885 0.026129901
-0.022279773 0.033419661 0.026580751
-0.021365467 0.033574305 0.026692837
-0.020173421 0.033286143 0.026264399
-0.019260485 0.033452421 0.026672691
-0.01827837 0.033510342 0.026463807
-0.017310191 0.033602133 0.025617987
-0.016228518 0.033471316 0.025166094
-0.015352332 0.033775128 0.025175035
-0.014216198 0.033509608 0.024913341
-0.01337162 0.033943344 0.023492843
-0.012304631 0.033837736 0.023567796
-0.011232606 0.033697817 0.021536201
-0.01023278 0.033768173 0.021419942
-0.0092450399 0.03389848 0.021045208
-0.0081963735 0.033810042 0.021451831
-0.0072087385 0.033984054 0.021924257
-0.0061368775 0.033752825 0.02146858
-0.0051108971 0.033731923 0.021783382
-0.0040985541 0.033813071 0.022488117
-0.0030559346 0.03361528 0.022960305
-0.0020427904 0.033706043 0.023350745
-0.0010200071 0.033660233 0.023812681
0 0.033477847 0.023920298
0.0010172117 0.033567984 0.024585128
0.002044735 0.033738125 0.024794847
0.0030282245 0.033310469 0.025681794
0.0040428923 0.033353861 0.026635528
0.0050282571 0.033186499 0.026607603
0.0060628685 0.033345778 0.026748419
0.0069905496 0.032955445 0.026652873
0.0081045087 0.033431098 0.025751173
0.0091252932 0.03345941 0.025308937
-0.025573004 0.034779284 0.023758203
-0.024245221 0.034347396 0.02508074
-0.023414167 0.034612246 0.027196556
-0.022085635 0.034132347 0.027652979
-0.021203043 0.034328736 0.027089924
-0.020323366 0.034549724 0.026776671
-0.019259948 0.034465171 0.026704133
-0.018120531 0.034227669 0.026609987
-0.017231267 0.034462534 0.02644062
-0.016300913 0.03463944 0.025707841
-0.015281751 0.034638636 0.024969846
-0.014249799 0.034606654 0.024243712
-0.013357002 0.034933697 0.022361547
-0.012251061 0.034711342 0.022355944
-0.01129708 0.034918249 0.021743089
-0.010101891 0.034346431 0.02173087
-0.0091797048 0.034678884 0.020824194
-0.0082631903 0.035118558 0.020376295
-0.0071515348 0.034736026 0.020852536
-0.0061264895 0.034716774 0.021154672
-0.0051195552 0.034812976 0.02186358
-0.0040811771 0.034690008 0.022141814
-0.003057122 0.034647383 0.022238046
-0.0020722577 0.035228383 0.022673011
-0.0010208279 0.03470815 0.023507088
0 0.034722716 0.023410231
0.0010176686 0.034600731 0.024225175
0.0020280275 0.034476466 0.024234504
0.0030483734 0.03454823 0.025027722
0.0040211529 0.034179799 0.026635528
0.0050363252 0.034247011 0.026724547
0.0060503092 0.034285087 0.027011186
0.0070779701 0.034378711 0.027497411
0.0080221556 0.034094162 0.026610047
0.0090594366 0.03422454 0.025999844
0.010140763 0.034478594 0.025232673
-0.025246233 0.035344724 0.024760604
-0.024029043 0.035042353 0.026359349
-0.023257138 0.035391293 0.027700394
-0.022338454 0.03553845 0.027653247
-0.021288963 0.035481602 0.027170926
-0.020297188 0.03552008 0.026684284
-0.019138245 0.035254661 0.026421905
-0.018334026 0.035649493 0.026692837
-0.017288458 0.035593882 0.026512355
-0.016141079 0.035308611 0.024642766
-0.015153745 0.035358738 0.024053514
-0.014289249 0.03572312 0.022395819
-0.01319393 0.035522118 0.020902842
-0.012404362 0.036179386 0.020988822
-0.011279302 0.035888687 0.020435721
-0.010182315 0.035638105 0.020347953
-0.0093029011 0.036177952 0.020347953
-0.008220125 0.035963047 0.019530237
-0.0072273803 0.036136899 0.019322306
-0.0062057152 0.036200006 0.019427657
-0.0051661395 0.036162976 0.020329416
-0.0041220933 0.036068317 0.020995289
-0.0030757838 0.035884142 0.021492809
-0.0020382842 0.035669971 0.022499144
-0.0010121054 0.035423689 0.022673011
0 0.035744827 0.022844404
0.0010145959 0.035510857 0.024042398
0.0020336679 0.035589185 0.023748547
0.0030732325 0.035854381 0.024334162
0.003997454 0.034977723 0.026398748
0.0050480026 0.035336018 0.026615053
0.006065778 0.035383705 0.027101278
0.0070275646 0.035137821 0.027635306
0.0081127519 0.035493288 0.02696237
0.0090493001 0.035191722 0.027048439
0.010087585 0.035306547 0.027045846
0.011125678 0.035399884 0.025056422
-0.025461935 0.036665183 0.026343405
-0.024195451 0.036293175 0.027480185
-0.023331521 0.036518902 0.028123438
-0.022134775 0.036220539 0.027976513
-0.021136554 0.036234088 0.027480185
-0.020223582 0.036402449 0.02725026
-0.019237775 0.03645052 0.026584417
-0.01811705 0.036234099 0.026154488
-0.017183574 0.03638874 0.025709867
-0.016283168 0.036637124 0.023620605
-0.015422598 0.037014235 0.022363663
-0.014150153 0.036386106 0.020908356
-0.013475096 0.037315648 0.020250529
-0.012308394 0.036925178 0.020094484
-0.011263466 0.03686225 0.019412041
-0.010292999 0.037054799 0.018300682
-0.009291566 0.037166264 0.018840671
-0.0082814638 0.037266582 0.018708259
-0.0071531069 0.036787406 0.018459409
-0.0062203808 0.037322283 0.017892361
-0.005117333 0.036844797 0.018190354
-0.0040886365 0.036797728 0.017841876
-0.0030898638 0.037078366 0.018900484
-0.0020578762 0.037041768 0.019201666
-0.0010336846 0.037212644 0.021897018
0 0.036469426 0.023229897
0.0010244537 0.036880333 0.024219722
0.0020481595 0.03686687 0.024596602
0.0030253702 0.03630444 0.024474978
0.0040832926 0.036749631 0.025319278
0.0050921314 0.036663346 0.026179552
0.0060203578 0.036122143 0.026615053
0.0070204926 0.036105391 0.027549237
0.0080487914 0.03621956 0.027782351
0.0090096053 0.036038421 0.027813584
0.010132722 0.036477797 0.027522057
0.011074482 0.036243759 0.027061135
0.012078208 0.036234621 0.024440616
-0.026484454 0.037689418 0.024533808
-0.025321363 0.037475616 0.027336031
-0.0240169 0.037026055 0.028123438
-0.023263521 0.037423927 0.028534889
-0.022343185 0.037577178 0.028534889
-0.021214548 0.037378017 0.027714401
-0.02013291 0.037245885 0.027388811
-0.019241497 0.037470285 0.026716143
-0.018364072 0.037748374 0.025833309
-0.017234348 0.037510052 0.024663985
-0.016385296 0.037890997 0.023392797
-0.015328105 0.037809327 0.021791309
-0.014383122 0.038012538 0.0201177
-0.013342671 0.037975296 0.019594401
-0.012326732 0.038007427 0.018761635
-0.011403124 0.038355961 0.017918199
-0.010323448 0.038196761 0.017698258
-0.0093173273 0.038304571 0.017726004
-0.0082761915 0.038277388 0.017837912
-0.0071795364 0.037948981 0.0177643
-0.0062011252 0.038240273 0.017110348
-0.0051802262 0.038333677 0.017108202
-0.004138954 0.038285326 0.016765386
-0.0031117506 0.038378257 0.0175834
-0.002079997 0.038479947 0.018313348
-0.0010166931 0.037617646 0.018698394
0 0.038208593 0.021882564
0.0010216112 0.037799615 0.023019582
0.0020317887 0.037588093 0.023985714
0.0030558323 0.037688602 0.024486423
0.0040767835 0.037710249 0.025439054
0.0050166086 0.037122905 0.026109815
0.0060900263 0.037555166 0.026170373
0.0070817973 0.037432361 0.027633399
0.0079969512 0.036985904 0.028236896
0.0090785893 0.037323095 0.02836445
0.0099428752 0.036788639 0.028018117
0.011085332 0.037287027 0.027522057
0.012210209 0.037648145 0.025759786
-0.025159497 0.038242433 0.027700394
-0.024143681 0.038227495 0.029762983
-0.023111779 0.03818468 0.02961269
-0.022031317 0.038054094 0.029349744
-0.02120327 0.038367823 0.028071463
-0.020318612 0.038605366 0.027389646
-0.019273905 0.03854781 0.0270046
-0.01819499 0.038411651 0.025684804
-0.017352013 0.038786855 0.023784339
-0.016355293 0.038843822 0.022404432
-0.015389151 0.038985848 0.020163387
-0.014339865 0.038922492 0.019535273
-0.013389263 0.039137848 0.018517733
-0.012349355 0.039106295 0.017419457
-0.011398476 0.039376553 0.015867382
-0.010368992 0.039402168 0.016217649
-0.0093719671 0.039570529 0.016261488
-0.0083776861 0.039794009 0.015267283
-0.007282807 0.039535239 0.015267283
-0.0062856297 0.039808989 0.014737755
-0.0052036056 0.039547406 0.014664501
-0.0041644573 0.039562345 0.014953583
-0.0031055647 0.039337154 0.016191423
-0.0020738079 0.039402347 0.01698193
-0.001031511 0.039197419 0.017991394
0 0.039179087 0.019085139
0.0010244088 0.038927536 0.021919638
0.0020322879 0.038613472 0.023097754
0.003036184 0.038458332 0.024147123
0.0040399022 0.038379073 0.024865419
0.0050688568 0.038523313 0.025671214
0.0061224801 0.038775709 0.025407881
0.0069883848 0.037936948 0.026474237
0.0081019094 0.038484067 0.028236896
0.0089825373 0.037926272 0.028929621
0.010056471 0.038214594 0.028423309
0.011044713 0.038154464 0.028090417
0.012185533 0.038587522 0.027210981
-0.026313009 0.03946951 0.027108103
-0.025041467 0.039064687 0.02961871
-0.024140853 0.039228886 0.029715598
-0.023095138 0.039161321 0.029556096
-0.022194054 0.039344005 0.029404938
-0.021222411 0.039413046 0.027974784
-0.020013144 0.039025631 0.027239919
-0.019089641 0.039184 0.025962204
-0.018316159 0.039685015 0.024848729
-0.017321084 0.039736602 0.023213357
-0.016263107 0.039641324 0.021332324
-0.015460992 0.040198579 0.019740731
-0.014423062 0.04017853 0.018590629
-0.01346414 0.040392417 0.016238809
-0.012371891 0.040208645 0.015597731
-0.0041663777 0.040622182 0.013588578
-0.0031226662 0.04059466 0.014791071
-0.0020795036 0.040550321 0.01561299
-0.0010321754 0.040254842 0.017603189
0 0.040278636 0.018793881
0.0010314472 0.040226441 0.020084113
0.0020634823 0.040237904 0.022001594
0.0030318191 0.03941365 0.025060058
0.0040607858 0.039592661 0.024493992
0.0050670421 0.039522927 0.025240928
0.0061279386 0.039831601 0.025688559
0.007042787 0.039238382 0.026594073
0.008027168 0.039132442 0.028282464
0.0089989631 0.038995508 0.028952509
0.010041942 0.039163575 0.029190898
0.011044084 0.039156299 0.028620958
0.012126579 0.039411381 0.027940422
-0.026007503 0.040011544 0.028196067
-0.025033854 0.040054165 0.03031835
-0.024017233 0.040028721 0.029997677
-0.023129914 0.040225934 0.029803783
-0.022070026 0.040127318 0.02966848
-0.021068366 0.04013022 0.027916044
-0.020287013 0.040574025 0.027190059
-0.019166743 0.040351037 0.025722831
-0.018361878 0.040804174 0.02431348
-0.017455976 0.041072883 0.022985458
-0.01632219 0.040805474 0.020085216
-0.01543539 0.041161038 0.018860221
-0.0020879747 0.041759491 0.015040725
-0.0010368377 0.041473504 0.016373366
0 0.041582845 0.017706752
0.001027312 0.041092481 0.019245267
0.0020522994 0.041045986 0.020780772
0.0030736693 0.040982254 0.023337185
0.004007617 0.04007617 0.024338871
0.0050582197 0.040465757 0.025407881
0.0060656536 0.040437691 0.026075244
0.0070903245 0.040516138 0.027210832
0.007939795 0.039698973 0.028643757
0.0090781059 0.040347137 0.029233307
0.0099563925 0.03982557 0.029350191
0.010969332 0.039888483 0.029172927
0.01211634 0.040387798 0.028830111
0.013121867 0.040374976 0.026817083
-0.026026197 0.041041311 0.028790146
-0.025256149 0.041420087 0.030283689
-0.024041755 0.041071337 0.030576438
-0.023221638 0.041395098 0.029711396
-0.022172445 0.041321378 0.028850466
-0.02119031 0.041371558 0.027972817
-0.020229843 0.04147118 0.027551711
-0.019296642 0.041640125 0.025609583
-0.018338745 0.041771591 0.023542583
-0.017469127 0.042131424 0.020539284
-0.016476177 0.042220205 0.019251764
0 0.042407807 0.015456051
0.0010350614 0.042437524 0.017831445
0.0020587002 0.042203356 0.019124001
0.0030745368 0.042018674 0.01988104
0.0040170457 0.041174721 0.023577958
0.0050123725 0.041101459 0.025126964
0.0060761431 0.041520312 0.026922345
0.007051189 0.041299824 0.027408451
0.0080382368 0.041195963 0.028818071
0.0090092467 0.04104213 0.029664487
0.0099708783 0.040880602 0.029664487
0.010964587 0.04086801 0.029273123
0.01204346 0.041148491 0.028710037
0.01309021 0.041284509 0.026915967
-0.026222514 0.042359449 0.030817181
-0.024954632 0.041923784 0.031532973
-0.024132947 0.042232659 0.031153709
-0.023178102 0.042325232 0.030068249
-0.022089509 0.042170882 0.029055208
-0.021233216 0.042466432 0.028041273
-0.020145927 0.042306449 0.026718646
-0.019273289 0.042604111 0.025256127
-0.018531425 0.043239992 0.021584511
0.0010386771 0.043624435 0.015966535
0.0020536846 0.043127373 0.018336505
0.0030504621 0.042706471 0.019651026
0.0041149785 0.043207273 0.022928268
0.0050344323 0.042289235 0.025126964
0.0060305633 0.042213943 0.026334703
0.0070735728 0.042441439 0.027040333
0.008022109 0.042116072 0.028053612
0.0090342183 0.042159688 0.029886574
0.010022277 0.042093564 0.03031382
0.011003118 0.042011905 0.029763401
0.01207456 0.042260963 0.029036194
0.013059277 0.042191513 0.027764976
-0.026009595 0.043015867 0.030900598
-0.024783216 0.04262713 0.031363368
-0.024008986 0.043016098 0.030967444
-0.022903353 0.04281931 0.030211389
-0.022063749 0.043124598 0.029055208
-0.021122126 0.043250065 0.027705014
-0.020153971 0.043331038 0.027011424
-0.01928895 0.043653939 0.025174677
0.003087309 0.044251431 0.018243015
0.0040978938 0.044052355 0.022162169
0.0050000716 0.043000616 0.025016725
0.0060708071 0.043507453 0.02634272
0.0071048127 0.043643851 0.028113306
0.007997212 0.042985015 0.029070854
0.008978934 0.042899355 0.030290276
0.0099941911 0.042975023 0.030406743
0.010864903 0.042471897 0.030270249
0.012062665 0.043224551 0.029036194
0.013091299 0.043301988 0.027798474
-0.026900372 0.04383764 0.027926683
-0.025876829 0.043791559 0.031202376
-0.024965625 0.043939497 0.031861186
-0.023847187 0.043719843 0.031718522
-0.023225674 0.044431724 0.030905068
-0.022040529 0.044081058 0.030203968
-0.02112155 0.044254676 0.027608752
-0.020217581 0.044478677 0.02736932
0.0031015708 0.045489702 0.017652392
0.004048307 0.044531375 0.020383298
0.0050566066 0.044498138 0.02417627
0.0061022658 0.044749949 0.025643259
0.0070613325 0.044385515 0.028128028
0.0080653578 0.044359464 0.029060155
0.0089361677 0.043687928 0.030551821
0.0099284919 0.043685365 0.031110644
0.010973285 0.04389314 0.031021833
0.011988182 0.043956667 0.028845668
0.013049984 0.044169176 0.02757445
-0.026982795 0.044971325 0.030453116
-0.025909057 0.044842601 0.030948788
-0.024772828 0.044591092 0.032231033
-0.024027923 0.045052357 0.032154173
-0.022863124 0.044732198 0.03119275
-0.021975925 0.044950757 0.029920906
-0.02114626 0.045313418 0.028218627
-0.020054691 0.045123059 0.027572691
0.0049858438 0.044872597 0.023829997
0.0060693272 0.045519955 0.026018083
0.0071090115 0.045700792 0.030364901
0.0079536121 0.044739068 0.030722558
0.0089157214 0.044578612 0.032013714
0.009989976 0.044954896 0.032620132
0.010838349 0.044338707 0.032068104
0.012051756 0.045194089 0.030801058
-0.027138444 0.046235867 0.029658735
-0.025997687 0.04599591 0.031305045
-0.024839962 0.045705531 0.032829285
-0.023979116 0.045959976 0.03258419
-0.022728758 0.045457516 0.033163607
-0.022181356 0.046379201 0.030957609
-0.021043792 0.046095926 0.029227555
-0.020057546 0.04613236 0.027914822
0.0049838386 0.045851316 0.024850577
0.006032736 0.04625098 0.026754349
0.0071142241 0.04675062 0.029026568
0.0079349065 0.045625713 0.0319722
0.0089568244 0.045779329 0.03244558
0.0099629499 0.045829576 0.033015519
0.010867282 0.045444999 0.032578617
0.011963366 0.045859568 0.031094849
-0.028159548 0.047267813 0.028561115
-0.026868038 0.046770286 0.030316114
-0.025903845 0.04682618 0.031527549
-0.024881221 0.046776697 0.032498866
-0.02389537 0.0467951 0.032675743
-0.022971176 0.046941098 0.033320248
-0.021826474 0.046629284 0.032237202
-0.021107627 0.047240879 0.030705661
-0.020193342 0.047454357 0.028814882
0.0049681799 0.046700891 0.025334388
0.0060411794 0.047322575 0.027752668
0.0070312298 0.047209688 0.031887084
0.0079655703 0.046797723 0.032211721
0.0089340964 0.046655837 0.032997757
0.0099619124 0.046820991 0.032997757
0.010951402 0.046792354 0.032620132
0.011994805 0.046979655 0.030833334
-0.028090464 0.048155081 0.02870357
-0.027119529 0.048212495 0.029898375
-0.026061228 0.048113037 0.03176102
-0.024731971 0.047485381 0.032740831
-0.023844888 0.047689777 0.033196419
-0.022881065 0.047751784 0.03411755
-0.021857342 0.047688745 0.033811569
-0.02090721 0.047787908 0.031917393
-0.020285403 0.04868497 0.028901488
0.0050387643 0.048372138 0.026754349
0.0060201613 0.048161291 0.028511435
0.0070367996 0.04825234 0.031577021
0.0078930259 0.047358155 0.031805962
0.008909693 0.047518365 0.03344208
0.0099493144 0.047756709 0.033152491
0.010968835 0.047864009 0.032537788
0.011920132 0.047680527 0.03176114
-0.028019564 0.049034234 0.029662073
-0.026923962 0.048862003 0.030615479
-0.025682878 0.048402343 0.032234341
-0.024942074 0.048886463 0.033635437
-0.023637692 0.048260286 0.03387323
-0.02282561 0.048628472 0.03479436
-0.021997079 0.048993494 0.034389824
-0.020894637 0.048754152 0.033932775
-0.020228582 0.049560025 0.030256927
0.0049688737 0.048694964 0.027367711
0.0060652033 0.049532495 0.030549556
0.0069080428 0.048356298 0.03222689
0.0079235863 0.048531964 0.034201026
0.0088912416 0.048407871 0.035149246
0.0098707136 0.048366498 0.034499019
0.010856418 0.048360407 0.032687575
0.012039261 0.049160313 0.031702101
-0.028175004 0.050312508 0.029853642
-0.026932096 0.049874254 0.031199634
-0.026113074 0.050217453 0.032406867
-0.024806179 0.049612358 0.03473568
-0.023787066 0.049556393 0.034537703
-0.022864526 0.049705494 0.034592837
-0.021787042 0.049516007 0.034811944
-0.020635782 0.049132813 0.034552127
-0.019888857 0.049722146 0.033340514
0.0050696051 0.050696053 0.028738946
0.0059856768 0.049880642 0.031120658
0.0068839178 0.049170844 0.034186929
0.0079826349 0.049891468 0.034720778
0.0088776462 0.049320258 0.034865499
0.0098967422 0.049483713 0.03480345
0.010863093 0.049377698 0.032849699
0.011942703 0.049761266 0.031229347
-0.028095333 0.051173642 0.029190153
-0.027024796 0.051046837 0.032359689
-0.025766013 0.050541025 0.032075226
-0.024739644 0.050468873 0.033854663
-0.023791298 0.050556511 0.034302384
-0.022799112 0.050554551 0.034657806
-0.021677982 0.050253507 0.0349361
-0.020767653 0.050435729 0.035058379
-0.019790869 0.05046672 0.035042971
-0.018809317 0.050488163 0.033032238
0.0040504239 0.051642906 0.028969795
0.0049830545 0.050827157 0.031560719
0.0058658826 0.049860004 0.034392089
0.0069211512 0.050425533 0.034503192
0.0079003302 0.05036461 0.034919709
0.0088863187 0.050355807 0.034656048
0.0098845996 0.050411459 0.034720778
0.010864377 0.050371204 0.033767611
0.011968742 0.050867155 0.030748695
-0.026903877 0.051814873 0.030502588
-0.025867712 0.051735424 0.032385737
-0.024755983 0.051492441 0.034181863
-0.0237244 0.051402867 0.034359783
-0.022703055 0.051328644 0.034927577
-0.021726931 0.051354561 0.035534263
-0.020648235 0.051128965 0.035738468
-0.019849842 0.051609594 0.035674065
-0.018720748 0.051235732 0.035391122
-0.017924476 0.051781822 0.033188313
0.0040167333 0.052217532 0.030946016
0.0049089226 0.051052794 0.034474641
0.0059206174 0.051312018 0.034733742
0.0068965307 0.051231369 0.034856886
0.0078562377 0.051065546 0.034871131
0.0089814384 0.051892757 0.03461203
0.0098379496 0.05115734 0.034563392
0.010763201 0.050880589 0.032901704
-0.025893906 0.052783731 0.031654179
-0.024910921 0.05281115 0.033892632
-0.023622643 0.052166671 0.033959091
-0.022804024 0.052548397 0.03464812
-0.021689402 0.052251741 0.035219073
-0.02076456 0.052405793 0.035873443
-0.019644227 0.052057199 0.036356419
-0.018781263 0.052389838 0.035599768
-0.01766653 0.052018117 0.035314143
-0.017078016 0.053243227 0.03472358
0.0038739983 0.051330477 0.034933567
0.0049025044 0.051966544 0.035264552
0.0059245103 0.052333176 0.035312265
0.0068397317 0.051786538 0.036168396
0.0079015689 0.052347895 0.035625905
0.0087821987 0.051717389 0.035554409
0.0098976241 0.052457407 0.034916073
0.010941189 0.052716635 0.033542484
-0.024774609 0.053513158 0.031656176
-0.023687297 0.053296421 0.033463091
-0.022677226 0.053242184 0.03464812
-0.021528317 0.052842233 0.035266519
-0.020591749 0.052950211 0.036319047
-0.019690901 0.053165436 0.03685379
-0.018710883 0.053178299 0.036895424
-0.017581416 0.052744254 0.036770195
-0.016573608 0.052645579 0.036661327
-0.01572296 0.053064991 0.036559016
0.0029225531 0.052605961 0.036387563
0.0039411266 0.053205211 0.036398649
0.0049066343 0.052991655 0.036460757
0.0059102392 0.053192157 0.036515445
0.0069119213 0.053320538 0.036654264
0.0078622419 0.053070139 0.036051601
0.0087929089 0.052757453 0.035955399
0.0098363832 0.053116471 0.036077648
0.010910354 0.053559922 0.032901704
-0.022665508 0.054200128 0.033630222
-0.021876773 0.054691937 0.035130888
-0.020592483 0.053932693 0.035866588
-0.019901531 0.054729212 0.036906064
-0.018767698 0.054327544 0.03744188
-0.017648328 0.053925447 0.03744188
-0.016562946 0.053586006 0.037519485
-0.015690669 0.053936675 0.036791295
-0.014497705 0.053158253 0.035747349
-0.013774964 0.054115929 0.035420299
0.0009768426 0.053726342 0.037005216
0.0019212893 0.052835453 0.037734181
0.0029469463 0.054027352 0.037376195
0.0038914853 0.053507924 0.037160188
0.004840665 0.053247318 0.036649197
0.005846655 0.053594336 0.036673963
0.0068914308 0.054146957 0.036712408
0.007807916 0.053679422 0.036533296
0.0088280169 0.053948995 0.036044061
0.0098741604 0.054307882 0.035665631
0.010823016 0.054115083 0.032932431
-0.021816289 0.055532373 0.033559531
-0.020586759 0.054898024 0.036201656
-0.019542549 0.054719139 0.036895424
-0.01865245 0.05497564 0.037519485
-0.017716175 0.055116989 0.037519485
-0.016747067 0.055166811 0.036825359
-0.015542456 0.054398593 0.037220597
-0.014751659 0.055072859 0.037430346
-0.013714518 0.054858074 0.036940336
-0.012579822 0.054190002 0.037206471
-0.011755725 0.054860052 0.035966307
-0.00096757297 0.054184087 0.03888914
0 0.054738842 0.038904965
0.00097367197 0.054525632 0.038273901
0.0019565048 0.054782134 0.03823638
0.0029448566 0.054970659 0.038730592
0.0038623845 0.054073382 0.03823638
0.0049018161 0.054900341 0.036587656
0.0058359713 0.054469064 0.036540538
0.0068658413 0.054926731 0.036700577
0.0078385873 0.05487011 0.035927504
0.0088288179 0.05493487 0.035846502
0.0098339776 0.055070277 0.034612536
-0.019664828 0.056044757 0.034953624
-0.018593304 0.055779912 0.036560297
-0.017674232 0.055968404 0.036716104
-0.016602866 0.055668429 0.037114143
-0.015595955 0.055560585 0.037537485
-0.014666026 0.055730902 0.038597614
-0.013620248 0.055453867 0.038597614
-0.012583317 0.055173002 0.038824379
-0.011792931 0.056016419 0.038798332
-0.01058128 0.054830272 0.038160622
-0.0096857427 0.055208731 0.038323253
-0.0087600416 0.055480264 0.038585663
-0.0077764867 0.055407465 0.038490266
-0.0068085408 0.055440973 0.038915724
-0.0058140331 0.055233315 0.038906574
-0.0048814071 0.055648044 0.038274765
-0.0039069238 0.055673663 0.037845314
-0.0029362317 0.055788402 0.038770944
-0.0019523264 0.055641301 0.039048851
-0.00097743981 0.055714067 0.039160371
0 0.054757681 0.039394677
0.00096892822 0.055228908 0.038895279
0.0019581213 0.055806454 0.039053917
0.0029110599 0.055310138 0.039045244
0.0038789152 0.055274539 0.038656622
0.004875673 0.055582672 0.036612421
0.0058839289 0.055897322 0.036830604
0.006873183 0.055967346 0.037302911
0.0078527741 0.055951014 0.036223263
0.0088507487 0.056054745 0.035052896
-0.018727642 0.057168595 0.035953194
-0.017624617 0.056790438 0.036180288
-0.016656477 0.056827981 0.036639035
-0.015712997 0.056959614 0.037559748
-0.014546897 0.056248005 0.038264602
-0.013618836 0.056420892 0.038761228
-0.012611822 0.056268133 0.039361
-0.011721469 0.056653768 0.039330095
-0.010669127 0.0562554 0.039092988
-0.0098180687 0.056944802 0.038585663
-0.0087922523 0.056661189 0.038991392
-0.0077824378 0.056422677 0.039150983
-0.0067989645 0.056334279 0.039239079
-0.005848913 0.056539495 0.039190233
-0.0048787845 0.056593902 0.039094865
-0.0038961349 0.056493957 0.039073408
-0.0029274139 0.05659667 0.039360583
-0.0019516391 0.056597535 0.039360583
-0.00097438018 0.056514051 0.039718747
0 0.056444228 0.039725155
0.00097226817 0.056391556 0.040107876
0.0019529666 0.056636032 0.038968176
0.0029230691 0.056512669 0.038514704
0.0039260648 0.056927938 0.037716329
0.0048588719 0.05636292 0.036267877
0.0059184227 0.057211421 0.036339194
0.0069138431 0.057286128 0.035305291
-0.016695607 0.057943579 0.036168844
-0.015618656 0.057593793 0.037559748
-0.014797593 0.058203869 0.038702995
-0.013563327 0.057159737 0.039557248
-0.012655907 0.057438351 0.039986968
-0.011702082 0.057535239 0.039986968
-0.010732305 0.057564188 0.03989315
-0.0097234966 0.057368636 0.039610654
-0.0087521989 0.057375528 0.03989315
-0.0078134276 0.057624031 0.039592415
-0.0068319966 0.057583973 0.039685726
-0.0058837342 0.057856724 0.039685726
-0.004882467 0.057613116 0.040099531
-0.0039109066 0.057685874 0.039627701
-0.0029412052 0.057843704 0.040004551
-0.0019627637 0.057901528 0.039620042
-0.00097252341 0.057378884 0.039847136
0 0.057628192 0.039459646
0.00096968829 0.057211611 0.039266646
0.0019506993 0.057545628 0.038281679
0.0029424718 0.057868615 0.036863267
0.0038580664 0.05690648 0.036224216
0.0049204673 0.058061518 0.034784883
-0.015738312 0.059018672 0.036306977
-0.014801257 0.059205029 0.037559748
-0.013711954 0.058765516 0.038911045
-0.012750814 0.058849912 0.039612591
-0.011728207 0.058641035 0.039612591
-0.010674033 0.058222 0.039610654
-0.009801344 0.058808066 0.039666176
-0.0088162953 0.058775302 0.039532036
-0.0077695902 0.058271926 0.039478779
-0.0068628532 0.058824457 0.039600015
-0.0058660381 0.058660384 0.039660007
-0.0048906403 0.058687683 0.03962028
-0.0039210618 0.058815926 0.039445698
-0.0029059455 0.058118913 0.039564043
-0.0019606026 0.05881808 0.039221734
-0.00097060186 0.058236111 0.038572013
0 0.058254376 0.038191885
0.00098061189 0.05883671 0.037530363
-0.014542798 0.059140708 0.035024196
-0.013599781 0.059256189 0.037293911
-0.012591813 0.059084658 0.039361
-0.011689894 0.059423629 0.039421529
-0.01071914 0.059442502 0.039666265
-0.0097784391 0.05964848 0.039414406
-0.0088265976 0.059824716 0.039482623
-0.0078428974 0.059802093 0.038531452
-0.0068350043 0.05956218 0.038583457
-0.0058815908 0.059796173 0.039115578
-0.0049316273 0.060165856 0.038590759
-0.0038916443 0.059347574 0.0382061
-0.0029540579 0.060065843 0.038408339
-0.0019604808 0.059794664 0.037759691
-0.01264033 0.060284652 0.036967456
-0.011795367 0.060942732 0.038070589
-0.010724394 0.06044659 0.038096488
-0.0097320015 0.060338411 0.038144886
-0.0088357553 0.060868543 0.038144886
-0.0077724801 0.060236722 0.038221925
-0.0068328613 0.060519632 0.038821191
-0.0058840825 0.060802188 0.038533866
-0.0048891059 0.060624916 0.03842476
-0.0038933165 0.06034641 0.036492407
-0.011870348 0.062319327 0.036033511
-0.010656727 0.061033979 0.036843538
-0.0097469604 0.061405856 0.037469178
-0.008870868 0.062096082 0.037722498
-0.0078750262 0.062015831 0.037771642
-0.0068981298 0.06208317 0.037284672
-0.0058829244 0.061770707 0.036045432
-0.010804216 0.062860899 0.035125911
-0.0097480053 0.062387239 0.037027091
-0.0088300556 0.062791511 0.036467254
-0.0078700529 0.062960424 0.03603971
0 0 0 1 0 0 0 1 0 0 0 1 0 0 0 0 0 878 1 0 0
