ply
format ascii 1.0
comment PCL generated
element vertex 868
property float x
property float y
property float z
element camera 1
property float view_px
property float view_py
property float view_pz
property float x_axisx
property float x_axisy
property float x_axisz
property float y_axisx
property float y_axisy
property float y_axisz
property float z_axisx
property float z_axisy
property float z_axisz
property float focal
property float scalex
property float scaley
property float centerx
property float centery
property int viewportx
property int viewporty
property float k1
property float k2
end_header
-0.0041136555 -0.044221796 0.022997141
-0.010228396 -0.042959269 0.023223191
-0.0091640819 -0.042765718 0.023662806
-0.0081268772 -0.042666107 0.02485925
-0.0071520931 -0.042912558 0.024348617
-0.0061258818 -0.042881176 0.025135338
-0.0051181121 -0.042992145 0.024805099
-0.0040950887 -0.042998433 0.024793208
-0.0030342711 -0.042479794 0.024367929
-0.0020346432 -0.042727504 0.023982584
-0.0010116913 -0.042491034 0.023455381
0 -0.042931791 0.023030847
0.0010310967 -0.043306064 0.022473246
-0.013034252 -0.041108027 0.024775952
-0.012165691 -0.041566111 0.024872154
-0.011171353 -0.04163868 0.025021404
-0.010072752 -0.041298285 0.025432408
-0.0091489684 -0.041678637 0.025313079
-0.0082332734 -0.042195529 0.024889797
-0.0072388356 -0.042398896 0.024716318
-0.0061121699 -0.041766495 0.024985164
-0.0051351953 -0.042108603 0.024823576
-0.0041039037 -0.042065013 0.024993747
-0.0030719894 -0.041983858 0.024811149
-0.0020587002 -0.042203356 0.024823576
-0.0010279645 -0.042146549 0.024009615
0 -0.04190544 0.023838937
0.0010257202 -0.04205453 0.023838937
0.0020333456 -0.041683584 0.023246944
0.0030756285 -0.042033594 0.022359163
-0.017336436 -0.040791612 0.025342256
-0.01619124 -0.040478099 0.026718915
-0.015295332 -0.040787552 0.026260078
-0.01424127 -0.040689342 0.026556492
-0.013265344 -0.040816441 0.026556492
-0.012296822 -0.040989406 0.026573181
-0.011270886 -0.04098504 0.025812805
-0.010155338 -0.040621351 0.025591433
-0.0092637194 -0.041172087 0.025694966
-0.0081926305 -0.040963151 0.024936497
-0.0071752537 -0.04100145 0.024310052
-0.006150465 -0.041003101 0.024966687
-0.0051110014 -0.040888011 0.024805099
-0.0041037183 -0.041037183 0.024811149
-0.0030871381 -0.041161843 0.024954468
-0.0020430773 -0.040861543 0.025066108
-0.0010239751 -0.040959001 0.024894655
0 -0.04119939 0.025724441
0.0010216088 -0.040864348 0.025438488
0.0020254822 -0.040509641 0.025354147
0.003072395 -0.040965267 0.024203748
0.0040406217 -0.040406216 0.023221433
-0.01946282 -0.039949998 0.02434656
-0.018196119 -0.039424922 0.025985152
-0.017247899 -0.039568707 0.026157171
-0.016121453 -0.039296042 0.026862085
-0.015259041 -0.039673507 0.026917279
-0.014093604 -0.039260756 0.027519375
-0.013320627 -0.039961882 0.026691049
-0.012328216 -0.0400667 0.026402146
-0.011255624 -0.039906304 0.025442481
-0.010280372 -0.040093452 0.025036454
-0.0092845494 -0.040233046 0.024936497
-0.0082708411 -0.040320352 0.023998529
-0.0072844699 -0.040584903 0.023287326
-0.0061596138 -0.04003749 0.024541408
-0.0051477505 -0.040152453 0.024367392
-0.004097925 -0.03995477 0.024367392
-0.0030957216 -0.040244382 0.023765475
-0.0020402998 -0.039785843 0.023765475
-0.0010309618 -0.040207505 0.024004221
0 -0.039537817 0.025180608
0.0010294445 -0.040148336 0.025149882
0.0020592341 -0.040155064 0.024872571
0.0030502069 -0.03965269 0.024274468
0.0040891864 -0.039869566 0.023754954
0.0050816056 -0.039636526 0.023631811
0.0060838838 -0.039545245 0.023335218
-0.020508982 -0.038967069 0.025215864
-0.019340724 -0.038681448 0.026187927
-0.018161153 -0.038340215 0.026194692
-0.017304586 -0.03868084 0.027934343
-0.016364027 -0.038864564 0.027729183
-0.015261765 -0.038663138 0.027009487
-0.014180195 -0.0384891 0.027491331
-0.013214168 -0.038626034 0.026545137
-0.012187717 -0.038594436 0.026098281
-0.011321048 -0.039109077 0.025271147
-0.01018512 -0.038703457 0.024037987
-0.0091977343 -0.038834881 0.023986608
-0.0082169781 -0.039030645 0.023675084
-0.007214406 -0.039163921 0.023684233
-0.0061800196 -0.039140124 0.024124354
-0.0051708291 -0.039298303 0.02330029
-0.00412561 -0.039193295 0.023362964
-0.0030906324 -0.039148014 0.023299575
-0.0020628814 -0.039194748 0.023307681
-0.0010335142 -0.039273541 0.023566991
0 -0.039333638 0.023409396
0.0010270798 -0.039029032 0.023739398
0.0020494058 -0.038938709 0.022838414
0.0030948208 -0.039201066 0.023631811
0.0040955031 -0.038907278 0.024253279
0.0050724987 -0.038550992 0.024160445
0.0061210236 -0.038766485 0.024989128
0.0071651232 -0.038896382 0.024989128
0.0080931699 -0.038442556 0.023279876
-0.021350794 -0.037618067 0.025640458
-0.020400943 -0.037741747 0.026310593
-0.019425871 -0.037829328 0.027244031
-0.018456876 -0.037939139 0.027196735
-0.017379755 -0.037826527 0.02758795
-0.016357146 -0.037825901 0.02754584
-0.015221621 -0.037546664 0.026968777
-0.014470621 -0.038243786 0.026391983
-0.013234592 -0.037667688 0.026163757
-0.012422136 -0.038301591 0.0251894
-0.011232878 -0.037783317 0.024495244
-0.010223297 -0.037826203 0.023602188
-0.009268159 -0.038102437 0.023278207
-0.0082334559 -0.038079735 0.022765368
-0.0071323663 -0.037699655 0.023105234
-0.0061392016 -0.037858412 0.022622019
-0.0051884223 -0.038394328 0.021909326
-0.0041078688 -0.037997786 0.022124499
-0.0031277791 -0.038575944 0.022342235
-0.0020909258 -0.038682129 0.022606701
-0.0010253148 -0.03793665 0.022916913
0 -0.038078297 0.023775846
0.0010289578 -0.038071439 0.023096472
0.0020370104 -0.03768469 0.022473335
0.0030826074 -0.038018826 0.023075908
0.0040279697 -0.037258722 0.023638904
0.0050906767 -0.037671007 0.024253279
0.0061697988 -0.038047094 0.025498092
0.0070762732 -0.037403159 0.025803268
0.0081256451 -0.037581109 0.024989128
0.009113553 -0.037466835 0.023909688
-0.022462955 -0.036757562 0.024627686
-0.021277921 -0.036476437 0.026858926
-0.020377647 -0.036679763 0.027196735
-0.019256216 -0.03648546 0.027807295
-0.018404257 -0.036808513 0.027244031
-0.017260933 -0.036552563 0.027699172
-0.016358899 -0.036807522 0.026270241
-0.015235984 -0.036566358 0.026704669
-0.014347284 -0.036893014 0.026306748
-0.013273091 -0.036756251 0.026098281
-0.012190388 -0.03657116 0.02555716
-0.011383666 -0.037255634 0.024704069
-0.010137578 -0.03649528 0.023112208
-0.0092598721 -0.037039489 0.022893786
-0.0082192877 -0.036986794 0.022557884
-0.0072793458 -0.037436634 0.022874266
-0.0062254812 -0.037352886 0.022822917
-0.0051404084 -0.037010938 0.021832585
-0.004130417 -0.037173748 0.021871686
-0.0031013414 -0.037216097 0.022488564
-0.0020440298 -0.036792535 0.022342235
-0.0010405472 -0.037459694 0.023260474
0 -0.036963522 0.023061991
0.0010407293 -0.037466254 0.02317062
0.002068443 -0.037231974 0.022189498
0.0030765643 -0.036918771 0.022961944
0.0041046683 -0.036942013 0.02298063
0.0050924355 -0.036665536 0.023621619
0.0060801096 -0.036480654 0.025337249
0.0071259039 -0.036647506 0.025777072
0.0081668282 -0.036750723 0.025590926
0.0090533206 -0.036213282 0.025434464
0.01015822 -0.036569592 0.025292397
-0.022386491 -0.03561487 0.027692199
-0.021438006 -0.035730008 0.02801007
-0.020322669 -0.035564672 0.027930528
-0.019441443 -0.035813183 0.027928501
-0.01841813 -0.03581303 0.027451009
-0.017230682 -0.035474934 0.027329803
-0.016316852 -0.035693113 0.026270241
-0.015237514 -0.0355542 0.026270241
-0.014316445 -0.035791114 0.025476038
-0.013369933 -0.035995971 0.025447786
-0.012251357 -0.035733122 0.025116324
-0.011337412 -0.03607358 0.022759408
-0.010237575 -0.035831511 0.022469163
-0.009301262 -0.036171574 0.022570848
-0.0083080642 -0.03634778 0.021360219
-0.0072669182 -0.036334589 0.021059752
-0.0062100887 -0.036225516 0.020867676
-0.0051880055 -0.036316037 0.020853788
-0.0041461466 -0.036278784 0.020862132
-0.0031320914 -0.036541067 0.021178097
-0.0020778885 -0.036363047 0.021401972
-0.0010353093 -0.036235824 0.022959679
0 -0.036057353 0.02301079
0.0010255903 -0.035895664 0.022598982
0.0020599086 -0.036048401 0.022082329
0.0030717747 -0.035837371 0.022722363
0.0041274386 -0.036115088 0.022722363
0.0050656167 -0.035459317 0.023509115
0.0061791125 -0.036044825 0.024737686
0.0071827406 -0.035913702 0.025981128
0.0081516197 -0.035663337 0.026050121
0.0091121541 -0.035436157 0.027174145
0.01010398 -0.035363931 0.027104616
0.011149055 -0.035474267 0.026295036
0.012367932 -0.036073133 0.02546674
-0.023712721 -0.035053588 0.0271357
-0.022268482 -0.034414928 0.028428078
-0.021289686 -0.034469012 0.028851092
-0.020636482 -0.03508202 0.028822899
-0.019294539 -0.034527071 0.028713286
-0.018295335 -0.034557853 0.0275383
-0.017314853 -0.034629706 0.02723515
-0.016515577 -0.035095602 0.026276261
-0.015502145 -0.035138194 0.026156723
-0.014309304 -0.034751166 0.02523762
-0.013296217 -0.034774721 0.025062203
-0.012192032 -0.034544092 0.024029136
-0.011346517 -0.035071053 0.022268504
-0.010321761 -0.035093989 0.021548897
-0.0093327723 -0.035257142 0.021618605
-0.0082223695 -0.034945071 0.019196957
-0.0072012865 -0.034977678 0.020782232
-0.0062438576 -0.035381861 0.020724118
-0.0051550944 -0.035054643 0.020910829
-0.004164774 -0.035400581 0.021113455
-0.0030877425 -0.034994416 0.021170497
-0.0020474694 -0.034806978 0.021321684
-0.0010273289 -0.034929182 0.021606833
0 -0.035208158 0.021355093
0.0010225291 -0.034765989 0.022671938
0.0020802773 -0.035364717 0.022729009
0.0030833681 -0.03494484 0.023377925
0.0041275928 -0.035084538 0.023403168
0.0050967727 -0.034658056 0.023707837
0.0061578359 -0.034894407 0.024339527
0.0071302732 -0.034632757 0.025977492
0.0082199397 -0.034934744 0.026128858
0.0091348775 -0.03450954 0.026419967
0.010203323 -0.0346913 0.027381033
0.011164133 -0.034507323 0.027698904
0.012256163 -0.034725796 0.026653349
0.013112281 -0.034293659 0.025137663
-0.023398088 -0.033571169 0.028415352
-0.022323826 -0.033485737 0.029081732
-0.021387132 -0.033608351 0.029286414
-0.020288739 -0.03347642 0.028803319
-0.019285858 -0.033496488 0.027766764
-0.018354861 -0.033650577 0.026878983
-0.017327737 -0.033636194 0.026616693
-0.016139137 -0.033286966 0.025665253
-0.01534049 -0.033749077 0.025905341
-0.014048698 -0.033114787 0.024995118
-0.013390571 -0.033991449 0.023577988
-0.012239758 -0.033659335 0.022759408
-0.011291408 -0.033874225 0.021541327
-0.01029596 -0.03397667 0.021323591
-0.0093319779 -0.034217253 0.020102918
-0.0083188601 -0.034315296 0.020067066
-0.0073597264 -0.034695853 0.020610213
-0.0062699467 -0.034484707 0.020133197
-0.0052315146 -0.034527995 0.020086616
-0.0041522714 -0.034256238 0.019701689
-0.0031554715 -0.034710187 0.020604283
-0.0020739038 -0.034219414 0.021113455
-0.0010469885 -0.034550618 0.020993441
0 -0.033904992 0.021065801
0.0010268739 -0.033886839 0.021317959
0.0020781576 -0.034289598 0.021863043
0.003102239 -0.034124631 0.021870017
0.0040922347 -0.033760935 0.022734463
0.0051145428 -0.03375598 0.023638397
0.0061492729 -0.033821002 0.023707837
0.0071504693 -0.033709355 0.025869906
0.0081137437 -0.033469193 0.026438802
0.00917177 -0.033629823 0.027715296
0.010189041 -0.033623833 0.028100193
0.011048849 -0.033146545 0.02838546
0.012195296 -0.033537064 0.028479755
0.01323897 -0.033606619 0.027336806
-0.023372089 -0.03251769 0.029081732
-0.022306953 -0.032446478 0.030029953
-0.021235928 -0.032359507 0.029723525
-0.020183552 -0.032293685 0.028752625
-0.019248212 -0.032418042 0.027766764
-0.018427415 -0.032759849 0.027541667
-0.01731471 -0.032592397 0.02723515
-0.016405728 -0.032811455 0.025894761
-0.015316249 -0.032674666 0.025618732
-0.014383194 -0.032875873 0.023228914
-0.013277967 -0.032684229 0.022757858
-0.01233846 -0.032902561 0.021933973
-0.011476812 -0.033387091 0.021271497
-0.010319305 -0.033021774 0.019627064
-0.0093453452 -0.033227894 0.01969862
-0.0083988085 -0.033595234 0.019508839
-0.0071919006 -0.032877259 0.019642591
-0.0062216194 -0.033181973 0.019877315
-0.005226796 -0.033451498 0.01994437
-0.0041652652 -0.033322122 0.019513428
-0.0030835373 -0.032891065 0.019610763
-0.0020680013 -0.033088021 0.020539641
-0.0010383865 -0.033228368 0.020777613
0 -0.033179849 0.020499438
0.0010422765 -0.033352848 0.020542324
0.0020543865 -0.032870185 0.02069962
0.0030678562 -0.032723799 0.021631539
0.0040950053 -0.032760043 0.022933275
0.0050864019 -0.032552972 0.023350686
0.0061195185 -0.032637432 0.023723751
0.0072033866 -0.032929767 0.025739133
0.008202889 -0.032811556 0.026105136
0.0090855695 -0.03230425 0.026544333
0.010183804 -0.032588173 0.028100193
0.011043725 -0.032127198 0.029581964
0.012131411 -0.032350428 0.029308885
0.01314529 -0.032357637 0.028643608
0.014280292 -0.032640669 0.027001023
-0.024443362 -0.031572677 0.028415352
-0.023386419 -0.031520825 0.028833359
-0.022179097 -0.031252366 0.030221075
-0.021053934 -0.031079618 0.029723525
-0.020227564 -0.031352729 0.028795362
-0.019258892 -0.031422406 0.027444035
-0.018293273 -0.031505082 0.027188301
-0.017464716 -0.031847425 0.026616693
-0.016353533 -0.031684972 0.025410086
-0.015406723 -0.031840563 0.023931682
-0.01440642 -0.031899933 0.02264604
-0.013411687 -0.031981714 0.022057295
-0.012503482 -0.032300666 0.021067917
-0.011360068 -0.032014739 0.01919201
-0.010371765 -0.032152474 0.018414259
-0.0094057024 -0.032397423 0.018599421
-0.0083377259 -0.03230869 0.018298924
-0.0072588329 -0.03214626 0.017792612
-0.0063413712 -0.032763753 0.017954826
-0.0052588205 -0.032604691 0.017807573
-0.0041634054 -0.03226639 0.017756075
-0.0031682155 -0.032738231 0.017383754
-0.0020952763 -0.032476783 0.01903528
-0.0010367659 -0.032139745 0.019019127
0 -0.032379188 0.020131111
0.0010294099 -0.031911708 0.020457715
0.0020671901 -0.032041449 0.020744085
0.0031310113 -0.032353785 0.022349119
0.0041128281 -0.031874418 0.022896141
0.0050664246 -0.031411834 0.023903191
0.0061805299 -0.031932741 0.024058551
0.0070839571 -0.03137181 0.025825113
0.0082147047 -0.03183198 0.026511431
0.0091343895 -0.031462897 0.027513951
0.010097065 -0.031300902 0.028162986
0.011075297 -0.031212203 0.029910088
0.012084926 -0.031219393 0.029910088
0.01322527 -0.031537183 0.029245764
0.014183565 -0.031406466 0.027844101
-0.024311049 -0.030388812 0.029200464
-0.023058537 -0.030076353 0.029910147
-0.021904126 -0.029869264 0.03077516
-0.021258112 -0.030368732 0.030241221
-0.020442728 -0.030664094 0.02911979
-0.019353701 -0.030558474 0.027766764
-0.018279238 -0.030465398 0.027541667
-0.017377138 -0.030665537 0.026108295
-0.016239002 -0.030448129 0.024359316
-0.015717704 -0.031435408 0.023554087
-0.014434669 -0.030931434 0.022803754
-0.013369983 -0.030853808 0.021330565
-0.012476677 -0.031191694 0.019613713
-0.011393644 -0.031073576 0.018868119
-0.010395613 -0.03118684 0.01853469
-0.009340737 -0.031135792 0.017837167
-0.0083577866 -0.031341698 0.017751992
-0.0072878697 -0.031233728 0.017645359
-0.0062469975 -0.031234987 0.017618537
-0.0051868572 -0.031121144 0.017389059
-0.0041817054 -0.031362791 0.017356932
-0.003129598 -0.031295981 0.017343581
-0.0020601638 -0.030902456 0.01838848
-0.0010457183 -0.031371549 0.018685609
0 -0.03118011 0.018787861
0.0010446238 -0.031338714 0.01947099
0.0020675818 -0.031013727 0.020745993
0.0030985884 -0.030985884 0.021301746
0.0041106888 -0.030830167 0.022830278
0.0051363935 -0.03081836 0.023154467
0.0061386554 -0.030693278 0.02340588
0.0072389296 -0.031023983 0.025884032
0.0081433104 -0.030537413 0.026992053
0.0091793407 -0.030597804 0.027822971
0.010103233 -0.030309699 0.030006528
0.010991815 -0.029977676 0.030344754
0.012061687 -0.030154219 0.03039524
0.01315509 -0.030357899 0.029665381
0.014199862 -0.030428277 0.027996153
0.01533308 -0.030666159 0.025876492
-0.024290722 -0.029351292 0.03008467
-0.023381148 -0.029480578 0.030227095
-0.022264827 -0.029349091 0.030890137
-0.02103881 -0.029053595 0.030380785
-0.020341994 -0.029495893 0.029959202
-0.019455351 -0.029695008 0.029289395
-0.018325234 -0.029523991 0.028407395
-0.017294584 -0.029502528 0.026804835
-0.016398514 -0.029722307 0.024535328
-0.015511827 -0.029989531 0.023570895
-0.014403277 -0.029835362 0.021534175
-0.013563659 -0.030257395 0.020634025
-0.012379755 -0.029917743 0.018888324
-0.011432511 -0.030140258 0.018527716
-0.010493577 -0.030431377 0.016738772
-0.0094212461 -0.030357352 0.01683417
-0.00843958 -0.030593479 0.016043335
-0.0073598642 -0.030490866 0.014869243
-0.0063371682 -0.030629646 0.01430577
-0.0052492279 -0.030445524 0.014869243
-0.00418904 -0.030370539 0.014887601
-0.003177972 -0.030720398 0.016488492
-0.0021029906 -0.030493364 0.017251939
-0.0010410448 -0.030190302 0.017651767
0 -0.030195685 0.018685609
0.0010411665 -0.030193828 0.018709958
0.0020705154 -0.030022474 0.018653005
0.0030821895 -0.029794499 0.020870626
0.0041180104 -0.029855575 0.021954715
0.0051814229 -0.030052256 0.02280435
0.0060755666 -0.02936524 0.022912294
0.007100645 -0.029416958 0.025580227
0.0081311818 -0.029475536 0.027310908
0.0092620095 -0.029844254 0.027799815
0.010164058 -0.029475769 0.029750139
0.011041977 -0.029110666 0.030344754
0.012181342 -0.029438244 0.030567735
0.013088753 -0.029197989 0.030239344
0.014096951 -0.02920083 0.028491855
0.015269341 -0.029520726 0.027198136
-0.025440058 -0.028492864 0.028921932
-0.024098286 -0.028114667 0.030778706
-0.023323825 -0.02839422 0.030819237
-0.022095058 -0.028120983 0.030890137
-0.021288719 -0.028384959 0.030592918
-0.020298203 -0.028417487 0.029842466
-0.019365283 -0.028538311 0.028579116
-0.018160034 -0.028248943 0.027615249
-0.01749084 -0.028808441 0.02609238
-0.016424755 -0.028743321 0.02366069
-0.015642218 -0.029198809 0.022675306
-0.014595612 -0.029191224 0.020528674
-0.013391396 -0.028843008 0.01907751
-0.01243229 -0.029008677 0.018862665
-0.011577669 -0.029470429 0.016344815
-0.010384766 -0.029077346 0.014535874
-0.0094141597 -0.029288497 0.014159828
-0.0084182089 -0.029463729 0.013453424
-0.0072977352 -0.029190941 0.012964815
-0.0063196798 -0.02949184 0.012744486
-0.0031341938 -0.029252475 0.01426059
-0.0020835341 -0.029169479 0.016050756
-0.0010451223 -0.029263422 0.017373592
0 -0.029190278 0.017783076
0.001035025 -0.028980698 0.018521786
0.0020834124 -0.029167773 0.018627405
0.00312653 -0.029180946 0.020044655
0.0041038995 -0.028727295 0.021372855
0.0051601417 -0.028896794 0.022678196
0.0061864839 -0.028870258 0.023483276
0.0071163769 -0.028465508 0.024653763
0.0082386835 -0.028835392 0.027595252
0.0090781152 -0.028243026 0.028384715
0.010095321 -0.028266897 0.0302037
0.011030555 -0.028077776 0.030845791
0.012095947 -0.028223876 0.031182319
0.01301915 -0.028041247 0.030845791
0.014156466 -0.028312933 0.028670192
0.015297572 -0.028555468 0.026342601
-0.025322957 -0.027348794 0.02952826
-0.024350166 -0.027393939 0.030989617
-0.023182517 -0.027214261 0.031166255
-0.022273898 -0.027336149 0.031008333
-0.021120116 -0.027154436 0.030592918
-0.020271288 -0.027366241 0.030192167
-0.019268136 -0.027381036 0.028875172
-0.018380834 -0.027571253 0.027390718
-0.017418394 -0.027664509 0.025834113
-0.016558863 -0.027943082 0.023832113
-0.015561907 -0.028011432 0.02195549
-0.01447979 -0.027925309 0.019679457
-0.013630826 -0.028310178 0.018037915
0 -0.02824457 0.015963465
0.0010440234 -0.028188635 0.016509652
0.0020927726 -0.028252432 0.017687857
0.0031440379 -0.028296342 0.018322647
0.0041831988 -0.028236594 0.019967616
0.0051157037 -0.027624803 0.022680461
0.0061382698 -0.027622215 0.024131209
0.0071324972 -0.02751106 0.026348323
0.0081189303 -0.02740139 0.027762681
0.0091108698 -0.027332611 0.029007226
0.010109819 -0.027296511 0.0301117
0.01092407 -0.026813628 0.031383306
0.012106042 -0.027238596 0.031850666
0.013131252 -0.027272599 0.03107962
0.014242304 -0.027467303 0.028233141
-0.025299788 -0.026311778 0.03014192
-0.024132593 -0.026143642 0.031176955
-0.023183532 -0.026207471 0.032177985
-0.022345727 -0.026408587 0.031695813
-0.021091687 -0.026113516 0.030632883
-0.020470308 -0.026611401 0.030380785
-0.019352144 -0.026481882 0.029889613
-0.018370729 -0.0265355 0.027390718
-0.017463634 -0.026709087 0.025059789
-0.016500304 -0.026812993 0.022675306
-0.015639259 -0.027108049 0.020679593
0.0020793665 -0.027031764 0.015572876
0.0031211914 -0.027050326 0.017028242
0.0041678259 -0.027090868 0.018494278
0.0051463596 -0.026761072 0.021670163
0.0062082745 -0.026902523 0.02432996
0.0071102502 -0.026409501 0.026734442
0.0082034906 -0.026661344 0.027854353
0.0091079902 -0.026311973 0.029378176
0.010057956 -0.026150687 0.030969709
0.011030245 -0.026071487 0.031796873
0.012148177 -0.026321052 0.031955391
0.013003756 -0.026007513 0.031385511
0.014048841 -0.026090704 0.028945595
-0.025293158 -0.025293158 0.030675828
-0.02410871 -0.02511324 0.031726152
-0.023352096 -0.025382712 0.033501565
-0.02205115 -0.025058126 0.033601373
-0.021027386 -0.025032604 0.032359689
-0.020272972 -0.025341216 0.030882657
-0.019431436 -0.025567681 0.030403167
-0.018213868 -0.025297042 0.027200788
-0.017499477 -0.025734527 0.024146944
-0.016356008 -0.025556263 0.021340996
0.0041543692 -0.025964808 0.017238438
0.0051949462 -0.025974732 0.02042073
0.0061128736 -0.025470307 0.024799585
0.0071237306 -0.025441896 0.026647061
0.0081025725 -0.025320539 0.027731538
0.0091472184 -0.02540894 0.029438078
0.0099877622 -0.024969408 0.031254917
0.010988498 -0.02497386 0.032427162
0.011954477 -0.02490516 0.032797217
0.013022422 -0.025043121 0.031996042
0.014216255 -0.025386171 0.029185444
-0.025063124 -0.024060598 0.030612707
-0.024234861 -0.024234861 0.032163292
-0.023345863 -0.024360901 0.033805877
-0.022122692 -0.024133846 0.034465879
-0.021265449 -0.024303369 0.033925921
-0.020317392 -0.02438087 0.032400101
-0.019180261 -0.024227697 0.030806452
-0.018237436 -0.024316583 0.027004093
-0.017468028 -0.024660746 0.024036855
0.0041598724 -0.024959233 0.017079383
0.0052009118 -0.024964377 0.018224776
0.0071273735 -0.024436709 0.026944458
0.0081417812 -0.024425343 0.028087527
0.0092022838 -0.024539422 0.030358255
0.010062911 -0.024150984 0.032839596
0.011049069 -0.024107059 0.033005357
0.012065079 -0.024130158 0.033186078
0.013033898 -0.024062579 0.032034606
0.01408983 -0.024153994 0.029154778
-0.025305247 -0.023280827 0.030612707
-0.024082348 -0.023078918 0.033784986
-0.023142394 -0.023142394 0.034203947
-0.022057721 -0.023060346 0.034632534
-0.0211077 -0.023117956 0.033811331
-0.020058922 -0.023067761 0.032872647
-0.019205015 -0.023248175 0.031635374
-0.018155813 -0.023199096 0.028894693
0.006198334 -0.023760282 0.024600834
0.0071215988 -0.023399539 0.027020156
0.0081940973 -0.02355803 0.028266072
0.0091767916 -0.023451801 0.032000571
0.0099968323 -0.022992715 0.033232182
0.010974376 -0.022946425 0.033492684
0.012063922 -0.023122519 0.032836109
0.013077724 -0.023137512 0.031955391
0.013982017 -0.022970457 0.030743688
-0.025425756 -0.022374664 0.030979365
-0.024116343 -0.022106647 0.032927781
-0.023079919 -0.022076443 0.033219516
-0.022066155 -0.022066155 0.033717155
-0.021021275 -0.022022286 0.033811212
-0.02011524 -0.022126764 0.033057302
-0.019123349 -0.022142824 0.031714946
-0.018026976 -0.022032971 0.030739903
0.0062174657 -0.022797374 0.024861813
0.0070390776 -0.022122815 0.027668029
0.0081509314 -0.022415061 0.030116022
0.0090181157 -0.022044282 0.033300996
0.010048142 -0.022105912 0.033895403
0.011088385 -0.02217677 0.034189224
0.011949498 -0.021907413 0.033195198
0.013041585 -0.022070372 0.031912506
0.014167123 -0.02226262 0.030999273
-0.025128322 -0.021107791 0.030043572
-0.024064129 -0.021056114 0.033024043
-0.022951569 -0.020955781 0.033611834
-0.022074454 -0.021071071 0.033699661
-0.020916818 -0.020916818 0.033721834
-0.020181175 -0.021190235 0.033519804
-0.019094702 -0.021104671 0.033408523
-0.018308599 -0.021360032 0.031528682
0.0071380418 -0.021414125 0.028407335
0.008106729 -0.021280164 0.032999188
0.0089765871 -0.020945372 0.0336501
0.010040965 -0.021086028 0.034832954
0.010928506 -0.020863513 0.035660714
0.011959132 -0.020928482 0.034898907
0.013106624 -0.02117224 0.033195198
0.014102565 -0.021153847 0.031140119
-0.025338175 -0.020270539 0.031385958
-0.024087617 -0.020073015 0.032792985
-0.023162853 -0.020141609 0.033413202
-0.022117399 -0.020106725 0.033573806
-0.020839024 -0.019846689 0.033718437
-0.020008577 -0.020008577 0.033619165
-0.018946884 -0.019944087 0.03371644
-0.017942986 -0.019936651 0.032873124
0.0080312891 -0.020078223 0.03209722
0.0090215709 -0.020047935 0.034243345
0.010009981 -0.020019962 0.036198378
0.010955348 -0.019918814 0.035935968
0.011972346 -0.01995391 0.03465119
0.012913642 -0.019867143 0.033537865
0.01403279 -0.020046841 0.031094015
-0.025669502 -0.019508822 0.030944258
-0.024055516 -0.019043952 0.032678366
-0.02318524 -0.019153025 0.033019006
-0.02211339 -0.019097928 0.033699095
-0.021048469 -0.019043854 0.033804864
-0.020079132 -0.019075178 0.033950269
-0.019068245 -0.019068245 0.034362674
-0.017819211 -0.018809168 0.034362674
-0.016955229 -0.018949961 0.034023374
0.0079065794 -0.018778125 0.03529349
0.0090396563 -0.01908372 0.036408484
0.0099411765 -0.018888235 0.036297321
0.010846174 -0.018734302 0.036098421
0.011937274 -0.018900683 0.035093725
0.01296586 -0.018950103 0.034370869
0.014069433 -0.019094232 0.031968802
-0.024141464 -0.018106097 0.032127917
-0.02293334 -0.01794783 0.032711834
-0.022049028 -0.018040115 0.033346772
-0.021113489 -0.018097274 0.033699095
-0.020051025 -0.018045923 0.033642799
-0.018832291 -0.017841116 0.034843832
-0.018014044 -0.018014044 0.035487622
-0.01698615 -0.017985335 0.035350621
-0.015857138 -0.017839279 0.034530878
0.0059621981 -0.017886594 0.035902292
0.0069198045 -0.017793782 0.035935223
0.007940134 -0.017865302 0.03578034
0.0088894265 -0.017778853 0.036294997
0.0099307522 -0.017875353 0.03699553
0.010919764 -0.017868705 0.03569746
0.01199637 -0.017994555 0.035576314
0.012994264 -0.017992059 0.034396917
0.014053158 -0.018068345 0.032433838
-0.023145664 -0.017107666 0.032538831
-0.022075517 -0.017058356 0.032906562
-0.021085124 -0.017068911 0.033385515
-0.019991146 -0.016992476 0.033700258
-0.018909495 -0.016919021 0.034711301
-0.017953567 -0.016956147 0.035587668
-0.016744841 -0.016744841 0.035640001
-0.01596795 -0.016965946 0.034863681
-0.014786938 -0.016758531 0.034619898
0.0040909802 -0.017386666 0.035032272
0.0049250475 -0.016745163 0.036486536
0.005977103 -0.016935125 0.036486536
0.0069444366 -0.01686506 0.036590159
0.0079526957 -0.016899478 0.036536962
0.0089216419 -0.01685199 0.036822528
0.0099586323 -0.016929675 0.036846846
0.010909567 -0.016860239 0.035920113
0.011995488 -0.016993608 0.035803407
0.012943438 -0.016926035 0.034269691
-0.02208983 -0.016065331 0.032478303
-0.021069402 -0.016052878 0.033096731
-0.020127073 -0.01610166 0.033646286
-0.01893572 -0.015945869 0.035145253
-0.017952124 -0.015957445 0.036032081
-0.01694732 -0.015950419 0.036255836
-0.015893614 -0.015893614 0.036153048
-0.014930014 -0.015925348 0.035789579
-0.013890758 -0.015875153 0.035258651
-0.012748444 -0.015690394 0.034440935
0.0019822924 -0.015858339 0.036060512
0.0029717472 -0.015849318 0.037105471
0.0038884035 -0.015553614 0.037300974
0.0049374346 -0.015799791 0.037217915
0.005964925 -0.015906466 0.036841094
0.006938755 -0.015860012 0.036948919
0.0078838272 -0.015767654 0.03676033
0.0088260751 -0.015690802 0.036762953
0.0099517396 -0.015922783 0.036539584
0.010985053 -0.01597826 0.036000073
0.011872485 -0.01582998 0.035473287
0.012859274 -0.015826799 0.033741534
-0.020096153 -0.015072115 0.032995284
-0.018897071 -0.014918741 0.034507155
-0.018018503 -0.01501542 0.036083668
-0.016933432 -0.014941264 0.036439896
-0.015852286 -0.014861519 0.036589235
-0.014860215 -0.014860215 0.036789298
-0.013704542 -0.014683438 0.036302239
-0.012912769 -0.014899349 0.036430746
-0.011768388 -0.014710485 0.036642432
-0.010690642 -0.014578149 0.03544113
0 -0.014888925 0.036126465
0.00097358087 -0.014603713 0.036705971
0.0019578678 -0.014684008 0.037020653
0.0029458953 -0.014729477 0.038169712
0.0039545838 -0.014829689 0.038007975
0.0049306005 -0.014791802 0.038090438
0.0059124967 -0.014781241 0.037269384
0.0069462499 -0.014884821 0.037266761
0.0079664662 -0.014937125 0.036134899
0.0089864712 -0.014977452 0.036134899
0.0099441735 -0.014916261 0.03569746
0.011031006 -0.015042281 0.035611182
0.011880941 -0.014851175 0.033968985
0.013081403 -0.015093927 0.032036185
-0.017797686 -0.013842645 0.035057664
-0.01680248 -0.013837337 0.035968661
-0.015962834 -0.01396748 0.03639257
-0.014815885 -0.013828159 0.036162674
-0.013843904 -0.013843904 0.036513925
-0.012871972 -0.013862125 0.03688848
-0.011678817 -0.013625287 0.037365198
-0.010983089 -0.013978477 0.03712675
-0.009770235 -0.013678329 0.037212342
-0.0087652206 -0.013634788 0.037868857
-0.007865319 -0.013764309 0.037868857
-0.0068423855 -0.013684771 0.037439704
-0.005843204 -0.013634142 0.037618428
-0.0049130712 -0.0137566 0.038112938
-0.0039193556 -0.013717744 0.038042277
-0.0029106969 -0.013583252 0.036770642
-0.0019680387 -0.013776271 0.036789536
-0.00097775192 -0.013688526 0.037309796
0 -0.013749994 0.037281096
0.00099414424 -0.013918019 0.037578255
0.0019654792 -0.013758354 0.037958443
0.0029489042 -0.013761553 0.038457632
0.003974441 -0.013910543 0.038663507
0.0049532875 -0.013869205 0.037996858
0.0059382576 -0.013855934 0.037348181
0.0069895284 -0.013979057 0.037269384
0.0080325007 -0.014056876 0.036002696
0.008899007 -0.013842901 0.035505891
0.0099188769 -0.013886428 0.034476519
0.01090134 -0.013874433 0.034372747
0.012045745 -0.014053369 0.031939924
-0.016889807 -0.012915735 0.034868538
-0.015775159 -0.012817317 0.03512761
-0.014955074 -0.012961064 0.036162674
-0.013783677 -0.012799128 0.036649734
-0.012854843 -0.012854843 0.036693633
-0.011796028 -0.012779031 0.037040979
-0.01096592 -0.012959723 0.036824346
-0.0097795874 -0.012713464 0.03712675
-0.0088997567 -0.012855204 0.037209898
-0.0079044905 -0.012844796 0.037532598
-0.0068783644 -0.012774105 0.037927002
-0.0059270579 -0.012841959 0.038478047
-0.0049338997 -0.01282814 0.039327115
-0.0039447928 -0.012820576 0.038596988
-0.0029694461 -0.0128676 0.038691759
-0.0019778335 -0.012855917 0.038601518
-0.00098447711 -0.012798202 0.038624555
0 -0.012862415 0.038481236
0.00098368479 -0.012787903 0.039256901
0.0019649137 -0.012771938 0.038656473
0.0029749309 -0.012891368 0.037863135
0.0039379676 -0.012798394 0.038239658
0.0049323761 -0.012824178 0.036905289
0.0060063973 -0.01301386 0.036022246
0.0068122512 -0.012651323 0.035287827
0.0079663964 -0.012945393 0.034209549
0.0089156581 -0.012878174 0.032495886
0.010043999 -0.013057199 0.032009691
-0.015986858 -0.011990143 0.034069002
-0.015149004 -0.012119203 0.033924639
-0.013818862 -0.011844738 0.036162674
-0.012893857 -0.011902022 0.036265403
-0.011874439 -0.011874439 0.036649734
-0.010868259 -0.011856283 0.036566913
-0.009779131 -0.011734957 0.036679268
-0.0089158062 -0.011887742 0.036931872
-0.007924119 -0.011886179 0.037455767
-0.0069211316 -0.011864797 0.038195729
-0.0059399521 -0.011879904 0.038903266
-0.0049315421 -0.011835702 0.039354652
-0.0039794738 -0.011938422 0.039497763
-0.0029524909 -0.011809964 0.039679199
-0.0019902992 -0.011941795 0.038824528
-0.00099211151 -0.011905338 0.038808733
0 -0.011887822 0.038126379
0.00098772324 -0.011852679 0.038064063
0.0019504395 -0.011702637 0.03748697
0.002966021 -0.011864084 0.036905289
0.0039270613 -0.011781183 0.036475539
0.0049690227 -0.011925654 0.035646468
-0.01397336 -0.010979068 0.033760607
-0.012873399 -0.010892876 0.034744978
-0.011960099 -0.010963424 0.036105454
-0.01096153 -0.01096153 0.036262393
-0.0099157151 -0.010907286 0.036413431
-0.0089043807 -0.010883132 0.036744088
-0.0079515008 -0.010933314 0.037404895
-0.0068977387 -0.010839303 0.037775993
-0.0059202667 -0.010853822 0.038046867
-0.0049766935 -0.010948725 0.038512439
-0.0039290497 -0.010804887 0.038634568
-0.0029837878 -0.010940555 0.038987875
-0.001988126 -0.010934693 0.038974494
-0.00098876946 -0.010876464 0.038660049
0 -0.010812802 0.0378052
0.00098968367 -0.01088652 0.03735292
0.0019613071 -0.010787189 0.036787003
0.0029863478 -0.010949942 0.035731792
-0.013008093 -0.010006226 0.033894181
-0.011899467 -0.0099162217 0.034980983
-0.010995092 -0.0099955378 0.034596115
-0.0099608488 -0.0099608488 0.035107076
-0.0090014953 -0.010001661 0.036273032
-0.0079198442 -0.0098998053 0.036958247
-0.0069455476 -0.0099222101 0.037563324
-0.005935648 -0.0098927468 0.037854493
-0.0049331342 -0.0098662684 0.038233697
-0.0039936742 -0.0099841859 0.037642121
-0.0029951383 -0.0099837948 0.037062258
-0.001962289 -0.0098114451 0.03679353
-0.00098895619 -0.0098895608 0.036722332
0 -0.009897517 0.036008954
-0.011942581 -0.0089569353 0.033887208
-0.010890505 -0.0089104129 0.03408435
-0.0098602781 -0.0088742496 0.034515023
-0.0089192046 -0.0089192046 0.034807324
-0.0080085667 -0.0090096369 0.036508709
-0.0069335857 -0.0089146094 0.037133127
-0.0059455093 -0.0089182639 0.037128627
-0.0049611614 -0.0089300908 0.037067294
-0.003986109 -0.0089687454 0.036611229
-0.0029894642 -0.0089683924 0.035949826
-0.0019783769 -0.008902696 0.035183251
-0.01104124 -0.0080299927 0.032199591
-0.009958921 -0.0079671368 0.032468021
-0.0089635607 -0.0079676099 0.033671439
-0.0080382489 -0.0080382489 0.034870267
-0.0068682451 -0.0078494232 0.035884351
-0.0059290011 -0.0079053352 0.035410643
-0.0049434421 -0.0079095075 0.03557986
-0.0039916849 -0.0079833698 0.034975827
-0.0090106083 -0.0070082508 0.033088237
-0.0079576774 -0.006962968 0.034561276
-0.0069935899 -0.0069935899 0.033766657
-0.0059589045 -0.0069520557 0.033766657
0 0 0 1 0 0 0 1 0 0 0 1 0 0 0 0 0 868 1 0 0
