ply
format ascii 1.0
comment PCL generated
element vertex 888
property float x
property float y
property float z
element camera 1
property float view_px
property float view_py
property float view_pz
property float x_axisx
property float x_axisy
property float x_axisz
property float y_axisx
property float y_axisy
property float y_axisz
property float z_axisx
property float z_axisy
property float z_axisz
property float focal
property float scalex
property float scaley
property float centerx
property float centery
property int viewportx
property int viewporty
property float k1
property float k2
end_header
-0.0062395209 0.04783633 0.017288536
-0.0050992277 0.046912897 0.017321467
-0.010064831 0.047304705 0.020681977
-0.0092512257 0.048311956 0.020684481
-0.0082053365 0.048206352 0.019849062
-0.0072406116 0.048615538 0.019935519
-0.0061948611 0.048526414 0.020373791
-0.0051816339 0.048707359 0.020145327
-0.0041090883 0.048281789 0.020145327
-0.0030802479 0.048257217 0.019435674
-0.0020482009 0.048132725 0.019078165
-0.012095866 0.048383463 0.018780202
-0.011252426 0.049101494 0.020550579
-0.010176879 0.04884902 0.021398425
-0.0092114769 0.04912788 0.020473212
-0.0081700087 0.049020048 0.020395309
-0.0071181552 0.048810206 0.021356076
-0.006166534 0.049332272 0.021441966
-0.0050678221 0.048651092 0.020898283
-0.0040718052 0.04886166 0.020423949
-0.0030764404 0.049223047 0.021327406
-0.0020658849 0.049581233 0.020656019
-0.0010224783 0.04907896 0.02015245
0 0.048797231 0.019404054
0.0010165453 0.048794176 0.018235683
-0.013296322 0.050116904 0.020834148
-0.012128553 0.049524926 0.020790696
-0.011253726 0.050130229 0.021130055
-0.010214984 0.050053425 0.022333324
-0.0091940239 0.050056353 0.022368103
-0.0081888679 0.050156813 0.022362798
-0.0071638958 0.050147269 0.022249639
-0.0061305608 0.050066248 0.022335559
-0.0051368126 0.05034076 0.022031754
-0.0041115005 0.05036588 0.021346658
-0.0030540968 0.049883578 0.021483451
-0.0020528003 0.050293602 0.020872593
-0.0010190862 0.049935222 0.02074489
0 0.04989386 0.020696968
0.0010327644 0.050605457 0.02079764
0.0020454163 0.050112698 0.020572126
-0.015236652 0.050788838 0.02123946
-0.014377908 0.051349673 0.021501034
-0.013138189 0.050531499 0.02209276
-0.012322263 0.051342763 0.022298574
-0.011236995 0.05107725 0.022298574
-0.010105419 0.050527096 0.021338284
-0.0091106519 0.050614737 0.02147913
-0.0081936335 0.051210213 0.021398187
-0.0071142856 0.050816327 0.022344619
-0.0061639044 0.051365871 0.022307277
-0.0051104422 0.051104426 0.022288263
-0.0040664449 0.050830562 0.021655619
-0.0030676872 0.051128123 0.0225586
-0.0020613712 0.051534284 0.022200108
-0.0010242212 0.051211063 0.02254194
0 0.051183991 0.02205804
0.0010188363 0.050941814 0.022186846
0.0020394691 0.050986726 0.022186846
0.0030664166 0.051106945 0.021227479
0.0040913718 0.051142149 0.020377487
-0.017316988 0.051950965 0.022914737
-0.016211994 0.051675733 0.022451133
-0.015286325 0.051973507 0.022336513
-0.014308282 0.052123029 0.021963418
-0.013195414 0.051766627 0.022336513
-0.012136335 0.051579423 0.021859556
-0.011156354 0.051724918 0.022291034
-0.010210519 0.052073646 0.021380156
-0.0091644237 0.051931739 0.021380156
-0.0081823813 0.052162685 0.021356255
-0.007145097 0.052057136 0.021834582
-0.0061130011 0.051960509 0.021736622
-0.0051161135 0.052184358 0.021518171
-0.0041133263 0.052444912 0.020359308
-0.0030621979 0.052057367 0.020563632
-0.0020463355 0.052181557 0.021148264
-0.0010280161 0.052428823 0.021438807
0 0.052018709 0.02126959
0.0010115035 0.05158668 0.022342265
0.0020372628 0.051950205 0.02189517
0.0030558472 0.051949404 0.021815509
0.0040586498 0.051747788 0.020853758
0.0050610756 0.051622972 0.020377487
0.0060357084 0.051303525 0.01928246
-0.019429963 0.053176742 0.021913618
-0.01826372 0.052761856 0.022914737
-0.017286869 0.052877478 0.023289084
-0.016352843 0.053146739 0.022939295
-0.01528965 0.05300412 0.023063064
-0.014187853 0.052697737 0.023506075
-0.013157457 0.052629828 0.022425175
-0.012049815 0.052215863 0.022298574
-0.011161469 0.052763309 0.022291034
-0.010182505 0.052949023 0.02136156
-0.0091930795 0.053115577 0.021417946
-0.0081846286 0.053200085 0.020860463
-0.0071157506 0.052859861 0.021451056
-0.0061919624 0.053663671 0.021077096
-0.0051879552 0.053954735 0.020463616
-0.0041154101 0.053500332 0.020196706
-0.0030459915 0.052797187 0.020359308
-0.0020610462 0.053587198 0.020043761
-0.0010198905 0.053034306 0.021085382
0 0.053009313 0.020408958
0.001020737 0.053078324 0.021508247
0.0020193246 0.052502438 0.021995574
0.00309261 0.05360524 0.021894038
0.0040718764 0.052934393 0.022180527
0.0050331722 0.052344993 0.022180527
0.0061408128 0.05322038 0.022095531
0.0071948897 0.053447749 0.020198584
0.0081082135 0.052703388 0.020191401
-0.021431359 0.054088663 0.020894229
-0.020476168 0.054261848 0.021962821
-0.019382412 0.054066721 0.022658437
-0.018306755 0.053903226 0.023250639
-0.017338797 0.05405625 0.023250639
-0.016167827 0.053555928 0.023100585
-0.015292879 0.05403484 0.02281931
-0.014460689 0.054744039 0.023183674
-0.013085673 0.053349279 0.022181422
-0.012324349 0.054432541 0.021534562
-0.011289477 0.054394756 0.021728873
-0.010196746 0.054042757 0.020610362
-0.0092809461 0.05465446 0.020610362
-0.0082549956 0.054689348 0.020270288
-0.0071650706 0.054249819 0.019908518
-0.0061979438 0.054748505 0.01867339
-0.0051914202 0.055029057 0.018901974
-0.004103445 0.054370645 0.019239545
-0.0030807327 0.054426275 0.019433677
-0.0020578429 0.054532833 0.01947549
-0.0010285077 0.054510906 0.02008602
0 0.054597575 0.019257873
0.0010175668 0.053931035 0.02046901
0.0020465998 0.054234892 0.022306949
0.0030361237 0.053638186 0.022008419
0.0040231752 0.053307068 0.022510439
0.0051273508 0.054349922 0.022563487
0.0061007552 0.053890005 0.022391289
0.007113033 0.053855821 0.022563487
0.0081844069 0.054221697 0.022075027
0.0090726363 0.053427748 0.020974338
0.010216688 0.054148447 0.020712256
-0.022393802 0.05496661 0.02023986
-0.021363512 0.054934744 0.022455454
-0.020318575 0.054860156 0.023520589
-0.019230409 0.054654844 0.023771405
-0.018194268 0.054582804 0.02407974
-0.017366981 0.055165708 0.023824811
-0.016184745 0.054623518 0.023501962
-0.015287864 0.055036314 0.022631049
-0.01415073 0.054581389 0.022286892
-0.013227417 0.054944657 0.022273511
-0.012406558 0.055829514 0.021336079
-0.011221319 0.055086479 0.020770341
-0.010312405 0.055686992 0.020195782
-0.0093018226 0.05581094 0.020119905
-0.0081909029 0.055288598 0.019466221
-0.0071352273 0.055043187 0.017367363
-0.0061850329 0.055665296 0.018077075
-0.005131105 0.05541594 0.018201113
-0.0041110404 0.055499047 0.017670482
-0.003078633 0.055415396 0.01790905
-0.0020664725 0.055794757 0.018500149
-0.0010341522 0.055844221 0.019004583
0 0.055580083 0.018732041
0.0010267197 0.055442862 0.01911521
0.0020566834 0.055530455 0.021421224
0.0030367579 0.054661643 0.021818459
0.0040726103 0.054980241 0.022329181
0.0050504408 0.054544766 0.022391289
0.0061023771 0.054921396 0.02258715
0.0071318443 0.055017088 0.023237497
0.0081469202 0.054991715 0.022693694
0.0091218539 0.054731131 0.022064686
0.010199441 0.055076983 0.021664232
0.011065837 0.054323204 0.020430565
-0.023564361 0.056349557 0.019573569
-0.022574771 0.056436926 0.021800816
-0.021119487 0.055312943 0.023211837
-0.020405918 0.056116275 0.023694158
-0.019415451 0.056202624 0.023780346
-0.018321805 0.055983294 0.023787528
-0.017272947 0.055883065 0.023694158
-0.016256604 0.055882078 0.022564083
-0.015203077 0.055744618 0.021929592
-0.014372515 0.056463454 0.021121472
-0.013258318 0.056092888 0.02123639
-0.012179972 0.055824868 0.020015955
-0.011264731 0.056323659 0.019000381
-0.010195429 0.056074858 0.019176424
-0.0092231631 0.05636378 0.019604892
-0.0082886638 0.056984562 0.017038643
-0.0073032253 0.057382487 0.016953111
-0.0062304405 0.05711237 0.016868293
-0.0052061011 0.057267115 0.017024666
-0.0041642711 0.057258729 0.016746104
-0.0031007994 0.05684799 0.016600668
-0.0020735136 0.057021622 0.017943621
-0.0010302424 0.056663334 0.017983407
0 0.056298044 0.018176585
0.0010265575 0.056460664 0.01831609
0.0020326788 0.055898666 0.019594818
0.0030915572 0.056678552 0.020466655
0.0040507112 0.055697277 0.022067428
0.0050297254 0.055326983 0.022390515
0.0060691708 0.055634066 0.02241528
0.0071324194 0.05604044 0.02363044
0.0081161736 0.055798694 0.023870856
0.0090552121 0.055337414 0.022951663
0.010217168 0.056194428 0.022578627
0.011209599 0.056047998 0.022050798
0.012276338 0.056266554 0.020199418
-0.024737613 0.057721101 0.018619806
-0.023656208 0.057597723 0.020908624
-0.022380069 0.056967448 0.023059279
-0.021293417 0.056782443 0.023808539
-0.020120345 0.056336969 0.024347454
-0.019309152 0.056911185 0.023961872
-0.018280832 0.056873705 0.023831099
-0.017256822 0.056846004 0.022588134
-0.016093716 0.056328006 0.022172242
-0.015388903 0.057451904 0.021093071
-0.014337215 0.057348859 0.020849586
-0.013184765 0.056795914 0.020958513
-0.012271442 0.057266727 0.019437402
-0.011456119 0.058322061 0.019066274
-0.010246896 0.057382621 0.017507404
-0.0092667546 0.057659809 0.017213076
-0.00819166 0.057341617 0.015959829
-0.0071278801 0.057023041 0.014366746
-0.0061486191 0.057387114 0.013536483
-0.0051593455 0.057784669 0.013766915
-0.004113581 0.057590134 0.014677882
-0.0030769187 0.057435818 0.015337884
-0.0020706344 0.057977758 0.01636672
-0.0010338774 0.057897132 0.016329944
0 0.058404557 0.016586393
0.0010209547 0.057173461 0.017306626
0.0020557793 0.057561822 0.018757403
0.0031040919 0.05794305 0.019462556
0.0040406375 0.056568921 0.021568656
0.0050902083 0.057010334 0.021588534
0.0060783364 0.056731142 0.022049189
0.0070847711 0.056678168 0.023676753
0.0081013385 0.056709372 0.024064183
0.0090711499 0.056442715 0.023994952
0.010092957 0.056520563 0.024123758
0.011192508 0.056980044 0.022914052
0.012285203 0.057330947 0.021433085
0.013220858 0.056951389 0.020078957
-0.024684248 0.058625091 0.019410521
-0.02357042 0.058413647 0.022265464
-0.022176085 0.057456221 0.02386716
-0.021268342 0.057728354 0.024218917
-0.020250864 0.057714961 0.024347454
-0.019179896 0.057539683 0.023616105
-0.018233269 0.057738688 0.02305457
-0.017292898 0.057982072 0.02248913
-0.016407602 0.058452077 0.021275401
-0.015303955 0.05815503 0.020777583
-0.014235971 0.057960741 0.020221531
-0.013189618 0.057831403 0.01946345
-0.012440974 0.059094626 0.019188136
-0.011174697 0.057905249 0.017020464
-0.010250594 0.058428384 0.014656872
-0.0093433931 0.059174821 0.013995141
-0.0083452621 0.059459992 0.013031185
-0.0073172278 0.059583139 0.0130983
-0.0062565859 0.059437566 0.012335837
-0.0052010198 0.059291624 0.012445122
-0.0042002872 0.05985409 0.013517916
-0.0031200405 0.059280768 0.013434529
-0.0020777648 0.059216298 0.014035195
-0.0010373829 0.059130821 0.015157253
0 0.057720251 0.015733093
0.001040039 0.059282217 0.016827464
0.0020745052 0.059123397 0.018322229
0.0030410842 0.057780597 0.019093186
0.0040969457 0.058381479 0.01922375
0.0051026307 0.058169991 0.021307498
0.0060552279 0.057524666 0.023870081
0.0071283714 0.058045309 0.024874657
0.0081023984 0.057729587 0.025306702
0.0091060326 0.057671543 0.025175244
0.010102139 0.057582192 0.024899393
0.011203241 0.058053154 0.02302897
0.012163655 0.05777736 0.022267789
0.01327825 0.058220018 0.020156324
-0.025665268 0.059543423 0.018890738
-0.024546919 0.059321724 0.021084279
-0.02326007 0.058655828 0.023273051
-0.022416193 0.059097238 0.024084181
-0.02140894 0.059129454 0.024748176
-0.020338982 0.05898305 0.024558872
-0.01922355 0.058682419 0.024176449
-0.018210586 0.05867856 0.022968382
-0.017361643 0.059233844 0.022045523
-0.016399903 0.05944965 0.020855427
-0.015278675 0.059077546 0.020516187
-0.014309486 0.059282161 0.019683421
-0.013343363 0.059531931 0.019255906
-0.012379416 0.059833847 0.017278254
-0.011333334 0.059757583 0.014315248
-0.010376085 0.060181294 0.012898415
-0.0093650818 0.06035275 0.011993945
-0.0083297761 0.060390882 0.01203534
-0.0073112729 0.060579121 0.011709183
-0.0052565122 0.060975548 0.010135382
-0.0041937395 0.060809229 0.010135382
-0.0031327002 0.060565542 0.010678977
-0.0020969468 0.06081146 0.011871517
-0.0010432935 0.060511023 0.012865186
0 0.05998271 0.014499992
0.001022535 0.059307035 0.015659809
0.0020503614 0.059460483 0.017131537
0.0031010201 0.05995306 0.019035727
0.0040976759 0.059416305 0.020094037
0.0051165237 0.059351679 0.019823849
0.0061993557 0.05992711 0.021875858
0.0071583833 0.059312321 0.024746895
0.0080874804 0.058634233 0.025229007
0.0091620125 0.059044082 0.025307715
0.010111253 0.058645271 0.025154203
0.011081851 0.058431581 0.023223668
0.012218005 0.059053697 0.022019774
0.013228104 0.059017695 0.019762427
-0.025755459 0.060782883 0.018865019
-0.024452899 0.060113378 0.021831095
-0.023394445 0.060011834 0.023404062
-0.02234856 0.05993478 0.024360061
-0.021316539 0.059889328 0.025039762
-0.020318463 0.05993947 0.02520752
-0.019090749 0.0592818 0.024190009
-0.018418858 0.060372926 0.022627234
-0.017401546 0.060393602 0.021497071
-0.016344858 0.060271662 0.020634383
-0.015367254 0.060444534 0.019910514
-0.014290025 0.060222246 0.019436628
-0.013390322 0.060771462 0.017278254
-0.012490759 0.061412897 0.014700383
-0.011488475 0.061620008 0.013321429
-0.0010454536 0.061681762 0.011429936
0 0.061785169 0.012735575
0.0010355004 0.061094522 0.014279485
0.0020598825 0.060766533 0.015307397
0.0030785566 0.060544949 0.018261224
0.0040957271 0.060411975 0.019789338
0.0050504534 0.059595354 0.020288914
0.0061844713 0.060813971 0.02101624
0.0070810933 0.059683502 0.023437023
0.0080894111 0.05965941 0.024909377
0.0090892604 0.05958515 0.02538541
0.010076279 0.059450045 0.025306702
0.011176721 0.059947871 0.023727477
0.012233173 0.060146432 0.022806317
0.013306457 0.060390841 0.021057725
0.014372737 0.060570821 0.01894775
-0.02557008 0.06136819 0.019328833
-0.024584169 0.061460424 0.023210347
-0.023329189 0.060858753 0.02444002
-0.022425234 0.061159734 0.024664372
-0.021219019 0.060625765 0.025052488
-0.02014366 0.060430981 0.024325818
-0.019339034 0.061070632 0.023777485
-0.018437112 0.061457045 0.022943556
-0.017403422 0.061423842 0.022047907
-0.016295539 0.061108273 0.020456821
-0.015370711 0.061482843 0.019683421
-0.014466229 0.061998125 0.017616749
0.0010445307 0.06267184 0.012047708
0.0020824091 0.062472273 0.014778763
0.0031105415 0.062210828 0.018051177
0.0041084681 0.061627019 0.019014835
0.0051046922 0.061256312 0.019750029
0.0060975687 0.060975689 0.020242453
0.0071734777 0.061486952 0.02274105
0.0080739306 0.060554478 0.024243325
0.009039293 0.060261957 0.025548756
0.01020162 0.061209723 0.025586188
0.011099721 0.060543936 0.024169028
0.012206304 0.06103152 0.023333579
0.013293002 0.061352316 0.021057725
0.014333766 0.061430428 0.019032776
-0.024341162 0.061867122 0.023215771
-0.023234779 0.061622672 0.024664372
-0.022230262 0.061638452 0.024932355
-0.021256708 0.06174567 0.025240988
-0.020267481 0.061815817 0.02425313
-0.019361647 0.062161073 0.023419589
-0.018447654 0.062517054 0.022666663
-0.017193258 0.061693452 0.021338493
-0.016325183 0.062239762 0.020456702
-0.015410216 0.062668212 0.018687576
0.0031263898 0.063569926 0.01436916
0.0041146646 0.062748633 0.017131537
0.0051034084 0.062261585 0.018605381
0.0061184601 0.062204346 0.020092577
0.0071864366 0.062624663 0.022957414
0.0081162676 0.061886542 0.024192154
0.0090397513 0.061269425 0.025346696
0.010154463 0.061942231 0.025548756
0.010991559 0.060953192 0.025473505
0.012190228 0.061966993 0.023967564
0.013313157 0.062469427 0.021202594
0.014400165 0.062743574 0.019568384
-0.025247393 0.062613539 0.020213485
-0.024232447 0.062600493 0.024350643
-0.02339904 0.063075669 0.025893241
-0.022190172 0.062535942 0.026110202
-0.02113249 0.062391162 0.025499761
-0.020167209 0.062518351 0.025092512
-0.019379552 0.063238546 0.023144424
-0.018395234 0.063361369 0.022359431
-0.017309628 0.063129239 0.021191746
-0.016304612 0.06318038 0.019549429
0.0040904651 0.063402206 0.014235288
0.0051123379 0.063392989 0.017613173
0.0062242514 0.064317264 0.018955797
0.0070863203 0.062764555 0.020749599
0.0082120225 0.06364318 0.023376524
0.009053166 0.062366258 0.025164336
0.010140413 0.062870562 0.025438458
0.011120612 0.06267982 0.025652319
0.012176982 0.062914409 0.025103271
0.013120264 0.062573567 0.023560017
0.014373687 0.0636549 0.020458937
-0.025299426 0.063754551 0.022349477
-0.024396408 0.064040571 0.024588495
-0.023190977 0.063523106 0.025866538
-0.022171151 0.063490115 0.026075482
-0.021355622 0.064066865 0.025533736
-0.020154726 0.063487388 0.024760365
-0.019358462 0.064188585 0.023347765
-0.018428311 0.064499095 0.022149473
-0.017366471 0.0643581 0.020652026
-0.01667493 0.065657541 0.018269092
0.0051495377 0.064884178 0.016652435
0.0061951382 0.065048955 0.018769681
0.0071190321 0.06407129 0.020427078
0.0081746876 0.064375669 0.023203731
0.0090448381 0.063313872 0.025024533
0.010114873 0.063723698 0.025438458
0.011012392 0.063070975 0.025728911
0.012120326 0.063631713 0.025449157
0.013159093 0.063770995 0.024624437
0.014319333 0.064437002 0.020618439
-0.025713345 0.065826163 0.022868901
-0.024193702 0.064516544 0.025204122
-0.023168202 0.064468041 0.02649194
-0.022294862 0.064857781 0.026847273
-0.021107461 0.064327501 0.02649194
-0.020273231 0.064874344 0.024760365
-0.019289277 0.064974412 0.023919374
-0.018345403 0.065228097 0.022281557
-0.017411916 0.065550745 0.019849837
0.0051559741 0.065996468 0.016306996
0.0061981594 0.066113703 0.018851548
0.007145775 0.0653328 0.02032572
0.0082061989 0.065649591 0.022957414
0.0090342974 0.06424389 0.025286198
0.010111562 0.064714 0.025843918
0.011037263 0.0642168 0.025890082
0.012151027 0.064805478 0.025659114
0.013158699 0.064781286 0.024832815
0.014185749 0.064849138 0.021890432
-0.02547501 0.066235021 0.022651464
-0.024078973 0.065213881 0.024334669
-0.023337418 0.065953568 0.026628315
-0.022173746 0.065513343 0.02658397
-0.021157254 0.065486737 0.026142269
-0.02037349 0.066213839 0.024321616
-0.019209756 0.065717585 0.023592681
-0.018263532 0.065951645 0.021692276
-0.01743678 0.066670038 0.018664777
0.0061325366 0.066435814 0.017198443
0.0071341232 0.066245429 0.020239741
0.008203458 0.066653095 0.022289217
0.0091092726 0.065789193 0.02462855
0.010035391 0.065230042 0.025959581
0.011111023 0.065656044 0.026897073
0.012050242 0.065272145 0.025968373
0.013177778 0.065888889 0.024465114
0.014266919 0.066239268 0.021911442
-0.025445377 0.067175791 0.023406476
-0.02405211 0.066143304 0.025343508
-0.023126444 0.066362835 0.027135551
-0.02221912 0.066657357 0.026794702
-0.021022672 0.06607125 0.026250601
-0.020133443 0.066440366 0.024993747
-0.019294601 0.067023352 0.023848325
-0.018242201 0.066888072 0.021760792
0.0061391159 0.067530274 0.016996235
0.0071443338 0.067360856 0.020255297
0.0081097232 0.066905215 0.022005796
0.0090704579 0.06651669 0.025329649
0.010054849 0.066362008 0.027280182
0.010976936 0.065861613 0.02755338
0.012018744 0.066103086 0.027903378
0.013164714 0.066836238 0.024465114
0.014264606 0.067247428 0.021939188
-0.025456136 0.068222441 0.023211092
-0.024242688 0.067677505 0.026611894
-0.023104694 0.067304976 0.028256148
-0.022360766 0.068098702 0.028590918
-0.02108356 0.067266598 0.027661383
-0.020101296 0.067339346 0.026335239
-0.01937242 0.068313271 0.02520901
-0.018201318 0.067749359 0.022853076
0.0071288184 0.068232976 0.020422518
0.0081102932 0.06792371 0.023576409
0.009037571 0.067279704 0.026235372
0.010010506 0.067070395 0.027841926
0.011049869 0.067303754 0.027696997
0.012101891 0.067568891 0.028440565
0.013065628 0.067338243 0.025479496
0.014265576 0.068270974 0.022440016
-0.025405234 0.069102235 0.02414912
-0.024103163 0.068292297 0.026720643
-0.02313666 0.068404041 0.028614759
-0.022057142 0.06817662 0.028501481
-0.020882051 0.067618072 0.0281111
-0.020198744 0.068675727 0.026902884
-0.019226443 0.068810426 0.026168466
-0.018127928 0.068483286 0.023694754
0.0071637612 0.069590822 0.021361858
0.0081487997 0.069264792 0.0236049
0.0090646977 0.068488829 0.027172863
0.010026234 0.068178393 0.02807039
0.011033444 0.068206742 0.027912974
0.012046459 0.06826327 0.028707117
0.013043873 0.068229489 0.02610299
0.014202539 0.068983763 0.022467762
-0.025273262 0.069754206 0.023875505
-0.024058621 0.069168538 0.02827999
-0.023117412 0.069352232 0.02881211
-0.022099476 0.069311991 0.028590739
-0.021180872 0.069594294 0.028489381
-0.019878285 0.068580084 0.027549416
-0.019359877 0.07030692 0.026174754
-0.018307336 0.070178121 0.024996996
-0.017008368 0.069033958 0.021591932
0.0070762523 0.069751628 0.021309108
0.0081430087 0.070233449 0.02444455
0.0089463098 0.068588383 0.026740849
0.0099974386 0.068982333 0.0281443
0.010954196 0.068712682 0.027912974
0.012043616 0.069250792 0.028707117
0.013125117 0.069664083 0.027037591
-0.02537955 0.071062736 0.025231421
-0.024032686 0.070095338 0.028614759
-0.022900812 0.069698125 0.028844178
-0.021962201 0.069879733 0.029593915
-0.021141734 0.070472442 0.02921018
-0.0200295 0.07010325 0.028263152
-0.019357435 0.071316868 0.026777089
-0.018158143 0.070615001 0.025727093
0.0070976513 0.070976511 0.023604244
0.008102105 0.070893414 0.02726084
0.0090473844 0.070368551 0.028366029
0.0099884234 0.069918968 0.029142439
0.010821454 0.068863802 0.029189497
0.01198307 0.069901243 0.029044867
0.013060279 0.070324577 0.02828601
0.014215874 0.071079366 0.023860097
-0.025214443 0.071609013 0.024935216
-0.02410732 0.071317486 0.028590918
-0.023046846 0.071144611 0.02886802
-0.022107154 0.071345814 0.029841989
-0.020947637 0.070822962 0.030066699
-0.019960999 0.070861548 0.029655397
-0.01888884 0.07058461 0.028811902
-0.018210858 0.071831718 0.027906597
-0.017184649 0.071771182 0.025069475
0.007024867 0.071252219 0.024539798
0.0080294954 0.071261764 0.027845442
0.0089765359 0.070814893 0.029174805
0.0099763563 0.070832133 0.030190855
0.011067698 0.071436957 0.029990464
0.012044927 0.071265817 0.029538035
0.013056264 0.071307287 0.027575672
-0.025191588 0.072551765 0.024263859
-0.024324086 0.072972253 0.027271241
-0.023089265 0.072279438 0.028655052
-0.021873496 0.07158599 0.029659122
-0.020952437 0.071836926 0.030546874
-0.020084241 0.072303273 0.03042379
-0.018943325 0.071785226 0.029443234
-0.018209463 0.072837852 0.028452158
-0.017372927 0.073579453 0.025955409
-0.016088778 0.072399497 0.024911553
0.0060272259 0.072326712 0.023122579
0.0070848293 0.072872527 0.027124554
0.0080250604 0.072225541 0.028154016
0.0090250289 0.072200231 0.02956292
0.010026633 0.07219176 0.030551463
0.010859006 0.071077131 0.029726923
0.012005165 0.072030984 0.029790431
0.013023326 0.07212919 0.027699202
-0.025569748 0.074663669 0.023245007
-0.024227226 0.073691152 0.027271241
-0.022931783 0.072783485 0.028655052
-0.02202733 0.073090695 0.030031294
-0.021036366 0.073126413 0.031503975
-0.020071859 0.073262289 0.031031996
-0.01902725 0.073104702 0.030609667
-0.017939376 0.072754145 0.029552341
-0.017068835 0.073295586 0.028135598
-0.01614023 0.073639803 0.026249498
0.0060443757 0.073539905 0.026150793
0.0070044729 0.073046654 0.028013408
0.0079692453 0.072719365 0.029010803
0.0089519862 0.072610557 0.02956292
0.010002448 0.07301788 0.02980569
0.01091427 0.072431073 0.029080093
0.011915721 0.07248731 0.029185921
0.013011386 0.07306394 0.027699202
-0.025443228 0.075311951 0.02365455
-0.024220807 0.074680828 0.026653618
-0.023119893 0.074385747 0.028580248
-0.021929324 0.073762275 0.029421538
-0.020837169 0.073426217 0.030909151
-0.019985111 0.073944919 0.031346709
-0.018936882 0.073754169 0.030609667
-0.017897997 0.07358066 0.029941618
-0.017073486 0.074319884 0.02926451
-0.016039129 0.074180976 0.027868241
-0.015054267 0.074267723 0.026091576
0.005081973 0.075213209 0.02500245
0.006100324 0.075237334 0.028034776
0.0068981294 0.072923087 0.030133992
0.0079450849 0.073492035 0.030704051
0.0089933285 0.07394515 0.030736953
0.0099824229 0.073869936 0.030599087
0.01097997 0.073865257 0.029665321
0.012018311 0.074112922 0.0291287
0.012950297 0.073717073 0.028517067
-0.02443107 0.076347098 0.025440961
-0.023058604 0.075191103 0.027252465
-0.021932652 0.074770413 0.029488772
-0.020883121 0.074582577 0.030795813
-0.019996494 0.07498686 0.031142741
-0.018952265 0.074811578 0.031817526
-0.018014975 0.075062402 0.030436575
-0.016944682 0.074755952 0.030602247
-0.015894907 0.074507378 0.029585958
-0.01507715 0.075385749 0.027139217
-0.014063173 0.075338431 0.025311261
0.0040331767 0.075622067 0.025059104
0.005055117 0.075826757 0.02781865
0.0058732219 0.073415279 0.030764729
0.0069835326 0.074823566 0.030878931
0.0079860911 0.07486961 0.030949622
0.009021638 0.075180322 0.030949622
0.010013283 0.075099632 0.030565828
0.011025117 0.075171255 0.029618531
0.012059635 0.075372718 0.028899074
0.013028577 0.075164869 0.027413338
-0.02424632 0.076780014 0.02401647
-0.023287488 0.076949954 0.026957601
-0.022175355 0.076605774 0.028355658
-0.02076559 0.07515166 0.03032133
-0.020145362 0.076552376 0.030436575
-0.019006183 0.076024733 0.031874329
-0.017906602 0.075605661 0.031143755
-0.016910523 0.075599983 0.030926138
-0.015856072 0.07531634 0.030438542
-0.014838619 0.075182341 0.030402213
-0.014219379 0.077190913 0.027421147
0.0030154816 0.076392204 0.026413947
0.0040529044 0.077005178 0.027537942
0.0048838984 0.07423526 0.030823886
0.0059539238 0.075416371 0.031328022
0.0069547771 0.075509012 0.031276345
0.0079791015 0.075801462 0.031053543
0.0089765666 0.075802125 0.030878931
0.0099081164 0.075301684 0.030540556
0.01093842 0.07557454 0.029247671
0.012010314 0.076065324 0.028487831
0.013091143 0.076532833 0.026368707
-0.02437146 0.078191772 0.022852272
-0.023371654 0.078244232 0.025931448
-0.022203304 0.077711567 0.027431458
-0.020960726 0.076855987 0.029874295
-0.020124134 0.077477917 0.029932112
-0.018998574 0.076994225 0.031003773
-0.017919894 0.076657332 0.031440407
-0.016965792 0.076845057 0.032214284
-0.015649658 0.075313978 0.031952143
-0.014823708 0.076095037 0.032035947
-0.013921284 0.076567061 0.031098098
-0.013092114 0.077545598 0.02747187
0.0010048411 0.077372767 0.02673173
0.0020122984 0.077473491 0.026442051
0.0030144507 0.077370904 0.028252959
0.0039334437 0.075718798 0.031448781
0.0049804351 0.076698706 0.031834424
0.0059899744 0.076871336 0.031426519
0.0069846776 0.076831453 0.031426519
0.0079759015 0.076768056 0.031094074
0.0088964654 0.076114208 0.030878931
0.0099993236 0.076994792 0.030286908
0.010974858 0.076824002 0.027936399
0.012056491 0.077362493 0.02686584
-0.023116151 0.078393899 0.023134232
-0.022014167 0.078050226 0.0259462
-0.02117062 0.078633726 0.027231574
-0.020005971 0.078023285 0.029787004
-0.018792082 0.077146441 0.030168831
-0.018041771 0.078181013 0.031918913
-0.01685725 0.077345029 0.032244176
-0.01591602 0.077590592 0.031926692
-0.015001605 0.078008346 0.032365769
-0.013718846 0.076433569 0.03185454
-0.012840278 0.077041663 0.031789958
-0.012073124 0.078475304 0.031251639
-0.011117152 0.078830712 0.029546648
-0.0010092199 0.078719147 0.027186811
0 0.078023821 0.027217895
0.0010007813 0.07806094 0.028879583
0.0019673116 0.076725148 0.031772494
0.0029419458 0.076490588 0.031774253
0.0039469288 0.076965109 0.032269418
0.0049547721 0.077294447 0.032060087
0.0059462474 0.077301212 0.031689674
0.0069190054 0.07709749 0.031702787
0.0079712225 0.07771942 0.031276345
0.0088470802 0.0766747 0.0306364
0.010052097 0.078406356 0.030069709
0.010961184 0.077724762 0.026732802
0.01207743 0.078503296 0.026045352
-0.0210377 0.079141825 0.025856942
-0.019891387 0.078570977 0.027070701
-0.019012565 0.079052247 0.029969186
-0.017861152 0.078390613 0.030228883
-0.016902138 0.078545228 0.031978965
-0.016007021 0.079034664 0.032155275
-0.014905757 0.078503653 0.032982886
-0.013935849 0.07863801 0.032550603
-0.012863755 0.07817205 0.032559931
-0.01183925 0.077941731 0.031924248
-0.010844189 0.077880993 0.031916529
-0.0099797752 0.078840226 0.031580925
-0.0090226792 0.079199076 0.029949456
-0.0080487998 0.079481892 0.029851139
-0.002999956 0.078998841 0.028416961
-0.0020107683 0.079425342 0.029413462
-0.00099659967 0.078731373 0.030767739
0 0.078301564 0.032801628
0.000991515 0.078329682 0.032538086
0.0019771499 0.078097418 0.032238454
0.0029882914 0.078691669 0.032153517
0.0039488929 0.077990636 0.032354206
0.0049709748 0.078541405 0.031576067
0.0059560002 0.078420669 0.031195641
0.0069978 0.078975171 0.031120777
0.0079617184 0.078621969 0.030467033
0.0089548593 0.078603767 0.02924028
0.010038979 0.079307944 0.027231514
-0.019153293 0.080645442 0.026625395
-0.018009612 0.08004272 0.029700905
-0.016895089 0.0795063 0.030139297
-0.015809154 0.079045765 0.031952143
-0.014841283 0.0791535 0.032775104
-0.013881512 0.079322927 0.032530218
-0.012766718 0.078564413 0.032680899
-0.011922529 0.079483524 0.032051563
-0.010938288 0.079551183 0.032051563
-0.0097490642 0.077992514 0.032123357
-0.0089274487 0.079355098 0.032074839
-0.0079206126 0.079206124 0.03181684
-0.0068651466 0.078458816 0.03117618
-0.0059251753 0.079002336 0.031508684
-0.0049109049 0.078574479 0.031439662
-0.0039525065 0.079050131 0.031517953
-0.0029551149 0.078803062 0.031929642
-0.0019874456 0.079497822 0.032945842
-0.00098823104 0.079058476 0.033019632
0 0.079187863 0.033479422
0.00099080207 0.079264164 0.03336215
0.0019830212 0.079320841 0.032959044
0.0029701821 0.079204857 0.03234601
0.0038989361 0.077978715 0.031572431
0.0049575386 0.079320617 0.031369209
0.0059671444 0.079561926 0.030739874
0.006960141 0.07954447 0.030424088
0.0079904357 0.079904348 0.028321922
-0.017009761 0.081046507 0.029693037
-0.015930511 0.080648214 0.031361252
-0.014706014 0.079412468 0.030979246
-0.013679978 0.079148442 0.032148421
-0.012758222 0.079493538 0.03298077
-0.01188953 0.080254331 0.033249974
-0.010812745 0.079621121 0.033333033
-0.0099206008 0.080356866 0.033634245
-0.0088672116 0.079804905 0.033486903
-0.0078546433 0.079528265 0.032891423
-0.0069597047 0.080533728 0.032301456
-0.0059746578 0.080657877 0.031991988
-0.0049656006 0.080442727 0.031991988
-0.0039780857 0.080556229 0.032366067
-0.0029665949 0.080098063 0.034074903
-0.0019790744 0.080152512 0.033617318
-0.00098894851 0.080104828 0.034068912
0 0.079916276 0.033550084
0.00098291249 0.079615913 0.033490717
0.0019560063 0.079218253 0.032964855
0.0029337863 0.079212226 0.031359017
0.0039166524 0.079312213 0.030538529
0.0049455813 0.080118418 0.030314535
0.0058954209 0.079588182 0.029542238
-0.014943275 0.081689902 0.030177861
-0.013876393 0.081276014 0.031826019
-0.01269766 0.080092937 0.032559931
-0.011898769 0.081308261 0.033249974
-0.010917152 0.081382409 0.033445418
-0.0098100575 0.080442473 0.03369087
-0.0088790013 0.080897577 0.034566253
-0.0078770816 0.080740087 0.033486903
-0.006865582 0.080425389 0.03380686
-0.005968512 0.081569672 0.033685267
-0.0049963221 0.08193969 0.033912808
-0.0039486648 0.08094763 0.033781826
-0.002943641 0.080459528 0.033932179
-0.0019846773 0.081371777 0.033830076
-0.00098948041 0.081137396 0.033769667
0 0.080804564 0.033550084
0.00098804687 0.081019841 0.033474475
0.0019515854 0.080015004 0.03313005
0.002974642 0.081306882 0.031725287
0.003984503 0.081682317 0.030136704
0.0049682502 0.081479304 0.029938936
-0.012787582 0.081643797 0.03167215
-0.011812683 0.081704393 0.031814635
-0.010771266 0.0812741 0.032819957
-0.0098720584 0.081938088 0.033248454
-0.0088982508 0.082061648 0.033843935
-0.0079018408 0.081981599 0.033488721
-0.0068809921 0.081588909 0.033257335
-0.0059741577 0.082642518 0.032348692
-0.0049765394 0.082610562 0.033499748
-0.0039741751 0.082464136 0.033059031
-0.0029608125 0.081915818 0.034105718
-0.0019783229 0.082100399 0.033809155
-0.00098893151 0.082081318 0.033651143
0 0.082269862 0.033500791
0.00098678214 0.081902921 0.03336671
0.0019811885 0.082219325 0.032285273
0.0029812308 0.082480721 0.030920446
-0.01200577 0.084040388 0.03054148
-0.010800662 0.082477778 0.031080365
-0.009854001 0.082773611 0.031675905
-0.0089093754 0.083154172 0.033185452
-0.0079628043 0.083609447 0.032810658
-0.0068679471 0.082415365 0.032136112
-0.0058884728 0.082438618 0.033218801
-0.0049385484 0.082967617 0.033261925
-0.0039609699 0.083180368 0.033474654
-0.0029410727 0.082350038 0.033681929
-0.0019847332 0.083358794 0.033171475
-0.00098974979 0.083138987 0.03260687
0 0.083018936 0.032380223
0.0009918384 0.083314434 0.031769216
-0.01003625 0.085308127 0.030418336
-0.0089494176 0.084522277 0.031163067
-0.0079783406 0.084769875 0.031407833
-0.0069166571 0.083987981 0.031608492
-0.0060182498 0.085258543 0.032402247
-0.0049682576 0.084460385 0.032402247
-0.0039506182 0.083950639 0.030821472
-0.0030073996 0.08520966 0.031562954
-0.0019999528 0.084997997 0.030468553
-0.0009958701 0.084648959 0.029351681
-0.0089373384 0.085401237 0.030119509
-0.0079885703 0.085877135 0.030119509
-0.0069744573 0.085686192 0.030462354
-0.0060234014 0.086335421 0.030482441
-0.004990458 0.085835882 0.030180156
-0.0040189405 0.086407222 0.029554009
-0.0029938812 0.085824601 0.029361993
-0.0020011966 0.086051457 0.028285086
-0.0079672914 0.086644292 0.028138876
-0.0070459205 0.087570727 0.028908253
-0.0059938403 0.086910687 0.02994594
-0.0050161807 0.087281547 0.029119313
-0.0039961319 0.086915866 0.029119313
0 0 0 1 0 0 0 1 0 0 0 1 0 0 0 0 0 888 1 0 0
