ply
format ascii 1.0
comment PCL generated
element vertex 940
property float x
property float y
property float z
element camera 1
property float view_px
property float view_py
property float view_pz
property float x_axisx
property float x_axisy
property float x_axisz
property float y_axisx
property float y_axisy
property float y_axisz
property float z_axisx
property float z_axisy
property float z_axisz
property float focal
property float scalex
property float scaley
property float centerx
property float centery
property int viewportx
property int viewporty
property float k1
property float k2
end_header
-0.0052126856 0.0010425372 0.017616481
-0.0041383165 0.0010345791 0.017463386
-0.0031038055 0.0010346018 0.018862844
-0.0020676504 0.0010338252 0.018658251
-0.0092746699 0.002061038 0.020181924
-0.0082753142 0.0020688286 0.020287573
-0.0072233155 0.0020638043 0.020489156
-0.0062000784 0.0020666928 0.021207273
-0.0051861149 0.0020744461 0.020799696
-0.0041202297 0.0020601149 0.020251393
-0.0030940815 0.0020627209 0.020244211
-0.0020647044 0.0020647044 0.020240188
-0.0010380325 0.0020760649 0.019474596
0 0.0020425355 0.01940009
0.0010186426 0.0020372851 0.016933084
-0.011288524 0.0030786884 0.020262986
-0.010163002 0.0030489007 0.019872248
-0.0092756227 0.0030918743 0.021292359
-0.0082956683 0.0031108756 0.021077096
-0.0072172284 0.0030930978 0.020988882
-0.0062650945 0.0031325473 0.021494597
-0.0051396973 0.0030838186 0.021246612
-0.0041574799 0.0031181099 0.020229697
-0.0030900089 0.0030900089 0.020172954
-0.0020752817 0.0031129224 0.020172954
-0.0010331995 0.0030995982 0.020113319
0 0.0030690599 0.020103514
0.0010417358 0.003125207 0.019793004
0.0020684525 0.0031026786 0.018835694
-0.013318094 0.0040978752 0.01980865
-0.012139541 0.0040465137 0.021037847
-0.011374764 0.0041362783 0.020566106
-0.010176798 0.0040707197 0.021706611
-0.0092655448 0.0041180202 0.021645039
-0.0082754921 0.0041377461 0.021301299
-0.0072448086 0.0041398909 0.021510005
-0.0061877742 0.004125183 0.021417648
-0.0051508644 0.0041206917 0.021292746
-0.0041364157 0.0041364157 0.020171613
-0.0030976236 0.0041301651 0.020156145
-0.0020718216 0.0041436432 0.020171613
-0.0010340913 0.0041363654 0.02003473
0 0.0041439394 0.020019263
0.0010357986 0.0041431943 0.019692957
0.0020446281 0.0040892563 0.019030422
0.0031065864 0.0041421154 0.019030422
0.0040834942 0.0040834942 0.019379973
0.005138061 0.004110449 0.018342793
-0.015408698 0.0051362324 0.01926744
-0.014532894 0.0051903189 0.020530522
-0.013180669 0.0050694882 0.021981865
-0.012365909 0.0051524621 0.022616863
-0.011307403 0.0051397285 0.022064388
-0.010305121 0.0051525603 0.02185598
-0.0092872288 0.0051595713 0.021693081
-0.0082781855 0.0051738657 0.021649957
-0.0071993712 0.005142408 0.021311969
-0.0062406398 0.0052005327 0.02128011
-0.0051912619 0.0051912619 0.020552576
-0.0041350797 0.0051688496 0.019696027
-0.0031024751 0.0051707914 0.020770788
-0.0020681054 0.0051702629 0.020331174
-0.0010282091 0.005141045 0.02007103
0 0.0051950207 0.020584285
0.0010213194 0.0051065967 0.020704746
0.0020739583 0.0051848958 0.021235526
0.0030750388 0.0051250649 0.021397203
0.0041202037 0.0051502548 0.021918833
0.0051693139 0.0051693139 0.022043228
0.006138586 0.0051154881 0.022043228
0.0071677933 0.0051198523 0.019028842
-0.017365908 0.0061291438 0.020033985
-0.016364586 0.0061367191 0.022573054
-0.015505042 0.0062020165 0.02199924
-0.014324252 0.0061389655 0.022258967
-0.013353704 0.0061632479 0.02226159
-0.012374992 0.0061874958 0.023180187
-0.011271483 0.0061480817 0.02210784
-0.010229798 0.0061378791 0.021213621
-0.0092589315 0.0061726212 0.020906329
-0.0082705868 0.0062029399 0.020934284
-0.0072285677 0.0061959154 0.020071745
-0.0061968984 0.0061968984 0.020453155
-0.005197485 0.0062369821 0.019773126
-0.0041429852 0.0062144776 0.01938495
-0.0031027345 0.0062054689 0.019613355
-0.0020619372 0.0061858119 0.020039707
-0.0010373801 0.0062242802 0.019915998
0 0.006152235 0.019837409
0.0010387213 0.0062323278 0.020475894
0.0020671806 0.0062015415 0.020715207
0.0030458523 0.0060917046 0.021050096
0.0040676314 0.0061014472 0.021737039
0.0051359115 0.0061630937 0.022792369
0.0061204517 0.0061204517 0.02262041
0.0071649873 0.0061414177 0.02147159
0.0081545254 0.0061158943 0.021277457
-0.019649109 0.0072391452 0.019970447
-0.018487731 0.0071896734 0.022314548
-0.017287541 0.0071183997 0.022159964
-0.016622212 0.0072722179 0.02221939
-0.015235741 0.0071100122 0.021895558
-0.014432856 0.0072164279 0.022014618
-0.013237509 0.0071278894 0.022114128
-0.012235549 0.0071374034 0.021979243
-0.011273707 0.0071741776 0.020963192
-0.010312881 0.0072190175 0.020647675
-0.0092783039 0.0072164587 0.020053387
-0.0083438829 0.0073008975 0.020341218
-0.0072453418 0.0072453418 0.019078642
-0.0062387083 0.0072784931 0.019173563
-0.0052414704 0.0073380591 0.018695384
-0.0041798828 0.0073147947 0.018491715
-0.003130957 0.0073055662 0.018493533
-0.0020823381 0.0072881831 0.019494176
-0.0010455074 0.0073185512 0.019748002
0 0.0072165774 0.019748002
0.0010299609 0.0072097266 0.01977241
0.0020535623 0.007187468 0.020409882
0.0030914517 0.0072133876 0.020409882
0.0041235527 0.007216217 0.02147159
0.005089676 0.0071255467 0.022099257
0.0062273699 0.0072652651 0.022926867
0.00716811 0.00716811 0.022926867
0.0082288012 0.007200201 0.023427039
0.0093293199 0.0072561377 0.023631096
0.010261687 0.0071831807 0.021521121
-0.020487387 0.0081949551 0.021239161
-0.019500094 0.0082105659 0.022256315
-0.018512079 0.0082275914 0.022536337
-0.017466901 0.008219718 0.02221939
-0.016437231 0.0082186153 0.022395223
-0.015446116 0.0082379291 0.022014618
-0.014353708 0.0082021188 0.022081971
-0.013252731 0.0081555275 0.021612614
-0.012422903 0.008281935 0.021612614
-0.011440095 0.0083200689 0.020657808
-0.010225858 0.0081806863 0.019189388
-0.0093469843 0.0083084311 0.018917769
-0.0083444677 0.0083444677 0.01932922
-0.0072578029 0.0082946317 0.01846388
-0.0062431712 0.0083242282 0.018261284
-0.0051912391 0.0083059827 0.017783105
-0.0041387212 0.0082774423 0.017325073
-0.0031320902 0.0083522405 0.016955912
-0.0020884585 0.008353834 0.017444253
-0.0010345459 0.0082763676 0.017380327
0 0.0083744228 0.018313169
0.0010345459 0.0082763676 0.01863879
0.0020762661 0.0083050644 0.019845843
0.0030944159 0.008251776 0.019944727
0.0040684952 0.0081369905 0.020650357
0.0051805712 0.0082889143 0.022451401
0.0061842874 0.0082457168 0.022850126
0.0071895346 0.0082166111 0.023062825
0.0082557229 0.0082557229 0.02365157
0.0092186285 0.0081943367 0.023743808
0.010211231 0.0081689851 0.022993356
0.011289937 0.0082108639 0.022620827
0.012341006 0.0082273372 0.021392643
-0.02166895 0.0092866924 0.020991325
-0.020654341 0.0092944531 0.022489071
-0.019419232 0.0091985837 0.022390068
-0.018503424 0.0092517119 0.022537589
-0.017467011 0.0092472406 0.022274554
-0.016411994 0.0092317462 0.022392631
-0.015369455 0.009221673 0.02146399
-0.014475768 0.0093058506 0.02055347
-0.013286087 0.0091980593 0.019774586
-0.012426632 0.0093199732 0.01976943
-0.011407314 0.0093332566 0.019070596
-0.010358167 0.0093223499 0.018848777
-0.0093316799 0.0093316799 0.018672079
-0.0083435373 0.0093864789 0.018226922
-0.0073534152 0.009454391 0.017900556
-0.0061492152 0.0092238225 0.017200917
-0.0052132122 0.0093837818 0.016937524
-0.0041445973 0.0093253441 0.017193496
-0.0031271693 0.0093815085 0.016586453
-0.0020589654 0.0092653437 0.017319828
-0.0010404651 0.0093641859 0.016916096
0 0.0092972806 0.017380327
0.0010402822 0.0093625393 0.0174779
0.0020883477 0.0093975645 0.01977241
0.0031238776 0.0093716327 0.019651413
0.0041572768 0.0093538724 0.020178348
0.0051623145 0.0092921657 0.021785587
0.0061078887 0.0091618327 0.022219121
0.0071511804 0.0091943741 0.023134559
0.0082138404 0.0092405695 0.02365157
0.009190714 0.009190714 0.02379784
0.010300882 0.0092707938 0.023295671
0.011206221 0.0091687264 0.023375303
0.01233377 0.009250327 0.022383928
0.013260741 0.0091805123 0.021635145
-0.022758016 0.010344553 0.020972371
-0.021584576 0.010278368 0.022537887
-0.020500919 0.010250459 0.022916824
-0.019606652 0.01031929 0.02253893
-0.018469445 0.010260803 0.022624612
-0.017543625 0.01031978 0.022613525
-0.016554276 0.010346422 0.022155911
-0.015198596 0.010132397 0.021519154
-0.014399003 0.010285002 0.02055347
-0.013430239 0.010330953 0.018856525
-0.012415659 0.010346382 0.018594623
-0.011403286 0.010366623 0.018791646
-0.010280161 0.010280161 0.018477112
-0.009367873 0.010408748 0.017968267
-0.0083747339 0.010468417 0.017371297
-0.0073179957 0.010454279 0.016493946
-0.0062819645 0.01046994 0.01622647
-0.0052717212 0.010543442 0.016142219
-0.0041894568 0.010473642 0.016142219
-0.0031304583 0.01043486 0.01585418
-0.0021009026 0.010504513 0.016171932
-0.0010477181 0.010477181 0.015484452
0 0.010416867 0.015336066
0.0010443655 0.010443655 0.016488582
0.0020653044 0.010326521 0.017277926
0.0031545963 0.010515321 0.018484086
0.0041363053 0.010340763 0.019299269
0.0051351893 0.010270379 0.019795835
0.0061444617 0.010240769 0.020987451
0.0071806209 0.01025803 0.022477746
0.0082557695 0.010319712 0.023628533
0.0092406273 0.010267364 0.024232894
0.010228365 0.010228365 0.023782134
0.01119215 0.010174682 0.023979098
0.012326458 0.010272048 0.022931248
0.013413607 0.010318159 0.022027999
0.014399856 0.010285611 0.021578103
-0.023870161 0.011416163 0.019531876
-0.0229172 0.0114586 0.021287769
-0.021549931 0.011288059 0.022863925
-0.020588456 0.011323651 0.023159683
-0.01942491 0.011245999 0.023131967
-0.018531807 0.011324993 0.022853047
-0.017317824 0.011205651 0.023231447
-0.016363172 0.011249681 0.021646023
-0.01555575 0.011407549 0.020705283
-0.014537923 0.011422654 0.018903613
-0.013453119 0.011383408 0.018221587
-0.012397298 0.01136419 0.018756568
-0.011395166 0.011395166 0.018650949
-0.010358091 0.011393901 0.018178672
-0.0093475152 0.011424741 0.016868502
-0.0083234813 0.011444787 0.016314566
-0.0072526722 0.011397056 0.015657037
-0.0062603438 0.011477296 0.014992297
-0.0052253604 0.011495793 0.015295029
-0.0041443235 0.011396889 0.015056759
-0.0031189159 0.011436025 0.014852077
-0.0020795537 0.011437546 0.014852077
-0.001046979 0.011516768 0.014906377
0 0.011410869 0.01508528
0.001052038 0.011572418 0.01519382
0.0020961326 0.011528729 0.016411453
0.0031019107 0.011373673 0.016815603
0.0041357907 0.011373424 0.018267244
0.005210428 0.011462942 0.019150466
0.0062596123 0.011475956 0.020520091
0.0071345032 0.011211362 0.022477746
0.0082581528 0.011354961 0.023188412
0.0091923084 0.011235044 0.023874789
0.010199665 0.011219631 0.023874789
0.011216216 0.011216216 0.024419397
0.012221834 0.011203348 0.0235053
0.01325671 0.011217216 0.022742331
0.014398062 0.011312762 0.022350341
-0.023619341 0.012323134 0.020550728
-0.022457676 0.012249641 0.022679895
-0.021516433 0.012295104 0.023177892
-0.02046402 0.012278412 0.0231736
-0.019438555 0.012276981 0.023447245
-0.018548014 0.012365343 0.023123413
-0.017393189 0.012277544 0.023458362
-0.016361024 0.012270768 0.021598488
-0.015326239 0.012260991 0.020532995
-0.014318575 0.012273064 0.01990369
-0.013426021 0.01239325 0.01910463
-0.012412491 0.012412491 0.018801779
-0.011501576 0.012547174 0.018275172
-0.010422543 0.012507051 0.016666621
-0.0093188761 0.012425168 0.015075535
-0.0084291575 0.012643736 0.01424095
-0.0073468504 0.012594601 0.013882101
-0.0063026752 0.01260535 0.013646185
-0.0052258992 0.012542157 0.013539314
-0.0042405631 0.012721688 0.013285697
-0.0031536142 0.012614457 0.012951195
-0.0020903747 0.012542249 0.013436615
-0.0010528157 0.012633788 0.013776124
0 0.012572392 0.014071763
0.0010448925 0.01253871 0.014609843
0.002058926 0.012353556 0.015315503
0.0031223488 0.012489395 0.016615301
0.0041406127 0.012421838 0.018344373
0.0051536812 0.012368835 0.01922065
0.0062353956 0.012470791 0.019910246
0.0071941377 0.012332807 0.021194816
0.0082044248 0.012306637 0.022794724
0.0092163263 0.012288435 0.023510903
0.010276313 0.012331575 0.023973852
0.011189944 0.012207211 0.024311304
0.012305027 0.012305027 0.023859113
0.01330565 0.012282139 0.023328006
0.014374856 0.012321305 0.021782279
0.015402979 0.012322383 0.021579683
-0.023707064 0.013399645 0.021773666
-0.022605868 0.013358013 0.02263698
-0.02147386 0.013293342 0.022866458
-0.020519642 0.013337768 0.023489386
-0.019459017 0.013314064 0.023844212
-0.018347122 0.013250699 0.023655325
-0.017317304 0.013242645 0.02309373
-0.016455231 0.013369876 0.021662921
-0.015458418 0.013397295 0.020700097
-0.01457497 0.0135339 0.019206613
-0.013393299 0.013393299 0.018937588
-0.012571611 0.013619246 0.018677086
-0.011408872 0.013483212 0.017532498
-0.010540533 0.013702693 0.014922857
-0.0094382381 0.013633011 0.013832837
-0.0084640831 0.013754135 0.012153447
-0.0073074624 0.013571002 0.011084855
-0.0063058394 0.013662652 0.011382848
-0.0052797268 0.01372729 0.012054324
-0.0041965987 0.013638945 0.012403607
-0.0031579391 0.013684402 0.012069106
-0.0021240958 0.013806622 0.01230669
-0.0010444452 0.013577788 0.012107283
0 0.013674486 0.012721062
0.0010502958 0.013653846 0.01360777
0.0020846049 0.013549931 0.014208794
0.0031146095 0.013496641 0.015596271
0.0041946485 0.013632608 0.016615301
0.0051621152 0.013421499 0.018262327
0.0062199188 0.013476491 0.019441754
0.0072447611 0.013454556 0.019873351
0.0082632536 0.013427787 0.022186428
0.009229864 0.013332027 0.023833245
0.010215197 0.013279756 0.024311304
0.011244021 0.013288389 0.024362862
0.012209771 0.013227252 0.024790019
0.013348163 0.013348163 0.024276584
0.014344745 0.01332012 0.022678554
0.015268408 0.01323262 0.022158295
-0.024761312 0.014444098 0.019257307
-0.023636509 0.01438744 0.022282094
-0.022625387 0.014397973 0.023252457
-0.021203687 0.014135791 0.023633003
-0.020517917 0.014362542 0.023958236
-0.019488607 0.014360026 0.023889154
-0.018375162 0.014291794 0.023655325
-0.017469032 0.014386262 0.023585498
-0.016242439 0.014212134 0.022538275
-0.015666291 0.014621872 0.021598488
-0.014496154 0.014496154 0.020917326
-0.013525192 0.014565591 0.018937588
-0.012362238 0.014422611 0.016685724
-0.011649806 0.014827027 0.016075909
-0.010335565 0.014469791 0.013363451
-0.0094906297 0.014763203 0.010217071
-0.0084526474 0.014792133 0.010198683
-0.0073883091 0.014776618 0.0093904734
-0.0063524689 0.014822428 0.0091276467
-0.0052832426 0.01479308 0.0095054209
-0.0042106262 0.014737191 0.009075433
-0.0031596837 0.014745191 0.0084864199
-0.0021203824 0.014842677 0.0088717937
-0.0010519745 0.014727643 0.01145345
0 0.0147038 0.011622936
0.0010438698 0.014614176 0.012081832
0.0020912543 0.014638781 0.013322264
0.0031410372 0.014658174 0.014854133
0.0041450597 0.014507709 0.016117334
0.0051814835 0.014508154 0.017167628
0.0062537603 0.014592107 0.018476903
0.0071938238 0.014387648 0.019619733
0.008271818 0.014475682 0.022132307
0.0092208628 0.014343565 0.023210585
0.010233831 0.014327363 0.023929983
0.01118813 0.014239438 0.024153233
0.01223067 0.014269115 0.024491996
0.01326232 0.014282499 0.024354637
0.014277886 0.014277886 0.022678554
0.01543428 0.014405328 0.021746486
-0.024878778 0.015549236 0.020984977
-0.023672154 0.01543836 0.022412002
-0.022528309 0.015360212 0.023429543
-0.021426672 0.015304766 0.024077922
-0.020391917 0.015293939 0.024808496
-0.019301819 0.015238278 0.024808675
-0.018540047 0.01545004 0.023516893
-0.017453998 0.015400588 0.023516893
-0.016414369 0.015388471 0.0222857
-0.015310497 0.015310497 0.021151304
-0.014482909 0.015517402 0.019316047
-0.01343213 0.015498611 0.016953707
-0.012541642 0.015677053 0.016351789
-0.011508721 0.015693711 0.012978435
-0.010413819 0.015620729 0.0097074509
-0.0094979946 0.015829992 0.0088187158
0.001054865 0.015822975 0.0099846423
0.0021128787 0.015846591 0.012283683
0.003123753 0.015618765 0.012947887
0.0041822172 0.015683314 0.01599589
0.0051380601 0.01541418 0.016734451
0.0062455176 0.015613794 0.01795727
0.0071645998 0.015352714 0.019426286
0.0082759438 0.015517394 0.021883279
0.0092046764 0.015341128 0.022877663
0.010201838 0.015302758 0.024085402
0.011223298 0.015304497 0.024471462
0.012253681 0.015317102 0.024927378
0.013309415 0.015357018 0.024457008
0.014201571 0.01521597 0.023732394
0.01534703 0.01534703 0.022139847
-0.024714362 0.016476242 0.021767437
-0.023411054 0.01628595 0.022712946
-0.022562275 0.016408928 0.024265021
-0.021338997 0.016258283 0.025627285
-0.020404555 0.016323645 0.025167733
-0.019326553 0.016274991 0.024844646
-0.018422127 0.016375225 0.024389893
-0.017303299 0.016285457 0.023656338
-0.016424472 0.016424472 0.021939546
-0.0153492 0.016372479 0.020599037
-0.014582952 0.016666232 0.018450856
-0.01338175 0.016469847 0.015989065
-0.012498775 0.016665034 0.014763236
0.0020995142 0.016796114 0.0098262429
0.003164941 0.016879685 0.011891991
0.0042052073 0.016820829 0.014111906
0.0051981811 0.016634181 0.016120464
0.00615134 0.016403574 0.018070281
0.0072671007 0.016610516 0.019325942
0.0081776809 0.016355362 0.021883279
0.0093172658 0.016564028 0.022407889
0.010267242 0.016427588 0.023809791
0.011173308 0.016252084 0.024237782
0.012231305 0.016308406 0.024754256
0.013278047 0.016342212 0.024609238
0.014347675 0.016397342 0.023931056
0.015377511 0.016402679 0.021864563
-0.024519177 0.01736775 0.021526963
-0.02365765 0.01748609 0.023713648
-0.022384649 0.017297231 0.025089502
-0.021262707 0.017212668 0.026067317
-0.020469386 0.01739898 0.025307089
-0.019291038 0.017260402 0.025081396
-0.018362174 0.017342053 0.024539441
-0.017442241 0.017442241 0.023656338
-0.016363375 0.017386084 0.021632612
-0.015575916 0.017652703 0.019520581
-0.014607024 0.017737102 0.016257495
-0.013516521 0.017675452 0.013851345
0.0041950275 0.017828867 0.011909783
0.005261912 0.017890502 0.014367223
0.0062519461 0.017713847 0.016608745
0.0072062337 0.017500853 0.020332992
0.0082421321 0.017514531 0.021007389
0.0092395665 0.017452516 0.022185922
0.010221118 0.017375901 0.023674577
0.011234455 0.017362341 0.024063289
0.012165745 0.017234806 0.024809152
0.01322444 0.017293498 0.025211453
0.014229426 0.017278589 0.023605108
0.015276396 0.017313249 0.022241861
-0.02468433 0.018513247 0.021811068
-0.023566958 0.018443706 0.024692237
-0.022404961 0.018331332 0.025656849
-0.021291053 0.018249473 0.026257396
-0.020356432 0.01832079 0.026087403
-0.019271594 0.018257299 0.025500834
-0.018366747 0.018366747 0.02480641
-0.017392751 0.018415852 0.023813158
-0.016334323 0.018376112 0.021971464
-0.015685612 0.018822733 0.019240111
-0.014433271 0.018557062 0.014898002
0.0052546374 0.018916694 0.012235373
0.006262227 0.01878668 0.015470475
0.0072097108 0.018539255 0.019296676
0.0082880054 0.018648012 0.020909041
0.0092314333 0.018462867 0.02185306
0.010258975 0.018466156 0.023674577
0.011192373 0.018314792 0.024470717
0.012127886 0.018191827 0.025301009
0.013173928 0.018240822 0.02501902
0.014218498 0.018280925 0.024289608
0.015310341 0.018372409 0.023035586
-0.024577891 0.019457499 0.021819055
-0.023312509 0.01925816 0.024642199
-0.022471957 0.0194076 0.025656849
-0.021366516 0.01933161 0.026234806
-0.02039667 0.019376839 0.025886178
-0.019269377 0.019269377 0.02544713
-0.018446771 0.019471593 0.024211109
-0.017385574 0.019430937 0.023175091
-0.016529135 0.019628348 0.020870239
0.0072174049 0.019590098 0.019162208
0.0082066683 0.019490838 0.020516992
0.0092643462 0.019558065 0.022141427
0.010196296 0.019372964 0.023798019
0.011079908 0.019138025 0.025324047
0.012261639 0.019414263 0.025311023
0.013157372 0.019230006 0.025242776
0.014081364 0.019110423 0.024974734
0.015244668 0.019309914 0.023828924
-0.024624519 0.020520432 0.02157566
-0.023327863 0.020285096 0.024643511
-0.022376927 0.020342661 0.025839478
-0.021354986 0.020338081 0.0263713
-0.020378385 0.020378385 0.025853097
-0.019276286 0.020290826 0.02544713
-0.018345976 0.020384418 0.024370939
-0.017341055 0.020401241 0.02325803
-0.016365509 0.020456886 0.021246135
0.0071986257 0.020567501 0.018382102
0.0082724039 0.020681009 0.020314753
0.0091174627 0.020261029 0.022141427
0.010304643 0.020609286 0.023598105
0.01121584 0.020392435 0.025685757
0.012133779 0.020222966 0.025530875
0.013132826 0.020204348 0.02571696
0.014236436 0.020337764 0.025406957
0.015312195 0.02041626 0.023916185
-0.024752676 0.021658592 0.021279633
-0.023438146 0.021400047 0.024400115
-0.022406178 0.021387717 0.025464267
-0.021471024 0.021471024 0.025921375
-0.020172663 0.021181297 0.025242627
-0.019276138 0.021305205 0.024939328
-0.018479411 0.021559315 0.024476409
-0.017266449 0.021329142 0.023412555
-0.016596084 0.021782361 0.021372855
0.008272321 0.021714842 0.019525677
0.0091793062 0.021418383 0.021615386
0.010249758 0.021524495 0.024014175
0.01107447 0.021142172 0.025815785
0.01219066 0.021333657 0.026931435
0.013156468 0.021252757 0.026952833
0.014234619 0.02135193 0.025425881
0.015291073 0.021407504 0.024922818
-0.023328766 0.02231447 0.024918884
-0.022460693 0.022460693 0.026126325
-0.021185981 0.022194836 0.026588827
-0.020326851 0.022359537 0.025910079
-0.019376401 0.022435833 0.025380164
-0.018422199 0.022516023 0.02489379
-0.017351002 0.022454238 0.023960173
-0.016393354 0.02254086 0.022001535
0.0082492996 0.022685574 0.019483805
0.0092564141 0.022626791 0.022792041
0.01023743 0.022522347 0.024560899
0.01109374 0.022187481 0.025611609
0.012187568 0.022343874 0.02581358
0.013196634 0.022332765 0.027121305
0.014088752 0.022139467 0.02551499
0.015195941 0.022287378 0.025011927
-0.024699247 0.023670113 0.021401942
-0.023385614 0.023385614 0.02517736
-0.022231562 0.023242088 0.026050806
-0.021480475 0.023526235 0.026489764
-0.020286312 0.02332926 0.025485069
-0.019205015 0.023248175 0.025383353
-0.018403202 0.023515204 0.02489379
-0.017355813 0.023481395 0.02395907
-0.016200306 0.023287941 0.022001535
0.0082758972 0.023793206 0.019918561
0.0090935351 0.023239035 0.023275107
0.010185486 0.023426618 0.024773955
0.011116954 0.023244541 0.02600947
0.012134019 0.02325687 0.027173102
0.013106198 0.023187891 0.027555674
0.01416599 0.023272699 0.025981873
0.015176477 0.023270598 0.02572152
-0.024861878 0.024861878 0.021852016
-0.023352852 0.024368191 0.02517736
-0.022428874 0.024467863 0.0268538
-0.02138033 0.02443466 0.026979148
-0.020386694 0.024464034 0.027068615
-0.019166399 0.024210187 0.025383353
-0.018468373 0.024624499 0.024901122
-0.017368784 0.024520636 0.024389893
-0.016212536 0.024318803 0.022561938
0.0082177268 0.02465318 0.020558864
0.009162304 0.024432812 0.0241552
0.010194341 0.024466418 0.025284678
0.011011589 0.024025286 0.025824696
0.012200871 0.024401741 0.027513057
0.013209465 0.024386704 0.02752021
0.014103455 0.024177352 0.026505619
0.015086673 0.024138678 0.026127368
-0.024702096 0.025731351 0.021899521
-0.023353493 0.025384231 0.025755912
-0.022393379 0.025447024 0.027035445
-0.021218823 0.025260504 0.027068615
-0.02012345 0.025154313 0.027657151
-0.019202752 0.025266778 0.027259767
-0.018116474 0.025161771 0.027068615
-0.017430225 0.025632683 0.026726753
-0.016352115 0.025550181 0.023606956
0.0081595229 0.025498511 0.022158861
0.0092748031 0.025763342 0.025020152
0.010079628 0.025199071 0.02610606
0.011118986 0.025270425 0.027660728
0.012185873 0.025387237 0.027734637
0.013209824 0.025403509 0.027660728
0.014085979 0.025153534 0.026695758
0.015175597 0.025292663 0.026129186
-0.024553875 0.026600029 0.022926271
-0.023611074 0.026690777 0.026309282
-0.022209391 0.026247462 0.027127415
-0.021281818 0.026348917 0.027165622
-0.020443568 0.026576638 0.028321862
-0.019213567 0.02629225 0.027774423
-0.018224113 0.026323719 0.026924938
-0.017335484 0.026513092 0.026759654
-0.016399136 0.026648596 0.02346468
-0.015206026 0.026357112 0.021812141
0.0081723426 0.026560115 0.024203062
0.0092366496 0.026683655 0.02555877
0.010042748 0.026111148 0.027660728
0.011063029 0.026148979 0.028709978
0.012184669 0.026400117 0.028713822
0.013093884 0.026187768 0.028007269
0.014191867 0.026356323 0.026679844
0.015090193 0.026156334 0.026609659
-0.024581905 0.027654646 0.022888035
-0.023443749 0.027520923 0.026106119
-0.022209749 0.027257422 0.027098894
-0.021162217 0.027208567 0.027890563
-0.020409824 0.027553266 0.028337836
-0.019133048 0.027189068 0.028149009
-0.01822768 0.02734152 0.027515948
-0.017084638 0.027134424 0.026938438
-0.016305981 0.027516345 0.025496393
-0.015226319 0.027407376 0.022784114
0.007186573 0.027719639 0.022158861
0.0081607774 0.027542623 0.024844021
0.0089992005 0.026997603 0.028430343
0.010081843 0.027220976 0.028988034
0.011001 0.027002456 0.028935403
0.012091448 0.027205758 0.028713822
0.013178679 0.027371103 0.028718948
0.014139309 0.027268669 0.027201384
0.015251854 0.027453337 0.026598603
-0.024398476 0.028464889 0.022598684
-0.02341461 0.028504742 0.025508672
-0.022264753 0.028336959 0.026617229
-0.021210909 0.02828121 0.027301818
-0.02031886 0.028446404 0.027853698
-0.019381445 0.028562129 0.027756214
-0.018293474 0.028456517 0.027288169
-0.017079655 0.028131196 0.02714923
-0.016210815 0.028368926 0.026647925
-0.01534316 0.028640566 0.025090754
0.0071414947 0.028565979 0.024734765
0.0081355423 0.028474398 0.027890593
0.0089741275 0.027919509 0.029483438
0.01009228 0.028258385 0.029068053
0.010992431 0.027980734 0.028969884
0.012050712 0.028118329 0.029188335
0.013087909 0.028189342 0.028802603
0.014209232 0.028418465 0.027217299
0.015180866 0.028337616 0.026482075
-0.024346087 0.029418191 0.022239119
-0.023667425 0.029841537 0.025340676
-0.022327617 0.029431861 0.026416779
-0.021204611 0.029282557 0.026898444
-0.02030798 0.029446572 0.027835995
-0.019055994 0.029085465 0.028520107
-0.018155728 0.029250897 0.029402763
-0.017168567 0.029287554 0.029305398
-0.016024185 0.029043837 0.028051794
-0.015237434 0.029459041 0.026664704
-0.014242455 0.02950223 0.024814039
0.0060876072 0.029423436 0.024403274
0.0071219271 0.029505128 0.02729252
0.0080985921 0.029357396 0.029383183
0.0090119364 0.029038465 0.030056924
0.010043071 0.029124908 0.029703289
0.011106842 0.029281678 0.029278785
0.012068274 0.029164998 0.029186457
0.013181207 0.02940423 0.028479904
0.014276492 0.029572735 0.027134657
0.015137158 0.029265173 0.025267571
-0.023597479 0.030779319 0.024225563
-0.022455769 0.030621504 0.026366085
-0.021253014 0.030361447 0.02667439
-0.020430582 0.030645872 0.027184039
-0.019022504 0.030035531 0.028431624
-0.018235503 0.030392505 0.029476106
-0.017102424 0.030180749 0.029126763
-0.016040694 0.030076299 0.028792471
-0.015219149 0.030438298 0.029347092
-0.013969309 0.029934233 0.028148413
0.0060084262 0.030042132 0.026360333
0.0070150797 0.030064628 0.029555917
0.0080066482 0.030024929 0.030031919
0.0090688253 0.030229419 0.030031919
0.010082565 0.030247696 0.029442281
0.010993151 0.029981323 0.029061049
0.012098154 0.030245386 0.028495103
0.013099787 0.030230276 0.027925491
0.014194759 0.03041734 0.026294082
0.015176312 0.030352624 0.024839282
-0.023507867 0.031684518 0.023480028
-0.022382084 0.031538393 0.024720639
-0.021338241 0.031499308 0.026461124
-0.020100057 0.031155091 0.027095556
-0.019015446 0.031025201 0.028362691
-0.018118363 0.031203851 0.02957347
-0.017094027 0.031171462 0.029476106
-0.016041545 0.031080496 0.029476106
-0.014992098 0.030983672 0.029991388
-0.014027908 0.031061796 0.029678613
-0.013017528 0.031041797 0.028696805
-0.01210826 0.031279672 0.02738592
0.00499591 0.030974643 0.029448718
0.005984311 0.030918943 0.030183256
0.0070303455 0.031134387 0.030428231
0.0079988101 0.030995389 0.030352205
0.009047416 0.031163324 0.029584855
0.010051484 0.031159604 0.029442281
0.010936255 0.030820355 0.029137254
0.012181908 0.03146993 0.02845037
0.013215792 0.031514581 0.027179837
0.014152944 0.031338662 0.025974065
-0.022505896 0.032735851 0.023422599
-0.021284364 0.032433316 0.025271356
-0.020263685 0.032421894 0.026708484
-0.019161696 0.032272328 0.027794242
-0.018133407 0.032237168 0.02969864
-0.017006034 0.03201136 0.029500782
-0.016058819 0.032117639 0.029526114
-0.015113988 0.032243174 0.030030459
-0.014106806 0.032244127 0.029881597
-0.012908367 0.031774443 0.029221416
-0.01202351 0.032062694 0.028826922
-0.011135288 0.032393564 0.027629972
-0.010203855 0.032652337 0.026319087
0.0030488928 0.032521524 0.028334647
0.0040018926 0.032015141 0.029958099
0.0049976679 0.031985074 0.03006345
0.0060145003 0.032077335 0.030376256
0.0070111034 0.032050759 0.030414879
0.008095935 0.03238374 0.030295521
0.0090057235 0.032020349 0.029276729
0.0099383229 0.031802636 0.029243708
0.011091177 0.032265246 0.028292149
0.012105893 0.032282382 0.027804464
0.013123178 0.032303207 0.025876373
0.014231819 0.032529872 0.024535805
-0.021496732 0.033780579 0.023344249
-0.020299664 0.033494446 0.025031179
-0.019222425 0.033386316 0.026903033
-0.018204061 0.033374116 0.029170603
-0.017186332 0.033361703 0.02870059
-0.01602741 0.033056531 0.029139698
-0.01513827 0.033304192 0.030313462
-0.013933914 0.032844227 0.030319482
-0.01308737 0.033221785 0.030724466
-0.012075756 0.033208326 0.030903906
-0.010891151 0.032673452 0.028713465
-0.0099976771 0.032992333 0.028030336
-0.009088113 0.033323079 0.027893811
-0.0080641666 0.033264685 0.027334094
-0.0070730611 0.033344429 0.027568042
0 0.033215143 0.028969347
0.0010060302 0.033198997 0.029043049
0.0020088817 0.033146545 0.028856874
0.0029678824 0.032646708 0.030443937
0.0039942795 0.032952804 0.030735493
0.0050267382 0.033176474 0.030594677
0.0059965164 0.032980841 0.030735493
0.0069663059 0.032841157 0.030304968
0.0080354884 0.033146389 0.030222774
0.0089793019 0.032924108 0.02888006
0.010065717 0.033216864 0.028382063
0.011147743 0.033443227 0.027271509
0.012043683 0.033120129 0.025604129
0.013081053 0.033205751 0.024109185
-0.020359775 0.03461162 0.022665352
-0.019363726 0.034650877 0.024806857
-0.018117253 0.034221478 0.027049214
-0.017073382 0.034146763 0.02863571
-0.016120246 0.03425552 0.028975219
-0.015028573 0.034064766 0.029526114
-0.014078083 0.03418963 0.03028658
-0.013077547 0.034202814 0.030724466
-0.012030979 0.034087773 0.031490624
-0.011091982 0.034284309 0.030903906
-0.0099785933 0.033927217 0.031059474
-0.0090014897 0.034005627 0.030629605
-0.0080172969 0.034073509 0.030402154
-0.006969111 0.033849966 0.029310048
-0.0059934473 0.033962868 0.030110061
-0.0049959249 0.033972289 0.031422794
-0.0039662318 0.033712972 0.030914724
-0.0029789307 0.033761214 0.031291813
-0.0020091932 0.034156285 0.031348109
-0.00099591783 0.033861205 0.031283021
0 0.03396666 0.029701918
0.00099233317 0.033739328 0.030882925
0.0020002013 0.034003422 0.030088156
0.0030000731 0.034000833 0.030443937
0.0039915051 0.033927795 0.030735493
0.0050323764 0.034220159 0.030375481
0.0060113077 0.034064077 0.030216902
0.0070409747 0.034199022 0.030110389
0.0079891114 0.033953723 0.029834628
0.0090091433 0.034034543 0.027826577
0.010104927 0.034356754 0.026375353
0.011070604 0.034218233 0.026199102
-0.018343855 0.035668608 0.024535507
-0.01731322 0.035644863 0.026005208
-0.016003178 0.035006952 0.027337641
-0.014925206 0.034825478 0.028345972
-0.014012183 0.035030458 0.028759211
-0.012950051 0.034865521 0.030024618
-0.012112195 0.035327233 0.030797184
-0.010971387 0.034908958 0.030490577
-0.0099509545 0.034828339 0.030792743
-0.0090613244 0.035238486 0.031331539
-0.0080121802 0.03505329 0.031211108
-0.0069667692 0.034833845 0.031184018
-0.0060052839 0.035030823 0.030842602
-0.0049842265 0.034889586 0.031335831
-0.0039746156 0.034777887 0.031508476
-0.0029932356 0.034921084 0.031959146
-0.001997465 0.034955636 0.031564236
-0.0009906023 0.034671079 0.032001585
0 0.035019852 0.031357527
0.00099017704 0.034656193 0.031502068
0.0019966147 0.034940757 0.030808449
0.0030182006 0.035212342 0.030774176
0.0039359848 0.034439865 0.030673981
0.0049711675 0.034798175 0.030336827
0.0060111149 0.035064839 0.029701412
0.0069327583 0.034663789 0.0287669
0.0080928318 0.035406139 0.027826577
0.0090995831 0.03538727 0.025899738
-0.016242389 0.036545373 0.023673534
-0.015233252 0.036559805 0.025409698
-0.013938576 0.03584205 0.027036458
-0.013138948 0.036384776 0.028396934
-0.012013377 0.036040127 0.030149341
-0.01096096 0.035872232 0.03030917
-0.010000978 0.036003519 0.03075242
-0.0090440307 0.036176123 0.032024443
-0.0079900166 0.035955075 0.032093048
-0.0069257072 0.035617922 0.032093048
-0.0060433112 0.036259867 0.03168267
-0.004973717 0.035810765 0.032197565
-0.0039982744 0.035984468 0.031757236
-0.0029923944 0.035908733 0.032123893
-0.0019990902 0.035983622 0.032194883
-0.00099736813 0.035905249 0.032731235
0 0.035872567 0.032249212
0.001003684 0.036132623 0.032341093
0.0020077138 0.036138847 0.031839281
0.0029769088 0.035722904 0.030914992
0.0040388401 0.036349561 0.030762047
0.0050046872 0.036033746 0.029810905
0.0060017765 0.036010657 0.028113842
0.0070396196 0.036203757 0.026029319
-0.014182637 0.037482683 0.024435341
-0.01311389 0.037324149 0.026800931
-0.011948031 0.036839765 0.029313534
-0.011020571 0.037069198 0.029153645
-0.0099720089 0.036896437 0.030498177
-0.0090512736 0.037210796 0.031312943
-0.0079954946 0.036979165 0.03142485
-0.0069776843 0.036882047 0.031381547
-0.0059869415 0.036919475 0.031408787
-0.0049874666 0.036907256 0.032085419
-0.0039959131 0.036962196 0.031365484
-0.002976964 0.036715891 0.031959146
-0.0020212242 0.03739265 0.031690508
-0.00099416741 0.036784194 0.031935871
0 0.036923591 0.031846017
0.00099714252 0.036894273 0.031839281
0.0019991237 0.036983792 0.031437129
0.0030008247 0.037010174 0.030569047
0.0040354985 0.037328362 0.030756623
0.0049977875 0.036983632 0.028357208
-0.012107625 0.038340814 0.026082098
-0.011047383 0.038163688 0.026853114
-0.0099690873 0.037882533 0.029153645
-0.0090109399 0.038046192 0.030414283
-0.0080742342 0.038352612 0.030818671
-0.0069594951 0.037780117 0.031101763
-0.0060299803 0.038189877 0.030626267
-0.0050057317 0.038043562 0.031125546
-0.003989886 0.03790392 0.030494452
-0.0029871985 0.037837848 0.031125546
-0.0020029084 0.03805526 0.031229794
-0.00099423993 0.037781119 0.030862331
0 0.038081106 0.030810297
0.00099569687 0.037836481 0.030888468
0.0019987805 0.037976831 0.03026858
0.0030012205 0.038015459 0.029974908
-0.011130835 0.03946387 0.025242448
-0.010029202 0.03911389 0.026391804
-0.0090928841 0.0394025 0.028742969
-0.0080135763 0.039066184 0.029163659
-0.0070122047 0.039067999 0.029532552
-0.0060147075 0.039095599 0.030284703
-0.0050069652 0.03905433 0.030203015
-0.0040170928 0.039166655 0.029936969
-0.0030243546 0.03931661 0.029782742
-0.0020009745 0.039019004 0.029760838
-0.0010034095 0.039132971 0.030314684
0 0.039163858 0.029983431
0.0010032882 0.039128236 0.030143559
0.0020205157 0.039400056 0.028274328
-0.0091124987 0.040499996 0.02588746
-0.0080868378 0.040434185 0.027005583
-0.0070423391 0.040241938 0.027785093
-0.0060186982 0.040124655 0.028668761
-0.0050712638 0.04057011 0.029144377
-0.00402509 0.040250901 0.029054731
-0.0029950391 0.039933853 0.028924376
-0.0020175949 0.040351897 0.029106081
-0.0010083214 0.040332858 0.028732777
0 0.040311139 0.027922481
-0.0070494907 0.041289877 0.026133806
-0.0060626785 0.041428305 0.026967973
-0.0050360272 0.041295428 0.027258396
-0.0040388815 0.041398536 0.027405798
-0.0030306824 0.041419331 0.027608633
-0.0020229125 0.041469708 0.02771765
-0.0010064311 0.041263673 0.027261645
-0.0061073275 0.042751294 0.024621129
-0.0050517139 0.042434402 0.024821788
-0.0040652542 0.04268517 0.024945945
-0.0030157152 0.042220011 0.024945945
0 0 0 1 0 0 0 1 0 0 0 1 0 0 0 0 0 940 1 0 0
