ply
format ascii 1.0
comment PCL generated
element vertex 1299
property float x
property float y
property float z
element camera 0
property float view_px
property float view_py
property float view_pz
property float x_axisx
property float x_axisy
property float x_axisz
property float y_axisx
property float y_axisy
property float y_axisz
property float z_axisx
property float z_axisy
property float z_axisz
property float focal
property float scalex
property float scaley
property float centerx
property float centery
property int viewportx
property int viewporty
property float k1
property float k2
end_header
0.0082742702 0.059988461 0.0070900917
0.0093471641 0.060237281 0.0071297884
0.010436411 0.060531188 0.0079713464
0.011451445 0.060380351 0.0079099834
0.012402578 0.059945799 0.0082758367
0.013478222 0.06013361 0.0090162754
0.014241942 0.059002332 0.0095357001
0.015360084 0.059392329 0.010883838
0.016315969 0.059145391 0.012089908
0.017083883 0.05828619 0.012691259
0.018370099 0.059192546 0.013352662
0.019231567 0.058706891 0.014618039
0.020371528 0.059077434 0.014790744
0.02125961 0.05871702 0.015558004
0.022315446 0.058831632 0.016135573
0.023196328 0.058495089 0.016549081
0.024347411 0.058839578 0.016549081
0.02506749 0.058156576 0.016471505
0.025843803 0.057651564 0.016390741
0.027069187 0.058148623 0.015186816
0.028474962 0.058983851 0.015150785
0.02992842 0.059856839 0.01502499
0.030893488 0.059727412 0.014377385
0.031719636 0.059346415 0.014211744
0.032551773 0.059000093 0.014086545
0.03365368 0.059148893 0.014065206
0.034502868 0.058857836 0.013983846
0.035207212 0.058343381 0.014348269
0.036830667 0.059338305 0.014701009
0.037193887 0.058303934 0.01488924
0.038320567 0.058489289 0.015833467
0.039383065 0.058569688 0.016028494
0.040049329 0.058071531 0.016605943
0.041291565 0.058412455 0.01676634
0.042093933 0.058129717 0.017253131
0.043250218 0.058337506 0.017351985
0.044447634 0.058590066 0.017524779
0.044935502 0.057916868 0.017385185
0.046081401 0.058102638 0.017011017
0.047785513 0.05896936 0.016782373
0.047749881 0.057697777 0.016255975
0.050066009 0.05926181 0.015495598
0.051174324 0.059362218 0.015162915
0.051003333 0.058003791 0.013891786
0.05292717 0.059034154 0.013474107
0.053192254 0.058210395 0.01316905
0.05461771 0.058663469 0.012093037
0.056643557 0.059733208 0.011095762
0.056951277 0.058985256 0.0094884634
0.058043968 0.059062287 0.0078487396
0.059388362 0.059388362 0.006121695
0.061046392 0.060011707 0.0041716695
-0.068782561 0.061487444 0.0042237639
-0.067557804 0.061321698 0.005066812
-0.066284753 0.061106253 0.0068899393
-0.065825783 0.061646368 0.0078016818
-0.064749673 0.061616626 0.0095265806
-0.06312111 0.06105157 0.010367513
-0.061829563 0.060799073 0.011079758
-0.061363086 0.061363086 0.011677593
-0.060306083 0.061345842 0.012035489
-0.058639858 0.060697399 0.012347251
-0.057346199 0.060418319 0.012931854
-0.055877391 0.059941202 0.013408661
-0.055392783 0.060521744 0.013766021
-0.05484413 0.061052904 0.013849169
-0.053630326 0.060849797 0.013990432
-0.05247793 0.060709763 0.014112979
-0.051563382 0.06084479 0.014098614
-0.050341785 0.060615622 0.014295816
-0.049098797 0.060350608 0.014245421
-0.04746731 0.059586622 0.014174283
-0.04686467 0.060109034 0.014076829
-0.04617143 0.060535874 0.014046669
-0.044991303 0.060329251 0.0136967
-0.044194426 0.060638867 0.013304979
-0.043724593 0.061422642 0.012610286
-0.04283205 0.061636362 0.0121364
-0.041228529 0.060812082 0.011793017
-0.040633634 0.061471399 0.011295497
-0.039217576 0.060890447 0.010986626
-0.037929725 0.060482532 0.01027149
-0.037546545 0.061534621 0.0099596381
-0.03697842 0.062335052 0.0099156797
-0.035179354 0.06104653 0.0098323226
-0.034340102 0.061395943 0.0099140406
-0.032811526 0.060496252 0.0098502934
-0.032002948 0.060908835 0.0089662373
-0.030965509 0.060898833 0.0083563328
-0.02992125 0.060874268 0.0080807209
-0.029293841 0.061726309 0.0067578256
-0.028273491 0.061782815 0.0061467886
-0.026801864 0.060819615 0.0059731603
-0.026268732 0.06199421 0.0056479275
-0.025205852 0.061964389 0.0050973296
-0.024147987 0.061944839 0.0049465299
-0.023331819 0.062571697 0.0040614307
-0.018611941 0.061005812 0.0047030747
-0.01769048 0.061396368 0.0052076578
-0.016682401 0.061516359 0.0055196881
-0.0155698 0.06124121 0.0055487454
-0.014679115 0.061861988 0.0051537454
-0.013580783 0.061635863 0.0051725805
-0.01253996 0.061654806 0.0050415993
-0.011522967 0.061805006 0.0050218105
-0.010460419 0.061716471 0.0050253272
-0.0093839848 0.061517239 0.0050253272
-0.008395792 0.061918966 0.0050441623
-0.0073365225 0.061836403 0.0046986938
-0.0062202993 0.061166279 0.0050194561
-0.0051973285 0.061328482 0.0053326488
-0.0041567711 0.061312374 0.0054884553
-0.0031473229 0.061897356 0.0071041286
-0.0020996951 0.061941005 0.0071653426
-0.0010367671 0.061169263 0.0070937276
0 0.061269104 0.0074302852
0.0010375514 0.061215531 0.0075111091
0.0020487832 0.060439106 0.0078028142
0.0031080537 0.061125059 0.0084632337
0.0041155121 0.060703803 0.0085281134
0.005114994 0.060356934 0.008377403
0.0062619173 0.061575525 0.0083996952
0.0072199963 0.060854252 0.0084512234
0.0082698623 0.060990233 0.0082446635
0.0093568461 0.06133933 0.008864969
0.010377198 0.06122547 0.008865416
0.011360457 0.060933366 0.0091079175
0.012441558 0.061170992 0.0095988512
0.013439701 0.060995568 0.010819376
0.014295088 0.060243588 0.011195868
0.015392572 0.060544118 0.012299359
0.016194409 0.059716884 0.013101399
0.017235564 0.059817545 0.01377055
0.018444892 0.060458265 0.014488071
0.019034652 0.059107602 0.014833122
0.020270266 0.059797287 0.015362203
0.021392444 0.060102582 0.015857249
0.022226648 0.059607834 0.016732395
0.023347348 0.059891023 0.017341167
0.024015002 0.059036881 0.017267078
0.025121771 0.05928738 0.017341167
0.026182057 0.059413135 0.017096937
0.027017288 0.059037775 0.01671955
0.028045252 0.059095353 0.016683519
0.029521672 0.060061332 0.016233861
0.030472817 0.059929878 0.015355527
0.031324256 0.059617128 0.014844567
0.032836542 0.060542375 0.014451623
0.033528626 0.059945118 0.014353693
0.034482434 0.059837166 0.014151365
0.035236772 0.059399135 0.014386177
0.036423914 0.059694748 0.014677674
0.037956398 0.060525063 0.014786214
0.038733747 0.060139243 0.015262246
0.039348025 0.059526503 0.015582621
0.040479358 0.059707057 0.015956551
0.041262172 0.059377272 0.016150802
0.042325988 0.059457939 0.016630799
0.043193646 0.059265699 0.01691249
0.044278875 0.059373949 0.017264396
0.044822495 0.058767267 0.017112404
0.046415266 0.059532624 0.016852081
0.047216665 0.059271984 0.016628027
0.048607122 0.059746258 0.015933245
0.049367581 0.059442598 0.015378237
0.050767154 0.059905238 0.015000522
0.05211471 0.060289565 0.013871223
0.052706309 0.059801392 0.013587922
0.053557113 0.059620183 0.012838364
0.055396013 0.060525272 0.01145339
0.056958973 0.061101444 0.010071486
0.057988659 0.061095197 0.0077663362
0.059576157 0.061666552 0.0060133934
0.060202185 0.061240155 0.0040859878
-0.068536155 0.063264139 0.004376322
-0.066436574 0.062284287 0.0061015785
-0.065761119 0.062629633 0.0075417161
-0.064050384 0.061984241 0.0090362728
-0.062665828 0.061638523 0.0098598897
-0.062108185 0.062108185 0.010757059
-0.060816675 0.061847463 0.011370093
-0.06017727 0.062252346 0.011857182
-0.059364319 0.062488757 0.012132287
-0.057262182 0.061352339 0.01282081
-0.056343816 0.061465982 0.013017625
-0.055850673 0.062056299 0.013550311
-0.054371364 0.061552491 0.013766021
-0.053524051 0.061758522 0.013668746
-0.052401163 0.061648428 0.01410386
-0.051455144 0.061746169 0.014112979
-0.049863204 0.06105699 0.014328331
-0.048742022 0.060927529 0.014424622
-0.04765578 0.060837165 0.014419526
-0.046842329 0.061098687 0.014394403
-0.046157539 0.061543383 0.014333099
-0.044840608 0.061146282 0.014156878
-0.044271354 0.061773982 0.013933957
-0.043194961 0.061707083 0.013243437
-0.041788455 0.061153837 0.012977719
-0.041386504 0.062079757 0.012594461
-0.040185925 0.061824501 0.011838704
-0.039458953 0.06230361 0.011879057
-0.038289316 0.062090781 0.01162079
-0.03713081 0.061884686 0.011265308
-0.036414169 0.062424291 0.01122424
-0.035542566 0.062722176 0.010972202
-0.034000445 0.061818995 0.011126012
-0.033203624 0.062256794 0.010891676
-0.031702474 0.061359625 0.010661125
-0.030532155 0.06106431 0.0099627376
-0.030013334 0.062096551 0.0097492635
-0.028969938 0.062078439 0.0088127851
-0.027629692 0.061399315 0.00684762
-0.026953308 0.062199943 0.0064716339
-0.026197521 0.062874049 0.0064530373
-0.025384523 0.063461311 0.006072402
-0.024601717 0.064178392 0.0061152875
-0.023205461 0.063287623 0.0058324039
-0.0219095 0.062598571 0.0057979226
-0.020750752 0.062252257 0.0056183934
-0.019511847 0.061616357 0.0063183606
-0.018469643 0.061565481 0.006649226
-0.017660499 0.062331174 0.0069676638
-0.016472926 0.061773475 0.0076540411
-0.015618377 0.062473509 0.0080308318
-0.014491539 0.062106598 0.007419765
-0.013525704 0.062426325 0.0072154999
-0.012549869 0.062749341 0.0067609847
-0.011505517 0.062757365 0.0067853928
-0.010300484 0.061802905 0.0072341859
-0.0094142128 0.062761419 0.0072751045
-0.0082620326 0.061965242 0.0072377026
-0.0072511337 0.062152572 0.0072692633
-0.0063175224 0.063175224 0.0076777637
-0.0051468997 0.061762802 0.0075918436
-0.0041337931 0.062006894 0.0081556141
-0.0031300783 0.062601566 0.0085119903
-0.0020892834 0.062678501 0.0088279247
-0.0010282494 0.061694965 0.0093629956
0 0.061763894 0.0093538165
0.0010324705 0.061948229 0.0095938444
0.0020686607 0.06205982 0.0097127259
0.0030922706 0.061845411 0.010458708
0.0041267984 0.061901979 0.010590553
0.005143282 0.061719388 0.01052931
0.0061630486 0.061630487 0.01052931
0.0071055288 0.060904533 0.010333598
0.0081660524 0.061245393 0.01028949
0.0092172576 0.061448388 0.010210395
0.010279384 0.061676309 0.010177284
0.011412688 0.062251024 0.010607302
0.012356749 0.061783746 0.012455106
0.013403476 0.0618622 0.012539804
0.014451043 0.061933041 0.012873799
0.015240549 0.060962196 0.013352662
0.016330246 0.061238419 0.014355719
0.017339921 0.061199717 0.014793396
0.01805217 0.060173903 0.015085697
0.019347046 0.061095934 0.015783787
0.020221954 0.060665864 0.016175479
0.021068528 0.060195796 0.01685071
0.022402715 0.061098315 0.017536253
0.0230661 0.060172435 0.017863005
0.024250448 0.060626123 0.017829776
0.025175862 0.060422067 0.017866462
0.026175702 0.060405467 0.017741472
0.026875921 0.059724264 0.017615169
0.028292811 0.060627453 0.017383695
0.028766194 0.059516262 0.017029494
0.030524939 0.061049879 0.016825736
0.031642832 0.061244186 0.016058624
0.032457259 0.060857363 0.015060246
0.033865578 0.061573781 0.014844567
0.034731485 0.061290856 0.014308333
0.035409089 0.060701296 0.014582455
0.036415093 0.060691826 0.01462689
0.038069349 0.06173408 0.014746785
0.038441453 0.06069703 0.014867276
0.040176563 0.061810095 0.014976263
0.040627997 0.060941998 0.015618682
0.041488372 0.060714688 0.01570493
0.042068925 0.060098462 0.016076922
0.043147165 0.060205344 0.016496092
0.044247124 0.060336992 0.016796649
0.045655914 0.060874548 0.016650021
0.046100944 0.060131665 0.016156912
0.047346108 0.06044184 0.015825659
0.048816755 0.061020944 0.014981091
0.049825076 0.061010301 0.014475346
0.05056943 0.060683314 0.014010668
0.051861104 0.061013062 0.013617098
0.052622136 0.060717847 0.012398779
0.054707266 0.061932757 0.011444002
0.0561928 0.062436447 0.010415584
0.056363534 0.061487488 0.0079865158
0.057877649 0.062011767 0.0062153935
0.058938876 0.062040921 0.0043392181
-0.068526931 0.064309888 0.004190892
-0.067365237 0.064207494 0.0061430335
-0.065542258 0.06346155 0.0075396895
-0.064271063 0.063234434 0.0085013509
-0.063061319 0.063061319 0.0098294318
-0.062239561 0.063276887 0.010659277
-0.060998783 0.063066535 0.011240035
-0.059972052 0.063074052 0.011880994
-0.059067216 0.063212283 0.011934757
-0.057498883 0.06263271 0.012561023
-0.056750432 0.062941387 0.012840182
-0.05521737 0.062375173 0.013381183
-0.054319933 0.06251917 0.013515472
-0.053625837 0.062907234 0.01358813
-0.052516308 0.062813617 0.013968527
-0.051520161 0.062854595 0.014108926
-0.049824521 0.062026445 0.014241397
-0.048399586 0.06150781 0.014394403
-0.048265964 0.062643059 0.014813155
-0.047177888 0.062561981 0.014805377
-0.046329398 0.062802069 0.014878422
-0.045356847 0.062881082 0.014903426
-0.044262905 0.062791564 0.014483213
-0.043050744 0.062526077 0.013846427
-0.042028889 0.062530786 0.013521761
-0.041047428 0.062597327 0.01320976
-0.039836586 0.062308505 0.012758642
-0.039148021 0.062842876 0.012497097
-0.038224198 0.06301827 0.012439907
-0.037536524 0.063603558 0.011993557
-0.036352463 0.063357152 0.01181531
-0.035049587 0.062883079 0.011731476
-0.033926498 0.062712625 0.011834592
-0.032822233 0.062567376 0.011762947
-0.0314188 0.061824087 0.011582673
-0.030859971 0.062748611 0.011199206
-0.029641369 0.062349085 0.010706753
-0.028834684 0.062818415 0.0099925399
-0.027889095 0.063008696 0.0094348192
-0.027213961 0.063848138 0.0089577138
-0.026275117 0.064111285 0.0084422231
-0.025480598 0.064763188 0.0067788959
-0.024169097 0.064100645 0.0066632628
-0.023104217 0.064061694 0.0066015422
-0.021874877 0.063541308 0.0066419542
-0.020555262 0.062693544 0.0071520805
-0.01947033 0.062510006 0.0084113479
-0.018499684 0.062693372 0.0090819299
-0.017480955 0.062725782 0.0092762709
-0.016560327 0.06313625 0.0096085966
-0.015511413 0.063079745 0.0095686316
-0.014462576 0.063015506 0.0093192458
-0.013555172 0.063605033 0.0093232095
-0.012532943 0.063709125 0.0089169145
-0.011332249 0.062842473 0.0089765191
-0.010361156 0.063203052 0.0089941621
-0.0094275484 0.063897833 0.0091096461
-0.0083149085 0.063401178 0.00893718
-0.0072467672 0.063150398 0.0091237724
-0.0062157391 0.063193351 0.0094067752
-0.0051739295 0.063121945 0.0098143518
-0.0041532409 0.063336924 0.0098824799
-0.0031084875 0.063205913 0.01050204
-0.0020627123 0.062912725 0.010559738
-0.0010344398 0.06310083 0.011097521
0 0.062185444 0.010947943
0.0010329932 0.063012578 0.01091975
0.0020478838 0.062460456 0.010955393
0.0030706939 0.062437445 0.011716872
0.0041055027 0.062608913 0.011739343
0.0051236004 0.062507927 0.011690587
0.0061575165 0.062601417 0.011664003
0.0072450796 0.063135691 0.011877298
0.0081476076 0.062125504 0.011350304
0.0091259889 0.061853923 0.011904895
0.010402134 0.063453011 0.012268633
0.01120565 0.062140424 0.012932926
0.012340618 0.062731475 0.013396055
0.013451003 0.063116245 0.013582885
0.014281246 0.062225427 0.014300019
0.015093066 0.061378468 0.014833182
0.016070765 0.06126979 0.015358895
0.017168686 0.061605282 0.015173942
0.018042259 0.061143216 0.015662134
0.019180888 0.061580744 0.016287595
0.020084456 0.061257593 0.016409129
0.021206141 0.061598785 0.016824841
0.022341494 0.061946869 0.01777342
0.023053451 0.061141759 0.018171936
0.024270399 0.061687265 0.018163443
0.024995128 0.06098811 0.018372178
0.026192656 0.061451998 0.01829657
0.027026797 0.061060537 0.018163443
0.0276914 0.06032769 0.017995715
0.028638793 0.060240217 0.017867833
0.029804977 0.060603451 0.017470688
0.031560402 0.06210272 0.017182231
0.032704931 0.062343776 0.015992761
0.033323787 0.061598517 0.015421808
0.034528807 0.061948739 0.014354467
0.035875332 0.062525578 0.014583647
0.03709342 0.06285274 0.014524937
0.037628956 0.062036924 0.014499187
0.039129779 0.062813587 0.014530897
0.040133771 0.062773332 0.014640987
0.040601131 0.061916724 0.014777094
0.041901033 0.062340554 0.014967352
0.042423714 0.061615396 0.015132397
0.043275736 0.06139116 0.015617192
0.044813681 0.06212806 0.015379906
0.04544244 0.06159975 0.015362978
0.04670677 0.061937232 0.014825612
0.047908563 0.062179197 0.014651239
0.048505895 0.061642911 0.014023185
0.050416831 0.06276381 0.013914257
0.051050544 0.062281661 0.013608783
0.051869687 0.062040213 0.012070626
0.053656928 0.062943704 0.011478275
0.054915462 0.063204587 0.010542393
0.055759411 0.062987484 0.0085456371
0.057453446 0.063721091 0.0065246224
0.057629287 0.062774755 0.0055729151
-0.067508161 0.065398529 0.005179286
-0.065484479 0.064445041 0.007113874
-0.064816184 0.064816184 0.0079875886
-0.063692391 0.06473653 0.0091190636
-0.062334716 0.064412542 0.009935081
-0.061767895 0.064908631 0.010752678
-0.059967287 0.064102963 0.01131022
-0.058535311 0.063669994 0.011857182
-0.057888828 0.064091206 0.012281895
-0.056621142 0.06382747 0.012797743
-0.054971233 0.06311512 0.013129741
-0.054892026 0.064213321 0.013536632
-0.053494152 0.063781492 0.013663113
-0.052219443 0.063482463 0.01414001
-0.05146822 0.063820593 0.014196843
-0.049395721 0.062500715 0.014744103
-0.048976202 0.063260928 0.014842123
-0.048686933 0.064225316 0.014947534
-0.046854701 0.063151993 0.015640646
-0.04601847 0.063403226 0.015809208
-0.044839226 0.063182548 0.015929997
-0.043355003 0.062511869 0.015569031
-0.042795613 0.063174479 0.014459133
-0.041882999 0.06333527 0.014134288
-0.040895451 0.063387953 0.013907999
-0.040455677 0.064314157 0.013719857
-0.039226923 0.064001821 0.013128638
-0.038438648 0.064410709 0.013618767
-0.037252456 0.064157017 0.013779908
-0.036011141 0.063791171 0.013580054
-0.034705795 0.063287042 0.012857437
-0.033785027 0.063474901 0.012992293
-0.032292914 0.062567525 0.012827486
-0.031768396 0.063536793 0.012421578
-0.030484298 0.063000888 0.012091398
-0.029506547 0.063082963 0.011579454
-0.028655594 0.063451678 0.010847569
-0.027886787 0.064036325 0.010265768
-0.027125616 0.064684168 0.0097709894
-0.025925489 0.06429521 0.0091061592
-0.024834432 0.064155623 0.0089763403
-0.024029987 0.064776488 0.0089775622
-0.023030709 0.064904727 0.0087285042
-0.021440826 0.063301489 0.0089029074
-0.020453678 0.063406408 0.0094068646
-0.019490482 0.063600525 0.010043442
-0.018336723 0.063159831 0.011574119
-0.017466217 0.063700318 0.012292057
-0.016494391 0.063915767 0.012179226
-0.015473082 0.063955411 0.011945575
-0.014515324 0.064282157 0.011308104
-0.013442045 0.064108223 0.011004657
-0.012166141 0.062858395 0.01079613
-0.011375041 0.06411387 0.010814965
-0.01029944 0.063856535 0.011015117
-0.0092635285 0.063815422 0.011119276
-0.0082457596 0.063904643 0.011102259
-0.0071947053 0.063724533 0.011100233
-0.0061591817 0.063644879 0.011286139
-0.0051415595 0.063755341 0.011677086
-0.0040892595 0.063383527 0.011702091
-0.003115274 0.064382337 0.011945397
-0.0020631431 0.063957438 0.012250364
-0.0010242297 0.063502245 0.012363344
0 0.063700438 0.012447089
0.0010291707 0.063808583 0.012291759
0.0020296411 0.062918872 0.012329936
0.0030937633 0.063937776 0.012471229
0.0040567233 0.062879212 0.012872368
0.005074379 0.062922306 0.01342088
0.0061736414 0.0637943 0.013300627
0.0071031898 0.062913969 0.013351768
0.0081411749 0.063094109 0.013510674
0.0091166003 0.062803246 0.013805121
0.010201253 0.06324777 0.013786882
0.011263728 0.063486472 0.013924003
0.012346108 0.06378822 0.0146541
0.013173503 0.062827475 0.014997214
0.014195797 0.062867105 0.014986098
0.015283406 0.063171409 0.015239179
0.015922165 0.061698392 0.015583843
0.017230824 0.062841825 0.015698135
0.018001908 0.062006582 0.016296566
0.018987296 0.061958548 0.016428441
0.020159988 0.062495969 0.01674816
0.021107217 0.062316544 0.01723367
0.022051187 0.062144257 0.017565101
0.023093252 0.062251374 0.018476814
0.024222342 0.062574387 0.017887145
0.025149664 0.062371168 0.018763334
0.026187554 0.062447246 0.018612623
0.026922544 0.061822139 0.018612623
0.028022733 0.062050339 0.018867791
0.028947059 0.061886817 0.018640012
0.02976861 0.061521798 0.01805687
0.030444171 0.060888343 0.017712921
0.032642752 0.063245334 0.017731279
0.033307392 0.062577531 0.015487254
0.034542471 0.062989213 0.014532089
0.035586715 0.063039325 0.014446348
0.037170347 0.064015605 0.014288098
0.038034566 0.0637336 0.014084131
0.038832534 0.063358344 0.014020622
0.039732881 0.063165098 0.014160961
0.041324791 0.064053431 0.013675481
0.041671623 0.063015625 0.01395604
0.04274527 0.063100159 0.014247864
0.043839388 0.063210279 0.014391422
0.04469426 0.062978283 0.014258593
0.045422897 0.062582657 0.014402568
0.046656407 0.062884726 0.013973087
0.047044065 0.062058128 0.013991386
0.049079601 0.063394487 0.013542712
0.050087474 0.063375995 0.012863517
0.050654922 0.062812105 0.012070626
0.052063942 0.06329342 0.011404663
0.053546987 0.063844487 0.010477781
0.0539294 0.063087225 0.0090117455
0.056651592 0.065044425 0.0069564283
0.05707432 0.064338326 0.0055689514
-0.066348754 0.066348754 0.005785346
-0.06484741 0.065893337 0.0073763132
-0.063283518 0.065358393 0.0079352856
-0.062704705 0.065839939 0.0093139112
-0.061322838 0.065480322 0.0098422468
-0.059841137 0.064999856 0.010648787
-0.05911519 0.065337844 0.011077285
-0.057406079 0.064581841 0.01180777
-0.056435812 0.064644657 0.012502104
-0.055937201 0.065260068 0.012912154
-0.054513764 0.064799383 0.013492256
-0.053433705 0.064736992 0.013663113
-0.052855127 0.065291628 0.014196187
-0.05123369 0.064554445 0.014319211
-0.049655519 0.063842811 0.014839709
-0.049801894 0.065364987 0.014896214
-0.04790936 0.064218931 0.015344858
-0.046952695 0.064304776 0.016027778
-0.045669794 0.063937709 0.016067892
-0.044695865 0.063996352 0.016190231
-0.043786798 0.064152755 0.015852928
-0.043124203 0.064686298 0.015323728
-0.041746803 0.064147525 0.014463782
-0.041055039 0.064661689 0.014313638
-0.039961051 0.064552471 0.014268726
-0.038911287 0.064510822 0.014148444
-0.037290011 0.063493796 0.014179289
-0.037095815 0.064917684 0.014351338
-0.035844188 0.064519539 0.014407814
-0.034766123 0.064419582 0.014308304
-0.033340346 0.063649751 0.014323771
-0.03254392 0.064070843 0.014070183
-0.031560868 0.064139828 0.013795376
-0.030496167 0.06404195 0.01269722
-0.029817684 0.064776346 0.012252212
-0.029004779 0.065260753 0.011662185
-0.028197495 0.065794155 0.011109859
-0.027023111 0.065479077 0.01075381
-0.026112532 0.06580358 0.0102593
-0.025064547 0.065794438 0.010095239
-0.024257371 0.066444099 0.010173738
-0.022626324 0.064793564 0.010112017
-0.021399833 0.0641995 0.011267453
-0.020682927 0.06515123 0.012218267
-0.019360749 0.064196169 0.012672216
-0.018260427 0.063911498 0.013064206
-0.017607914 0.065252855 0.013673007
-0.01642937 0.06469065 0.013621658
-0.015568314 0.065386921 0.012874991
-0.014372428 0.064675927 0.012690991
-0.013169267 0.063820295 0.012583971
-0.012446164 0.065342367 0.012050718
-0.011336266 0.064925894 0.012308568
-0.010067304 0.063424014 0.012438685
-0.0092188092 0.064531669 0.013069212
-0.0081992578 0.06456916 0.013109326
-0.0071211397 0.064090259 0.013147801
-0.0061655068 0.064737827 0.01307255
-0.0050953319 0.064201184 0.013135731
-0.0040578269 0.063910775 0.013313264
-0.0030927646 0.06494806 0.013374954
-0.0020498279 0.064569585 0.013926983
-0.0010259474 0.064634688 0.014005959
0 0.064244032 0.013843924
0.0010154067 0.063970618 0.013596267
0.0020510326 0.064607531 0.014401942
0.0030573485 0.06420432 0.014563531
0.004038312 0.063603416 0.014851183
0.0051245424 0.064569242 0.014778346
0.0061221439 0.064282514 0.014605194
0.0070924731 0.063832261 0.014980167
0.0081549352 0.064220116 0.015539974
0.0091012027 0.063708425 0.015555352
0.010125712 0.063791983 0.014944017
0.011281956 0.06461484 0.015172303
0.012152837 0.063802391 0.01528877
0.013182571 0.063884772 0.015326709
0.014267924 0.064205661 0.015434235
0.015088885 0.06337332 0.01592356
0.016204035 0.06380339 0.016520023
0.017066713 0.063247234 0.016488194
0.017986394 0.062952384 0.017454982
0.019190416 0.063631378 0.017460972
0.02007411 0.063233458 0.017458707
0.020998135 0.062994406 0.017497182
0.022201583 0.063577265 0.018001169
0.023190977 0.063523106 0.018543214
0.024348788 0.063915573 0.018647641
0.025161155 0.06340611 0.019132406
0.025949437 0.062877484 0.019301683
0.027017802 0.063041538 0.019401133
0.027906101 0.062788725 0.01968196
0.028638149 0.062213905 0.020225823
0.029748313 0.062471461 0.019741952
0.031004198 0.063008532 0.019734353
0.031636987 0.062285315 0.019124269
0.033439402 0.063838862 0.017299205
0.034249816 0.063462891 0.015562832
0.035539638 0.063971356 0.014747322
0.036907908 0.064588845 0.014209509
0.03753414 0.063909478 0.014007658
0.038462356 0.063766539 0.013867855
0.040258013 0.065032177 0.012943625
0.041184511 0.064865611 0.012581706
0.04236351 0.065095149 0.012841612
0.043473966 0.065210953 0.01321137
0.043364409 0.063533902 0.013239056
0.044980418 0.06440378 0.01317659
0.045914937 0.064280912 0.01359576
0.04661132 0.063837245 0.013070047
0.047526915 0.063706294 0.01311326
0.048596032 0.063782297 0.012466043
0.049286332 0.063368142 0.011782974
0.050961696 0.064211734 0.011115253
0.052291278 0.064595111 0.010365099
0.053206924 0.064462237 0.0086374581
0.054494772 0.064776808 0.0069803596
0.056375667 0.06577161 0.0058126152
0.055680797 0.063779823 0.0047123134
-0.066897146 0.067959011 0.0042248666
-0.065136544 0.06723772 0.0058085918
-0.064131223 0.067285217 0.0076578557
-0.062480837 0.066646226 0.0080264211
-0.060596537 0.065731838 0.0092707276
-0.060292039 0.066529147 0.0099072754
-0.059150528 0.066414632 0.010673195
-0.057461094 0.06566982 0.011357129
-0.056804858 0.066100195 0.011936396
-0.055638768 0.065942243 0.012939095
-0.054983467 0.066395134 0.013080269
-0.053959917 0.066412203 0.013653874
-0.05242369 0.065786593 0.014320433
-0.050804827 0.065030172 0.014467239
-0.050682202 0.066197164 0.014932454
-0.048017837 0.064023785 0.014967829
-0.047778621 0.06506025 0.015709549
-0.046706337 0.064982727 0.016068965
-0.045512304 0.06472861 0.016228676
-0.044889461 0.065293767 0.016252398
-0.044194844 0.065778375 0.015956789
-0.042622231 0.064948156 0.015685111
-0.042158164 0.065807864 0.015252799
-0.040734917 0.065175869 0.014932722
-0.039756402 0.065241277 0.014947504
-0.038796131 0.065340854 0.014768451
-0.038245194 0.066153847 0.014838964
-0.036811691 0.065443009 0.014865726
-0.035849314 0.065553032 0.014918894
-0.034471244 0.064887047 0.014482439
-0.033301778 0.064585268 0.014521301
-0.032579418 0.065158837 0.014387816
-0.031312369 0.064644895 0.014203608
-0.030731212 0.065559924 0.013523161
-0.029900249 0.065986753 0.012825012
-0.028527731 0.065206245 0.012453586
-0.027910881 0.066159122 0.012090564
-0.026778357 0.065915957 0.01177907
-0.02565475 0.06567616 0.011343062
-0.025291448 0.067443863 0.011336595
-0.023999143 0.066780224 0.01184839
-0.022485327 0.065411866 0.012310654
-0.021319596 0.06497401 0.012830287
-0.020373058 0.065193787 0.013210952
-0.019024165 0.064081393 0.014323711
-0.018371388 0.065320492 0.015132695
-0.01733624 0.065265842 0.015298873
-0.016412435 0.06564974 0.014999151
-0.015332151 0.065417178 0.014401346
-0.014188277 0.064860694 0.014242202
-0.013325334 0.065601647 0.014166653
-0.012271634 0.065448716 0.014077425
-0.011183579 0.065068096 0.014185488
-0.010277089 0.065773368 0.014337242
-0.0091924891 0.065368816 0.014374197
-0.0081508169 0.065206535 0.01452437
-0.0071984511 0.065814413 0.014379233
-0.0061067706 0.065138891 0.014342964
-0.0051005851 0.065287486 0.014843702
-0.0040988829 0.065582126 0.015088111
-0.003049121 0.065047912 0.014968872
-0.0020332597 0.065064311 0.015064448
-0.0010223591 0.065430984 0.01538837
0 0.064521775 0.015711725
0.0010261524 0.065673754 0.015660524
0.0020442179 0.065414973 0.016055316
0.0030279879 0.064597078 0.015991002
0.0040711877 0.065139003 0.016028315
0.0050460994 0.064590074 0.016103506
0.0060869036 0.064926974 0.016078472
0.0071579963 0.065444537 0.016332418
0.0080328286 0.064262629 0.016264707
0.0090375477 0.064267009 0.016183048
0.010205461 0.065314949 0.015847147
0.011139221 0.064810015 0.015731186
0.012198692 0.065059692 0.015830904
0.01317278 0.064850613 0.015845776
0.014040007 0.064182892 0.016187757
0.015096592 0.064412124 0.016877502
0.016106326 0.064425305 0.017701924
0.016939444 0.06377203 0.017739266
0.017969703 0.063892283 0.01768142
0.018932747 0.063773461 0.017744571
0.020127701 0.064408645 0.017727494
0.021127665 0.064389072 0.018062264
0.022126883 0.06436912 0.018455118
0.023050683 0.064141028 0.018813819
0.024304776 0.064812735 0.019113839
0.025289671 0.064741559 0.019149393
0.025956618 0.063893214 0.019608229
0.027190685 0.064451993 0.019767106
0.02814763 0.06433744 0.020215929
0.028731616 0.063407704 0.020527959
0.029953025 0.063899785 0.020414144
0.030687055 0.063353918 0.02029705
0.0318457 0.0636914 0.020051897
0.032919571 0.063844018 0.019304901
0.033971459 0.063946269 0.016816646
0.035750639 0.065372601 0.015211314
0.036762033 0.065354727 0.014329493
0.038112082 0.065923601 0.013869882
0.039192498 0.066008419 0.013521016
0.04035477 0.066223212 0.012736887
0.041784685 0.066855498 0.012167841
0.042263772 0.065972716 0.011889547
0.043364249 0.066078857 0.012160897
0.044266932 0.065885663 0.012180299
0.045750696 0.06654647 0.0120309
0.04560386 0.064858824 0.012107462
0.046367846 0.064511783 0.011870831
0.047862954 0.065175086 0.011774093
0.048356496 0.064475328 0.011337668
0.048895556 0.063863583 0.010471165
0.050861593 0.065102838 0.0092049837
0.051375646 0.064471394 0.0077293515
0.05382017 0.066240214 0.0064884126
0.055049919 0.066475376 0.0054141581
0.055619426 0.065919317 0.0047978461
-0.0655763 0.068749338 0.0041183233
-0.063747168 0.067927308 0.00564152
-0.062021006 0.067189418 0.0071710646
-0.061757427 0.068037838 0.0081270933
-0.060742252 0.068073206 0.0092993379
-0.058777839 0.06702736 0.0099072754
-0.058630865 0.068053678 0.010673195
-0.056841992 0.067176893 0.011449307
-0.056116641 0.067547806 0.012144953
-0.054690223 0.067072913 0.012764841
-0.053395823 0.066744775 0.013258427
-0.052315097 0.066676103 0.014036894
-0.051722981 0.067239873 0.014317662
-0.050150216 0.066525802 0.014602721
-0.049402118 0.066898704 0.014999598
-0.047647703 0.065895759 0.01572457
-0.046261836 0.065369986 0.016069144
-0.046232201 0.066779844 0.016417593
-0.044790424 0.066167675 0.016559035
-0.043588333 0.065889336 0.016175538
-0.042947613 0.06646654 0.015973091
-0.042016562 0.066611618 0.015692472
-0.04049626 0.065806426 0.015422255
-0.040140461 0.066900767 0.015366197
-0.039131694 0.066935785 0.015382111
-0.038004093 0.066763937 0.015584499
-0.036995895 0.066798143 0.015434235
-0.03550794 0.065943316 0.015256256
-0.034551602 0.06605453 0.015105009
-0.03365105 0.066282369 0.014828503
-0.032340139 0.065690905 0.01459381
-0.031569887 0.066194922 0.014462709
-0.030785831 0.066702634 0.014195293
-0.029496849 0.066113628 0.013641626
-0.028681336 0.066581674 0.012901962
-0.027788086 0.066897243 0.01264149
-0.026614839 0.066537097 0.012385935
-0.026180854 0.068070218 0.01253131
-0.025019117 0.06776011 0.012498319
-0.023602773 0.066703483 0.013337135
-0.022377357 0.066114917 0.013749957
-0.021249395 0.065771937 0.014146924
-0.020259274 0.065842643 0.015483528
-0.019270295 0.065924689 0.015802562
-0.018187772 0.065678075 0.01641053
-0.017339664 0.066298716 0.01641053
-0.016320359 0.066301458 0.015944123
-0.015189007 0.065819032 0.015846699
-0.014328393 0.066524684 0.015496433
-0.013230173 0.066150866 0.015461057
-0.012211231 0.066144161 0.015193284
-0.011246031 0.066453822 0.01565513
-0.010279071 0.066813961 0.015721411
-0.0091580115 0.066141196 0.015755862
-0.0081765 0.066434056 0.016042978
-0.0071366504 0.066268899 0.015755862
-0.0060538216 0.065583065 0.015956521
-0.0051009892 0.066312857 0.015847892
-0.0040544225 0.065884367 0.015993088
-0.0030381735 0.065827094 0.016260773
-0.0020432945 0.06640707 0.016678184
-0.0010152769 0.065992996 0.016959637
0 0.066208363 0.01696825
0.0010179251 0.066165134 0.016905278
0.002017776 0.065577716 0.017052203
0.0030390762 0.065846652 0.016742349
0.0040397379 0.065645739 0.017079681
0.0050107166 0.065139316 0.017001897
0.0060715145 0.065774739 0.01683563
0.0071139033 0.066057675 0.016789109
0.0081071788 0.065870829 0.016816795
0.0091076484 0.065777466 0.016738087
0.010087737 0.065570287 0.016240239
0.011069992 0.065413587 0.016181499
0.012212673 0.066151984 0.016247392
0.013041707 0.065208532 0.016689807
0.013971341 0.064866938 0.017267257
0.0152693 0.066166967 0.018083096
0.016000899 0.065003648 0.018009484
0.017237438 0.065907851 0.018090427
0.018114178 0.065412313 0.018354267
0.018487833 0.063247845 0.01842165
0.02010298 0.065334685 0.018409073
0.020854322 0.064549096 0.018548578
0.022108963 0.065321937 0.018744946
0.023262788 0.065742657 0.019107193
0.024240468 0.065651268 0.01970607
0.025043992 0.065114379 0.019897461
0.026319692 0.065799229 0.020222038
0.027152484 0.065367088 0.020321578
0.027904619 0.064778581 0.020430505
0.028831808 0.064623013 0.020884454
0.029968332 0.064931385 0.020794988
0.030580189 0.064119749 0.020684332
0.031695027 0.064380527 0.020701081
0.03269887 0.064406864 0.02032429
0.03394597 0.064896703 0.019295245
0.035119679 0.065222263 0.01686132
0.036363542 0.065656401 0.015226334
0.038119409 0.066966526 0.013906091
0.039414052 0.067418776 0.013186753
0.040607754 0.067679591 0.012467206
0.041816346 0.067951567 0.011785209
0.041925721 0.066467606 0.01150316
0.043292083 0.066999651 0.011752248
0.04439643 0.067110881 0.011501759
0.045008939 0.066490479 0.011087179
0.045753054 0.066087745 0.011315823
0.046693727 0.065980263 0.010936439
0.048279934 0.066770121 0.01004225
0.049135312 0.066537403 0.0091936588
0.050197065 0.06658794 0.0077559054
0.05111967 0.066455573 0.0073765516
0.052510008 0.06692452 0.0061514974
0.053808682 0.067260854 0.0052070916
0.054955907 0.067398757 0.0044590533
-0.063602559 0.068815887 0.0042623281
-0.062860958 0.06914705 0.0054195821
-0.061687659 0.069006532 0.0071710646
-0.060500901 0.068845853 0.0082192719
-0.059865303 0.069317721 0.0088250339
-0.058294214 0.06870389 0.0099891126
-0.056721371 0.068065643 0.010570824
-0.056368385 0.068894692 0.011785865
-0.054634005 0.068034798 0.012144953
-0.053865161 0.068367317 0.012773454
-0.052745119 0.06825839 0.013602644
-0.050696563 0.066919461 0.013914615
-0.049978331 0.067317754 0.014539599
-0.049035698 0.067424089 0.014833629
-0.047600877 0.066843785 0.015786827
-0.047263809 0.067813285 0.016233355
-0.045998737 0.067464814 0.016498387
-0.044630665 0.066946 0.016500443
-0.043578871 0.066888496 0.016146213
-0.042624049 0.066980645 0.015962929
-0.041349638 0.066562824 0.015692472
-0.040849082 0.067400984 0.01544708
-0.039676186 0.067144312 0.015470862
-0.038895443 0.067555241 0.015512526
-0.038383655 0.068468139 0.015512526
-0.036407407 0.06674692 0.015375376
-0.035435151 0.066820569 0.015217662
-0.034774378 0.067503199 0.01490581
-0.033643659 0.067287318 0.014804155
-0.03277643 0.067601383 0.014542341
-0.031529486 0.067127287 0.014388919
-0.030633232 0.067393109 0.014214069
-0.029857565 0.067951694 0.014091194
-0.028789273 0.067860425 0.013443053
-0.027649017 0.067586482 0.013277292
-0.026961748 0.068441354 0.0131495
-0.026167454 0.069082074 0.013267577
-0.024919813 0.068529487 0.014051884
-0.0237274 0.068087317 0.014650673
-0.02212132 0.066363961 0.015051246
-0.021161461 0.066507444 0.015830785
-0.020276457 0.066912308 0.016423404
-0.019272907 0.066947989 0.017420441
-0.018248694 0.066911876 0.01755923
-0.017405316 0.067573585 0.017519891
-0.016137846 0.066568613 0.017309636
-0.015302001 0.067328803 0.017222017
-0.014196423 0.066925988 0.016306549
-0.013066219 0.066336185 0.015946418
-0.012280695 0.067543827 0.015844464
-0.011240891 0.067445345 0.016098887
-0.010124616 0.066822469 0.016193926
-0.0091576111 0.067155816 0.017167956
-0.0081410017 0.067163259 0.016488671
-0.0071237013 0.067166328 0.016449392
-0.0061167381 0.067284115 0.016891092
-0.0050255638 0.066337444 0.017081589
-0.0040530474 0.066875279 0.017286628
-0.0030494155 0.067087144 0.017553121
-0.0020237097 0.066782422 0.017896771
-0.0010080739 0.06653288 0.018424839
0 0.067033395 0.018307209
0.0010031407 0.066207282 0.018034041
0.0020240708 0.066794336 0.017934769
0.0030324501 0.066713907 0.017923325
0.0040157484 0.066259846 0.017911285
0.0050544394 0.066718601 0.017845601
0.006068734 0.06675607 0.01769039
0.0070420131 0.066396125 0.017665446
0.0080803698 0.066663049 0.017738253
0.0091256732 0.066921607 0.017689228
0.0099995174 0.065996818 0.017387897
0.011064922 0.066389531 0.017456412
0.012158018 0.066869095 0.017412454
0.013020098 0.066102035 0.018001795
0.01397167 0.065866441 0.017991483
0.015235265 0.067035168 0.018158525
0.016164778 0.066679701 0.018584341
0.017196858 0.066764265 0.018585205
0.017932793 0.065753572 0.018559337
0.019140456 0.066487893 0.018662602
0.0199688 0.06589704 0.018493742
0.020866219 0.065579541 0.018712163
0.022180794 0.06654238 0.018818527
0.023152692 0.066438161 0.019934833
0.023952655 0.065869801 0.020421177
0.025505425 0.067334317 0.020278931
0.026399784 0.067014836 0.020441681
0.026828898 0.065581746 0.020647258
0.027747341 0.065404445 0.020878434
0.028508868 0.064882249 0.021160096
0.029798059 0.065555729 0.020929456
0.030820979 0.06561885 0.0208188
0.031626817 0.065230303 0.0208188
0.032604787 0.065209575 0.020681471
0.033867307 0.065742418 0.019762307
0.034875017 0.065764315 0.018334746
0.036096752 0.066177383 0.016777396
0.037918132 0.067637742 0.015206516
0.038806669 0.067401052 0.013564587
0.041147575 0.069634356 0.01262337
0.042209361 0.06964545 0.011720657
0.042851564 0.06898056 0.011309326
0.043325275 0.068082578 0.010998666
0.043812972 0.067247815 0.010087103
0.045554385 0.068331577 0.0094512105
0.046655286 0.068427749 0.0094741583
0.047016323 0.067458197 0.0091424286
0.048502505 0.0681099 0.0088315308
0.049216367 0.067672506 0.0074849427
0.050212458 0.067633107 0.0065084994
0.051863886 0.068460323 0.0057613254
0.052437648 0.067860484 0.0050996542
-0.062928885 0.07027059 0.0043720305
-0.061726429 0.070096113 0.0055396855
-0.061233107 0.070734791 0.0069635808
-0.059973948 0.070495695 0.008421123
-0.058251064 0.069693238 0.00953722
-0.057836175 0.070454977 0.010043085
-0.055586297 0.068968184 0.010684878
-0.054640725 0.069074132 0.011357129
-0.054203536 0.069839172 0.011831224
-0.052389391 0.068825275 0.012738854
-0.051350821 0.068810098 0.013590276
-0.050063733 0.068454497 0.014379591
-0.04891295 0.068274327 0.014719814
-0.04803111 0.068469882 0.015507042
-0.047011297 0.068472974 0.016231149
-0.045662981 0.067987107 0.016590267
-0.045067925 0.068626165 0.016721755
-0.042977709 0.066965267 0.016515166
-0.042599458 0.067956276 0.016462982
-0.040955301 0.066926956 0.01607877
-0.039879948 0.066798918 0.01565966
-0.039384805 0.067661077 0.015706092
-0.039460044 0.069574289 0.015756637
-0.037362248 0.067655958 0.015756637
-0.036580417 0.068080224 0.015567631
-0.035762746 0.068460114 0.015492082
-0.034699284 0.068378001 0.015183151
-0.033580698 0.068178996 0.015153736
-0.032542635 0.068136148 0.014740944
-0.031297468 0.067642912 0.014578819
-0.030829621 0.06885282 0.014312476
-0.029694214 0.068603873 0.014533371
-0.028560987 0.068342365 0.014196277
-0.027995935 0.069471389 0.014053851
-0.027150618 0.069965057 0.014125645
-0.025963336 0.06958174 0.014825135
-0.025045207 0.069917873 0.01547718
-0.023191692 0.067558408 0.016008556
-0.022116367 0.067354389 0.017118365
-0.021272741 0.067870177 0.017462313
-0.02029831 0.067999341 0.017559439
-0.019310785 0.06809593 0.017976224
-0.018433822 0.068614788 0.017892331
-0.017256308 0.068010159 0.017888308
-0.016275549 0.068153858 0.017737448
-0.015258863 0.06815625 0.017724276
-0.014098132 0.067469634 0.017504305
-0.013148456 0.067765124 0.017498851
-0.012220912 0.068233423 0.017498672
-0.011135174 0.067823336 0.017761379
-0.010216716 0.068452001 0.018015385
-0.0091576977 0.068173975 0.017724246
-0.0080881668 0.067738399 0.017648816
-0.0070985132 0.067942917 0.017662972
-0.0059937625 0.066930346 0.017891496
-0.0050493889 0.067661814 0.018201232
-0.0040773866 0.068296231 0.018494308
-0.0030310436 0.067693308 0.018607289
-0.0020016029 0.067053698 0.018707782
-0.0010055614 0.06737262 0.0188936
0 0.066929609 0.018789351
0.0010102523 0.067686908 0.018509984
0.0020195239 0.067654051 0.018554926
0.0029852197 0.066669911 0.018461823
0.0040235058 0.067393728 0.018373668
0.0050241333 0.067323387 0.018176973
0.006006029 0.067067325 0.018865198
0.0070846234 0.067809969 0.01897642
0.008074699 0.067625605 0.018914938
0.0090126805 0.067094401 0.018833727
0.01001231 0.06708248 0.018523514
0.011125916 0.067766942 0.018439591
0.012070152 0.067391686 0.018280983
0.013124233 0.067640282 0.018238336
0.013782596 0.065959573 0.018320471
0.015216493 0.067967005 0.018469185
0.016171711 0.067719042 0.01899004
0.017058149 0.067229174 0.018923551
0.018278098 0.068035148 0.019098103
0.018764071 0.06616804 0.019284219
0.019870648 0.066566676 0.019161314
0.021077253 0.067246474 0.01964438
0.022041064 0.06712506 0.019934297
0.022937598 0.066818222 0.020485938
0.02439397 0.068099834 0.020737857
0.024509257 0.06568481 0.020627201
0.026293969 0.067757539 0.020727903
0.027095139 0.067236088 0.020994008
0.027568189 0.06596674 0.02120021
0.028394766 0.065601699 0.021317512
0.029773479 0.066494107 0.021030694
0.030427523 0.065762714 0.020715564
0.031970937 0.066939153 0.020698845
0.032645095 0.066279441 0.020575941
0.033370808 0.065760121 0.019847035
0.034884091 0.066778116 0.018657953
0.035857994 0.066735715 0.01782614
0.037080828 0.067146361 0.016469955
0.038597714 0.068053871 0.014420658
0.039830714 0.068427131 0.012928426
0.041670583 0.069798231 0.011814117
0.042922728 0.070142016 0.01134938
0.043177299 0.068878077 0.010270774
0.043846879 0.068319559 0.0097503364
0.045686122 0.069567509 0.0093023777
0.046066437 0.068587802 0.0088175237
0.047739707 0.069533922 0.0084028542
0.049134534 0.070042849 0.0077136159
0.049858931 0.069594756 0.0063930452
0.050894566 0.069590531 0.0056793392
0.052174486 0.069913812 0.0048698187
-0.060984153 0.071498662 0.0054195821
-0.059512116 0.07099691 0.007496208
-0.058441047 0.070964128 0.0086604357
-0.056662917 0.070055969 0.0092680752
-0.055885669 0.070374541 0.010035694
-0.055244215 0.07087937 0.010666996
-0.054367695 0.071096219 0.01127246
-0.052389532 0.06985271 0.012207568
-0.051336039 0.069817014 0.012833297
-0.050318375 0.069829583 0.013810217
-0.049245618 0.069764629 0.014509827
-0.047944319 0.069366246 0.014995575
-0.046467468 0.068691038 0.015449554
-0.045840748 0.069270462 0.016333938
-0.044534266 0.068825692 0.016437173
-0.043307293 0.068485953 0.01640138
-0.043091975 0.069767959 0.016374648
-0.042199083 0.06998872 0.015974462
-0.04075871 0.069289811 0.015763044
-0.040199582 0.070091575 0.015624642
-0.038782168 0.06939967 0.015772551
-0.037515391 0.068947203 0.015772551
-0.036832828 0.069573119 0.015561908
-0.035511319 0.068993419 0.015532762
-0.034477413 0.068954825 0.015180916
-0.033527471 0.069086909 0.015100479
-0.032339521 0.068721481 0.014844686
-0.03177524 0.069700524 0.01459381
-0.030653382 0.069481 0.01447922
-0.029570812 0.069338456 0.014671624
-0.029219322 0.070961207 0.014422327
-0.028044423 0.070630394 0.01443547
-0.027041264 0.07072331 0.015048206
-0.025961727 0.070615895 0.015522778
-0.024504978 0.069430768 0.01658687
-0.022783281 0.067359269 0.017660648
-0.022278992 0.068862341 0.017807573
-0.02111906 0.068385527 0.018089384
-0.020100277 0.068340942 0.01821053
-0.019252684 0.06890434 0.018790543
-0.018225215 0.068850815 0.018888056
-0.017315613 0.069262452 0.018883169
-0.016208338 0.068885438 0.018543035
-0.015086812 0.068393551 0.01844725
-0.014157961 0.068767242 0.018087059
-0.013149317 0.068781041 0.018191904
-0.012176247 0.068998732 0.018205106
-0.011225134 0.069391742 0.018344343
-0.010103156 0.068701461 0.018725097
-0.0090289991 0.06821911 0.01858893
-0.0080872551 0.068741672 0.018637717
-0.0070674135 0.06865488 0.018637717
-0.0060666781 0.068755686 0.019122511
-0.0050500236 0.068680324 0.01920864
-0.0040204134 0.068347022 0.019328833
-0.0030052753 0.068119571 0.01978901
-0.0020257889 0.068876825 0.020110816
-0.00099859678 0.067904584 0.020227969
0 0.069004379 0.020056814
0.0010042473 0.068288818 0.019963145
0.0019906834 0.067683235 0.019821703
0.0030151936 0.068344392 0.019771487
0.0040115169 0.06819579 0.019639522
0.0050094505 0.068128526 0.019451797
0.0060230405 0.068261124 0.019334406
0.0070539503 0.068524092 0.019249976
0.0080300393 0.068255328 0.019120008
0.0091669243 0.069261216 0.018972069
0.010013615 0.068092585 0.018579423
0.011069799 0.068431489 0.018493652
0.01197796 0.06787511 0.018324882
0.012907967 0.067518599 0.018911749
0.013865265 0.067345574 0.019070596
0.015250809 0.069137 0.018827677
0.015759522 0.06697797 0.019020617
0.017067503 0.068270013 0.018991083
0.018378712 0.069430694 0.019410342
0.018941218 0.067789622 0.02019757
0.020067856 0.068230711 0.020021886
0.020854317 0.067528263 0.019994557
0.021903956 0.067703143 0.02010116
0.022979297 0.06793879 0.020677119
0.024055637 0.068157636 0.020788789
0.024659742 0.0670745 0.02061981
0.025926048 0.067806587 0.020885289
0.02642495 0.066551723 0.021086365
0.027912922 0.067788526 0.021451503
0.028520549 0.066875771 0.021471113
0.029523935 0.066920921 0.021118879
0.030730993 0.067409918 0.020845592
0.031729702 0.067425616 0.020746529
0.032388601 0.066740148 0.020599514
0.033738084 0.067476168 0.019966394
0.034815386 0.067641325 0.019072026
0.035321746 0.066718861 0.018533856
0.037092328 0.068169676 0.017210901
0.038441017 0.068789184 0.015507519
0.039151769 0.068264626 0.014007658
0.041151147 0.069956958 0.011913747
0.042208888 0.070004985 0.011208624
0.043225076 0.069983453 0.010067701
0.044145267 0.069811121 0.0092953444
0.045501944 0.070321187 0.0087145567
0.046464507 0.070213027 0.0082528591
0.048297375 0.07139612 0.0076905787
0.049232524 0.071230039 0.0067070723
0.050775766 0.071932338 0.0056280494
0.051885799 0.072004788 0.0051465631
-0.060698695 0.073477373 0.0060966015
-0.058200531 0.071711369 0.007509619
-0.057111368 0.071648806 0.0081117451
-0.056319568 0.071963891 0.0088759661
-0.054785833 0.071324952 0.009976536
-0.054289665 0.072038211 0.010685742
-0.052957959 0.071649 0.01159215
-0.051371671 0.0708929 0.012311667
-0.05025683 0.070769824 0.012925357
-0.049718075 0.071469732 0.014301926
-0.048129439 0.07065811 0.014744341
-0.047041632 0.070562445 0.015112102
-0.046550229 0.071377009 0.016180277
-0.044484422 0.069759659 0.016431987
-0.044139959 0.070829235 0.016300142
-0.042858358 0.070410162 0.016101688
-0.041402247 0.069676951 0.015860647
-0.040691689 0.070193164 0.015704989
-0.039830782 0.070469841 0.015526921
-0.038434263 0.06978853 0.015568584
-0.037792176 0.070477299 0.015603602
-0.036763765 0.070463881 0.015526921
-0.035865434 0.070706137 0.015354604
-0.034957886 0.070943944 0.015101433
-0.033515595 0.070078067 0.014786035
-0.032853298 0.070839919 0.014696598
-0.031886544 0.070973277 0.014618784
-0.030480709 0.070105635 0.01459381
-0.029961824 0.071288474 0.014815837
-0.029057844 0.07160683 0.014773041
-0.02763135 0.070613451 0.015503585
-0.026822707 0.071183339 0.015587211
-0.025904495 0.071496405 0.016642839
-0.024025511 0.069073349 0.017677724
-0.023310585 0.069931753 0.018173069
-0.022108717 0.069340974 0.018457353
-0.021131724 0.06943281 0.019267291
-0.020202368 0.069698177 0.019821495
-0.019115826 0.069420628 0.019956172
-0.018124726 0.069478124 0.019949853
-0.017094098 0.06938193 0.019928455
-0.016025806 0.069111288 0.019263893
-0.015134591 0.069619112 0.019260973
-0.014140311 0.069691531 0.019078135
-0.013064999 0.069344997 0.019106239
-0.012120736 0.069694228 0.019157052
-0.011205273 0.070287623 0.019263893
-0.010021467 0.069148123 0.019306421
-0.0091144564 0.069877498 0.019261628
-0.0080536148 0.069462426 0.019945294
-0.0070283087 0.069279037 0.019945294
-0.0060515385 0.069592692 0.020513326
-0.0049818316 0.068749279 0.020365417
-0.0040175398 0.069302559 0.020524174
-0.003019708 0.069453284 0.020638078
-0.0019928596 0.06875366 0.020610154
-0.00099247321 0.068480656 0.020650625
0 0.069583714 0.020805031
0.00099703984 0.068795748 0.02066952
0.0020027142 0.069093637 0.020571172
0.0029834758 0.068619944 0.020384967
0.0040199435 0.069344021 0.020321012
0.0049719177 0.068612471 0.019962519
0.0059268093 0.068158306 0.020120919
0.0069761598 0.068765007 0.019867301
0.0081189778 0.070026189 0.019841164
0.009009568 0.069073357 0.019711196
0.010061113 0.069421686 0.019477099
0.010951553 0.068696104 0.019255579
0.012162538 0.069934592 0.019097388
0.01310638 0.069564626 0.019183725
0.014115088 0.069567218 0.019376874
0.014941839 0.068732455 0.018993914
0.016070956 0.069306001 0.019448072
0.016581755 0.067302413 0.019448072
