ply
format ascii 1.0
comment PCL generated
element vertex 1270
property float x
property float y
property float z
element camera 0
property float view_px
property float view_py
property float view_pz
property float x_axisx
property float x_axisy
property float x_axisz
property float y_axisx
property float y_axisy
property float y_axisz
property float z_axisx
property float z_axisy
property float z_axisz
property float focal
property float scalex
property float scaley
property float centerx
property float centery
property int viewportx
property int viewporty
property float k1
property float k2
end_header
0.047898229 -0.085817665 0.015071362
0.050628137 -0.088857546 0.015704602
0.05025278 -0.086434782 0.016531527
0.051278815 -0.086470157 0.016435087
0.053830627 -0.089027576 0.016783059
0.054012306 -0.087642618 0.01684317
0.053619459 -0.08539395 0.01705274
0.054991383 -0.085986525 0.017131507
0.055536404 -0.085288048 0.017273843
0.057407983 -0.086615555 0.017499268
0.05891582 -0.087357938 0.017211527
0.059468981 -0.086683594 0.017132074
0.061195523 -0.087713584 0.016844332
0.062254589 -0.087768763 0.016974479
0.062203642 -0.086282469 0.016921401
0.063165307 -0.086225659 0.015939087
0.065836631 -0.088467978 0.016041458
0.066005938 -0.087330937 0.015684813
0.06832815 -0.089033656 0.014710367
0.066900685 -0.085872516 0.013541639
0.068584353 -0.086739033 0.012964994
0.071467534 -0.089075476 0.012941271
0.073288448 -0.090040088 0.011579573
0.072353363 -0.087639287 0.010926813
0.074677818 -0.089198507 0.010670483
0.074415125 -0.08766713 0.0096668005
0.075619489 -0.087882102 0.0090818405
0.078151956 -0.089614242 0.00700894
0.078714006 -0.08907111 0.005776614
0.079114541 -0.088361695 0.0041060448
-0.062623858 -0.091776341 0.0045558214
-0.059898157 -0.089321814 0.0063759983
-0.059723899 -0.090652347 0.0079389513
-0.058858585 -0.090963267 0.0090330243
-0.056127395 -0.088348679 0.010159343
-0.05494858 -0.088125087 0.011163712
-0.053522345 -0.08748845 0.011459112
-0.052976847 -0.088294744 0.011898309
-0.051997937 -0.08839649 0.012056589
-0.049652532 -0.086131945 0.01251471
-0.05021983 -0.08893095 0.012609154
-0.048610892 -0.087913312 0.012235671
-0.046638157 -0.086179204 0.012658864
-0.046319526 -0.087492429 0.01293847
-0.0453282 -0.087565839 0.013186336
-0.043567181 -0.086121172 0.013418525
-0.043416936 -0.08786761 0.013655275
-0.042301148 -0.087697499 0.013828307
-0.04121045 -0.08757221 0.01389423
-0.040511463 -0.088294216 0.01360926
-0.039242506 -0.087779291 0.013463706
-0.038178742 -0.087707922 0.013355762
-0.037728157 -0.089080371 0.013330013
-0.0360431 -0.08753325 0.012809575
-0.03528117 -0.088202931 0.012486994
-0.034220874 -0.088144682 0.011526734
-0.032727912 -0.086933516 0.010852903
-0.032489132 -0.089083098 0.010191202
-0.031657372 -0.089695886 0.0085935295
-0.030719645 -0.090040334 0.007533282
-0.029287167 -0.088907473 0.0064158738
-0.028625043 -0.090115875 0.0060317814
-0.027409805 -0.089608975 0.0052844584
-0.026625993 -0.090528369 0.0048527122
0.029437117 -0.089362681 0.0043334067
0.030055391 -0.088093385 0.005027622
0.030882889 -0.087501526 0.0064184964
0.032503881 -0.08912354 0.0075329244
0.033361539 -0.088616595 0.009327203
0.033192858 -0.085496753 0.010446399
0.034474827 -0.086187065 0.010989189
0.035608396 -0.086477533 0.01093924
0.036485448 -0.086146206 0.01043883
0.037673242 -0.08654663 0.010108203
0.03919737 -0.087678328 0.010593742
0.040011294 -0.087204106 0.010593742
0.041500133 -0.088187784 0.010294348
0.041984834 -0.087041728 0.011049926
0.04378574 -0.088613994 0.011255026
0.045049094 -0.089050531 0.011668354
0.044863749 -0.086668611 0.012337983
0.046359543 -0.087568022 0.012883514
0.048603907 -0.089811563 0.014282882
0.047845036 -0.086528257 0.01450938
0.049329851 -0.087354943 0.015338272
0.049031548 -0.085054733 0.016074121
0.050014641 -0.085024886 0.016676724
0.051657785 -0.086096309 0.016872019
0.052547026 -0.085894182 0.017000139
0.053359181 -0.08557605 0.016970158
0.055054531 -0.086659908 0.016996503
0.057450842 -0.088787667 0.016836882
0.056381635 -0.085579269 0.017242104
0.05901596 -0.088006258 0.017052859
0.058941916 -0.086380392 0.016845852
0.058934525 -0.084905669 0.016775876
0.062263574 -0.088206731 0.016752571
0.061324932 -0.085452773 0.016722798
0.062289566 -0.085396983 0.016635239
0.064708345 -0.087304913 0.015684813
0.064451478 -0.085599616 0.015897244
0.066636138 -0.087139562 0.015662104
0.067347899 -0.086735927 0.014866322
0.065439381 -0.083020106 0.013622701
0.070326827 -0.087908529 0.012942225
0.070886225 -0.087323606 0.01235497
0.071505919 -0.086828612 0.010792524
0.075651996 -0.090569295 0.010730952
0.0752858 -0.088879071 0.0097597241
0.075129218 -0.087479226 0.008536011
0.076104254 -0.087417044 0.0075511038
0.077007033 -0.087274633 0.0059942901
0.079327799 -0.088721879 0.0049211681
-0.062411603 -0.090389222 0.0047243834
-0.060079463 -0.088538155 0.006326139
-0.058018681 -0.087028019 0.0079040825
-0.056893878 -0.086892471 0.0094203353
-0.055644151 -0.086557567 0.010724872
-0.054213744 -0.085923672 0.011210322
-0.054324694 -0.087755278 0.011488169
-0.05313006 -0.087508336 0.01188311
-0.051549986 -0.086603977 0.012065589
-0.05100406 -0.087435536 0.012766004
-0.049405664 -0.08645992 0.012871623
-0.048626792 -0.086907461 0.012740254
-0.04783985 -0.087359726 0.013207227
-0.046153154 -0.086152554 0.013523072
-0.044494592 -0.084944226 0.013685256
-0.045464616 -0.088814601 0.014115542
-0.044485796 -0.088971592 0.014019877
-0.04149463 -0.085013382 0.014260828
-0.042067308 -0.088341348 0.014225245
-0.040452994 -0.087129533 0.014152229
-0.039068002 -0.086360849 0.013619959
-0.038521137 -0.087453388 0.013590127
-0.036835454 -0.085949399 0.013572246
-0.035780266 -0.085872643 0.01339522
-0.035218015 -0.087009214 0.012877673
-0.033892605 -0.086272091 0.012291491
-0.03350205 -0.087942883 0.011324167
-0.032385569 -0.087754443 0.010757297
-0.031066256 -0.086985514 0.0096949041
-0.030483074 -0.088295802 0.0090727806
-0.029568622 -0.088705868 0.0080513656
-0.028020496 -0.087174878 0.0074155629
-0.027070574 -0.087458782 0.0066031516
-0.026225448 -0.088117503 0.0061092079
-0.025426017 -0.088991068 0.0059622228
-0.024633123 -0.089964449 0.005053699
-0.023279497 -0.088885352 0.0045141876
0.027395736 -0.088509306 0.0042100847
0.028628204 -0.089065522 0.0053888559
0.029238561 -0.087715685 0.0070167184
0.029834023 -0.08641579 0.0087481439
0.030762732 -0.086135656 0.0093514323
0.031800833 -0.086169995 0.010811865
0.032512106 -0.085344277 0.011968374
0.033823907 -0.086097226 0.012446672
0.034023054 -0.084056959 0.01266101
0.035029035 -0.084069684 0.012323946
0.036597915 -0.085395142 0.012024671
0.037628364 -0.085426554 0.011217415
0.039099611 -0.086430721 0.011162877
0.040411294 -0.087039709 0.010973305
0.041471031 -0.087089166 0.0107584
0.042276077 -0.086614393 0.011312753
0.044326235 -0.088652469 0.011523664
0.044290744 -0.086521454 0.011847705
0.045329977 -0.086539052 0.01243189
0.046542857 -0.086879998 0.013361096
0.047035154 -0.085890278 0.013993531
0.047815975 -0.085458338 0.014585704
0.04839576 -0.084692582 0.015450716
0.048187923 -0.082607865 0.0167436
0.051123511 -0.085887499 0.016676724
0.051293928 -0.084484115 0.017099768
0.05209605 -0.084155165 0.017096251
0.052887022 -0.083820947 0.017107397
0.054522831 -0.084813297 0.017127126
0.054262403 -0.082873486 0.016947478
0.056747325 -0.085120991 0.017059088
0.057603378 -0.084889196 0.01689288
0.05813843 -0.084200487 0.016706258
0.060277428 -0.085818715 0.016499609
0.060452312 -0.084633239 0.016584039
0.061434474 -0.084598295 0.016409218
0.062185016 -0.084250666 0.015847892
0.063766822 -0.085022435 0.015602022
0.065305836 -0.085713908 0.015607655
0.065217182 -0.084280662 0.015568703
0.067050591 -0.085337125 0.014694273
0.068474129 -0.08584816 0.014008135
0.069048509 -0.085295223 0.013507009
0.068724588 -0.083664715 0.012941271
0.070425279 -0.084510341 0.010897547
0.073606141 -0.087083325 0.010811627
0.076003976 -0.088671312 0.0097702146
0.075642042 -0.087040156 0.0078333318
0.077136576 -0.087560438 0.0067560077
0.077775449 -0.0871085 0.0050349534
-0.060470853 -0.086535871 0.0043329597
-0.059326995 -0.086388431 0.0058322251
-0.05815316 -0.086191297 0.0074462295
-0.057188686 -0.086302929 0.0094823837
-0.055812135 -0.085785322 0.010689199
-0.054836638 -0.085876249 0.011008441
-0.05433296 -0.086723767 0.01140368
-0.053280111 -0.086710766 0.011871368
-0.051889475 -0.086136527 0.012035429
-0.051107641 -0.086570092 0.012523025
-0.049279194 -0.08521194 0.012755305
-0.049213909 -0.086909674 0.012999266
-0.04771065 -0.086086608 0.013332516
-0.045989025 -0.084824204 0.013685256
-0.045472536 -0.085777745 0.013859928
-0.044504143 -0.085903347 0.014223427
-0.042836558 -0.084653199 0.014324248
-0.042523522 -0.086084202 0.014547527
-0.041258655 -0.085611716 0.014321208
-0.040243573 -0.085646585 0.014270604
-0.039681491 -0.086672731 0.014162004
-0.03844345 -0.086238004 0.013913155
-0.037421115 -0.086276472 0.013669938
-0.036572538 -0.086729169 0.013386488
-0.035243601 -0.086035855 0.012962341
-0.034663562 -0.087184116 0.012327671
-0.033133961 -0.085941218 0.011831313
-0.032087937 -0.085912868 0.011381149
-0.031594377 -0.087411121 0.010721654
-0.030401532 -0.087011278 0.010179937
-0.029128034 -0.086343817 0.0095712245
-0.028351324 -0.087154068 0.0084739923
-0.027387697 -0.087429956 0.0081692338
-0.026257884 -0.087176174 0.008081913
-0.02570189 -0.08888571 0.0077409446
-0.024064094 -0.086839989 0.0072530508
-0.02277172 -0.085911497 0.0062634051
-0.02179453 -0.086140282 0.0052792728
-0.020743733 -0.086086497 0.004594326
0.02519981 -0.087149352 0.004807204
0.025971841 -0.086226508 0.0053691566
0.027271507 -0.087059051 0.0058394969
0.028375451 -0.087228239 0.0076680779
0.02870108 -0.085078202 0.010060489
0.030441253 -0.087124966 0.010941148
0.031442542 -0.086991034 0.011831969
0.031794503 -0.085127212 0.013015747
0.033093963 -0.085837469 0.013512164
0.034101903 -0.085771464 0.013527721
0.034323163 -0.083788902 0.013916194
0.035171345 -0.083406344 0.014316648
0.036431953 -0.083995901 0.014107794
0.037442431 -0.083992481 0.012736261
0.039548211 -0.086381622 0.012552321
0.039854165 -0.084817842 0.012176692
0.040162954 -0.083338134 0.01146844
0.041861035 -0.084743068 0.0116781
0.043704614 -0.086368643 0.011807799
0.044123724 -0.085169047 0.011922598
0.044798676 -0.084506594 0.01217857
0.046603248 -0.085957095 0.012592524
0.046924658 -0.084668405 0.013803482
0.048319064 -0.085329413 0.014429271
0.04779632 -0.082647808 0.01485914
0.049112137 -0.083189949 0.015647888
0.050659798 -0.084095262 0.016595691
0.051295023 -0.083480135 0.016800344
0.052623697 -0.083995521 0.01688993
0.053415123 -0.083650105 0.016965598
0.053261563 -0.081864998 0.016766608
0.055838134 -0.084264822 0.016694456
0.056583066 -0.08386419 0.01698029
0.057500198 -0.083728366 0.016642481
0.058859486 -0.084229954 0.016407877
0.059463266 -0.083651714 0.016290635
0.060574062 -0.083794124 0.016232848
0.061979614 -0.084332921 0.016084254
0.063327976 -0.084777772 0.015584946
0.063961551 -0.084266804 0.015459359
0.065201819 -0.084558614 0.015473694
0.06466262 -0.082569189 0.015440375
0.068028554 -0.085551068 0.014410347
0.06814827 -0.084422484 0.01356259
0.067936756 -0.082922809 0.012829125
0.069810085 -0.083974451 0.012464166
0.070475981 -0.083564378 0.010644406
0.071303114 -0.083354346 0.0099276602
0.078022093 -0.089942142 0.0082723796
0.076854281 -0.087382264 0.0068584979
0.077534758 -0.086964659 0.0048420429
-0.058964618 -0.084826298 0.0054001212
-0.05914579 -0.086606339 0.0072000325
-0.056350403 -0.084013328 0.0090330243
-0.056248587 -0.085414521 0.010160297
-0.05513959 -0.085310318 0.010883272
-0.053505901 -0.084374696 0.011290789
-0.0527438 -0.08480376 0.011538446
-0.052145999 -0.08551944 0.011980414
-0.051033758 -0.085403442 0.012127191
-0.049579456 -0.084698245 0.012744188
-0.048501629 -0.084619865 0.013056368
-0.046559855 -0.082998008 0.013329029
-0.047179092 -0.085970789 0.013401151
-0.045037474 -0.08393348 0.013696849
-0.044050798 -0.084003851 0.014366835
-0.043531347 -0.084989779 0.014547527
-0.04257359 -0.08514718 0.014326215
-0.041797262 -0.085684396 0.014330924
-0.040420998 -0.084987745 0.014366835
-0.03899128 -0.084139086 0.014445454
-0.038154155 -0.084557854 0.014318407
-0.037379503 -0.08514221 0.01402089
-0.035859354 -0.08401335 0.013792366
-0.035202224 -0.084899478 0.013520807
-0.034083299 -0.084691845 0.012977064
-0.032176476 -0.082452223 0.012453079
-0.03207418 -0.084841371 0.012066662
-0.030946881 -0.08458814 0.011690736
-0.029825548 -0.084334306 0.011003673
-0.029023906 -0.084998585 0.010420799
-0.028020902 -0.085100517 0.010310233
-0.027153203 -0.085637033 0.0096935332
-0.026539121 -0.087048315 0.0098500848
-0.025140679 -0.085897326 0.0096699893
-0.023931935 -0.085322551 0.0095074773
-0.023034902 -0.085857369 0.0080457032
-0.021642426 -0.084508523 0.0076507926
-0.02073965 -0.085032575 0.0059872866
-0.019787729 -0.08539968 0.0051903725
-0.018550701 -0.084508754 0.0043991506
0.019531513 -0.084293894 0.0043853223
0.0212253 -0.087023735 0.0051413178
0.0223828 -0.087399505 0.0052283704
0.023063771 -0.08596497 0.005833596
0.024200786 -0.086281069 0.0064274967
0.024855884 -0.084924273 0.0069935918
0.025482327 -0.083582036 0.0081050992
0.0272245 -0.085861892 0.0097457767
0.027468916 -0.083424121 0.010227412
0.029025573 -0.085003473 0.012330562
0.030053632 -0.084979236 0.012543589
0.031084493 -0.084964283 0.01372537
0.031640269 -0.083693616 0.014133394
0.033043537 -0.084674068 0.014827967
0.033067502 -0.08216773 0.01554662
0.035038285 -0.084504098 0.016244203
0.035605226 -0.08341796 0.016318679
0.035792213 -0.081526719 0.015480042
0.037650097 -0.083440758 0.015605062
0.039111067 -0.084397569 0.015593618
0.039604694 -0.083271414 0.014458001
0.041105278 -0.084265828 0.013250202
0.041759696 -0.083519392 0.012813449
0.043319218 -0.084575616 0.012381464
0.044324122 -0.084525071 0.012402594
0.044449519 -0.082837746 0.012081444
0.045979444 -0.083784766 0.012807399
0.047056798 -0.083883859 0.013428152
0.047687225 -0.083198994 0.014034003
0.048665378 -0.083136693 0.014676094
0.0490954 -0.082159653 0.015351653
0.050545156 -0.082894057 0.016676724
0.051256526 -0.082412459 0.016946018
0.052677043 -0.083067648 0.017056614
0.052967034 -0.081949003 0.016994983
0.055023845 -0.08355473 0.01693964
0.056028064 -0.083532751 0.016874909
0.056630425 -0.082923129 0.017030746
0.057538223 -0.082774289 0.016595662
0.058136839 -0.082193464 0.016186893
0.060140863 -0.083585612 0.016055912
0.062128138 -0.084908456 0.016022593
0.061714102 -0.082959943 0.015459359
0.063080326 -0.083428815 0.015379995
0.064375535 -0.083790377 0.015284091
0.063522406 -0.081388086 0.014920026
0.065782785 -0.082987517 0.014772236
0.068287082 -0.084841534 0.01384899
0.066806734 -0.081763461 0.013167113
0.068394162 -0.08247532 0.012615025
0.069774568 -0.082920507 0.012071133
0.071672037 -0.08395867 0.010091573
0.073902875 -0.085352622 0.0085256696
0.073366635 -0.083556451 0.006878823
0.075478896 -0.084784515 0.0051772892
0.078728847 -0.08724007 0.0041619539
-0.060500965 -0.085975051 0.0041563511
-0.058202703 -0.084186047 0.0063777566
-0.05762184 -0.084861249 0.0086030662
-0.056675542 -0.085013308 0.0094472468
-0.054814328 -0.083772838 0.010516703
-0.053522408 -0.083371438 0.01099211
-0.053609978 -0.085145257 0.011173338
-0.052515183 -0.085074589 0.011733919
-0.05102057 -0.084340125 0.011873394
-0.049124751 -0.082898013 0.012928963
-0.048379947 -0.083378203 0.013121665
-0.047584914 -0.083790816 0.01365152
-0.046688654 -0.084039569 0.013941973
-0.045281481 -0.083359092 0.014075041
-0.044125777 -0.083120644 0.014607787
-0.043480016 -0.08385431 0.014714986
-0.042435739 -0.083836459 0.014626533
-0.041417826 -0.083871096 0.014454424
-0.040025283 -0.083129436 0.014824152
-0.039414946 -0.084016062 0.014578342
-0.038743038 -0.08481583 0.014312565
-0.036842577 -0.0828958 0.014280051
-0.035960134 -0.083222024 0.014231622
-0.035146426 -0.083731189 0.013710201
-0.033759791 -0.08286494 0.01329124
-0.032699265 -0.082770012 0.01283434
-0.031729553 -0.082906246 0.012516737
-0.031496566 -0.085040726 0.012161374
-0.030251509 -0.084495589 0.011915177
-0.029041376 -0.084012546 0.011109531
-0.028425794 -0.085277379 0.010835677
-0.027098201 -0.084421314 0.010620236
-0.02633135 -0.085313573 0.010702908
-0.024680434 -0.083296463 0.010586977
-0.023925763 -0.084260292 0.010420591
-0.022066737 -0.081245705 0.010179937
-0.021319592 -0.082232714 0.010086983
-0.02072948 -0.083954394 0.0082971454
-0.019485468 -0.083069623 0.0078279674
-0.018309357 -0.082392104 0.0074490905
-0.017662462 -0.084156431 0.0062393844
-0.016932797 -0.085722283 0.0048772991
-0.016231619 -0.087650739 0.0043143034
-0.014999478 -0.086782694 0.004113555
-0.0063353456 -0.085527167 0.0041975677
-0.0051574241 -0.083550267 0.0043639839
0.013325858 -0.083030343 0.0049986839
0.014907497 -0.086250514 0.0057041645
0.015841035 -0.085541591 0.0062309504
0.016737882 -0.08473552 0.006231159
0.017803557 -0.084828712 0.0063637495
0.01878974 -0.08455383 0.0068325102
0.019739542 -0.08415278 0.0072657466
0.020698439 -0.08382868 0.007017374
0.021449942 -0.082735486 0.0069211423
0.023096027 -0.085035369 0.0080808699
0.023950465 -0.084347285 0.0090202093
0.024852252 -0.083876349 0.01003626
0.026128538 -0.084656455 0.010422587
0.026888857 -0.083769128 0.012301475
0.027989466 -0.083968394 0.012938589
0.028655738 -0.082896948 0.014092594
0.029278221 -0.081777088 0.014399886
0.030321812 -0.081868887 0.01431486
0.031910591 -0.083379276 0.015790522
0.032209281 -0.081529737 0.016192555
0.033364676 -0.081895113 0.016494393
0.034455933 -0.082086183 0.016564041
0.035043154 -0.081099868 0.016212463
0.036122486 -0.08127559 0.015676796
0.037467971 -0.08202447 0.015747637
0.037578851 -0.080102287 0.015695632
0.040083285 -0.083249897 0.015619874
0.04135121 -0.083736204 0.015314072
0.042211447 -0.083393335 0.014341325
0.043290254 -0.083488345 0.013652533
0.043622315 -0.082172267 0.012560844
0.045012195 -0.082863361 0.012552023
0.045918796 -0.082653828 0.013652533
0.047251634 -0.083203956 0.013594896
0.047104735 -0.081180498 0.014272571
0.049315631 -0.083220124 0.014746428
0.049305152 -0.081504434 0.015008986
0.050848316 -0.082374267 0.015696973
0.050987851 -0.080980703 0.016744822
0.052403372 -0.08162833 0.016537875
0.05331919 -0.08148782 0.016484052
0.054128904 -0.08119335 0.0165371
0.0548888 -0.080836229 0.01640287
0.056664247 -0.081960782 0.016495764
0.057801984 -0.082139663 0.016405702
0.059286892 -0.082797207 0.016055912
0.060274366 -0.082749553 0.015698642
0.060405366 -0.081547238 0.015640855
0.061541725 -0.081719339 0.015307754
0.063121475 -0.082465149 0.015132815
0.063654654 -0.081841692 0.014491171
0.065064184 -0.082346857 0.014476776
0.065499596 -0.081622571 0.014263988
0.066298783 -0.081366688 0.013384074
0.068055533 -0.082276084 0.012474567
0.070587352 -0.084081985 0.011796087
0.069673583 -0.081790723 0.011005431
0.071623623 -0.082878768 0.0095842183
0.07265877 -0.082892396 0.0081538856
0.07305821 -0.082190484 0.006351769
0.076364987 -0.084733747 0.0044903159
-0.058054525 -0.082935035 0.0060359836
-0.057649214 -0.083853394 0.0080013573
-0.055684619 -0.082495727 0.0093737245
-0.055098083 -0.08316692 0.009737134
-0.054815482 -0.084331512 0.010831982
-0.053093892 -0.083284535 0.011080563
-0.052053563 -0.083285697 0.011347175
-0.051766295 -0.084516399 0.011778861
-0.049544383 -0.082573973 0.012423128
-0.048601251 -0.082725532 0.012678564
-0.047419053 -0.082467914 0.013118863
-0.046216201 -0.082162127 0.013431132
-0.045920424 -0.083491676 0.013714522
-0.044548314 -0.082880579 0.01412794
-0.042786382 -0.08149787 0.014263332
-0.04248045 -0.082888678 0.014142662
-0.041033026 -0.082066052 0.014382988
-0.040518008 -0.083113864 0.01461032
-0.039474566 -0.08310435 0.014824152
-0.037878122 -0.081898637 0.014902711
-0.036491465 -0.081092149 0.014700323
-0.036302663 -0.082977511 0.014688879
-0.0352646 -0.082975529 0.014364421
-0.03354001 -0.081309117 0.014047176
-0.033518028 -0.083795071 0.013580114
-0.031737417 -0.081903011 0.012697726
-0.031232646 -0.083287053 0.012455225
-0.030110404 -0.083063178 0.012073755
-0.028803149 -0.08229471 0.011995435
-0.028429821 -0.084236503 0.011811435
-0.027184173 -0.083643608 0.01147607
-0.025523443 -0.081675015 0.011470467
-0.024983129 -0.083277091 0.011457384
-0.023738209 -0.082567677 0.01133588
-0.022185087 -0.080673039 0.010492116
-0.021849018 -0.083234347 0.010393649
-0.020523297 -0.082093187 0.0099629462
-0.019614026 -0.082585365 0.0099271536
-0.018967615 -0.084300511 0.0097890198
-0.017900508 -0.08423768 0.0087369382
-0.016884573 -0.084422864 0.0081861317
-0.015787741 -0.084201276 0.0068310201
-0.014566679 -0.083238162 0.0065032244
-0.013820965 -0.085052088 0.0057626963
-0.012512058 -0.08341372 0.0055094957
-0.011236778 -0.081722021 0.0062658191
-0.010520143 -0.084161147 0.0064458847
-0.0092755295 -0.082449153 0.0078786314
-0.0082080346 -0.082080334 0.0073375106
-0.0073727611 -0.084260128 0.007871151
-0.0062171654 -0.08289554 0.0076305866
-0.0052872645 -0.084596232 0.0076895952
-0.0042772782 -0.085545562 0.0068919659
-0.0031339466 -0.083571903 0.0063383579
-0.002101646 -0.08406584 0.0056430697
-0.0010527459 -0.084219664 0.0060499907
0 -0.081512555 0.0058501363
0.0010593827 -0.084750608 0.0058825612
0.0021163546 -0.084654182 0.0057537854
0.0030991489 -0.082643971 0.0060973465
0.004186878 -0.08373756 0.0063892007
0.0052095409 -0.083352655 0.0064905882
0.0061687394 -0.082249857 0.0064187944
0.0073953592 -0.084518388 0.0068151355
0.0085050212 -0.08505021 0.0069583654
0.0092809098 -0.082496978 0.0073428154
0.010451403 -0.083611228 0.0075537562
0.011270966 -0.081970662 0.0074698925
0.012389419 -0.082596123 0.0074698925
0.013763474 -0.084698305 0.0076317787
0.014517319 -0.082956113 0.0082595646
0.015178278 -0.080950812 0.00939852
0.01677751 -0.083887547 0.0089226365
0.017545057 -0.082564972 0.0093613863
0.018522482 -0.08232215 0.0092487931
0.019627644 -0.082642704 0.0096680522
0.020703649 -0.082814597 0.0094897151
0.02177754 -0.082962051 0.010035276
0.022986323 -0.083586626 0.010206193
0.02357482 -0.081999369 0.010730237
0.025402857 -0.084676191 0.012174308
0.025478685 -0.081531785 0.012436807
0.026112135 -0.080345027 0.013894051
0.028096376 -0.083248518 0.014488697
0.028450731 -0.081287801 0.014782339
0.029634768 -0.081751078 0.014837027
0.030762162 -0.082032435 0.014982164
0.031229163 -0.080591381 0.016108036
0.032781746 -0.081954367 0.016727418
0.033994313 -0.082410462 0.016701967
0.033759367 -0.079433806 0.017388999
0.035089169 -0.080203809 0.017505229
0.036343519 -0.080763377 0.016658872
0.037162069 -0.080350414 0.01664257
0.037961099 -0.079918101 0.01683864
0.039529141 -0.081085414 0.016148746
0.040683128 -0.081366256 0.015675455
0.042360932 -0.082655467 0.015848994
0.043680679 -0.083201289 0.014554501
0.044272173 -0.082366832 0.014077306
0.045371138 -0.082492977 0.013656527
0.045617137 -0.081097126 0.013803482
0.047260534 -0.082192227 0.013591021
0.048020571 -0.081737146 0.014003962
0.048523966 -0.080873273 0.014129043
0.049447924 -0.080731302 0.014684051
0.050970472 -0.081552751 0.01491192
0.050567336 -0.07932131 0.016334802
0.053220954 -0.081878386 0.016367018
0.053448249 -0.0806766 0.016407102
0.054887615 -0.081314981 0.016298264
0.055478692 -0.08069627 0.016438007
0.057228539 -0.08175505 0.016504645
0.058416713 -0.081988372 0.01637432
0.059098694 -0.081515439 0.016000301
0.060173746 -0.081591517 0.015432626
0.06160168 -0.082135573 0.015436679
0.061563622 -0.080739178 0.015041858
0.062781148 -0.081007928 0.014510602
0.063781515 -0.080992401 0.014355034
0.066153415 -0.082691759 0.013986111
0.065764613 -0.080941059 0.01357016
0.067755811 -0.082128257 0.012823492
0.068779364 -0.082124613 0.012248337
0.070111245 -0.082483813 0.011596501
0.071223639 -0.08257813 0.01009053
0.071236521 -0.081413165 0.0087221861
0.072308101 -0.081473917 0.007386744
0.074495733 -0.082773045 0.004817307
-0.058413643 -0.082404956 0.0056214631
-0.057386089 -0.082427286 0.0072661936
-0.056267988 -0.082317978 0.0083115697
-0.056136359 -0.083674952 0.0090793371
-0.054693162 -0.083091535 0.01019305
-0.053312629 -0.08258231 0.010512024
-0.05156745 -0.081476569 0.010980159
-0.050582938 -0.081552088 0.011039823
-0.05000405 -0.082298331 0.011325836
-0.048643731 -0.081762865 0.011949837
-0.047482457 -0.081545956 0.012826055
-0.046832029 -0.082216226 0.013186246
-0.045968294 -0.082533985 0.013335317
-0.044213805 -0.081230015 0.013562202
-0.043046549 -0.080968507 0.014012307
-0.042349253 -0.081599779 0.013981581
-0.041431095 -0.081826411 0.013947427
-0.040200461 -0.081431702 0.014153332
-0.038974967 -0.081026904 0.014375091
-0.037666839 -0.08042378 0.014493972
-0.037619982 -0.082554959 0.014563918
-0.035406213 -0.07991688 0.01453045
-0.035090819 -0.08153455 0.014509201
-0.034293801 -0.082097284 0.014314771
-0.033121746 -0.08176931 0.014079481
-0.031959601 -0.081445433 0.013245821
-0.031213494 -0.082195528 0.012684256
-0.029802874 -0.081187136 0.012630731
-0.029189495 -0.082356073 0.012462288
-0.028138759 -0.082331918 0.012453079
-0.026523475 -0.080590554 0.012147844
-0.026196865 -0.08278209 0.012006015
-0.024420319 -0.080383547 0.011656612
-0.023551714 -0.080895014 0.011552304
-0.022836957 -0.082005441 0.010879964
-0.021657452 -0.081473269 0.010492116
-0.020807924 -0.082191303 0.010109186
-0.019730108 -0.082035705 0.010034472
-0.018547459 -0.081402734 0.0099540055
-0.017607283 -0.081822075 0.0093349516
-0.016816122 -0.083029605 0.009111166
-0.015395353 -0.081082188 0.0088703632
-0.015013052 -0.084716506 0.0083432794
-0.013611485 -0.082715951 0.008297354
-0.01228412 -0.08087045 0.0087759495
-0.011135586 -0.07997375 0.0092703402
-0.010392411 -0.082100041 0.010911822
-0.0089365598 -0.078443132 0.011232316
-0.0082574114 -0.081541933 0.011504829
-0.0072732903 -0.082084276 0.011197984
-0.0061523085 -0.081005394 0.011205077
-0.0052174148 -0.082435153 0.011231959
-0.004068288 -0.080348685 0.010752857
-0.0030607914 -0.080600843 0.0098982155
-0.0021055222 -0.083168119 0.0095718801
-0.0010255525 -0.081018649 0.009258002
0 -0.081448942 0.0091900527
0.0010417638 -0.082299337 0.0091900527
0.0020482151 -0.080904499 0.0093535781
0.003086274 -0.081271879 0.0096818507
0.0041905548 -0.082763448 0.0093825459
0.0051196166 -0.08088994 0.0095939636
0.006227674 -0.081997707 0.0093079805
0.0072494261 -0.081814952 0.010346472
0.0082588475 -0.081556112 0.010954827
0.0093865357 -0.082392931 0.010966122
0.010217789 -0.080720529 0.011339277
0.011400013 -0.081872828 0.011402875
0.012355155 -0.0813381 0.010925472
0.013255498 -0.080552645 0.011419892
0.014109106 -0.079615667 0.011191428
0.015830249 -0.083372645 0.011501312
0.016226988 -0.080120757 0.010910392
0.017705839 -0.082280077 0.011167407
0.018567896 -0.081492439 0.010894179
0.01887746 -0.078490488 0.011403739
0.020907108 -0.082583077 0.011402309
0.021903345 -0.082398295 0.01160723
0.022302106 -0.080084831 0.011850983
0.024057226 -0.082631342 0.012810558
0.024593737 -0.08095438 0.013514221
0.025169889 -0.079536848 0.014671892
0.026798209 -0.081425324 0.014826238
0.028003382 -0.081935816 0.014954686
0.028776752 -0.081191547 0.015243024
0.029645406 -0.080758169 0.015560031
0.030286398 -0.079754174 0.015805006
0.031133061 -0.079339087 0.016368896
0.032547325 -0.080351211 0.016949564
0.033083711 -0.079200394 0.017205089
0.034592215 -0.080376029 0.018048704
0.035520945 -0.080175839 0.017929494
0.03621918 -0.079480976 0.017488718
0.037199527 -0.079426013 0.017644465
0.038447607 -0.079930544 0.017896742
0.038937084 -0.078872554 0.017842293
0.040702395 -0.080387235 0.016904682
0.041509788 -0.079982266 0.016397208
0.043189004 -0.081236452 0.015999943
0.044387758 -0.0815496 0.014574915
0.044607513 -0.080090761 0.014152169
0.046347734 -0.081366017 0.013798863
0.047744956 -0.081996769 0.013540298
0.048403531 -0.081359126 0.013597399
0.049416605 -0.081331499 0.013603896
0.050056189 -0.080702834 0.014122576
0.050587755 -0.079928651 0.014476866
0.051456932 -0.079707794 0.015060216
0.052638121 -0.079969451 0.015944928
0.052627638 -0.078444973 0.016154945
0.055217624 -0.080781333 0.016131073
0.05552756 -0.079757765 0.0160577
0.056800719 -0.080129586 0.016223967
0.057785608 -0.080088824 0.015768558
0.058930598 -0.080267534 0.01554516
0.059988849 -0.080324046 0.015199363
0.06196785 -0.081591003 0.015318334
0.062584855 -0.081052512 0.014510602
0.062799491 -0.080018707 0.014234543
0.065457515 -0.082081638 0.0142138
0.064418003 -0.079515971 0.013559908
0.067599989 -0.082159989 0.012659371
0.068177119 -0.081605949 0.012010425
0.0678543 -0.0800073 0.011566669
0.068908043 -0.080054931 0.010820627
0.069409095 -0.079468384 0.0085703135
0.071017854 -0.080148719 0.0074169934
0.072391875 -0.080548704 0.0060753524
-0.059387017 -0.082717635 0.004784137
-0.058293484 -0.082670756 0.0058842003
-0.057248853 -0.082692787 0.0075602233
-0.056124706 -0.082598619 0.0082756877
-0.054218486 -0.081327729 0.0092603564
-0.052892223 -0.080893986 0.01008001
-0.0514578 -0.080274165 0.010696054
-0.05094425 -0.081094928 0.010975182
-0.050172862 -0.081530899 0.01127243
-0.048937466 -0.081215374 0.011847585
-0.047003984 -0.079702407 0.012849092
-0.046543371 -0.080675177 0.01336959
-0.045371886 -0.080431983 0.013562441
-0.044966426 -0.081567004 0.013787806
-0.043076679 -0.079999544 0.013812274
-0.041912515 -0.079736002 0.013810873
-0.041564845 -0.081051454 0.013806731
-0.040335458 -0.080670916 0.014044821
-0.039441578 -0.080959029 0.01437217
-0.038167454 -0.080461122 0.014504641
-0.037189066 -0.080576316 0.014609933
-0.035817266 -0.079821333 0.014720261
-0.0352614 -0.0808938 0.014734745
-0.033977214 -0.080309778 0.014709324
-0.033186942 -0.080893174 0.014251113
-0.031882118 -0.080219522 0.013607651
-0.030318536 -0.078828193 0.013295442
-0.03015447 -0.081105128 0.01307556
-0.029636225 -0.082558051 0.012897998
-0.027576379 -0.079665095 0.012697726
-0.027046861 -0.081140585 0.012401044
-0.025601383 -0.079876311 0.012238443
-0.024755875 -0.080456592 0.012179524
-0.023973729 -0.081302211 0.01215589
-0.022508511 -0.079802908 0.011518806
-0.021690249 -0.080563784 0.011194736
-0.020822516 -0.081207819 0.011260003
-0.019322539 -0.079324104 0.011260003
-0.01841845 -0.079813279 0.011330873
-0.01790835 -0.082167722 0.010728002
-0.016355207 -0.079731636 0.010508955
-0.015764154 -0.081973605 0.010853857
-0.01480577 -0.082489282 0.011406779
-0.013333296 -0.079999782 0.011298209
-0.012353092 -0.080295101 0.011283189
-0.011088196 -0.078625388 0.01192078
-0.010241759 -0.079885721 0.013244331
-0.0091879535 -0.079628929 0.01392293
-0.0082857255 -0.080785818 0.014014423
-0.0071338895 -0.079491906 0.013954639
-0.0062790881 -0.081628144 0.013837516
-0.00510498 -0.079637691 0.013331383
-0.0041111447 -0.080167323 0.01315707
-0.0031511101 -0.081928864 0.012522966
-0.0020776705 -0.081029147 0.012262791
-0.001019394 -0.07951273 0.012678295
0 -0.08065667 0.01221931
0.0010366302 -0.080857158 0.01172772
0.0020658209 -0.08056701 0.01172772
0.003119152 -0.081097953 0.011896789
0.0040721255 -0.079406448 0.011968613
0.0051746978 -0.08072529 0.012084544
0.0062758564 -0.081586137 0.011907279
0.0071477122 -0.079645932 0.012202591
0.0083833784 -0.081737943 0.012892216
0.0092703449 -0.080342993 0.01317054
0.010150218 -0.07917171 0.013153851
0.011494239 -0.081504606 0.013510734
0.012253309 -0.079646505 0.013510734
0.012976363 -0.07785818 0.01316306
0.014574653 -0.081201635 0.012979805
0.015468107 -0.080434151 0.013319939
0.016371474 -0.079810932 0.012892753
0.017657265 -0.081015684 0.013215333
0.018072981 -0.078316256 0.013281196
0.019698517 -0.080867596 0.013029248
0.020511679 -0.07999555 0.012929916
0.021429179 -0.079594091 0.012951165
0.023037041 -0.081676781 0.013635069
0.023568304 -0.079927288 0.014303148
0.02439167 -0.079272926 0.014567375
0.025765657 -0.080388851 0.014947772
0.026498688 -0.079496063 0.015544593
0.027402246 -0.079162039 0.01571551
0.028750164 -0.08008974 0.016036063
0.02989825 -0.080415979 0.016116828
0.030060688 -0.07815779 0.016186476
0.031735972 -0.079851799 0.016772032
0.031900093 -0.077756479 0.017631441
0.033660278 -0.079560652 0.018300712
0.035009954 -0.080316953 0.018547773
0.035364386 -0.078812055 0.018559605
0.036367077 -0.078795344 0.01830548
0.037239019 -0.078503869 0.018544585
0.038076136 -0.078156285 0.018543124
0.039689533 -0.079379067 0.018574029
0.039844692 -0.07769715 0.018232435
0.041072655 -0.078138217 0.017550588
0.043764286 -0.081276529 0.016447902
0.044467364 -0.080661729 0.015999943
0.045442577 -0.080557294 0.014817804
0.047108199 -0.081654206 0.014164984
0.047573 -0.080667257 0.013886184
0.048305947 -0.080167316 0.013448268
0.04956232 -0.080538772 0.013589948
0.049948484 -0.079509832 0.013610363
0.051478591 -0.080306605 0.013751805
0.051480874 -0.078735456 0.014500737
0.05346524 -0.080197856 0.014740288
0.054045547 -0.079538733 0.015436739
0.054740272 -0.079069279 0.015332997
0.055749055 -0.07906229 0.015368491
0.05786632 -0.080599517 0.015729576
0.057795499 -0.079088576 0.015188843
0.059160654 -0.079560876 0.015116334
0.0607435 -0.080304965 0.014676452
0.061168756 -0.079519384 0.014615208
0.061494514 -0.078632332 0.01401943
0.063268699 -0.079596102 0.013983667
0.064604618 -0.079986669 0.013802975
0.066438049 -0.080971368 0.012877703
0.0673507 -0.080820844 0.011556834
0.066360302 -0.07842581 0.011290044
0.069456339 -0.080859616 0.010221481
0.069867007 -0.080141559 0.0083173811
0.070218652 -0.079377607 0.0074109137
0.073841602 -0.082280636 0.0064148903
0.074685611 -0.082048982 0.0043434203
-0.058626994 -0.082077786 0.0050778985
-0.056467395 -0.08051832 0.005971998
-0.055646967 -0.080845594 0.0071553886
-0.054141477 -0.080171034 0.0080547929
-0.05300441 -0.080026269 0.0089100599
-0.051627077 -0.079505697 0.010156542
-0.051165782 -0.080403373 0.010732919
-0.049522351 -0.079442106 0.010851622
-0.049172487 -0.080559179 0.010722756
-0.048172429 -0.080636457 0.012483567
-0.046120271 -0.0789169 0.013029993
-0.045371875 -0.079400785 0.013396084
-0.044403404 -0.079513073 0.013760775
-0.042706341 -0.078294963 0.013684154
-0.042410638 -0.079649247 0.013730735
-0.040888064 -0.07870952 0.013778508
-0.040407587 -0.079779081 0.01434651
-0.039364688 -0.07976529 0.014358163
-0.03755853 -0.078162342 0.014603674
-0.037092496 -0.079336733 0.014878899
-0.036111567 -0.079445444 0.014999658
-0.034904465 -0.07904835 0.015032887
-0.03399495 -0.079321548 0.015009582
-0.03293683 -0.079254247 0.014739364
-0.031758111 -0.078883052 0.014408052
-0.031081436 -0.079775691 0.014239699
-0.029808221 -0.079145968 0.014279246
-0.028887296 -0.079440065 0.013802081
-0.027285933 -0.077815436 0.013454318
-0.027067207 -0.080160573 0.013269991
-0.025607316 -0.078870535 0.012673765
-0.024925195 -0.079968333 0.012610018
-0.023829518 -0.079777077 0.01256898
-0.022465061 -0.07862772 0.012300789
-0.021765651 -0.079807386 0.01229322
-0.020719785 -0.079771176 0.012218326
-0.01924745 -0.078002818 0.012231499
-0.018724207 -0.080097996 0.012352854
-0.017668547 -0.080028124 0.012194306
-0.016640445 -0.080082141 0.011810303
-0.015996788 -0.082116842 0.012192756
-0.014490132 -0.079695731 0.012724966
-0.013253937 -0.078504093 0.013072371
-0.01208522 -0.077546827 0.012600243
-0.011119047 -0.077833332 0.013683259
-0.01033453 -0.079575881 0.014360815
-0.0090855686 -0.077732086 0.014769316
-0.0081186192 -0.078141712 0.015454352
-0.0073082009 -0.080390207 0.014901519
-0.0060855267 -0.078097597 0.014848202
-0.0051444839 -0.079225056 0.014997602
-0.0041379714 -0.079655953 0.014824718
-0.0030631288 -0.078620307 0.014581382
-0.0020593607 -0.079285391 0.014148593
-0.0010253786 -0.078954153 0.014458656
0 -0.078737698 0.014412791
0.0010451976 -0.080480218 0.014186054
0.0020779222 -0.080000006 0.014002651
0.0030686972 -0.078763232 0.013864249
0.0041087535 -0.079093501 0.014065832
0.0051109558 -0.078708723 0.013655186
0.0061447979 -0.078858241 0.013525456
0.0072725797 -0.079998374 0.013834655
0.0082699573 -0.079598345 0.014599711
0.0092078662 -0.078778416 0.015106678
0.010566182 -0.081359595 0.015020132
0.011133532 -0.077934727 0.015060395
0.012348083 -0.079233527 0.015521407
0.0134391 -0.079600826 0.015314221
0.014257232 -0.078414775 0.014651805
0.015247346 -0.078269705 0.015152007
0.016461434 -0.079220653 0.014737219
0.017268861 -0.078217782 0.015103579
0.018708056 -0.080028914 0.015246451
0.019530417 -0.079149581 0.015054911
0.020332253 -0.078279175 0.014335185
0.02142409 -0.078555003 0.014395297
0.02264132 -0.079244621 0.014620513
0.02316541 -0.077553764 0.014728159
0.024737269 -0.07936541 0.015542179
0.025356308 -0.078097425 0.015916526
0.026295057 -0.077873826 0.01603663
0.027656952 -0.07887353 0.016513616
0.02866986 -0.078842118 0.016461223
0.029543221 -0.078442343 0.016533315
0.030364862 -0.077936478 0.016284525
0.031450875 -0.078119919 0.017196596
0.032633115 -0.078523435 0.01802212
0.033189438 -0.07744202 0.018252581
0.035014018 -0.079296455 0.018508703
0.036228493 -0.07970269 0.018615991
0.036381777 -0.077816583 0.018293947
0.0367488 -0.07647723 0.018550277
0.038682785 -0.078383535 0.018604726
0.039396405 -0.077782646 0.018461198
0.039431687 -0.075906001 0.018350333
0.041128282 -0.077240914 0.01758638
0.042045936 -0.077084213 0.016853482
0.04354053 -0.077967927 0.015747637
0.045201618 -0.079102837 0.015231848
0.046698749 -0.079906747 0.014425278
0.047638729 -0.079743095 0.013637155
0.048308637 -0.079143934 0.013327003
0.048714578 -0.078146301 0.013100088
0.050790008 -0.079812877 0.013276666
0.05136558 -0.079102993 0.013456702
0.051356073 -0.077537596 0.013520837
0.053109918 -0.078643531 0.014262348
0.054554984 -0.079259127 0.014414608
0.05465962 -0.077940561 0.014559507
0.055976965 -0.078367747 0.014625818
0.056544181 -0.077748254 0.014625818
0.056689668 -0.076580785 0.014984459
0.05917054 -0.07855399 0.014801562
0.060127974 -0.0784721 0.014559388
0.061168279 -0.078499287 0.014232218
0.064224511 -0.081070282 0.013802975
0.063723303 -0.079140231 0.013364762
0.064183004 -0.078445889 0.012878209
0.065366708 -0.07864432 0.011173278
0.065851726 -0.078008972 0.010034084
0.068621844 -0.080058821 0.0087530911
0.070145033 -0.08061444 0.0081397295
0.070862591 -0.080241464 0.0071174204
0.071794353 -0.080118343 0.0064271092
0.07298284 -0.080281124 0.0043956637
-0.056576375 -0.079626009 0.0047581792
-0.055788703 -0.079998896 0.0059752762
-0.054490495 -0.079639956 0.0075056851
-0.053386193 -0.079555891 0.0081282258
-0.052899145 -0.080406696 0.0093309879
-0.051349334 -0.079643868 0.010082573
-0.050175972 -0.079445295 0.010955393
-0.049617212 -0.080232091 0.010733187
-0.047381137 -0.078281872 0.011623204
-0.046896875 -0.079203606 0.013148546
-0.045376848 -0.078378193 0.013430864
-0.043993309 -0.077755623 0.013638198
-0.043967165 -0.079559632 0.013775796
-0.042513095 -0.078804761 0.013734877
-0.041226294 -0.078329958 0.013804078
-0.039844655 -0.077645995 0.014357179
-0.039074447 -0.078148894 0.014570206
-0.038059127 -0.078175507 0.014748931
-0.036922585 -0.077947684 0.014898986
-0.036257621 -0.078730837 0.015018702
-0.03503412 -0.078311563 0.015058458
-0.033856839 -0.077973329 0.015034497
-0.032562084 -0.077334955 0.014785916
-0.032246705 -0.079056434 0.014454663
-0.031111833 -0.078816645 0.014317691
-0.029875621 -0.078294732 0.014318407
-0.028681351 -0.077849381 0.013826996
-0.027861707 -0.078425549 0.013611525
-0.026936648 -0.078737892 0.013457984
-0.025764083 -0.078322813 0.012794405
-0.024821837 -0.078602485 0.01304704
-0.023698792 -0.078309052 0.012942255
-0.022653051 -0.078255996 0.012513995
-0.021851044 -0.079079971 0.012394965
-0.020123823 -0.076470532 0.012741774
-0.019666743 -0.07866697 0.012693763
-0.018823316 -0.07947623 0.012657374
-0.017929021 -0.080153272 0.01268816
-0.016710361 -0.079374216 0.012591749
-0.015495021 -0.078508109 0.013765723
-0.014387011 -0.07810092 0.014057308
-0.013165087 -0.076965123 0.014244527
-0.01217917 -0.077134743 0.01432696
-0.011289508 -0.07800024 0.015164256
-0.010337498 -0.078564987 0.015611231
-0.0092121121 -0.077791169 0.015834987
-0.0083216848 -0.07905601 0.016447783
-0.0070566591 -0.076615155 0.016394317
-0.0061041461 -0.07731919 0.01616624
-0.0051405672 -0.07813663 0.016327292
-0.0040749479 -0.077424005 0.016071856
-0.0030302177 -0.076765515 0.015818417
-0.0020637852 -0.078423843 0.015959442
-0.0010204604 -0.077554986 0.016159534
0 -0.079626694 0.01599893
0.0010364547 -0.078770556 0.015952736
0.0020382667 -0.077454135 0.015884221
0.0030920368 -0.078331605 0.015878797
0.004050748 -0.076964207 0.015755981
0.005076475 -0.077162422 0.015781105
0.0061749453 -0.078215972 0.015461802
0.0071287723 -0.077398099 0.015617937
0.0081180511 -0.077121489 0.015728444
0.0091382684 -0.0771676 0.016001046
0.010309352 -0.078351073 0.015844941
0.011272383 -0.077881917 0.015891552
0.01217414 -0.077102892 0.016048342
0.01313006 -0.076760359 0.015802592
0.013955358 -0.07575766 0.015315145
0.015328002 -0.077661879 0.016183943
0.01630716 -0.077459015 0.015776873
0.017236117 -0.077055581 0.015834659
0.018599255 -0.078530192 0.015650183
0.019405248 -0.077620991 0.015473753
0.020628802 -0.078389451 0.015265465
0.021346007 -0.077252217 0.015306145
0.022339851 -0.07717403 0.014878809
0.023562606 -0.077859052 0.015337855
0.024303729 -0.076961808 0.015432119
0.025577234 -0.077754796 0.015759766
0.026647542 -0.07789281 0.015849978
0.02718227 -0.076513059 0.016455591
0.028550828 -0.077495106 0.016344994
0.029458011 -0.077200301 0.016281039
0.030267676 -0.076678112 0.017051369
0.031272728 -0.076668628 0.017625898
0.032846831 -0.078011222 0.018167436
0.033610541 -0.077406101 0.018320441
0.034707345 -0.077581123 0.018615991
0.035056483 -0.076122656 0.018835306
0.036190063 -0.076401249 0.018627882
0.036995184 -0.075990111 0.018632531
0.038650613 -0.077301227 0.018859148
0.038563244 -0.075148888 0.018963426
0.039630942 -0.075298794 0.018742472
0.040990669 -0.075982697 0.018210948
0.042072635 -0.076131433 0.017267883
0.043749955 -0.077325508 0.016341269
0.044491112 -0.076848291 0.015313298
0.046409231 -0.078380033 0.014546901
0.047917813 -0.079168566 0.01364255
0.048048146 -0.077694878 0.01289767
0.049867567 -0.078956984 0.012827635
0.050952993 -0.079029135 0.012737691
0.05047923 -0.076728433 0.012747675
0.052561648 -0.078327164 0.012872547
0.0533874 -0.07802774 0.013133854
0.053978402 -0.077402994 0.013388634
0.05541233 -0.077987723 0.014044434
0.055701945 -0.076969959 0.014242053
0.056819029 -0.077111542 0.014225096
0.05855488 -0.078073174 0.01455906
0.058798287 -0.077046029 0.014338642
0.060900178 -0.078447685 0.014044434
0.061875064 -0.078375079 0.013802975
0.062182777 -0.077473626 0.012900233
0.062720284 -0.076882929 0.012435704
0.06578207 -0.079356149 0.011377782
0.065513544 -0.077797338 0.0097250044
0.066515788 -0.077772304 0.0085763335
0.06803216 -0.078340068 0.0075520873
0.066097431 -0.074976191 0.0066494942
0.070886359 -0.079225935 0.0062910914
0.071166359 -0.078386135 0.0053420663
-0.055495575 -0.078531481 0.004594028
-0.054378912 -0.078431122 0.0064392388
-0.053731624 -0.079017095 0.0074304938
-0.051953305 -0.077929951 0.0083217919
-0.050351948 -0.077069312 0.0092951059
-0.0505585 -0.078997657 0.010098726
-0.048948381 -0.078109123 0.010514259
-0.048002388 -0.078264765 0.011114299
-0.046607044 -0.077678405 0.011806935
-0.045544099 -0.077631995 0.01313287
-0.045212522 -0.078859054 0.013501167
-0.043431152 -0.077555627 0.013746887
-0.042290237 -0.07736019 0.013751149
-0.041380886 -0.077589169 0.013578266
-0.040639751 -0.078153372 0.014388561
-0.038899366 -0.076775067 0.014587134
-0.037817951 -0.07665801 0.014878899
-0.036842573 -0.07675536 0.014928401
-0.035839327 -0.076798566 0.014999658
-0.034962662 -0.077123515 0.015025228
-0.033854429 -0.076941885 0.015022367
-0.032917149 -0.07714957 0.014773786
-0.031859323 -0.077079006 0.014518946
-0.030688422 -0.076721057 0.014475912
-0.030251492 -0.078236617 0.014560342
-0.028953848 -0.077554956 0.014143348
-0.027667681 -0.076854669 0.014110327
-0.027068611 -0.078082532 0.013819396
-0.026001595 -0.078004785 0.013126224
-0.024986746 -0.078083582 0.0131872
-0.023765983 -0.077497773 0.0131872
-0.022692312 -0.077360153 0.01272288
-0.021681244 -0.077433012 0.012792736
-0.020562761 -0.07711035 0.013031393
-0.019945264 -0.078731306 0.013114214
-0.018763984 -0.078183264 0.013275266
-0.017979929 -0.079323225 0.013466746
-0.016552204 -0.077588461 0.013963431
-0.015517347 -0.077586733 0.014759809
-0.014345761 -0.076852292 0.01532492
-0.013078415 -0.075452395 0.015350908
-0.012084794 -0.07552997 0.015919596
-0.011311125 -0.07712131 0.016458511
-0.010121127 -0.075908452 0.017032206
-0.0093360208 -0.077800177 0.017096728
-0.0082056373 -0.076927848 0.017363578
-0.0072515649 -0.07769534 0.017126411
-0.0061910627 -0.077388287 0.017044693
-0.0050694994 -0.076042496 0.016966373
-0.0040863934 -0.076619878 0.016912162
-0.0030612641 -0.076531604 0.016734719
-0.0020727564 -0.077728368 0.016745389
-0.0010275778 -0.077068336 0.016775548
0 -0.076740444 0.016705841
0.0010158313 -0.07618735 0.016476393
0.0020262504 -0.075984396 0.016389966
0.0030484989 -0.076212481 0.016244888
0.0040362929 -0.075680494 0.016356438
0.0051653823 -0.077480733 0.016266614
0.0062072421 -0.077590533 0.016180009
0.0071005607 -0.076077439 0.016299486
0.0081620151 -0.076518901 0.016651869
0.0090874266 -0.075728565 0.017082453
0.010294276 -0.077207074 0.016775161
0.011154282 -0.076051921 0.017181158
0.012307642 -0.076922767 0.017316908
0.013133703 -0.075771362 0.017459154
0.014339054 -0.076816365 0.016965896
0.015358336 -0.076791681 0.017457813
0.016096121 -0.075450569 0.016770154
0.017641973 -0.077832237 0.016725957
0.018294102 -0.07622543 0.016494751
0.01895909 -0.074838519 0.01612848
0.020237127 -0.075889237 0.01588431
0.02105657 -0.07520204 0.015960902
0.022767356 -0.077615984 0.01608336
0.022985663 -0.074953251 0.015849978
0.024502862 -0.07657145 0.015875667
0.025777275 -0.077331826 0.016059995
0.026485471 -0.076400399 0.01613161
0.027725805 -0.077016123 0.01639986
0.028659206 -0.076765731 0.016981781
0.029202661 -0.075524122 0.016843498
0.03027243 -0.075681075 0.017006189
0.031399906 -0.075967506 0.0177221
0.03181972 -0.074577473 0.018173397
0.033424694 -0.075965218 0.018580109
0.034964692 -0.077127993 0.018449694
0.0358456 -0.076811999 0.018468231
0.036814634 -0.076697156 0.018685043
0.037508782 -0.076031312 0.018827558
0.037869912 -0.074743249 0.019303232
0.039032031 -0.075061604 0.01908797
0.040245268 -0.075459883 0.019089043
0.041119177 -0.075218007 0.018992186
0.042271882 -0.075485505 0.018108547
0.04261899 -0.074335448 0.016810447
0.04447183 -0.075804256 0.016088128
0.046379194 -0.077298656 0.015206784
0.047065511 -0.076737247 0.014447242
0.048872828 -0.077988558 0.013030767
0.049338605 -0.077091575 0.012747675
0.050558954 -0.077386163 0.012170553
0.051525019 -0.077287532 0.012196153
0.052691381 -0.077487327 0.012196153
0.053658642 -0.077392273 0.012287706
0.053624619 -0.075883895 0.012853503
0.05519332 -0.076657392 0.013133854
0.055674609 -0.075919919 0.013180196
0.058011454 -0.077693917 0.013210148
0.057454493 -0.075598024 0.013475955
0.058652487 -0.075843737 0.013360232
0.059930041 -0.076182254 0.012963891
0.060052805 -0.075066008 0.012654752
0.062835954 -0.077257328 0.01180011
0.064860404 -0.078460164 0.011122853
0.063729323 -0.075868241 0.0097502768
0.065508582 -0.076767869 0.0087512434
0.067083895 -0.077404499 0.0078217983
0.067386903 -0.076576032 0.0062703788
0.06855946 -0.076745667 0.0054984391
0.072903469 -0.080408245 0.0048462749
-0.054582372 -0.077674918 0.0056863725
-0.053458087 -0.077566639 0.0065034628
-0.052134044 -0.077158384 0.0079035759
-0.051891059 -0.078366093 0.0086092949
-0.049943574 -0.076996349 0.0093615055
-0.048900131 -0.0769917 0.0097813904
-0.047344048 -0.076162167 0.010975182
-0.046582177 -0.076601803 0.01129818
-0.046020743 -0.077398524 0.011773974
-0.044760887 -0.077030361 0.013280958
-0.043347791 -0.07637468 0.013485491
-0.042463176 -0.076640852 0.013746947
-0.040871851 -0.075612932 0.01351127
-0.040290106 -0.076447897 0.014297396
-0.039163996 -0.076266728 0.01461032
-0.03814856 -0.076297119 0.014748931
-0.037211642 -0.076490603 0.01490283
-0.036327865 -0.076807491 0.014985472
-0.03490109 -0.075961202 0.015012711
-0.033861678 -0.075932257 0.014997452
