ply
format ascii 1.0
comment PCL generated
element vertex 1298
property float x
property float y
property float z
element camera 0
property float view_px
property float view_py
property float view_pz
property float x_axisx
property float x_axisy
property float x_axisz
property float y_axisx
property float y_axisy
property float y_axisz
property float z_axisx
property float z_axisy
property float z_axisz
property float focal
property float scalex
property float scaley
property float centerx
property float centery
property int viewportx
property int viewporty
property float k1
property float k2
end_header
-0.055256207 -0.15117264 0.00707829
-0.053968333 -0.15048862 0.0064609051
-0.053731296 -0.15276545 0.0060234666
-0.052057788 -0.15096758 0.0056765079
0.074470252 -0.1542598 0.0056878626
0.07471972 -0.15259661 0.0077289641
0.073996864 -0.14902146 0.0083608627
0.075612761 -0.15018973 0.0082950592
0.076436192 -0.14977361 0.008769542
0.077405967 -0.14965153 0.0087136924
0.077959292 -0.14873812 0.0084682405
0.078941986 -0.14865698 0.0082831085
0.080076866 -0.14886084 0.0075632334
0.081850141 -0.15023127 0.0052655041
-0.0610714 -0.14905562 0.0057699382
-0.061039429 -0.15154618 0.0063379705
-0.059050489 -0.14918019 0.0071369112
-0.057532303 -0.1479402 0.0077044368
-0.057665151 -0.15097785 0.0078070462
-0.056549136 -0.15079769 0.0080831647
-0.054678302 -0.14855991 0.0081456006
-0.054232221 -0.15018153 0.0078733265
-0.053488854 -0.15102735 0.0072860718
-0.051945634 -0.14960343 0.0066675246
-0.051866006 -0.15242255 0.0057354271
0.071567312 -0.14935787 0.0073200166
0.073276348 -0.15073992 0.0076214075
0.072728284 -0.14750525 0.0079462826
0.07471054 -0.14942108 0.0081995428
0.075593963 -0.14911686 0.0086357296
0.07462877 -0.14522356 0.00921911
0.07754761 -0.1488914 0.0090927184
0.078799397 -0.14930412 0.0088409483
0.077979065 -0.14583099 0.0082081556
0.080219142 -0.14809687 0.0079826713
0.08062543 -0.14696281 0.0069942176
0.082884006 -0.14919122 0.0057177544
-0.062062591 -0.14791584 0.005520463
-0.062383797 -0.1512014 0.0061247349
-0.060794231 -0.14988922 0.0071852207
-0.059635777 -0.14961256 0.0077230334
-0.058054809 -0.14824709 0.0084170699
-0.056659676 -0.14731516 0.0087165534
-0.055779766 -0.14771308 0.0090795159
-0.055663902 -0.15018751 0.0090941787
-0.053457271 -0.1470075 0.0089087188
-0.052340224 -0.14675789 0.0082229376
-0.052457377 -0.15002809 0.0076108873
-0.051072396 -0.14904802 0.0070216358
-0.051054869 -0.15210097 0.0058154464
0.071633391 -0.15064082 0.0077930689
0.072344966 -0.14993232 0.0083754063
0.070544243 -0.1441118 0.0081995428
0.074502394 -0.15005413 0.0094346106
0.075043514 -0.14904475 0.0094767213
0.075642675 -0.14817674 0.0096485317
0.076259755 -0.14736682 0.010239929
0.077523418 -0.14781132 0.0099315941
0.078320399 -0.14736602 0.0096226037
0.079669654 -0.14795792 0.0093042552
0.079781853 -0.14626673 0.0091243386
0.079783723 -0.14441863 0.0080012083
0.082083747 -0.14672469 0.0073293149
0.083151817 -0.14679888 0.0053984821
-0.063684858 -0.15072082 0.0058276653
-0.061933976 -0.14906143 0.0066556931
-0.059418347 -0.1454725 0.0075082779
-0.059434101 -0.1480639 0.0087200105
-0.057931706 -0.14689825 0.0089329481
-0.057305183 -0.14795156 0.009315908
-0.056682739 -0.1490546 0.0095816851
-0.055010408 -0.14738637 0.0095816851
-0.054296721 -0.14827181 0.0094531476
-0.053211581 -0.14815773 0.0090405345
-0.052485529 -0.14905891 0.0082525909
-0.051329803 -0.14875168 0.0077169538
-0.050054103 -0.14807673 0.0067130923
-0.049507651 -0.14957631 0.0053838789
0.068671308 -0.14554219 0.0070011318
0.071068786 -0.14840835 0.0078603327
0.06980174 -0.14364997 0.0089993179
0.073248222 -0.14858925 0.0093643367
0.073351093 -0.14670219 0.010079533
0.074236557 -0.14641099 0.010055006
0.075346999 -0.14656539 0.010692984
0.076041669 -0.14591779 0.010885417
0.07534495 -0.14265309 0.010963917
0.077897839 -0.14554596 0.01082179
0.07888408 -0.14547454 0.010768771
0.079117201 -0.14403388 0.0096980035
0.082003057 -0.14739791 0.0092002153
0.080836639 -0.14348504 0.0082294643
0.083016805 -0.14553563 0.0066616237
-0.064497538 -0.14908448 0.0054020286
-0.063076146 -0.14822894 0.0060387552
-0.061193243 -0.14624147 0.0073845088
-0.060916577 -0.1480903 0.0080289841
-0.059816029 -0.14796597 0.0093859732
-0.058447879 -0.14716341 0.0096324682
-0.056942314 -0.14597939 0.0096438527
-0.056174666 -0.14667828 0.0099682212
-0.054834444 -0.14588031 0.0099591911
-0.054990459 -0.14910875 0.0098868906
-0.053242825 -0.14720075 0.0094531476
-0.052416597 -0.1478148 0.0085786879
-0.051785726 -0.14901607 0.0081742704
-0.049742479 -0.14611854 0.0073531568
-0.04955335 -0.14866005 0.0063844323
0.065290853 -0.14163093 0.0054269731
0.068628438 -0.1466153 0.0076456964
0.07009919 -0.14752218 0.0077138543
0.069344878 -0.14378865 0.0093647242
0.070727371 -0.14452985 0.010158837
0.072217613 -0.14546691 0.01017502
0.071635455 -0.14226197 0.010267705
0.074673682 -0.14623596 0.010692984
0.074884832 -0.14464056 0.011327744
0.075215735 -0.14331648 0.011554718
0.078359298 -0.14731549 0.011408657
0.077063411 -0.14297292 0.011299729
0.077600472 -0.14209956 0.010990977
0.081392042 -0.14713177 0.010166138
0.081467651 -0.14540429 0.009291023
0.082266726 -0.14499511 0.0081689358
0.083680034 -0.14566524 0.0069321692
-0.063967265 -0.14681013 0.0056895316
-0.062585801 -0.14603354 0.0067161024
-0.062040597 -0.14721498 0.0074682534
-0.060554363 -0.14616571 0.0083556473
-0.059109226 -0.14518055 0.0093692839
-0.059102193 -0.14775547 0.0098755062
-0.05749137 -0.14634167 0.010053188
-0.056210477 -0.14573087 0.010224044
-0.056097735 -0.14818271 0.0099682212
-0.054387655 -0.1464283 0.010118097
-0.053432506 -0.14667746 0.0096809566
-0.05228563 -0.14639977 0.008697778
-0.050661691 -0.14474769 0.0082326233
-0.050422993 -0.14706706 0.0076468289
-0.049800489 -0.14834188 0.006616354
-0.04820779 -0.14671937 0.0051368773
0.065802574 -0.14394313 0.0058200657
0.069544472 -0.14978808 0.0077426434
0.069608651 -0.14765471 0.009080857
0.06945885 -0.14513789 0.010047704
0.069777697 -0.14365996 0.010536462
0.071170606 -0.14440413 0.011214256
0.071724303 -0.14344861 0.011205465
0.072342969 -0.1426481 0.011386633
0.073537521 -0.14298962 0.011474788
0.074039042 -0.14199269 0.011373162
0.076676339 -0.14506334 0.011614412
0.076047026 -0.14195444 0.011397451
0.077872351 -0.14344907 0.011039466
0.07991489 -0.14529981 0.010997951
0.079266854 -0.14227383 0.0101372
0.081817016 -0.14499219 0.00936234
0.083642274 -0.14637399 0.0080887079
0.082152583 -0.14199212 0.0067039132
-0.063832499 -0.14545438 0.0056577325
-0.063250773 -0.14653096 0.0063897967
-0.06223869 -0.14663014 0.0073810518
-0.059987444 -0.14376301 0.0079868436
-0.059427273 -0.14491914 0.0089032948
-0.058499012 -0.1452029 0.0092831552
-0.05742766 -0.14513536 0.0098588169
-0.056188971 -0.14463457 0.010023206
-0.054443676 -0.14278623 0.0096832514
-0.053634234 -0.14336844 0.0099678636
-0.053385444 -0.14550151 0.0092971027
-0.051751733 -0.14386982 0.0086862743
-0.050889678 -0.14436051 0.0082065761
-0.050285637 -0.14561883 0.0076207817
-0.049367703 -0.14600235 0.0068601668
-0.049442522 -0.14940241 0.0052522123
0.064835131 -0.14304894 0.0060830414
0.066098496 -0.14355767 0.007719934
0.06871774 -0.14695024 0.0082957149
0.067588568 -0.14234562 0.0098971128
0.069866434 -0.14494678 0.010822266
0.070480682 -0.14407082 0.011528999
0.070377357 -0.14177468 0.011784941
0.073403127 -0.14575765 0.011984318
0.072562203 -0.1420584 0.012633741
0.0723451 -0.13966623 0.012491733
0.075140491 -0.14307573 0.012491733
0.074870408 -0.14063495 0.012178361
0.076745272 -0.14223456 0.011839122
0.079057805 -0.14459257 0.011743039
0.078571305 -0.14183651 0.011091143
0.079842418 -0.14228329 0.01091063
0.08165659 -0.14367425 0.0096880794
0.08089117 -0.14054841 0.00810799
0.08278697 -0.14206652 0.0066787899
-0.06486582 -0.14674562 0.0055620372
-0.063342996 -0.14568888 0.0062788129
-0.060254097 -0.14093331 0.0071852207
-0.061110049 -0.14539978 0.0078420639
-0.059043139 -0.14294656 0.0091241002
-0.057917818 -0.14272606 0.0094359219
-0.057286065 -0.14373595 0.009449482
-0.055637591 -0.14218496 0.0096438527
-0.054505903 -0.14192103 0.0096268654
-0.054334018 -0.14419413 0.0097490847
-0.052765507 -0.14277726 0.0092598498
-0.052142918 -0.14391445 0.0085605383
-0.051221378 -0.14425613 0.0081784129
-0.049763832 -0.14307103 0.007455498
-0.04916092 -0.14434484 0.0065005422
-0.04774351 -0.14323053 0.0051108301
0.063741758 -0.14187682 0.0066041052
0.064244926 -0.14072698 0.0076695383
0.06636069 -0.14309023 0.0082511902
0.066418134 -0.14101081 0.0098679662
0.068051383 -0.14228925 0.010765105
0.069490805 -0.14313032 0.011496454
0.068867572 -0.13976066 0.012208551
0.069993928 -0.13998786 0.012461036
0.07315845 -0.14422667 0.012570649
0.071293689 -0.13857083 0.013120055
0.074754894 -0.14328021 0.01327166
0.07402914 -0.13994549 0.013310611
0.07602971 -0.14178514 0.01285097
0.077448249 -0.14250478 0.012246162
0.078898586 -0.14326324 0.011590958
0.078019202 -0.13982663 0.011167973
0.08189331 -0.14488816 0.010950893
0.082345612 -0.14384423 0.0097607374
0.083880499 -0.14469387 0.0079734325
0.084593646 -0.14412251 0.006685406
-0.064687796 -0.14528243 0.0050739348
-0.063283689 -0.14449775 0.0060384274
-0.062018495 -0.14400904 0.006991446
-0.06090289 -0.14385682 0.0077335238
-0.05886234 -0.14147615 0.0085181892
-0.059311833 -0.14510217 0.0092390478
-0.05768026 -0.14367628 0.0094865859
-0.056557428 -0.14348829 0.0094621778
-0.055243846 -0.14280014 0.0094198287
-0.053456817 -0.14083815 0.0095670819
-0.053089336 -0.14261253 0.0091782212
-0.052598968 -0.14412117 0.0085786879
-0.050933279 -0.1424053 0.0081962049
-0.050317574 -0.14361475 0.0073411465
-0.049811449 -0.14519507 0.0068362951
-0.047450978 -0.14132139 0.0055627227
0.063797355 -0.14567064 0.0058624446
0.06267111 -0.14075315 0.0068595409
0.063639559 -0.1406229 0.007407546
0.064052247 -0.13928822 0.0081273019
0.064782806 -0.13867569 0.0091909468
0.066706531 -0.14059684 0.010107398
0.067653187 -0.14043161 0.011340022
0.066061698 -0.13508138 0.01160273
0.069637664 -0.14029941 0.01226607
0.070887998 -0.14074863 0.012548685
0.07135915 -0.13966006 0.012665868
0.072647832 -0.14017962 0.012627184
0.074204035 -0.14119379 0.012774259
0.074125804 -0.13911282 0.012847036
0.075985767 -0.14067636 0.013109446
0.077211559 -0.14103977 0.012485445
0.077844158 -0.14032434 0.012060612
0.07995975 -0.14226605 0.01112175
0.079867966 -0.14028092 0.010745794
0.081356876 -0.14108725 0.0086594522
0.083666407 -0.14327872 0.0071455836
0.084428571 -0.14279895 0.0057153404
-0.063259169 -0.14338745 0.0057058632
-0.062420193 -0.14388384 0.0061570108
-0.060718998 -0.14237557 0.007106334
-0.059835963 -0.14276651 0.0077104867
-0.05830539 -0.14159881 0.0086152852
-0.057079036 -0.14114089 0.0089803338
-0.056614522 -0.14258473 0.0092390478
-0.05468889 -0.14033376 0.0092824399
-0.054015994 -0.1412726 0.0094719231
-0.053419232 -0.14245129 0.0091311336
-0.052340109 -0.1423651 0.0085901916
-0.051336948 -0.14248623 0.0081962049
-0.050473083 -0.14300707 0.0076619983
-0.048388679 -0.14001831 0.0069229007
-0.048488729 -0.14335798 0.0056183338
0.058746252 -0.14266947 0.0055260658
0.059173122 -0.141185 0.0061888099
0.061672468 -0.1446113 0.007376045
0.063476346 -0.14631835 0.0074379444
0.062322777 -0.14126496 0.0080091059
0.06307815 -0.14063326 0.0082623959
0.064969108 -0.14251289 0.0081977248
0.06423562 -0.13866737 0.0092481375
0.065711267 -0.13963644 0.010526747
0.066640854 -0.13943316 0.011207163
0.066620499 -0.13727862 0.011701107
0.06843131 -0.13890535 0.012191266
0.068522729 -0.13704546 0.012443811
0.068841323 -0.13568725 0.013275951
0.072090179 -0.14006092 0.013105512
0.071883269 -0.13769189 0.012946248
0.073568068 -0.13896191 0.013428658
0.076387137 -0.14231028 0.012919247
0.075980231 -0.13963935 0.012588203
0.077074789 -0.13976228 0.012658745
0.079101227 -0.14154956 0.011833578
0.078379311 -0.13843618 0.011064559
0.079003155 -0.13774909 0.0095991194
0.082740203 -0.14243883 0.0080773234
0.08319553 -0.1414324 0.0067420304
0.085059218 -0.14281547 0.0054057539
0.16630173 -0.15078023 0.0050036311
-0.06271299 -0.14110422 0.0052345395
-0.06240277 -0.142786 0.0059966743
-0.061045639 -0.14208899 0.0068396926
-0.060210772 -0.14260446 0.0074574351
-0.058923673 -0.14204814 0.0083420575
-0.057886895 -0.14208601 0.0087805986
-0.055928119 -0.13982029 0.0088770986
-0.055118434 -0.14039601 0.0091311336
-0.054434713 -0.14132088 0.0092023015
-0.052998565 -0.14029032 0.0089318156
-0.052118953 -0.14072117 0.0086773932
-0.051709034 -0.14246367 0.0083859563
-0.050164629 -0.14108802 0.0079626441
-0.05026342 -0.14437366 0.0077954233
-0.049185652 -0.1443492 0.0069366395
-0.047391441 -0.14217433 0.0054251552
0.057178631 -0.14034754 0.0074379444
0.057136212 -0.13773908 0.0087696016
0.057695288 -0.13664673 0.0086306036
0.060759444 -0.14142284 0.0093180537
0.061848421 -0.14151756 0.0087679029
0.062163524 -0.13986793 0.009567529
0.063775249 -0.14114194 0.0099384785
0.063659288 -0.13861296 0.0098850429
0.063938573 -0.13701123 0.011087149
0.065158494 -0.13744369 0.011761099
0.065725364 -0.13650653 0.011768162
0.068624973 -0.14036927 0.012057811
0.068653345 -0.13833137 0.012206405
0.068640001 -0.1362706 0.012392968
0.068689413 -0.13439232 0.012727201
0.070746019 -0.13643876 0.013001472
0.069731146 -0.13258739 0.01289469
0.074555047 -0.13979071 0.012946248
0.073682912 -0.13626292 0.012628794
0.074613273 -0.13611881 0.012523741
0.078338161 -0.14100869 0.012431711
0.078319773 -0.13912065 0.010828704
0.080307871 -0.14079952 0.010804743
0.082505949 -0.14279877 0.0089812279
0.081395321 -0.13909326 0.007630527
0.082919367 -0.13992643 0.0063342154
0.15911163 -0.14320047 0.0060725212
-0.062433518 -0.14179815 0.0058321655
-0.061099585 -0.14116111 0.006395489
-0.059104364 -0.1389471 0.0069142878
-0.05909108 -0.14139651 0.0080080926
-0.058507644 -0.14254589 0.0082316995
-0.055523489 -0.13778052 0.0088160932
-0.055741604 -0.14093161 0.0092584193
-0.05426871 -0.13984628 0.0094559491
-0.052901585 -0.13899632 0.0092598498
-0.052542485 -0.14081386 0.0090695024
-0.051873304 -0.14185761 0.0086900294
-0.051417697 -0.14354108 0.008312881
-0.050903745 -0.14512981 0.0079466403
-0.047446318 -0.13821319 0.0076926649
-0.048299193 -0.14382426 0.0066214502
-0.04622798 -0.1407852 0.0055359006
0.054571871 -0.1406275 0.0072591305
0.053242359 -0.13461275 0.0081945658
0.055116702 -0.13677107 0.0084378421
0.057443045 -0.13995215 0.0092166364
0.057062201 -0.13654169 0.011252493
0.057354964 -0.13483448 0.011792183
0.058778055 -0.13579758 0.011982977
0.059875164 -0.13598765 0.011847794
0.063790493 -0.14246544 0.012014121
0.063516475 -0.13952799 0.01209408
0.064250886 -0.13886482 0.012084395
0.06511572 -0.13850009 0.01233533
0.066661783 -0.13957311 0.01252073
0.067582868 -0.13932468 0.012453943
0.068082184 -0.13822746 0.012379646
0.068207972 -0.13641594 0.012520552
0.069071628 -0.13611174 0.013015002
0.070201091 -0.13633256 0.013415188
0.071210489 -0.13631722 0.013001472
0.072065592 -0.13601112 0.012971699
0.072574876 -0.13506991 0.013055235
0.072208315 -0.13254677 0.012444824
0.075552888 -0.13681199 0.012337148
0.075503223 -0.13489908 0.01219517
0.078229062 -0.1379302 0.010828704
0.080490552 -0.14007448 0.010760069
0.080367118 -0.13806659 0.009164691
0.081931986 -0.13897324 0.0075062215
0.085639581 -0.1434463 0.0062186122
-0.062203817 -0.14022216 0.0051004291
-0.060085654 -0.13778262 0.0060037076
-0.060296703 -0.14069231 0.0067062974
-0.058276307 -0.13840623 0.0075697601
-0.05654189 -0.13672857 0.0078074038
-0.056281906 -0.13862026 0.0081128478
-0.054413982 -0.1365483 0.0085370541
-0.05405014 -0.13824363 0.0090965033
-0.054415368 -0.14190674 0.0092406273
-0.053311076 -0.14180747 0.0092406273
-0.052525826 -0.14257009 0.0090142488
-0.051199473 -0.14186521 0.0084756613
-0.048493866 -0.13722733 0.0082104802
-0.048495855 -0.14021628 0.0081482232
-0.047305468 -0.13981393 0.0076740086
-0.04615197 -0.13950482 0.0071060658
-0.045437146 -0.14053814 0.0066843331
0.050763115 -0.1377856 0.0066672564
0.052521065 -0.13970603 0.0080453157
0.052476577 -0.13685068 0.0085590482
0.052625429 -0.13459966 0.0096580088
0.054517005 -0.13680682 0.011022985
0.055960752 -0.13782926 0.011368841
0.056250501 -0.13602394 0.011930168
0.057376657 -0.13626955 0.013302058
0.056829523 -0.13260223 0.013364673
0.058271077 -0.1336216 0.013694912
0.060445294 -0.13625804 0.013202071
0.061205253 -0.13567165 0.012997478
0.061855897 -0.13486613 0.013202071
0.064959295 -0.13934816 0.01304242
0.064892091 -0.13699441 0.013114542
0.066956997 -0.139145 0.013047636
0.066384003 -0.13583188 0.01280573
0.067178518 -0.13537489 0.013064891
0.069686115 -0.13833214 0.013097733
0.070025295 -0.13696124 0.013113916
0.06912756 -0.13324589 0.013502836
0.071232446 -0.13534164 0.013097733
0.071452022 -0.13384674 0.013136119
0.072925583 -0.13470976 0.013136119
0.073228911 -0.13341706 0.012828439
0.07535556 -0.13543634 0.012516528
0.074873291 -0.13277529 0.012209892
0.079096533 -0.13841893 0.010751784
0.080385327 -0.13884738 0.010654449
0.080264471 -0.13686121 0.0088858008
0.082454942 -0.13881655 0.0069372654
0.16082448 -0.14259771 0.0056530833
-0.061882351 -0.1408357 0.0060254335
-0.060386211 -0.13984175 0.0065150261
-0.058492359 -0.13787484 0.00725618
-0.058221214 -0.13973092 0.0077684522
-0.056935847 -0.13917652 0.0083158314
-0.056036368 -0.13956228 0.0086574256
-0.05610567 -0.14242208 0.0088160932
-0.052730512 -0.13647898 0.0092909336
-0.050974496 -0.13457267 0.0092501044
-0.051993348 -0.1400637 0.0088824928
-0.050187469 -0.13801554 0.0084681809
-0.049372002 -0.1386618 0.0083112419
-0.049125209 -0.14096799 0.0082066357
-0.047086578 -0.13812062 0.0078741312
-0.046699569 -0.14009871 0.0078628361
-0.046041235 -0.14133589 0.0077299774
-0.044040736 -0.13841374 0.0066717863
-0.04407176 -0.14188957 0.0062137246
0.048575465 -0.13358253 0.0078932047
0.051802527 -0.13954966 0.0081938505
0.052567169 -0.13877733 0.0089739859
0.052817728 -0.13670471 0.011096895
0.053846359 -0.13668691 0.011378884
0.053959213 -0.13438898 0.012040585
0.054187048 -0.13245723 0.012677729
0.056559417 -0.1357426 0.012877584
0.056843758 -0.13398886 0.014060557
0.057510994 -0.13318336 0.014558882
0.059493471 -0.13539892 0.014757067
0.059926018 -0.13407177 0.014597625
0.060303241 -0.13266714 0.014171124
0.063570708 -0.13756284 0.014527708
0.063012384 -0.13415539 0.014261603
0.065411642 -0.13705297 0.013956964
0.067616664 -0.13945937 0.01378876
0.06796845 -0.13802823 0.01368469
0.069743045 -0.13948609 0.012993306
0.068363801 -0.13468689 0.013023019
0.069440812 -0.13479686 0.01287201
0.071626969 -0.13702551 0.013284713
0.071877316 -0.13554008 0.012912184
0.070637845 -0.13132669 0.012817889
0.074578457 -0.13672717 0.012710422
0.074805409 -0.13526458 0.012286395
0.074430563 -0.13276803 0.012174845
0.076868422 -0.13528843 0.011585385
0.077015832 -0.13376434 0.01009059
0.078930385 -0.13530923 0.010196686
0.081422627 -0.13779213 0.0077779889
0.083586521 -0.13966356 0.0061478615
-0.061174385 -0.13816974 0.0054758489
-0.060035743 -0.13797688 0.0063604116
-0.059985008 -0.14032207 0.0068371594
-0.058180999 -0.13857657 0.0072735548
-0.056762546 -0.13770173 0.0081029236
-0.057325795 -0.14169206 0.0086574256
-0.053994786 -0.13602532 0.0088252425
-0.053125847 -0.13646051 0.0091359615
-0.053035025 -0.13895176 0.0092909336
-0.050852526 -0.13595267 0.0091477633
-0.04986006 -0.13607641 0.0087787211
-0.049020924 -0.13663279 0.0088993311
-0.048135065 -0.1370803 0.0087397695
-0.048050698 -0.13988093 0.0087326467
-0.046464551 -0.13833764 0.0089215636
-0.044431038 -0.13535967 0.008487165
-0.043823462 -0.13668747 0.007853657
-0.042412095 -0.13551182 0.0078628361
-0.041652624 -0.13641235 0.0077238083
-0.041373286 -0.13897181 0.007769078
-0.03985589 -0.13739793 0.0076206326
-0.038086027 -0.13484512 0.0067373812
0.048289984 -0.13752148 0.0055437982
0.048754398 -0.13588992 0.0082266629
0.048553322 -0.13251011 0.0087686181
0.051141806 -0.13672605 0.0091410875
0.048726592 -0.12766367 0.011006534
0.05234649 -0.13445863 0.011862934
0.054546881 -0.13741618 0.011474103
0.052459836 -0.12966488 0.012646645
0.056530174 -0.13713801 0.013982058
0.056385431 -0.13429984 0.014803648
0.05675203 -0.13275921 0.015030533
0.057602089 -0.13238375 0.015132397
0.060071498 -0.13567874 0.01523456
0.058874603 -0.13072157 0.015040308
0.060391817 -0.13185546 0.014901787
0.060659263 -0.13026826 0.015015095
0.062688664 -0.13245508 0.014757067
0.065327905 -0.13584056 0.014331818
0.066498317 -0.13611373 0.014270663
0.065985277 -0.13298571 0.014053017
0.068830796 -0.1366187 0.013311625
0.067747377 -0.13246129 0.013169438
0.069696926 -0.13426907 0.013197631
0.070515864 -0.13387795 0.013428807
0.070376791 -0.13170514 0.013237655
0.072434619 -0.13364698 0.013415188
0.073884137 -0.13442808 0.013028234
0.073686786 -0.13223246 0.011988938
0.075093254 -0.13293536 0.01168403
0.07672023 -0.13400467 0.011440873
0.078344807 -0.1350417 0.009788394
0.079925731 -0.13597755 0.0085879564
0.079346821 -0.13326196 0.0072505176
0.079765223 -0.13226891 0.0057698786
-0.061283235 -0.13976878 0.006169647
-0.058745936 -0.13637449 0.0064976513
-0.058766283 -0.13890213 0.0070855021
-0.056550529 -0.13614017 0.0076645315
-0.056489997 -0.13856037 0.008739084
-0.054692391 -0.13673097 0.0091891885
-0.053003471 -0.13510689 0.009593308
-0.051583927 -0.13411821 0.010432482
-0.051400486 -0.13636863 0.010478228
-0.049600091 -0.13433358 0.010307848
-0.048669185 -0.1346169 0.010104597
-0.04779353 -0.13506867 0.010417044
-0.04684421 -0.13532771 0.010026038
-0.0449824 -0.13290255 0.010408759
-0.045014385 -0.13609 0.0099321008
-0.044003394 -0.13620098 0.0098590553
-0.042201709 -0.1338103 0.009103477
-0.04268609 -0.1387298 0.0090884566
-0.040365264 -0.13455088 0.0090231001
-0.038819227 -0.13280262 0.0089772344
-0.038685091 -0.1359206 0.0088909566
-0.03708658 -0.13392375 0.0082746446
-0.036410403 -0.13523865 0.0074633658
-0.0355809 -0.13604462 0.0064557195
0.046673905 -0.13483572 0.0059476495
0.047641244 -0.13463829 0.0082058609
0.047483079 -0.13133618 0.0089665353
0.049424253 -0.13385735 0.0098668039
0.048428006 -0.12848246 0.011392117
0.051696122 -0.13440992 0.011627972
0.051371668 -0.1309474 0.013154566
0.052958511 -0.13239628 0.014165521
0.052956637 -0.12989363 0.013667315
0.055050451 -0.13252887 0.01480478
0.055208914 -0.1304938 0.015345454
0.056999862 -0.1323211 0.015660226
0.057716466 -0.13163404 0.01643613
0.059214953 -0.13272317 0.016306698
0.059659518 -0.13145317 0.016223609
0.06080506 -0.1317443 0.016106308
0.061570581 -0.13121599 0.016188055
0.06208346 -0.13017499 0.015577018
0.062491424 -0.12895055 0.015119255
0.065310702 -0.13266236 0.01453194
0.066841014 -0.13368203 0.014113843
0.068393998 -0.13471544 0.013487756
0.069486119 -0.13482381 0.012937784
0.06961371 -0.13308503 0.012816489
0.070030607 -0.13194174 0.013387233
0.071735337 -0.13322277 0.01302883
0.073113374 -0.13386956 0.012710422
0.073441781 -0.13260321 0.012099802
0.075213075 -0.1339411 0.01143682
0.076241426 -0.13393764 0.011136204
0.075825378 -0.13143066 0.010379821
0.07835 -0.13401975 0.0097117126
0.078846321 -0.13311715 0.008150667
0.080641568 -0.13440262 0.0068090558
-0.059846822 -0.13544281 0.0060243309
-0.058746945 -0.13532779 0.0064334273
-0.058926824 -0.13821019 0.0072059631
-0.056016129 -0.13381632 0.0079389513
-0.055812556 -0.13584566 0.0091319084
-0.054251298 -0.13458495 0.0097482502
-0.053016219 -0.13409984 0.010700017
-0.052048218 -0.13428439 0.010836333
-0.05096126 -0.13416332 0.010865927
-0.049742501 -0.13368297 0.010647893
-0.050048266 -0.13736652 0.010538369
-0.047726169 -0.13384078 0.010813177
-0.046211261 -0.13247228 0.010670483
-0.046321072 -0.13580497 0.011260778
-0.045083925 -0.13525178 0.011757255
-0.043519285 -0.13366638 0.011619002
-0.042430375 -0.13350044 0.011375725
-0.04127505 -0.13311204 0.010821939
-0.040072307 -0.13254687 0.010808468
-0.03978337 -0.13505407 0.010685593
-0.038308546 -0.13356224 0.010602236
-0.037022941 -0.13266554 0.010024995
-0.036977638 -0.136289 0.0087789595
-0.035424273 -0.13440385 0.0081718862
-0.034299139 -0.13407846 0.0065776408
-0.033970643 -0.13694416 0.0056428611
0.043969046 -0.13190714 0.0061787963
0.04650595 -0.13634698 0.0075261593
0.045556311 -0.13059476 0.0086848736
0.046670485 -0.13088028 0.0089233518
0.048611403 -0.13342279 0.0099950731
0.048584774 -0.13057157 0.011780053
0.049866628 -0.13128152 0.013028979
0.051622827 -0.13318689 0.013615489
0.052263148 -0.13219503 0.014642507
0.052495014 -0.13022801 0.01467064
0.054629982 -0.13296731 0.015259266
0.054158378 -0.12937835 0.015870392
0.056529131 -0.13258651 0.01656878
0.057227828 -0.13182838 0.017107129
0.057353485 -0.12979999 0.017213166
0.05925272 -0.13178623 0.016938627
0.058627054 -0.12818457 0.016972363
0.061098263 -0.13136126 0.016278863
0.062518418 -0.13221107 0.016311675
0.061083216 -0.1270925 0.01615724
0.063494988 -0.13001354 0.015254974
0.064057499 -0.12911589 0.015093923
0.064682484 -0.12836985 0.014194787
0.068623431 -0.13412762 0.013369352
0.070301421 -0.13535647 0.012951225
0.069198623 -0.13127387 0.013247281
0.071528904 -0.13372795 0.013442189
0.071899794 -0.13250105 0.013046592
0.072526611 -0.13177371 0.012337148
0.073893383 -0.13239232 0.012027532
0.074079849 -0.13090824 0.011124998
0.075834326 -0.13219768 0.010969609
0.077041276 -0.13251099 0.010172307
0.077585332 -0.13169089 0.0084841847
0.076477133 -0.12812403 0.007343024
0.080587268 -0.13327895 0.0059907138
-0.060284592 -0.13537593 0.0061038733
-0.059150729 -0.13520168 0.0066432059
-0.057220638 -0.13316803 0.0075438619
-0.055739105 -0.13212232 0.0090330243
-0.05576013 -0.13466597 0.0098422468
-0.053668126 -0.13210616 0.010525167
-0.052504279 -0.13177544 0.010980874
-0.052787568 -0.13513617 0.011270821
-0.050987761 -0.13319251 0.011071801
-0.050282247 -0.134086 0.011178732
-0.0486673 -0.13254073 0.011049688
-0.046474297 -0.12931979 0.011334866
-0.046677537 -0.13277166 0.011627764
-0.045977883 -0.13375384 0.012159646
-0.043475002 -0.12941396 0.012303472
-0.043532047 -0.13266909 0.012348026
-0.042299476 -0.13205689 0.012291431
-0.040938627 -0.1310036 0.01225248
-0.040463183 -0.13280223 0.01214233
-0.038693305 -0.13033535 0.011676878
-0.03837467 -0.13275562 0.011386424
-0.038603462 -0.13725674 0.011082172
-0.036180843 -0.1323185 0.01042372
-0.035122 -0.13222399 0.0090692043
-0.034442477 -0.13359506 0.0081925392
-0.033266507 -0.13306603 0.0074696839
-0.032903008 -0.13585758 0.00620538
-0.031968538 -0.13639911 0.0052236319
0.042795088 -0.13360417 0.0061061382
0.044086896 -0.13436006 0.0073128045
0.044524249 -0.13253731 0.0089101791
0.046637017 -0.13567132 0.0091349483
0.045910362 -0.13058947 0.0094306767
0.047669366 -0.13264519 0.010982275
0.047669038 -0.12982206 0.012011558
0.049649142 -0.13239771 0.01335755
0.04926673 -0.12869675 0.015219539
0.051410247 -0.13161023 0.014678955
0.052275226 -0.13120057 0.015023351
0.053505305 -0.13170537 0.015969336
0.053759977 -0.12983541 0.016027778
0.055044077 -0.13047485 0.01612702
0.056353908 -0.13115092 0.016525328
0.05675523 -0.12972625 0.017146617
0.058643922 -0.13169162 0.017193705
0.058182169 -0.12840202 0.016921401
0.059937119 -0.13003308 0.016938627
0.060762133 -0.12962589 0.016409218
0.062159047 -0.1304321 0.016146421
0.062768437 -0.12958644 0.015900582
0.063653782 -0.12932831 0.015648782
0.062829003 -0.12565801 0.015650213
0.067036323 -0.13200998 0.014859766
0.066256784 -0.128498 0.01357922
0.06803403 -0.12997547 0.012728453
0.070184916 -0.13211279 0.012816489
0.070872702 -0.131474 0.013051748
0.071591489 -0.13091016 0.011711419
0.073371962 -0.13227622 0.011868864
0.074142337 -0.13180861 0.011101991
0.073860936 -0.12950958 0.010670483
0.076016165 -0.13148743 0.009956032
0.076570965 -0.13068111 0.0092276037
0.07868398 -0.13252039 0.0073525012
0.080734201 -0.1342075 0.0059395432
0.16841339 -0.14276102 0.0055612326
-0.060328919 -0.13441707 0.0061112642
-0.058982693 -0.13376431 0.0068330765
-0.056502976 -0.1304705 0.0083726048
-0.056475844 -0.13282281 0.0096363425
-0.055206258 -0.1322867 0.010736555
-0.054454874 -0.13299556 0.011235446
-0.05411737 -0.13476287 0.011618674
-0.052084304 -0.13229413 0.011793911
-0.051008206 -0.13220495 0.011647016
-0.049791172 -0.13173914 0.011776209
-0.048058059 -0.129859 0.011623561
-0.04773752 -0.13179706 0.012012452
-0.047319926 -0.13354735 0.012089223
-0.044328161 -0.1279472 0.012612134
-0.04464661 -0.13186324 0.012694061
-0.044485569 -0.1345159 0.01268512
-0.042044234 -0.13023458 0.01294601
-0.041588373 -0.13204309 0.012955934
-0.040164884 -0.13079335 0.012675196
-0.039033465 -0.13045394 0.012668967
-0.038939051 -0.13365567 0.012342721
-0.036901254 -0.13017944 0.012133747
-0.036581911 -0.13274008 0.011437267
-0.035338055 -0.13199803 0.011134565
-0.034397624 -0.13237874 0.0097938478
-0.032987233 -0.13091809 0.0086009502
-0.032240469 -0.13208193 0.0077663362
-0.030911954 -0.13086061 0.0063093305
-0.030486595 -0.13351026 0.0052505434
0.038818292 -0.13324116 0.0059187412
0.039256655 -0.13119987 0.0062104464
0.040218089 -0.1309666 0.0064183772
0.041282386 -0.13107157 0.0071973801
0.04303354 -0.13329901 0.0086531937
0.044129584 -0.13343945 0.0090478361
0.044435121 -0.13123862 0.0094306767
0.045110147 -0.13020429 0.010193765
0.046624321 -0.1315842 0.011246622
0.047053881 -0.12990963 0.0118047
0.04708432 -0.12722784 0.01333952
0.04911229 -0.12994294 0.013812453
0.048532587 -0.12578854 0.015219182
0.050156243 -0.12739685 0.01528734
0.051361296 -0.12789969 0.01590535
0.052398641 -0.1279736 0.016395688
0.053267714 -0.1276415 0.016387075
0.054211073 -0.12749641 0.01670137
0.054632206 -0.12615073 0.016440809
0.05668183 -0.1285463 0.016933471
0.056790251 -0.12653267 0.017132074
0.057938214 -0.12686472 0.016933471
0.061185565 -0.13170452 0.016993016
0.061429873 -0.13002656 0.016438812
0.061644372 -0.12834156 0.016698927
0.06354557 -0.13016592 0.016138494
0.063830934 -0.12867506 0.015825599
0.065373957 -0.12972644 0.015875578
0.064591892 -0.12620261 0.015470803
0.065700382 -0.12642346 0.013622701
0.067335859 -0.12763663 0.012964994
0.068489939 -0.12791504 0.012811899
0.068374924 -0.1258495 0.01235497
0.073136568 -0.13269064 0.011217862
0.074017696 -0.13239785 0.011143208
0.074475639 -0.13136674 0.010722756
0.075028747 -0.13052946 0.010452271
0.076154396 -0.1306974 0.0094528496
0.075348131 -0.12758949 0.0079856813
0.080228537 -0.1340661 0.0068748593
0.080039971 -0.13201398 0.0053960979
0.16167045 -0.13597448 0.0052794516
-0.059427261 -0.13136552 0.006243974
-0.058589235 -0.13182577 0.0074113607
-0.058227886 -0.13339479 0.0083833635
-0.056737497 -0.13238749 0.0097454786
-0.056290239 -0.13382208 0.010836661
-0.055039164 -0.13336413 0.011230797
-0.053016566 -0.1309821 0.011733919
-0.052314963 -0.1318337 0.011952341
-0.051068984 -0.13132024 0.012034595
-0.048708186 -0.12785898 0.012272388
-0.049516074 -0.13274522 0.012019396
-0.04745939 -0.12999746 0.012253046
-0.046285473 -0.12959933 0.012543976
-0.045396589 -0.12999932 0.01293847
-0.043812849 -0.12838183 0.013118863
-0.042769823 -0.12830947 0.013181835
-0.042992316 -0.13212273 0.013527572
-0.041509982 -0.13075644 0.013538271
-0.040240996 -0.13000937 0.013171881
-0.039930884 -0.13240241 0.0132007
-0.038183559 -0.1300305 0.012658864
-0.037234433 -0.13032052 0.01245898
-0.036155794 -0.13016085 0.012144417
-0.034580547 -0.12815143 0.011619687
-0.034203507 -0.13059521 0.010678202
-0.032846324 -0.12933239 0.010137975
-0.032478157 -0.13200799 0.0086938739
-0.031366605 -0.13173975 0.0077400208
-0.030455707 -0.1323248 0.005934
0.033891726 -0.12940478 0.0064275563
0.034348261 -0.12729061 0.0070714355
0.035648547 -0.12833476 0.0085917711
0.038264863 -0.13392702 0.0085322857
0.037988048 -0.12936471 0.0081087947
0.03994216 -0.13243979 0.0090082288
0.040615931 -0.1312207 0.0087677836
0.041913431 -0.13202731 0.0086239576
0.042994749 -0.13213021 0.0093339086
0.043494608 -0.13048382 0.01031521
0.043973453 -0.12885244 0.01118204
0.046622325 -0.13350938 0.011490554
0.046344139 -0.12976359 0.012393653
0.047023382 -0.12880318 0.013123691
0.048355345 -0.12963347 0.014429271
0.047898229 -0.12573285 0.015071362
0.050628137 -0.13018663 0.015704602
0.05025278 -0.12663701 0.016531527
0.051278815 -0.12668884 0.016435087
0.053830627 -0.13043575 0.016783059
0.05401231 -0.12840663 0.01684317
0.053619456 -0.12511207 0.01705274
0.054991383 -0.12598026 0.017131507
0.055536404 -0.12495691 0.017273843
0.057407983 -0.12690187 0.017499268
0.05891582 -0.12798953 0.017211527
0.059468981 -0.12700155 0.017132074
0.061195523 -0.12851059 0.016844332
0.062254589 -0.12859145 0.016974479
0.062203642 -0.12641385 0.016921401
0.063165307 -0.12633061 0.015939087
0.065836631 -0.12961587 0.016041458
0.066005938 -0.12794998 0.015684813
0.06832815 -0.13044466 0.014710367
0.066900685 -0.12581323 0.013541639
0.068584353 -0.12708277 0.012964994
0.071467534 -0.13050593 0.012941271
0.073288448 -0.13191921 0.011579573
0.072353363 -0.12840174 0.010926813
0.074677818 -0.13068618 0.010670483
0.074415125 -0.12844254 0.0096668005
0.075619482 -0.12875749 0.0090818405
0.078151956 -0.13129529 0.00700894
0.078714006 -0.13049953 0.005776614
-0.059898157 -0.13135561 0.0063759983
-0.059723899 -0.13331227 0.0079389513
-0.058858585 -0.13376951 0.0090330243
-0.056127395 -0.12992452 0.010159343
-0.054948583 -0.12959571 0.011163712
-0.053522345 -0.12865949 0.011459112
-0.052976847 -0.12984522 0.011898309
-0.051997937 -0.12999484 0.012056589
-0.049652532 -0.12666462 0.01251471
-0.05021983 -0.13078082 0.012609154
-0.048610892 -0.12928429 0.012235671
-0.046638157 -0.12673412 0.012658864
-0.046319522 -0.12866534 0.01293847
-0.0453282 -0.1287733 0.013186336
-0.043567181 -0.12664878 0.013418525
-0.043416936 -0.12921707 0.013655275
-0.042301148 -0.12896691 0.013828307
-0.041210454 -0.12878266 0.01389423
-0.040511463 -0.12984444 0.01360926
-0.039242506 -0.12908718 0.013463706
-0.038178742 -0.12898223 0.013355762
-0.037728157 -0.13100055 0.013330013
-0.036043104 -0.12872536 0.012809575
-0.03528117 -0.12971018 0.012486994
-0.034220878 -0.12962453 0.011526734
-0.032727912 -0.12784341 0.010852903
-0.032489128 -0.13100456 0.010191202
-0.031657372 -0.13190572 0.0085935295
-0.030719643 -0.13241225 0.0075332522
-0.029287167 -0.13074629 0.0064158738
-0.028625043 -0.13252334 0.0060317814
-0.027409805 -0.13177791 0.0052844882
0.030055391 -0.1295491 0.005027622
0.030882889 -0.12867871 0.0064184964
0.032503881 -0.13106403 0.0075329244
0.033361539 -0.13031852 0.009327203
0.033192858 -0.12573051 0.010446399
0.034474824 -0.12674567 0.010989189
0.035608396 -0.12717284 0.01093924
0.036485452 -0.12668559 0.01043883
0.037673239 -0.12727445 0.010108203
0.03919737 -0.12893872 0.010593742
0.040011294 -0.12824133 0.010593742
0.041500133 -0.12968792 0.010294348
0.041984834 -0.12800254 0.011049926
0.04378574 -0.13031471 0.011255026
0.045049094 -0.13095666 0.011668354
0.044863749 -0.12745383 0.012337983
0.046359539 -0.12877651 0.012883514
0.048603907 -0.13207583 0.014282882
0.047845036 -0.12724744 0.01450938
0.049329851 -0.12846315 0.015338272
0.049031548 -0.12508048 0.016074121
0.050014637 -0.1250366 0.016676724
0.051657785 -0.12661222 0.016872019
0.05254703 -0.12631497 0.017000139
0.053359184 -0.12584713 0.016970158
0.055054531 -0.12744105 0.016996503
0.057450842 -0.1305701 0.016836882
0.056381635 -0.12585187 0.017242104
0.059015963 -0.12942097 0.017052859
0.058941916 -0.12702999 0.016845852
0.058934521 -0.12486128 0.016775876
0.062263574 -0.12971579 0.016752571
0.061324932 -0.12566584 0.016722798
0.062289562 -0.1255838 0.016635239
0.064708345 -0.12838957 0.015684813
0.064451478 -0.12588179 0.015897244
0.066636138 -0.12814642 0.015662104
0.067347899 -0.12755284 0.014866322
0.065439381 -0.1220884 0.013622701
0.070326827 -0.12927726 0.012942225
0.070886225 -0.12841707 0.01235497
0.071505919 -0.12768914 0.010792524
0.075651996 -0.13319014 0.010730952
0.0752858 -0.13070452 0.0097597241
0.075129218 -0.12864593 0.008536011
0.076104246 -0.12855446 0.0075511038
0.077007033 -0.12834504 0.0059942901
-0.060079463 -0.13069919 0.006326139
-0.058018681 -0.12846993 0.0079040825
-0.056893878 -0.12826984 0.0094203353
-0.055644147 -0.12777545 0.010724872
-0.054213747 -0.12683971 0.011210322
-0.054324694 -0.1295435 0.011488169
-0.05313006 -0.12917897 0.01188311
-0.051549986 -0.12784396 0.012065589
-0.051004063 -0.1290715 0.012766004
-0.049405664 -0.12763131 0.012871623
-0.048626792 -0.12829196 0.012740254
-0.04783985 -0.1289596 0.013207227
-0.04615315 -0.12717757 0.013523072
-0.044494595 -0.12539385 0.013685256
-0.045464616 -0.13110727 0.014115542
-0.044485796 -0.13133901 0.014019877
-0.041494627 -0.12549594 0.014260828
-0.042067308 -0.13040866 0.014225245
-0.040452994 -0.12861978 0.014152229
-0.039068002 -0.12748507 0.013619959
-0.038521133 -0.12909786 0.013590127
-0.036835454 -0.12687768 0.013572246
-0.035780266 -0.12676437 0.01339522
-0.035218015 -0.12844217 0.012877673
-0.033892605 -0.12735404 0.012291491
-0.03350205 -0.12982045 0.011324167
-0.032385569 -0.12954228 0.010757297
-0.031066256 -0.12840718 0.0096949041
-0.030483073 -0.13034141 0.0090727806
-0.029568622 -0.13094676 0.0080513656
-0.028020496 -0.12868671 0.0074155629
-0.027070574 -0.12910582 0.0066031516
-0.026225446 -0.13007821 0.0061092079
-0.025426019 -0.13136776 0.0059622228
-0.024633123 -0.13280466 0.005053699
0.028628204 -0.13147767 0.0053888559
0.029238561 -0.12948506 0.0070167184
0.029834021 -0.12756616 0.0087481439
0.030762732 -0.12715262 0.0093514323
0.031800833 -0.12720333 0.010811865
0.032512106 -0.1259844 0.011968374
0.033823907 -0.12709589 0.012446672
0.034023054 -0.12408408 0.01266101
0.035029035 -0.12410287 0.012323946
0.036597919 -0.12605949 0.012024671
0.037628364 -0.12610586 0.011217415
0.039099611 -0.12758821 0.011162877
0.040411294 -0.12848718 0.010973305
0.041471031 -0.1285602 0.0107584
0.042276073 -0.12785934 0.011312753
0.044326235 -0.13086793 0.011523664
0.044290744 -0.12772214 0.011847705
0.045329981 -0.12774812 0.01243189
0.046542853 -0.12825142 0.013361096
0.047035154 -0.1267904 0.013993531
0.047815975 -0.12615278 0.014585704
0.04839576 -0.12502238 0.015450716
0.048187923 -0.12194495 0.0167436
0.051123511 -0.12678631 0.016676724
0.051293924 -0.12471464 0.017099768
0.052096054 -0.12422905 0.017096251
0.052887022 -0.12373567 0.017107397
0.054522831 -0.12520057 0.017127126
0.054262403 -0.12233705 0.016947478
0.056747325 -0.12565479 0.017059088
0.057603382 -0.12531261 0.01689288
0.05813843 -0.12429595 0.016706258
0.060277428 -0.12668477 0.016499609
0.060452312 -0.12493478 0.016584039
0.061434474 -0.1248832 0.016409218
0.062185012 -0.12437002 0.015847862
0.063766822 -0.12550931 0.015602022
0.065305836 -0.12653005 0.015607655
0.065217182 -0.12441431 0.015568703
0.067050591 -0.12597385 0.014694273
0.068474129 -0.12672824 0.014008135
0.069048509 -0.125912 0.013507009
0.068724588 -0.12350506 0.012941271
0.070425279 -0.12475336 0.010897547
0.073606141 -0.12855157 0.010811627
0.076003984 -0.13089575 0.0097702146
0.075642034 -0.12848784 0.0078333318
0.077136569 -0.12925588 0.0067560077
0.077775449 -0.12858874 0.0050349534
-0.059326995 -0.1280214 0.0058322251
-0.05815316 -0.12772927 0.0074462295
-0.057188686 -0.1278947 0.0094823837
-0.055812135 -0.12712765 0.010689199
-0.054836638 -0.12726238 0.011008471
-0.05433296 -0.12851834 0.01140368
-0.053280108 -0.12849909 0.011871368
-0.051889475 -0.1276481 0.012035429
-0.051107641 -0.12829061 0.012523025
-0.049279194 -0.12627794 0.012755305
-0.049213909 -0.12879385 0.012999266
-0.04771065 -0.12757413 0.013332516
-0.045989025 -0.12570333 0.013685256
-0.04547254 -0.12711641 0.013859928
-0.044504143 -0.12730254 0.014223427
-0.042836558 -0.12544993 0.014324248
-0.042523522 -0.12757057 0.014547527
-0.041258655 -0.12687036 0.014321208
-0.040243573 -0.12692204 0.014270604
-0.039681491 -0.12844272 0.014162004
-0.038443446 -0.12779848 0.013913155
-0.037421118 -0.12785548 0.013669938
-0.036572538 -0.12852634 0.013386488
-0.035243601 -0.12749891 0.012962341
-0.034663562 -0.12920055 0.012327671
-0.033133961 -0.12735866 0.011831313
-0.032087937 -0.12731665 0.011381149
-0.031594377 -0.12953696 0.010721654
-0.03040153 -0.12894443 0.010179937
-0.029128034 -0.12795529 0.0095712245
-0.028351322 -0.12915602 0.0084739923
-0.027387697 -0.12956487 0.0081692338
-0.026257884 -0.12918879 0.008081913
-0.02570189 -0.13172218 0.0077409446
-0.024064094 -0.12869059 0.0072530508
-0.022771722 -0.12731463 0.0062634051
-0.02179453 -0.12765367 0.0052792728
0.025971839 -0.12778145 0.0053691566
0.027271509 -0.12901521 0.0058394969
0.028375449 -0.12926593 0.0076680779
0.02870108 -0.12607974 0.010060489
0.030441253 -0.1291129 0.010941148
0.031442542 -0.12891442 0.011831969
0.0317945 -0.12615238 0.013015747
0.033093963 -0.12720491 0.013512164
0.034101907 -0.1271071 0.013527721
0.034323163 -0.1241691 0.013916194
0.035171349 -0.12360217 0.014316648
0.036431957 -0.12447584 0.014107794
0.037442431 -0.12447078 0.012736261
0.039548211 -0.12801132 0.012552321
0.039854165 -0.1256939 0.012176692
0.040162954 -0.12350108 0.01146844
0.041861035 -0.1255831 0.0116781
0.043704614 -0.12799208 0.011807799
0.044123724 -0.12621437 0.011922598
0.044798676 -0.12523267 0.01217857
0.046603244 -0.1273822 0.012592524
0.046924658 -0.12547246 0.013803482
0.048319064 -0.12645201 0.014429271
0.04779632 -0.12247807 0.01485914
0.049112137 -0.12328149 0.015647888
0.050659794 -0.1246231 0.016595691
0.051295023 -0.12371153 0.016800344
0.052623697 -0.12447529 0.01688993
0.053415123 -0.1239634 0.016965598
0.053261563 -0.12131801 0.016766608
0.05583813 -0.12487437 0.016694456
0.056583066 -0.12428066 0.01698029
0.057500202 -0.12407938 0.016642481
0.058859486 -0.12482271 0.016407877
0.059463266 -0.12396579 0.016290635
0.060574062 -0.12417683 0.016232848
0.061979614 -0.12497529 0.016084254
0.063327968 -0.12563452 0.015584946
0.063961543 -0.1248773 0.015459359
0.065201819 -0.12530975 0.015473694
0.06466262 -0.12236157 0.015440375
0.068028554 -0.1267805 0.014410347
0.06814827 -0.12510802 0.01356259
0.067936756 -0.1228856 0.012829125
0.069810085 -0.12444406 0.012464166
0.070475981 -0.12383637 0.010644406
0.071303114 -0.12352511 0.0099276602
0.078022093 -0.13328774 0.0082723796
0.076854274 -0.12949419 0.0068584979
-0.058964621 -0.12620498 0.0054001212
-0.05914579 -0.12885332 0.0072000325
-0.056350403 -0.12499543 0.0090330243
-0.056248587 -0.12708014 0.010160297
-0.055139594 -0.1269251 0.010883272
-0.053505901 -0.12553307 0.011290789
-0.0527438 -0.12617144 0.011538446
-0.052145995 -0.12723623 0.011980414
-0.051033761 -0.12706365 0.012127191
-0.049579456 -0.12601446 0.012744188
-0.048501629 -0.12589784 0.013056368
-0.046559855 -0.12348483 0.013329029
-0.047179088 -0.12790775 0.013401151
-0.045037474 -0.12487663 0.013696849
-0.044050798 -0.12498134 0.014366835
-0.043531347 -0.1264482 0.014547527
-0.04257359 -0.12668239 0.014326215
-0.041797265 -0.12748165 0.014330924
-0.040420998 -0.12644517 0.014366835
-0.03899128 -0.12518254 0.014445454
-0.038154151 -0.12580559 0.014318407
-0.037379503 -0.12667499 0.01402089
-0.035859358 -0.12499547 0.013792366
-0.035202224 -0.12631385 0.013520807
-0.034083303 -0.12600493 0.012977064
-0.032176476 -0.12267282 0.012453079
-0.032074176 -0.12622741 0.012066662
-0.030946881 -0.12585065 0.011690766
-0.029825546 -0.12547299 0.011003673
-0.029023906 -0.1264613 0.010420799
-0.028020902 -0.12661296 0.010310233
-0.027153203 -0.12741119 0.0096935332
-0.026539121 -0.12951091 0.0098500848
-0.025140679 -0.12779845 0.0096699893
-0.023931934 -0.12694331 0.0095074773
-0.023034902 -0.127739 0.0080457032
-0.021642426 -0.12573218 0.0076507926
-0.02073965 -0.12651187 0.0059872866
-0.019787729 -0.12705804 0.0051903725
0.0212253 -0.12947433 0.0051413178
0.022382798 -0.1300334 0.0052283704
0.023063771 -0.1278991 0.005833596
0.024200786 -0.12836939 0.0064274967
0.024855884 -0.12635075 0.0069935918
0.025482327 -0.12435375 0.0081050992
0.0272245 -0.12774573 0.0097457767
0.027468916 -0.1241188 0.010227412
0.029025573 -0.12646857 0.012330562
0.030053632 -0.12643252 0.012543589
0.031084493 -0.12641028 0.01372537
0.031640269 -0.12451977 0.014133394
0.033043537 -0.12597848 0.014827967
0.033067502 -0.12224955 0.01554662
0.035038281 -0.1257256 0.016244203
0.035605226 -0.12410965 0.016318679
0.035792217 -0.12129585 0.015480042
0.037650097 -0.12414356 0.015605062
0.039111067 -0.12556711 0.015593618
0.039604694 -0.12389161 0.014458001
0.041105278 -0.1253711 0.013250202
0.041759692 -0.12426055 0.012813449
0.043319218 -0.12583202 0.012381464
0.044324122 -0.12575682 0.012402594
0.044449519 -0.12324639 0.012081444
0.04597944 -0.12465537 0.012807399
0.047056798 -0.12480281 0.013428152
0.047687225 -0.12378386 0.014034003
0.048665378 -0.12369117 0.014676094
0.0490954 -0.12223753 0.015351653
0.050545156 -0.12333018 0.016676724
0.051256526 -0.12261365 0.016946018
0.052677047 -0.12358845 0.017056614
0.052967038 -0.12192412 0.016994983
0.055023845 -0.12431313 0.01693964
0.056028064 -0.12428043 0.016874909
0.056630429 -0.12337343 0.017030746
0.057538223 -0.12315199 0.016595662
0.058136836 -0.12228783 0.016186893
0.060140863 -0.12435907 0.016055912
0.062128138 -0.12632722 0.016022593
0.061714102 -0.1234282 0.015459359
0.063080318 -0.12412579 0.015379995
0.064375535 -0.12466373 0.015284091
0.063522406 -0.12108959 0.014920026
0.065782785 -0.12346923 0.014772236
0.068287089 -0.12622765 0.01384899
0.066806734 -0.12164808 0.013167113
0.068394162 -0.12270718 0.012615025
0.069774568 -0.12336952 0.012071133
0.071672037 -0.12491412 0.010091573
0.073902875 -0.12698804 0.0085256696
0.073366635 -0.12431569 0.006878823
0.075478896 -0.12614281 0.0051772892
-0.058202703 -0.12575941 0.0063777566
-0.05762184 -0.12676804 0.0086030662
-0.056675542 -0.12699519 0.0094472468
-0.054814331 -0.12514214 0.010516703
-0.053522408 -0.12454253 0.01099214
-0.053609978 -0.1271923 0.011173338
-0.052515183 -0.12708674 0.011733919
-0.05102057 -0.12598957 0.011873394
-0.049124751 -0.12383531 0.012928963
-0.048379947 -0.12455262 0.013121665
-0.04758491 -0.12516901 0.01365152
-0.046688654 -0.1255406 0.013941973
-0.045281481 -0.12452408 0.014075041
-0.044125777 -0.12416789 0.014607787
-0.043480016 -0.12526385 0.014714986
-0.042435739 -0.12523718 0.014626533
-0.041417826 -0.12528893 0.014454424
-0.040025283 -0.12418101 0.014824152
-0.039414942 -0.12550548 0.014578342
-0.038743034 -0.12670019 0.014312565
-0.036842581 -0.123832 0.014280051
-0.035960134 -0.12431932 0.014231622
-0.035146426 -0.12507993 0.013710201
-0.033759791 -0.12378591 0.01329124
-0.032699265 -0.1236441 0.01283434
-0.031729553 -0.1238476 0.012516737
-0.031496566 -0.12703615 0.012161374
-0.030251509 -0.12622181 0.011915177
-0.029041376 -0.12550023 0.011109531
-0.028425794 -0.12738967 0.010835677
-0.027098201 -0.12611085 0.010620236
-0.026331348 -0.12744373 0.010702908
-0.024680434 -0.12443052 0.010586977
-0.023925763 -0.12587032 0.010420591
-0.022066737 -0.12136705 0.010179937
-0.021319592 -0.12284146 0.010086983
-0.02072948 -0.12541336 0.0082971454
-0.019485468 -0.12409166 0.0078279674
-0.018309359 -0.12307957 0.0074490905
-0.017662462 -0.12571517 0.0062393844
0.014907497 -0.12884337 0.0057041645
0.015841035 -0.12778434 0.0062309504
0.016737882 -0.12658022 0.006231159
0.017803557 -0.12671943 0.0063637495
0.01878974 -0.12630881 0.0068325102
0.019739542 -0.12570971 0.0072657466
0.020698441 -0.12522557 0.007017374
0.021449942 -0.12359253 0.0069211423
0.023096027 -0.12702815 0.0080808699
0.023950465 -0.12600027 0.0090202093
0.024852252 -0.12529677 0.01003626
0.026128536 -0.12646212 0.010422587
0.026888859 -0.12513661 0.012301475
0.027989466 -0.12543428 0.012938589
0.028655738 -0.12383372 0.014092594
0.029278219 -0.12216084 0.014399886
0.030321812 -0.12229798 0.01431486
0.031910591 -0.12455424 0.015790522
0.032209281 -0.12179134 0.016192555
0.033364676 -0.12233715 0.016494393
0.034455933 -0.12262258 0.016564041
0.035043154 -0.12114919 0.016212463
0.036122486 -0.1214117 0.015676796
0.037467971 -0.12253039 0.015747637
0.037578851 -0.11965898 0.015695632
0.040083289 -0.12436097 0.015619874
0.041351214 -0.12508743 0.015314072
0.042211443 -0.12457523 0.014341325
0.043290254 -0.12471716 0.013652533
0.043622315 -0.12275117 0.012560844
0.045012198 -0.12378354 0.012552023
0.045918796 -0.12347054 0.013652533
0.047251634 -0.12429234 0.013594896
