ply
format ascii 1.0
comment PCL generated
element vertex 1300
property float x
property float y
property float z
element camera 0
property float view_px
property float view_py
property float view_pz
property float x_axisx
property float x_axisy
property float x_axisz
property float y_axisx
property float y_axisy
property float y_axisz
property float z_axisx
property float z_axisy
property float z_axisz
property float focal
property float scalex
property float scaley
property float centerx
property float centery
property int viewportx
property int viewporty
property float k1
property float k2
end_header
-0.038289312 0.020696927 0.01162079
-0.03713081 0.020628229 0.011265308
-0.036414169 0.020808097 0.01122424
-0.035542566 0.020907393 0.010972202
-0.034000445 0.020606332 0.011126012
-0.033203624 0.020752266 0.010891676
-0.031702474 0.020453209 0.010661125
-0.030532155 0.02035477 0.0099627376
-0.030013334 0.020698851 0.0097492635
-0.028969938 0.020692814 0.0088127851
-0.02762969 0.020466438 0.00684762
-0.026953308 0.020733314 0.0064716339
-0.026197521 0.020958018 0.0064530373
-0.025384525 0.02115377 0.006072402
-0.024601717 0.021392796 0.0061152875
-0.023205463 0.021095876 0.0058324039
-0.0219095 0.020866189 0.0057979226
-0.020750754 0.020750754 0.0056183934
-0.019511847 0.020538786 0.0063183606
-0.018469645 0.020521827 0.006649226
-0.017660499 0.020777058 0.0069676638
-0.016472926 0.020591158 0.0076540411
-0.015618377 0.020824503 0.0080308318
-0.01449154 0.0207022 0.007419765
-0.013525704 0.020808775 0.0072154999
-0.012549869 0.020916449 0.0067609847
-0.011505517 0.020919122 0.0067853928
-0.010300484 0.020600969 0.0072341859
-0.0094142128 0.020920474 0.0072751045
-0.0082620326 0.020655081 0.0072377026
-0.0072511337 0.020717524 0.0072692633
-0.0063175228 0.021058409 0.0076777637
-0.0051469002 0.020587601 0.0075918436
-0.0041337931 0.020668965 0.0081556141
-0.0031300783 0.020867189 0.0085119903
-0.0020892834 0.020892834 0.0088279247
-0.0010282494 0.020564988 0.0093629956
0 0.020587964 0.0093538165
0.0010324705 0.020649409 0.0095938444
0.0020686607 0.020686606 0.0097127259
0.0030922706 0.020615138 0.010458708
0.0041267984 0.020633994 0.010590553
0.005143282 0.020573128 0.01052931
0.006163049 0.020543495 0.01052931
0.0071055288 0.020301512 0.010333598
0.0081660524 0.020415131 0.01028949
0.0092172585 0.020482795 0.010210395
0.010279384 0.020558769 0.010177284
0.011412688 0.020750342 0.010607302
0.012356749 0.020594582 0.012455106
0.013403477 0.020620733 0.012539804
0.014451043 0.020644346 0.012873799
0.015240549 0.020320732 0.013352662
0.016330246 0.020412806 0.014355719
0.017339921 0.020399906 0.014793396
0.01805217 0.020057967 0.015085697
0.019347046 0.020365311 0.015783787
0.020221954 0.020221954 0.016175479
0.021068528 0.020065265 0.01685071
0.022402717 0.020366106 0.017536253
0.0230661 0.020057479 0.017863005
0.024250448 0.020208707 0.017829776
0.025175862 0.020140689 0.017866462
0.026175702 0.020135155 0.017741472
0.026875919 0.019908089 0.017615169
0.028292812 0.02020915 0.017383695
0.028766194 0.019838754 0.017029494
0.030524939 0.020349959 0.016825736
0.031642828 0.020414729 0.016058624
0.032457259 0.020285787 0.015060246
0.033865578 0.020524593 0.014844567
0.034731485 0.020430285 0.014308333
0.035409089 0.020233765 0.014582455
0.036415096 0.020230608 0.01462689
0.038069349 0.020578027 0.014746785
0.038441453 0.020232342 0.014867276
0.040176563 0.020603364 0.014976263
0.040628001 0.020314001 0.015618682
0.041488368 0.02023823 0.01570493
0.042068921 0.020032821 0.016076922
0.043147165 0.020068448 0.016496092
0.044247128 0.02011233 0.016796649
0.04565591 0.020291517 0.016650021
0.046100944 0.020043887 0.016156912
0.047346108 0.020147281 0.015825659
0.048816755 0.020340314 0.014981091
0.04982508 0.020336766 0.014475346
0.050569426 0.020227771 0.014010668
0.051861104 0.020337688 0.013617098
0.052622136 0.020239282 0.012398779
0.054707266 0.020644251 0.011444002
0.0561928 0.020812148 0.010415584
0.056363534 0.02049583 0.0079865158
0.057877652 0.020670589 0.0062153935
-0.067365237 0.022104219 0.0061430335
-0.065542258 0.021847419 0.0075396895
-0.064271063 0.021769231 0.0085013509
-0.063061319 0.021709634 0.0098294318
-0.062239561 0.021783845 0.010659277
-0.060998783 0.021711431 0.011240035
-0.059972052 0.021714019 0.011880994
-0.059067216 0.021761606 0.011934757
-0.057498883 0.021562081 0.012561023
-0.056750432 0.021668347 0.012840182
-0.055217367 0.021473421 0.013381183
-0.054319937 0.021522993 0.013515472
-0.053625837 0.021656588 0.01358813
-0.052516308 0.021624362 0.013968527
-0.051520161 0.021638468 0.014108926
-0.049824521 0.021353366 0.014241397
-0.048399586 0.02117482 0.014394403
-0.048265964 0.021565642 0.014813155
-0.047177885 0.02153773 0.014805377
-0.046329398 0.021620385 0.014878422
-0.045356847 0.021647586 0.014903426
-0.044262908 0.021616768 0.014483213
-0.043050744 0.021525372 0.013846427
-0.042028889 0.021526992 0.013521761
-0.041047428 0.021549901 0.01320976
-0.039836586 0.021450469 0.012758642
-0.039148021 0.021634433 0.012497097
-0.038224194 0.021694813 0.012439907
-0.037536528 0.021896306 0.011993557
-0.036352463 0.021811478 0.01181531
-0.035049587 0.021648275 0.011731476
-0.033926502 0.021589592 0.011834592
-0.032822233 0.021539589 0.011762947
-0.0314188 0.021283703 0.011582673
-0.030859971 0.021601981 0.011199206
-0.029641369 0.021464439 0.010706753
-0.028834684 0.021626012 0.0099925399
-0.027889095 0.021691518 0.0094348192
-0.027213963 0.021980507 0.0089577138
-0.026275115 0.022071097 0.0084422231
-0.025480598 0.022295523 0.0067788959
-0.024169097 0.022067435 0.0066632628
-0.023104219 0.022054026 0.0066015422
-0.021874877 0.021874877 0.0066419542
-0.020555262 0.021583024 0.0071520805
-0.01947033 0.021519838 0.0084113479
-0.018499684 0.021582965 0.0090819299
-0.017480955 0.021594122 0.0092762709
-0.016560327 0.02173543 0.0096085966
-0.015511413 0.021715978 0.0095686316
-0.014462576 0.021693865 0.0093192458
-0.013555172 0.021896817 0.0093232095
-0.012532943 0.02193265 0.0089169145
-0.011332249 0.021634294 0.0089765191
-0.010361156 0.02175843 0.0089941621
-0.0094275493 0.021997614 0.0091096461
-0.0083149085 0.021826634 0.00893718
-0.0072467672 0.021740301 0.0091237724
-0.0062157395 0.021755088 0.0094067752
-0.0051739295 0.021730505 0.0098143518
-0.0041532409 0.021804515 0.0098824799
-0.0031084877 0.021759413 0.01050204
-0.0020627123 0.021658478 0.010559738
-0.0010344398 0.021723235 0.011097521
0 0.021408103 0.010947943
0.0010329932 0.021692855 0.01091975
0.0020478838 0.021502782 0.010955393
0.0030706942 0.021494858 0.011716872
0.0041055027 0.021553889 0.011739343
0.0051236008 0.021519123 0.011690587
0.0061575165 0.021551309 0.011664003
0.0072450796 0.021735238 0.011877298
0.0081476076 0.021387469 0.011350304
0.0091259889 0.021293974 0.011904895
0.010402134 0.02184448 0.012268633
0.011205651 0.021392606 0.012932926
0.012340618 0.021596082 0.013396055
0.013451004 0.021728545 0.013582885
0.014281246 0.021421868 0.014300019
0.015093066 0.021130292 0.014833182
0.016070765 0.021092879 0.015358895
0.017168686 0.021208376 0.015173942
0.018042261 0.021049304 0.015662134
0.019180888 0.021199929 0.016287595
0.020084457 0.02108868 0.016409129
0.021206141 0.021206141 0.016824841
0.022341494 0.021325972 0.01777342
0.023053451 0.021048803 0.018171936
0.0242704 0.0212366 0.018163443
0.024995126 0.020995906 0.018372178
0.026192656 0.021155607 0.01829657
0.027026797 0.021020841 0.018163443
0.0276914 0.020768549 0.017995715
0.028638791 0.020738436 0.017867833
0.029804977 0.020863485 0.017470688
0.031560399 0.021379625 0.017182231
0.032704931 0.021462612 0.015992761
0.033323787 0.021206047 0.015421808
0.034528807 0.021326615 0.014354467
0.035875332 0.0215252 0.014583647
0.03709342 0.021637829 0.014524937
0.037628956 0.021356974 0.014499187
0.039129775 0.021624351 0.014530897
0.040133771 0.021610491 0.014640987
0.040601131 0.021315593 0.014777094
0.04190103 0.021461504 0.014967352
0.042423714 0.021211857 0.015132397
0.043275736 0.021134662 0.015617192
0.044813685 0.021388348 0.015379906
0.04544244 0.021206472 0.015362978
0.046706766 0.021322655 0.014825612
0.047908563 0.021405954 0.014651239
0.048505899 0.02122133 0.014023185
0.050416831 0.021607215 0.013914257
0.051050544 0.021441229 0.013608783
0.051869687 0.021358106 0.012070626
0.053656932 0.021669146 0.011478275
0.054915465 0.021758957 0.010542393
0.055759411 0.021684216 0.0085456371
0.057453446 0.021936771 0.0065246224
0.057629287 0.021610983 0.0055729151
-0.067508161 0.02320593 0.005179286
-0.065484479 0.022867596 0.007113874
-0.064816177 0.02299929 0.0079875886
-0.063692391 0.022971027 0.0091190636
-0.062334716 0.022856062 0.009935081
-0.061767891 0.023032095 0.010752678
-0.059967287 0.022746211 0.01131022
-0.058535315 0.022592578 0.011857182
-0.057888828 0.022742039 0.012281895
-0.056621142 0.022648457 0.012797743
-0.054971233 0.022395687 0.013129741
-0.05489203 0.022785371 0.013536632
-0.053494155 0.022632143 0.013663113
-0.052219443 0.022526035 0.01414001
-0.05146822 0.022646016 0.014196843
-0.049395725 0.022177672 0.014744103
-0.048976202 0.022447426 0.014842123
-0.048686933 0.022789629 0.014947534
-0.046854701 0.02240877 0.015640646
-0.04601847 0.022497918 0.015809208
-0.044839226 0.022419613 0.015929997
-0.043355003 0.02218163 0.015569031
-0.042795613 0.02241675 0.014459133
-0.041882999 0.022473805 0.014134288
-0.040895451 0.022492498 0.013907999
-0.04045568 0.022821153 0.013719857
-0.039226923 0.022710323 0.013128638
-0.038438644 0.02285541 0.013618767
-0.03725246 0.022765391 0.013779908
-0.036011141 0.022635575 0.013580054
-0.034705795 0.022456691 0.012857437
-0.033785027 0.022523351 0.012992293
-0.032292914 0.022201378 0.012827486
-0.031768396 0.022545313 0.012421578
-0.030484298 0.022355152 0.012091398
-0.029506547 0.022384277 0.011579454
-0.028655594 0.022515111 0.010847569
-0.027886787 0.022722567 0.010265768
-0.027125616 0.022952445 0.0097709894
-0.025925487 0.02281443 0.0091061592
-0.024834434 0.022764897 0.0089763403
-0.024029987 0.022985205 0.0089775622
-0.023030709 0.023030709 0.0087285042
-0.021440826 0.022461819 0.0089029074
-0.02045368 0.022499047 0.0094068646
-0.019490482 0.022567926 0.010043442
-0.018336723 0.022411551 0.011574119
-0.017466217 0.022603339 0.012292057
-0.016494391 0.022679789 0.012179226
-0.015473082 0.022693854 0.011945575
-0.014515324 0.022809796 0.011308104
-0.013442046 0.022748077 0.011004657
-0.012166141 0.022304593 0.01079613
-0.011375041 0.022750081 0.010814965
-0.01029944 0.022658771 0.011015117
-0.0092635294 0.022644183 0.011119276
-0.0082457596 0.022675838 0.011102259
-0.0071947053 0.022611931 0.011100233
-0.0061591817 0.022583665 0.011286139
-0.00514156 0.022622863 0.011677086
-0.0040892595 0.022490928 0.011702091
-0.0031152742 0.022845345 0.011945397
-0.0020631431 0.022694573 0.012250364
-0.0010242297 0.022533054 0.012363344
0 0.022603381 0.012447089
0.0010291707 0.022641754 0.012291759
0.0020296411 0.022326052 0.012329936
0.0030937633 0.022687597 0.012471229
0.0040567233 0.022311978 0.012872368
0.0050743795 0.02232727 0.01342088
0.0061736419 0.022636686 0.013300627
0.0071031898 0.022324311 0.013351768
0.0081411749 0.022388233 0.013510674
0.0091166003 0.022285024 0.013805121
0.010201253 0.022442758 0.013786882
0.011263728 0.022527456 0.013924003
0.012346108 0.02263453 0.0146541
0.013173503 0.02229362 0.014997214
0.014195797 0.022307681 0.014986098
0.015283406 0.022415662 0.015239179
0.015922165 0.021892976 0.015583843
0.017230824 0.022298712 0.015698135
0.01800191 0.022002334 0.016296566
0.018987296 0.021985291 0.016428441
0.02015999 0.022175988 0.01674816
0.021107217 0.022112321 0.01723367
0.022051187 0.022051187 0.017565101
0.023093252 0.022089196 0.018476814
0.024222342 0.022203814 0.017887145
0.025149664 0.022131704 0.018763334
0.026187554 0.022158699 0.018612623
0.026922544 0.021936888 0.018612623
0.028022733 0.022017861 0.018867791
0.028947059 0.021959838 0.018640012
0.02976861 0.021830315 0.01805687
0.030444171 0.02160554 0.017712921
0.032642752 0.022441892 0.017731279
0.033307392 0.022204928 0.015487254
0.034542471 0.022351012 0.014532089
0.035586715 0.022368792 0.014446348
0.037170351 0.022715215 0.014288098
0.038034566 0.022615148 0.014084131
0.038832534 0.022481993 0.014020622
0.039732881 0.022413421 0.014160961
0.041324794 0.022728637 0.013675481
0.041671619 0.022360381 0.01395604
0.04274527 0.022390379 0.014247864
0.043839388 0.022429453 0.014391422
0.044694263 0.022347132 0.014258593
0.045422893 0.022206748 0.014402568
0.046656407 0.022313934 0.013973087
0.047044065 0.022020625 0.013991386
0.049079601 0.022494817 0.013542712
0.050087474 0.022488255 0.012863517
0.050654918 0.022288164 0.012070626
0.052063942 0.022458956 0.011404663
0.053546987 0.022654494 0.010477781
0.053929403 0.022385789 0.0090117455
0.056651592 0.023080278 0.0069564283
0.05707432 0.022829728 0.0055689514
-0.066348754 0.02422256 0.005785346
-0.06484741 0.024056297 0.0073763132
-0.063283525 0.023861 0.0079352856
-0.062704705 0.024036804 0.0093139112
-0.061322838 0.023905514 0.0098422468
-0.059841134 0.023730105 0.010648787
-0.05911519 0.023853498 0.011077285
-0.057406079 0.023577496 0.01180777
-0.056435812 0.023600431 0.012502104
-0.055937201 0.023825103 0.012912154
-0.054513764 0.023656916 0.013492256
-0.053433705 0.023634139 0.013663113
-0.052855127 0.023836626 0.014196187
-0.051233687 0.023567496 0.014319211
-0.049655519 0.023307692 0.014839709
-0.049801894 0.023863407 0.014896214
-0.04790936 0.023445005 0.015344858
-0.046952691 0.023476345 0.016027778
-0.04566979 0.023342337 0.016067892
-0.044695865 0.023363749 0.016190231
-0.043786798 0.023420846 0.015852928
-0.043124199 0.023615634 0.015323728
-0.041746803 0.023418937 0.014463782
-0.041055039 0.023606649 0.014313638
-0.039961051 0.023566773 0.014268726
-0.038911287 0.023551568 0.014148444
-0.037290007 0.023180276 0.014179289
-0.037095819 0.023700105 0.014351338
-0.035844188 0.023554752 0.014407814
-0.034766123 0.023518261 0.014308304
-0.033340346 0.02323721 0.014323771
-0.03254392 0.023390943 0.014070183
-0.031560868 0.023416128 0.013795376
-0.030496167 0.023380395 0.01269722
-0.029817684 0.023648508 0.012252212
-0.029004779 0.023825355 0.011662185
-0.028197495 0.024020089 0.011109859
-0.027023111 0.023905059 0.01075381
-0.02611253 0.024023529 0.0102593
-0.025064547 0.024020191 0.010095239
-0.024257371 0.024257371 0.010173738
-0.022626325 0.023654794 0.010112017
-0.021399833 0.023437912 0.011267453
-0.020682929 0.023785368 0.012218267
-0.019360749 0.023436697 0.012672216
-0.018260427 0.023332769 0.013064206
-0.017607914 0.023822471 0.013673007
-0.01642937 0.023617221 0.013621658
-0.015568314 0.023871414 0.012874991
-0.014372428 0.023611845 0.012690991
-0.013169267 0.023299474 0.012583971
-0.012446164 0.023855148 0.012050718
-0.011336267 0.023703102 0.012308568
-0.010067304 0.023154799 0.012438685
-0.0092188101 0.023559181 0.013069212
-0.0081992578 0.023572866 0.013109326
-0.0071211397 0.023398031 0.013147801
-0.0061655068 0.023634443 0.01307255
-0.0050953319 0.023438528 0.013135731
-0.0040578269 0.023332505 0.013313264
-0.0030927646 0.023711195 0.013374954
-0.0020498279 0.023573022 0.013926983
-0.0010259474 0.02359679 0.014005959
0 0.023454169 0.013843924
0.0010154067 0.023354353 0.013596267
0.0020510326 0.023586875 0.014401942
0.0030573485 0.023439672 0.014563531
0.004038312 0.023220295 0.014851183
0.0051245429 0.023572898 0.014778346
0.0061221439 0.023468219 0.014605194
0.0070924731 0.02330384 0.014980167
0.0081549352 0.023445439 0.015539974
0.0091012036 0.02325863 0.015555352
0.010125712 0.023289137 0.014944017
0.011281956 0.023589546 0.015172303
0.012152837 0.023292938 0.01528877
0.013182571 0.023323011 0.015326679
0.014267924 0.023440162 0.015434235
0.015088885 0.023136292 0.01592356
0.016204035 0.0232933 0.016520023
0.017066713 0.02309026 0.016488194
0.017986396 0.022982616 0.017454982
0.019190416 0.023230504 0.017460972
0.020074112 0.023085229 0.017458707
0.020998135 0.022997959 0.017497182
0.022201585 0.023210747 0.018001169
0.023190975 0.023190975 0.018543214
0.024348788 0.023334255 0.018647641
0.025161153 0.023148261 0.019132406
0.025949437 0.02295527 0.019301683
0.0270178 0.023015164 0.019401133
0.027906101 0.022922868 0.01968196
0.028638147 0.022713013 0.020225823
0.029748315 0.022807041 0.019741952
0.031004196 0.023003114 0.019734353
0.031636987 0.022739083 0.019124269
0.033439402 0.023306251 0.017299205
0.034249812 0.023168992 0.015562832
0.035539642 0.023354622 0.014747322
0.036907908 0.023580054 0.014209509
0.03753414 0.023332033 0.014007658
0.038462356 0.023279848 0.013867855
0.040258013 0.023741905 0.012943625
0.041184515 0.023681095 0.012581706
0.042363506 0.023764893 0.012841612
0.043473966 0.023807172 0.01321137
0.043364409 0.023194917 0.013239056
0.044980418 0.023512492 0.01317659
0.045914937 0.023467634 0.01359576
0.04661132 0.02330566 0.013070047
0.047526915 0.023257852 0.01311326
0.048596032 0.023285599 0.012466043
0.049286332 0.023134401 0.011782974
0.050961692 0.023442378 0.011115253
0.052291278 0.023582341 0.010365099
0.053206924 0.023533832 0.0086374581
0.054494772 0.023648676 0.0069803596
0.056375667 0.024011858 0.0058126152
-0.065136537 0.025214145 0.0058085918
-0.064131223 0.025231957 0.0076578557
-0.062480837 0.024992334 0.0080264211
-0.060596537 0.024649439 0.0092707276
-0.060292039 0.024948429 0.0099072754
-0.059150532 0.024905486 0.010673195
-0.057461094 0.024626182 0.011357129
-0.056804858 0.024787573 0.011936396
-0.055638764 0.024728339 0.012939095
-0.054983471 0.024898175 0.013080269
-0.053959917 0.024904577 0.013653874
-0.05242369 0.024669971 0.014320433
-0.050804824 0.024386317 0.014467239
-0.050682202 0.024823936 0.014932454
-0.048017841 0.02400892 0.014967829
-0.047778621 0.024397595 0.015709549
-0.046706337 0.024368525 0.016068965
-0.0455123 0.024273228 0.016228676
-0.044889461 0.024485162 0.016252398
-0.044194844 0.024666889 0.015956789
-0.042622231 0.024355561 0.015685111
-0.042158164 0.024677949 0.015252799
-0.040734917 0.024440952 0.014932722
-0.039756402 0.024465479 0.014947504
-0.038796131 0.024502819 0.014768451
-0.038245194 0.024807693 0.014838964
-0.036811691 0.024541128 0.014865726
-0.035849314 0.024582388 0.014918894
-0.034471244 0.024332644 0.014482439
-0.033301782 0.024219478 0.014521301
-0.032579418 0.024434565 0.014387816
-0.031312369 0.024241835 0.014203608
-0.030731212 0.02458497 0.013523161
-0.029900249 0.024745034 0.012825012
-0.028527731 0.02445234 0.012453586
-0.027910881 0.024809672 0.012090564
-0.026778357 0.024718484 0.01177907
-0.02565475 0.024628559 0.011343062
-0.02529145 0.02529145 0.011336595
-0.023999143 0.025042584 0.01184839
-0.022485327 0.024529448 0.012310654
-0.021319596 0.024365254 0.012830287
-0.020373058 0.02444767 0.013210952
-0.019024165 0.024030523 0.014323711
-0.018371388 0.024495186 0.015132695
-0.01733624 0.024474692 0.015298873
-0.016412435 0.024618654 0.014999181
-0.015332151 0.024531443 0.014401346
-0.014188277 0.024322759 0.014242202
-0.013325334 0.024600616 0.014166653
-0.012271635 0.02454327 0.014077425
-0.011183579 0.024400538 0.014185488
-0.010277089 0.024665013 0.014337242
-0.00919249 0.024513306 0.014374197
-0.0081508169 0.02445245 0.01452437
-0.0071984511 0.024680404 0.014379233
-0.0061067706 0.024427082 0.014342964
-0.0051005851 0.024482809 0.014843702
-0.0040988829 0.024593297 0.015088111
-0.003049121 0.024392968 0.014968902
-0.0020332597 0.024399118 0.015064448
-0.0010223591 0.024536621 0.01538837
0 0.024195667 0.015711725
0.0010261524 0.024627658 0.015660524
0.0020442179 0.024530614 0.016055316
0.0030279879 0.024223903 0.015991002
0.0040711877 0.024427127 0.016028285
0.0050460994 0.024221279 0.016103506
0.0060869036 0.024347614 0.016078472
0.0071579963 0.024541702 0.016332418
0.0080328286 0.024098486 0.016264707
0.0090375477 0.024100127 0.016183048
0.010205461 0.024493108 0.015847147
0.011139221 0.024303755 0.015731186
0.012198693 0.024397386 0.015830904
0.01317278 0.02431898 0.015845776
0.014040007 0.024068585 0.016187727
0.015096592 0.024154548 0.016877472
0.016106326 0.024159489 0.017701924
0.016939444 0.02391451 0.017739266
0.017969703 0.023959605 0.01768142
0.018932747 0.023915049 0.017744571
0.020127703 0.024153242 0.017727494
0.021127665 0.024145903 0.018062264
0.022126885 0.024138419 0.018455148
0.023050683 0.024052886 0.018813819
0.024304776 0.024304776 0.019113839
0.02528967 0.024278084 0.019149393
0.02595662 0.023959955 0.019608229
0.027190683 0.024169497 0.019767106
0.028147632 0.024126541 0.020215929
0.028731616 0.023777889 0.020527959
0.029953025 0.023962419 0.020414144
0.030687055 0.02375772 0.02029705
0.0318457 0.023884276 0.020051897
0.032919571 0.023941506 0.019304901
0.033971455 0.023979852 0.016816646
0.035750639 0.024514724 0.015211314
0.036762036 0.024508024 0.014329493
0.038112082 0.024721351 0.013869882
0.039192498 0.024753157 0.013521016
0.04035477 0.024833705 0.012736887
0.041784689 0.025070813 0.012167841
0.042263772 0.024739768 0.011889547
0.043364249 0.024779571 0.012160897
0.044266932 0.024707124 0.012180299
0.045750696 0.024954926 0.0120309
0.045603856 0.024322057 0.012107462
0.046367846 0.02419192 0.011870831
0.047862954 0.024440657 0.011774093
0.0483565 0.02417825 0.011337668
0.048895556 0.023948845 0.010471165
0.050861593 0.024413565 0.0092049837
0.051375646 0.024176775 0.0077293515
0.053820174 0.024840079 0.0064884126
0.055049919 0.024928264 0.0054141581
-0.063747168 0.026125887 0.00564152
-0.062021006 0.025842085 0.0071710646
-0.061757427 0.0261684 0.0081270933
-0.060742248 0.026182003 0.0092993379
-0.058777839 0.025779754 0.0099072754
-0.058630865 0.026174493 0.010673195
-0.056841992 0.025837269 0.011449307
-0.056116637 0.025979925 0.012144953
-0.054690223 0.025797276 0.012764841
-0.053395823 0.025671069 0.013258427
-0.052315097 0.025644656 0.014036894
-0.051722977 0.025861489 0.014317662
-0.050150219 0.025586847 0.014602721
-0.049402118 0.025730271 0.014999598
-0.047647703 0.025344523 0.01572457
-0.046261836 0.025142303 0.016069144
-0.046232201 0.025684556 0.016417593
-0.044790424 0.025449105 0.016559035
-0.043588333 0.025342053 0.016175538
-0.042947613 0.025564056 0.015973091
-0.042016558 0.025619853 0.015692472
-0.04049626 0.025310162 0.015422255
-0.040140461 0.025731064 0.015366197
-0.039131694 0.025744535 0.015382111
-0.038004089 0.025678439 0.015584499
-0.036995895 0.025691595 0.015434235
-0.03550794 0.025362816 0.015256256
-0.034551602 0.025405588 0.015105009
-0.03365105 0.025493219 0.014828503
-0.032340139 0.025265735 0.01459381
-0.031569887 0.025459588 0.014462709
-0.030785831 0.02565486 0.014195293
-0.029496849 0.025428317 0.013641626
-0.028681336 0.025608337 0.012901932
-0.027788086 0.025729708 0.01264149
-0.026614839 0.025591193 0.012385935
-0.026180854 0.026180854 0.01253131
-0.025019119 0.026061581 0.012498319
-0.023602773 0.025655188 0.013337135
-0.022377359 0.025428817 0.013749957
-0.021249395 0.025296899 0.014146924
-0.020259276 0.025324095 0.015483528
-0.019270295 0.025355652 0.015802562
-0.018187774 0.025260797 0.01641053
-0.017339664 0.025499506 0.01641053
-0.016320359 0.02550056 0.015944123
-0.015189007 0.025315011 0.015846699
-0.014328393 0.025586417 0.015496433
-0.013230173 0.025442641 0.015461057
-0.012211231 0.025440063 0.015193284
-0.011246031 0.025559163 0.01565513
-0.010279072 0.025697678 0.015721411
-0.0091580115 0.025438922 0.015755862
-0.0081765 0.025551561 0.016042978
-0.0071366504 0.025488038 0.015755862
-0.0060538216 0.025224257 0.015956521
-0.0051009892 0.025504947 0.015847892
-0.0040544225 0.02534014 0.015993088
-0.0030381735 0.025318112 0.016260773
-0.0020432945 0.025541181 0.016678184
-0.0010152769 0.025381923 0.016959637
0 0.025464755 0.01696825
0.0010179251 0.025448129 0.016905278
0.002017776 0.025222199 0.017052203
0.0030390762 0.025325635 0.016742349
0.0040397379 0.025248362 0.017079681
0.0050107166 0.025053585 0.017001897
0.0060715145 0.025297977 0.01683563
0.0071139038 0.025406798 0.016789109
0.0081071788 0.025334934 0.016816795
0.0091076484 0.025299024 0.016738087
0.010087737 0.025219344 0.016240239
0.011069992 0.025159072 0.016181499
0.012212674 0.02544307 0.016247392
0.013041707 0.025080206 0.016689807
0.013971341 0.024948824 0.017267257
0.0152693 0.025448833 0.018083096
0.016000899 0.025001405 0.018009484
0.017237438 0.025349172 0.018090427
0.018114179 0.02515858 0.018354267
0.018487832 0.024326095 0.01842165
0.020102981 0.025128726 0.018409073
0.020854322 0.024826575 0.018548578
0.022108963 0.025123822 0.018744946
0.023262786 0.025285637 0.019107193
0.02424047 0.025250489 0.01970607
0.025043992 0.025043992 0.019897461
0.026319694 0.025307396 0.020222038
0.027152484 0.025141189 0.020321578
0.027904619 0.024914838 0.020430505
0.028831806 0.024855006 0.020884454
0.029968332 0.02497361 0.020794988
0.030580189 0.024661442 0.020684332
0.031695027 0.02476174 0.020701081
0.03269887 0.024771871 0.02032429
0.03394597 0.024960272 0.019295245
0.035119679 0.025085486 0.01686132
0.036363546 0.025252461 0.015226334
0.038119409 0.025756357 0.013906091
0.039414052 0.025930298 0.013186753
0.040607754 0.026030613 0.012467206
0.04181635 0.026135217 0.011785209
0.041925721 0.025564464 0.01150316
0.043292083 0.025769096 0.011752248
0.04439643 0.025811877 0.011501759
0.045008939 0.025573261 0.011087179
0.045753054 0.025418364 0.011315823
0.046693727 0.025377026 0.010936439
0.048279934 0.025680816 0.01004225
0.049135312 0.02559131 0.0091936588
0.050197065 0.025610749 0.0077559054
0.05111967 0.025559835 0.0073765516
0.052510008 0.025740201 0.0061514974
0.053808682 0.025869559 0.0052070916
-0.062860958 0.027239747 0.0054195821
-0.061687656 0.027184391 0.0071710646
-0.060500901 0.027121093 0.0082192719
-0.059865303 0.027306981 0.0088250339
-0.058294214 0.027065171 0.0099891126
-0.056721371 0.026813738 0.010570824
-0.056368385 0.027140332 0.011785865
-0.054634009 0.026801588 0.012144953
-0.053865161 0.02693258 0.012773454
-0.052745119 0.026889669 0.013602644
-0.050696563 0.026362212 0.013914615
-0.049978331 0.026519114 0.014539599
-0.049035698 0.026561003 0.014833629
-0.047600877 0.026332401 0.015786827
-0.047263809 0.026714325 0.016233355
-0.045998737 0.026577048 0.016498387
-0.044630665 0.026372667 0.016500443
-0.043578871 0.026350014 0.016146213
-0.042624049 0.026386317 0.015962929
-0.041349635 0.026221721 0.015692472
-0.040849082 0.026551904 0.01544708
-0.039676186 0.02645079 0.015470862
-0.038895443 0.026612671 0.015512526
-0.038383655 0.026972298 0.015512526
-0.036407411 0.026294241 0.015375376
-0.035435151 0.026323255 0.015217662
-0.034774378 0.026592171 0.01490581
-0.033643663 0.026507128 0.014804155
-0.03277643 0.026630849 0.014542341
-0.031529486 0.026444085 0.014388919
-0.030633232 0.026548801 0.014214039
-0.029857565 0.02676885 0.014091194
-0.028789273 0.026732897 0.013443053
-0.027649013 0.026624976 0.013277292
-0.026961748 0.026961748 0.0131495
-0.026167454 0.027214151 0.013267577
-0.024919813 0.026996465 0.014051884
-0.023727398 0.026822276 0.014650673
-0.022121321 0.02614338 0.015051246
-0.021161459 0.026199903 0.015830785
-0.020276457 0.026359396 0.016423404
-0.019272907 0.026373452 0.017420441
-0.018248694 0.026359225 0.01755923
-0.017405316 0.026619896 0.017519891
-0.016137846 0.026223999 0.017309636
-0.015302001 0.026523467 0.017222017
-0.014196423 0.026364785 0.016306549
-0.013066219 0.026132438 0.015946418
-0.012280695 0.026608175 0.015844464
-0.011240891 0.026569379 0.016098887
-0.010124616 0.026324002 0.016193926
-0.0091576111 0.02645532 0.017167956
-0.0081410017 0.026458256 0.016488671
-0.0071237013 0.026459463 0.016449392
-0.0061167381 0.026505865 0.016891092
-0.0050255638 0.026132932 0.017081589
-0.0040530474 0.026344806 0.017286628
-0.0030494155 0.026428269 0.017553121
-0.0020237097 0.026308227 0.017896771
-0.0010080739 0.026209923 0.018424839
0 0.026407095 0.018307209
0.0010031407 0.026081657 0.018034041
0.0020240708 0.026312921 0.017934769
0.0030324503 0.026281236 0.017923325
0.0040157484 0.026102366 0.017911285
0.0050544394 0.026283085 0.017845601
0.006068734 0.026297847 0.01769039
0.0070420131 0.026156049 0.017665446
0.0080803698 0.026261201 0.017738253
0.0091256732 0.026363056 0.017689228
0.0099995174 0.025998747 0.017387897
0.011064922 0.026153451 0.017456412
0.012158018 0.026342371 0.017412424
0.013020098 0.026040196 0.018001795
0.01397167 0.025947386 0.017991483
0.015235266 0.026407793 0.018158525
0.016164778 0.026267763 0.018584341
0.017196858 0.026301077 0.018585205
0.017932793 0.025902923 0.018559337
0.019140456 0.026192203 0.018662602
0.0199688 0.025959441 0.018493742
0.020866219 0.025834365 0.018712163
0.022180794 0.026213666 0.018818498
0.023152692 0.026172608 0.019934833
0.023952655 0.025948711 0.020421177
0.025505425 0.026525643 0.020278931
0.026399784 0.026399784 0.020441681
0.026828896 0.025835233 0.020647258
0.027747341 0.025765387 0.020878434
0.028508866 0.025559673 0.021160096
0.029798059 0.025824985 0.020929456
0.030820977 0.025849853 0.0208188
0.031626817 0.025696788 0.0208188
0.032604787 0.025688622 0.020681471
0.033867307 0.025898529 0.019762307
0.034875017 0.025907157 0.018334746
0.036096755 0.026069878 0.016777396
0.037918132 0.026645172 0.015206516
0.038806669 0.026551932 0.013564587
0.041147575 0.027431717 0.01262337
0.042209361 0.027436085 0.011720657
0.04285156 0.027174162 0.011309326
0.043325275 0.026820408 0.010998666
0.043812972 0.026491564 0.010087103
0.045554385 0.026918501 0.0094512105
0.046655282 0.026956385 0.0094741583
0.047016323 0.026574444 0.0091424286
0.048502505 0.026831174 0.0088315308
0.049216367 0.026658867 0.0074849427
0.050212462 0.026643347 0.0065084994
0.051863883 0.02696922 0.0057613254
0.052437648 0.02673292 0.0050996542
-0.061726429 0.028247688 0.0055396855
-0.061233103 0.028505066 0.0069635808
-0.059973948 0.028408712 0.008421123
-0.058251064 0.028085334 0.00953722
-0.057836175 0.028392304 0.010043085
-0.055586297 0.027793149 0.010684878
-0.054640729 0.027835842 0.011357129
-0.054203536 0.028144144 0.011831224
-0.052389391 0.027735559 0.012738854
-0.051350817 0.027729442 0.013590276
-0.050063733 0.027586138 0.014379591
-0.04891295 0.027513536 0.014719814
-0.04803111 0.02759234 0.015507042
-0.047011297 0.027593587 0.016231149
-0.045662981 0.027397787 0.016590267
-0.045067929 0.02765532 0.016721755
-0.042977709 0.026986005 0.016515166
-0.042599458 0.027385365 0.016462982
-0.040955301 0.026970563 0.01607877
-0.039879952 0.026918966 0.01565966
-0.039384805 0.027266404 0.015706092
-0.039460044 0.028037399 0.015756637
-0.037362248 0.027264342 0.015756637
-0.036580421 0.027435314 0.015567631
-0.035762746 0.027588405 0.015492082
-0.034699284 0.027555313 0.015183151
-0.033580698 0.027475117 0.015153736
-0.032542635 0.02745785 0.014740944
-0.031297464 0.027259082 0.014578819
-0.030829621 0.027746659 0.014312506
-0.029694213 0.027646337 0.014533371
-0.028560987 0.027540952 0.014196306
-0.027995933 0.027995933 0.014053851
-0.027150618 0.028194873 0.014125645
-0.025963336 0.028040404 0.014825135
-0.025045207 0.028175857 0.01547718
-0.023191692 0.027225029 0.016008556
-0.022116367 0.027142813 0.017118365
-0.021272741 0.027350668 0.017462313
-0.02029831 0.027402718 0.017559439
-0.019310785 0.027441643 0.017976224
-0.018433822 0.027650734 0.017892331
-0.017256308 0.027407078 0.017888308
-0.016275549 0.027464991 0.017737448
-0.015258863 0.027465953 0.017724276
-0.014098132 0.027189255 0.017504305
-0.013148457 0.027308332 0.017498851
-0.012220912 0.027497051 0.017498672
-0.011135174 0.02733179 0.017761379
-0.010216717 0.027585134 0.018015385
-0.0091576977 0.027473094 0.017724246
-0.0080881668 0.027297564 0.017648816
-0.0070985132 0.02737998 0.017662972
-0.0059937625 0.026971931 0.017891496
-0.0050493893 0.027266702 0.018201262
-0.0040773866 0.027522361 0.018494308
-0.0030310438 0.027279394 0.018607289
-0.0020016029 0.027021639 0.018707782
-0.0010055614 0.02715016 0.0188936
0 0.026971633 0.018789351
0.0010102523 0.027276812 0.018509984
0.0020195239 0.027263571 0.018554926
0.0029852199 0.026866978 0.018461823
0.0040235058 0.027158665 0.018373668
0.0050241333 0.027130321 0.018176973
0.006006029 0.02702713 0.018865228
0.0070846239 0.027326405 0.01897642
0.008074699 0.027252108 0.018914938
0.0090126814 0.027038043 0.018833756
0.01001231 0.027033238 0.018523514
0.011125917 0.027309068 0.018439591
0.012070152 0.027157841 0.018280983
0.013124233 0.027258022 0.018238336
0.013782596 0.026580721 0.018320471
0.015216493 0.027389688 0.018469185
0.016171712 0.027289765 0.01899004
0.017058149 0.027092354 0.018923551
0.0182781 0.027417148 0.019098103
0.018764071 0.026664734 0.019284219
0.019870648 0.026825376 0.019161314
0.021077253 0.027099324 0.01964438
0.022041064 0.027050396 0.019934297
0.022937598 0.026926745 0.020485938
0.024393972 0.027443217 0.020737857
0.024509257 0.026469998 0.020627201
0.026293969 0.027305275 0.020727903
0.027095139 0.027095139 0.020994008
0.027568189 0.026583612 0.02120021
0.028394764 0.026436506 0.021317512
0.029773479 0.02679613 0.021030694
0.030427523 0.026501391 0.020715564
0.031970937 0.026975479 0.020698845
0.032645099 0.026709625 0.020575941
0.033370808 0.026500348 0.019847035
0.034884091 0.026910584 0.018657953
0.035857998 0.026893497 0.01782614
0.037080828 0.027058981 0.016469955
0.038597714 0.027424693 0.014420658
0.039830714 0.027575111 0.012928426
0.041670587 0.028127646 0.011814117
0.042922724 0.028266186 0.01134938
0.043177299 0.027756836 0.010270774
0.043846883 0.027531762 0.0097503364
0.045686122 0.028034667 0.0093023777
0.046066433 0.02763986 0.0088175237
0.047739707 0.028021131 0.0084028542
0.049134534 0.028226221 0.0077136159
0.049858931 0.028045649 0.0063930452
0.05089457 0.028043946 0.0056793392
-0.060984153 0.029440627 0.0054195821
-0.05951212 0.029234024 0.007496208
-0.058441047 0.029220523 0.0086604357
-0.056662913 0.028846575 0.0092680752
-0.055885665 0.028977752 0.010035694
-0.055244215 0.029185623 0.010666996
-0.054367695 0.029274913 0.01127246
-0.052389532 0.028762881 0.012207568
-0.051336039 0.028748183 0.012833297
-0.050318375 0.028753359 0.013810217
-0.049245618 0.028726611 0.014509827
-0.047944319 0.028562572 0.014995575
-0.046467468 0.028284546 0.015449554
-0.045840748 0.028523132 0.016333938
-0.044534266 0.028339988 0.016437173
-0.043307293 0.028200097 0.01640138
-0.043091975 0.028727984 0.016374648
-0.042199083 0.028818885 0.015974462
-0.04075871 0.028531097 0.015763044
-0.040199582 0.028861238 0.015624642
-0.038782168 0.028576333 0.015772551
-0.037515391 0.028390024 0.015772551
-0.036832828 0.028647756 0.015561908
-0.035511319 0.028409055 0.015532762
-0.034477413 0.028393162 0.015180916
-0.033527471 0.028447552 0.015100479
-0.032339521 0.028297082 0.014844686
-0.03177524 0.028700216 0.01459381
-0.030653382 0.028609823 0.01447925
-0.029570812 0.028551128 0.014671624
-0.029219322 0.029219322 0.014422327
-0.028044423 0.029083105 0.01443547
-0.027041266 0.029121362 0.015048206
-0.025961727 0.029077135 0.015522778
-0.024504978 0.028589141 0.01658687
-0.022783281 0.027736168 0.017660648
-0.022278992 0.028355082 0.017807573
-0.02111906 0.028158747 0.018089384
-0.020100279 0.028140388 0.01821053
-0.019252684 0.028372375 0.018790543
-0.018225215 0.028350336 0.018888056
-0.017315611 0.028519832 0.018883169
-0.016208338 0.028364591 0.018543035
-0.015086812 0.028162049 0.01844722
-0.014157962 0.028315924 0.018087059
-0.013149317 0.028321607 0.018191904
-0.012176247 0.028411243 0.018205106
-0.011225134 0.028573068 0.018344373
-0.010103156 0.028288838 0.018725097
-0.0090289991 0.02809022 0.01858893
-0.0080872551 0.028305391 0.018637717
-0.007067414 0.028269656 0.018637717
-0.0060666781 0.028311165 0.019122511
-0.0050500236 0.028280132 0.01920864
-0.0040204134 0.028142892 0.019328833
-0.0030052753 0.028049236 0.01978901
-0.0020257889 0.028361045 0.020110816
-0.00099859678 0.02796071 0.020227969
0 0.028413568 0.020056814
0.0010042473 0.028118927 0.019963145
0.0019906834 0.027869565 0.019821703
0.0030151936 0.028141808 0.019771487
0.0040115169 0.028080618 0.019639522
0.0050094505 0.028052922 0.019451797
0.0060230405 0.028107522 0.019334406
0.0070539503 0.028215801 0.019249976
0.0080300383 0.028105134 0.019120008
0.0091669252 0.028519323 0.018972069
0.010013615 0.028038122 0.018579423
0.011069798 0.028177667 0.018493652
0.01197796 0.027948575 0.018324852
0.012907967 0.027801776 0.018911719
0.013865265 0.02773053 0.019070625
0.015250809 0.028468177 0.018827677
0.015759522 0.027579162 0.019020617
0.017067501 0.028111178 0.018991083
0.018378714 0.028589111 0.019410342
0.018941218 0.027913373 0.02019757
0.020067856 0.028094999 0.020021886
0.020854317 0.027805755 0.019994557
0.021903958 0.027877765 0.02010116
0.022979297 0.027974796 0.020677119
0.024055637 0.02806491 0.020788789
0.024659742 0.027618911 0.02061981
0.025926048 0.02792036 0.020885289
0.02642495 0.027403653 0.021086365
0.027912922 0.027912922 0.021451503
0.028520547 0.027537081 0.021471113
0.029523935 0.027555672 0.021118879
0.030730993 0.027757024 0.020845592
0.031729702 0.02776349 0.020746529
0.032388601 0.027481237 0.020599514
0.033738084 0.027784305 0.019966394
0.034815386 0.02785231 0.019072026
0.03532175 0.027472472 0.018533856
0.037092324 0.028069869 0.017210901
0.038441014 0.028324958 0.015507519
0.039151769 0.028108964 0.014007658
0.041151151 0.028805805 0.011913747
0.042208888 0.028825581 0.011208624
0.043225076 0.028816717 0.010067701
0.044145267 0.028745756 0.0092953444
0.045501944 0.028955782 0.0087145567
0.046464503 0.028911248 0.0082528591
0.048297375 0.029398402 0.0076905787
0.049232524 0.029330015 0.0067070723
0.05077577 0.029619198 0.0056280494
0.051885802 0.029649029 0.0051465631
-0.060698699 0.030881794 0.0060966015
-0.058200531 0.03013956 0.007509619
-0.057111368 0.030113265 0.0081117451
-0.056319568 0.030245693 0.0088759661
-0.054785836 0.029977156 0.009976536
-0.054289665 0.030276928 0.010685742
-0.052957959 0.030113349 0.01159215
-0.051371668 0.029795568 0.012311667
-0.050256833 0.029743839 0.012925357
-0.049718078 0.030038005 0.014301926
-0.048129439 0.029696889 0.014744341
-0.047041632 0.02965668 0.015112102
-0.046550225 0.029999034 0.016180277
-0.044484422 0.029319277 0.016431987
-0.044139959 0.02976881 0.016300142
-0.042858358 0.029592676 0.016101688
-0.041402247 0.029284514 0.015860647
-0.040691689 0.029501475 0.015704989
-0.039830782 0.02961776 0.015526921
-0.038434263 0.02933141 0.015568584
-0.037792176 0.029620895 0.015603602
-0.036763765 0.029615255 0.015526921
-0.035865434 0.029717073 0.015354604
-0.034957886 0.029817022 0.015101433
-0.033515599 0.029453101 0.014786035
-0.032853298 0.029773301 0.014696598
-0.031886544 0.029829348 0.014618784
-0.030480709 0.029464686 0.01459381
-0.029961823 0.029961823 0.014815837
-0.029057844 0.030095624 0.014773041
-0.02763135 0.029678116 0.015503585
-0.026822707 0.029917633 0.015587211
-0.025904495 0.030049214 0.016642839
-0.024025511 0.029030826 0.017677724
-0.023310583 0.029391605 0.018173069
-0.022108717 0.029143309 0.018457353
-0.021131724 0.029181905 0.019267291
-0.02020237 0.029293437 0.019821495
-0.019115826 0.029176787 0.019956172
-0.018124726 0.029200947 0.019949824
-0.017094098 0.02916052 0.019928455
-0.016025806 0.029046774 0.019263893
-0.015134591 0.029260209 0.019260973
-0.014140311 0.029290643 0.019078135
-0.013065 0.029144999 0.019106239
-0.012120736 0.029291779 0.019157052
-0.011205273 0.029541174 0.019263893
-0.010021468 0.029062256 0.019306421
-0.0091144564 0.029368805 0.019261628
-0.0080536148 0.029194353 0.019945294
-0.0070283087 0.029117279 0.019945294
-0.0060515385 0.029249104 0.020513326
-0.0049818316 0.028894624 0.020365417
-0.0040175398 0.029127162 0.020524174
-0.003019708 0.029190511 0.020638078
-0.0019928596 0.028896466 0.020610154
-0.00099247321 0.028781723 0.020650625
0 0.029245328 0.020805031
0.00099703984 0.028914155 0.02066952
0.0020027142 0.029039355 0.020571172
0.0029834758 0.028840268 0.020384967
0.0040199435 0.029144589 0.020321012
0.0049719182 0.028837126 0.019962519
0.0059268093 0.028646246 0.020120919
0.0069761598 0.028901234 0.019867301
0.0081189778 0.029431297 0.019841164
0.009009568 0.02903083 0.019711196
0.010061114 0.02917723 0.019477099
0.010951553 0.028872276 0.019255579
0.012162538 0.029392801 0.019097388
0.01310638 0.029237308 0.019183725
0.014115088 0.029238397 0.019376844
0.014941839 0.028887555 0.018993914
0.016070956 0.029128609 0.019448072
0.016581753 0.028286522 0.019448072
0.017754106 0.028603837 0.020195514
0.019289171 0.029441368 0.020503253
0.019644227 0.028484128 0.020323902
0.020685624 0.028565863 0.020151347
0.022179995 0.029237267 0.020259619
0.022979429 0.028974064 0.020621657
0.023501499 0.028397644 0.020775527
0.024830949 0.028803902 0.020710826
0.025516184 0.028460359 0.020911902
0.026595315 0.028565338 0.020885289
0.027433075 0.028412828 0.021118879
0.028670395 0.028670395 0.021242768
0.030137341 0.029132763 0.021030694
0.031087894 0.029082222 0.020746529
0.031586245 0.028625034 0.020661056
0.032764569 0.028793108 0.02061379
0.033783194 0.028815076 0.019966394
0.03405299 0.028215336 0.018848985
0.035779063 0.028822022 0.018479198
0.036355235 0.028494643 0.017215699
0.037540812 0.028649567 0.016408712
0.039667495 0.029496342 0.013929069
0.040294629 0.029213605 0.011808395
0.041296843 0.029209964 0.01079601
0.043762065 0.030216666 0.0099644661
0.04452794 0.03003047 0.0093350112
0.04563044 0.030074608 0.0086792707
0.046472289 0.029948808 0.0079669952
0.048096277 0.030321566 0.0069448054
0.048827987 0.030127905 0.0058851838
0.050497159 0.030508701 0.0051386952
-0.058309726 0.031237355 0.0059017837
-0.058046874 0.031661931 0.0067350268
-0.056202997 0.031223888 0.0080908239
-0.055167168 0.0312267 0.0087693036
-0.054360092 0.031361591 0.0099968612
-0.0526594 0.030976119 0.010802478
-0.051636476 0.030981885 0.011654049
-0.051194329 0.031343468 0.012490571
-0.049350973 0.030844359 0.013443053
-0.048535664 0.030980211 0.014492124
-0.047186773 0.030773982 0.014910847
-0.046049979 0.030699987 0.015548944
-0.045012381 0.03069026 0.015997916
-0.043990575 0.0306911 0.015837818
-0.042539373 0.030385265 0.015866071
-0.041367814 0.030269133 0.015809566
-0.04090184 0.03067638 0.01572594
-0.039508689 0.0303913 0.015584886
-0.03879543 0.030627972 0.015763044
-0.037809573 0.03065641 0.015797675
-0.037282534 0.031068778 0.01568386
-0.036975138 0.031692974 0.015461832
-0.035148788 0.031013638 0.015226334
-0.033594411 0.030540375 0.014839083
-0.032672837 0.030630784 0.014931411
-0.031980857 0.030949218 0.014853954
-0.031120235 0.031120235 0.014914989
-0.029857172 0.03088673 0.015532464
-0.028580908 0.030622402 0.015795588
-0.027847908 0.030942122 0.016234487
-0.026770925 0.03088953 0.016774178
-0.025283629 0.030340355 0.017861843
-0.02395498 0.029943725 0.018211782
-0.022878744 0.02984184 0.019195408
-0.021910742 0.029878285 0.019735485
-0.021076234 0.030108904 0.020164669
-0.019806337 0.029709505 0.020322502
-0.019134006 0.030211588 0.02025193
-0.018193787 0.030322978 0.02044493
-0.017119549 0.03021097 0.020175844
-0.016076677 0.030143769 0.019962996
-0.015072399 0.030144798 0.020056635
-0.014128475 0.030275302 0.019997478
-0.01293229 0.029843748 0.020181328
-0.01211419 0.030285476 0.020374775
-0.010979302 0.02994355 0.020486265
-0.009948194 0.029844582 0.020395756
-0.009001988 0.030006628 0.020543754
-0.0079502957 0.029813608 0.020715803
-0.0070467857 0.030200511 0.020982146
-0.0059949378 0.029974688 0.021493554
-0.0050094612 0.030056767 0.021103173
-0.0039865375 0.029899031 0.021154225
-0.0030014981 0.030014981 0.021616995
-0.0020071554 0.030107331 0.021633416
-0.00099691981 0.029907594 0.021515906
0 0.029855432 0.021433562
0.0009881506 0.029644519 0.021346122
0.0019867343 0.029801015 0.021207541
0.0029769931 0.029769931 0.021128207
0.0040122429 0.030091822 0.021027386
0.0049821348 0.029892808 0.020690084
0.006024125 0.030120626 0.020714581
0.0070438432 0.030187897 0.020690084
0.0079877675 0.029954128 0.020445704
0.0090003675 0.030001225 0.020095557
0.010181167 0.030543501 0.020055503
0.010788432 0.029422998 0.019656926
0.012039265 0.030098161 0.019471139
0.013087593 0.030202137 0.019411713
0.013930986 0.029852113 0.01949665
0.014846416 0.029692832 0.019001126
0.016291775 0.030547079 0.019548297
0.016891029 0.0298077 0.019557297
0.017942131 0.029903552 0.019422561
0.018901456 0.029844405 0.020201236
0.020064294 0.030096442 0.020212889
0.020742429 0.029632043 0.019986302
0.02141463 0.02920177 0.020104766
0.022762889 0.029690724 0.020569205
0.023737693 0.029672116 0.020749539
0.024884967 0.029861961 0.020718992
0.025963651 0.02995806 0.020729512
0.026687713 0.029653015 0.020824194
0.027778931 0.02976314 0.020845592
0.028437719 0.029418331 0.020850331
0.030036651 0.030036651 0.020701498
0.031123135 0.030119164 0.020637482
0.031981133 0.029982314 0.020440608
0.032752823 0.029775294 0.02030614
0.033429202 0.029496355 0.019344777
0.034872327 0.029890565 0.018265009
0.035658557 0.029715464 0.017973214
0.03662996 0.029699966 0.017207325
0.037829634 0.029865501 0.016662329
0.039336141 0.030258572 0.015006661
0.040296935 0.030222701 0.012712926
0.041784339 0.030573906 0.011127234
0.042993549 0.030709676 0.0098993182
0.044249978 0.030872077 0.0093460381
0.045611426 0.031098699 0.008197546
0.046380404 0.030920269 0.0069093406
0.047686424 0.031099843 0.0059342682
0.049247939 0.031434853 0.0055993199
-0.057705123 0.032524705 0.0056086183
-0.056343298 0.032345228 0.006641984
-0.055838145 0.032660048 0.0080076754
-0.054377496 0.032417353 0.0087096095
-0.053010933 0.032222331 0.0099098086
-0.051924601 0.032193251 0.010968089
-0.050547749 0.031979188 0.011621654
-0.049770907 0.032143712 0.012545139
-0.048700202 0.032121409 0.013911486
-0.04691989 0.031619925 0.014498025
-0.046323236 0.031911563 0.015004814
-0.045421455 0.03200148 0.015858412
-0.043584332 0.031421263 0.01568082
-0.042789768 0.031582925 0.015836686
-0.041901365 0.031681519 0.015708178
-0.041168936 0.031905923 0.015672237
-0.03995112 0.031756017 0.015592963
-0.038853958 0.031696647 0.015774935
-0.037820101 0.031687111 0.015826195
-0.037320551 0.032137141 0.015677363
-0.036507253 0.032334995 0.015499383
-0.034995556 0.031907711 0.015226334
-0.033783548 0.031736061 0.014855653
-0.032932848 0.031903695 0.014988542
-0.032182544 0.032182544 0.015012145
-0.031207601 0.032247853 0.015559345
-0.029571828 0.031611264 0.015876323
-0.028904168 0.032001041 0.016298294
-0.027567567 0.031651653 0.017076492
-0.026253257 0.03130196 0.017378867
-0.025329797 0.031408947 0.018501312
-0.023985058 0.030980699 0.019373536
-0.023108883 0.031146755 0.019997954
-0.022310263 0.031437188 0.020394802
-0.020986671 0.030980323 0.020884901
-0.020004172 0.031006468 0.020879745
-0.01916459 0.031268541 0.020769566
-0.017965788 0.030941078 0.020749629
-0.01706432 0.031117288 0.020547748
-0.01598631 0.030973477 0.02053836
-0.01502817 0.03105822 0.020744056
-0.014174527 0.031386454 0.020635426
-0.013071866 0.031171374 0.020762235
-0.011944829 0.030857474 0.021100044
-0.010901337 0.030721948 0.021308541
-0.0099559501 0.030863445 0.021308541
-0.0089959837 0.030986166 0.021203965
-0.0080069257 0.031026836 0.021548927
-0.0069164559 0.030630019 0.021712869
-0.005961041 0.030798711 0.021923006
-0.0049971151 0.030982114 0.021749139
-0.0039562578 0.030660998 0.02182886
-0.0029980545 0.030979898 0.021852076
-0.0020086993 0.031134838 0.022266448
-0.00098802871 0.03062889 0.021895051
0 0.031291556 0.02198112
0.00099595357 0.03087456 0.021563679
0.0019782006 0.03066211 0.021546423
0.0029922912 0.030920342 0.021438539
0.0039764293 0.030817328 0.021289289
0.0048608417 0.030137217 0.020903319
0.0060694562 0.031358857 0.020859867
0.0069223386 0.030656071 0.020953715
0.0080083665 0.031032419 0.020784914
0.0089797769 0.030930344 0.020491183
0.010053181 0.03116486 0.020254135
0.010869647 0.030632643 0.020100236
0.011982275 0.03095421 0.019766867
0.012979036 0.03095001 0.019571513
0.013769636 0.030489909 0.019617736
0.014971474 0.030941047 0.019111544
0.015778983 0.030571781 0.019617826
0.017159157 0.031290226 0.019557297
0.018190347 0.031327821 0.01935491
0.018818194 0.030703368 0.019396812
0.020327982 0.031508371 0.020057678
0.020726036 0.030595576 0.019910008
0.021842059 0.030777445 0.01996699
