ply
format ascii 1.0
comment PCL generated
element vertex 1299
property float x
property float y
property float z
element camera 0
property float view_px
property float view_py
property float view_pz
property float x_axisx
property float x_axisy
property float x_axisz
property float y_axisx
property float y_axisy
property float y_axisz
property float z_axisx
property float z_axisy
property float z_axisz
property float focal
property float scalex
property float scaley
property float centerx
property float centery
property int viewportx
property int viewporty
property float k1
property float k2
end_header
-0.11982161 0.016670832 0.013578594
-0.11826723 0.01659891 0.013500869
-0.11748941 0.016635669 0.013916641
-0.11778859 0.016826941 0.013690144
-0.11516293 0.016600061 0.013901919
-0.11343469 0.01649959 0.013707101
-0.11216237 0.016464202 0.013723701
-0.10970912 0.016253203 0.013418347
-0.10992821 0.016437862 0.013298869
-0.10946263 0.016522661 0.013017684
-0.10891292 0.016596254 0.012886435
-0.10722886 0.016496748 0.012886435
-0.10681554 0.016592706 0.012716055
-0.10554235 0.016555663 0.012514025
-0.1061072 0.016809061 0.012488663
-0.10576238 0.01692198 0.011900038
-0.10248887 0.016563859 0.01161176
-0.1011779 0.016518841 0.011461049
-0.098624371 0.016267937 0.011696011
-0.098322138 0.016387023 0.01260069
-0.097765155 0.01646571 0.013124108
-0.096562512 0.016436173 0.013088524
-0.09669821 0.016636251 0.012782454
-0.095574573 0.016621664 0.01277557
-0.09387318 0.016505174 0.012649894
-0.094062999 0.01672231 0.012594581
-0.092457689 0.016621606 0.012274355
-0.091528483 0.016641542 0.01191926
-0.09011361 0.016572619 0.011932641
-0.088350922 0.016437382 0.012338579
-0.087302104 0.016433338 0.012342155
-0.087807715 0.016725279 0.012421608
-0.085503958 0.01648269 0.012550324
-0.084432319 0.016474599 0.012867004
-0.085380219 0.016865229 0.013181001
-0.082091518 0.016418304 0.013178408
-0.08204446 0.0166166 0.013205767
-0.080525517 0.016518055 0.013282955
-0.079648338 0.016550304 0.013282955
-0.078302242 0.016484683 0.013277054
-0.077943273 0.016627898 0.013291508
-0.075733654 0.016374843 0.013380378
-0.075263366 0.016496079 0.013258159
-0.074478343 0.016550744 0.013400465
-0.073183775 0.016492119 0.013715595
-0.072316557 0.016529499 0.013679475
-0.070820108 0.016422054 0.013959318
-0.069680497 0.016395411 0.014451921
-0.069765083 0.016660318 0.014424711
-0.067590758 0.016385637 0.014975369
-0.066367939 0.016336722 0.015291363
-0.065326281 0.01633157 0.015562326
-0.064307436 0.016332047 0.01575762
-0.063413985 0.0163649 0.016419768
-0.062042661 0.016273485 0.016274154
-0.061183896 0.016315706 0.016548842
-0.060820214 0.016493617 0.016659617
-0.059325002 0.016365519 0.016931713
-0.058492713 0.016419007 0.017208666
-0.057425756 0.016407359 0.017589062
-0.055932086 0.016271152 0.017773479
-0.054965477 0.016286068 0.017988712
-0.054450504 0.016437888 0.017852724
-0.052583583 0.016179563 0.017795533
-0.051414225 0.016129952 0.018201351
-0.05032558 0.016104186 0.01817435
-0.049424876 0.016138734 0.018078059
-0.048421759 0.016140588 0.017465621
-0.048139837 0.016388029 0.01611957
-0.047081921 0.01637632 0.015325338
-0.046630129 0.016579602 0.013839543
-0.04536847 0.016497625 0.01276651
-0.044491068 0.016554816 0.012414992
-0.043414615 0.016538901 0.012052149
-0.042815279 0.016708402 0.011670738
-0.041560125 0.01662405 0.011572212
-0.040821522 0.016747292 0.011361331
-0.03924267 0.016523229 0.011412323
-0.037982825 0.016425006 0.011876583
-0.037369382 0.016608614 0.012039036
-0.035838045 0.016383108 0.012259007
-0.03491962 0.016432762 0.01272279
-0.033873662 0.016423594 0.012791544
-0.032063894 0.016031947 0.012263507
-0.031859253 0.016443485 0.011733234
-0.030587953 0.016313575 0.011578113
-0.029676732 0.016373368 0.011230499
-0.029422486 0.01681285 0.010250956
-0.027839599 0.016497539 0.0094965398
-0.026588783 0.016362328 0.0090338588
-0.025937773 0.016600175 0.0079575181
-0.0248331 0.016555399 0.0061306655
-0.13628094 0.017959505 0.0058681965
-0.13548325 0.017993869 0.0073800087
-0.1340376 0.017942041 0.0084667206
-0.12943095 0.017462905 0.0091751516
-0.13281895 0.018063378 0.010633975
-0.12988031 0.017806172 0.011185795
-0.12612343 0.017431693 0.012028217
-0.12691133 0.017684367 0.012509227
-0.12620193 0.017730849 0.0134148
-0.12366054 0.017518576 0.01363349
-0.12448356 0.017783364 0.013967127
-0.12140038 0.017489884 0.014018446
-0.12015975 0.017459109 0.013969779
-0.11936606 0.017493302 0.013605207
-0.11804057 0.017449476 0.013642609
-0.11807034 0.017606981 0.013799459
-0.11737943 0.017658852 0.014393479
-0.11643465 0.017673116 0.014154255
-0.11471881 0.017569548 0.014240324
-0.11400679 0.017619232 0.013916641
-0.11191655 0.017454876 0.013940603
-0.11176474 0.0175926 0.013613075
-0.11100405 0.017636159 0.013500869
-0.10825121 0.017361043 0.013234347
-0.10898189 0.017644687 0.01315245
-0.10693263 0.017479371 0.013254464
-0.10672659 0.017615069 0.013329804
-0.10657664 0.017762775 0.013156027
-0.10638611 0.017906573 0.013134003
-0.10446216 0.017758567 0.013092577
-0.10136415 0.017405966 0.013215929
-0.099788018 0.017310167 0.012992829
-0.099241175 0.017392782 0.013319492
-0.097709194 0.01730267 0.014026761
-0.097392552 0.017428141 0.014487356
-0.097238235 0.017585639 0.014459759
-0.095867664 0.017524196 0.014322072
-0.094021484 0.017373536 0.014208138
-0.093879767 0.017537978 0.014355749
-0.092616096 0.017494151 0.0143466
-0.091734588 0.017522337 0.014035523
-0.091820039 0.017737962 0.014026374
-0.089462571 0.017481191 0.014078766
-0.088296279 0.017453915 0.014099747
-0.08855357 0.017710714 0.013944119
-0.085971467 0.017398989 0.013944119
-0.085024044 0.017414562 0.01465407
-0.084622554 0.0175437 0.014461219
-0.083328635 0.017488725 0.014532477
-0.082878985 0.017611783 0.014523447
-0.081478871 0.017533427 0.014518559
-0.079777434 0.017387388 0.014330149
-0.08037512 0.017745156 0.014283121
-0.078433879 0.01754442 0.014117807
-0.076693065 0.017383762 0.014553636
-0.076424502 0.01755698 0.014621079
-0.075095028 0.017487884 0.014273018
-0.074098207 0.017495411 0.014225721
-0.073336497 0.017559443 0.014395535
-0.071671881 0.01740603 0.01422897
-0.070512988 0.017372765 0.014363438
-0.070337094 0.017584274 0.014761478
-0.068313152 0.017333187 0.015019149
-0.06767413 0.017431216 0.015215158
-0.066953756 0.017510982 0.015489787
-0.064686053 0.017182233 0.016153216
-0.06473662 0.017468613 0.016329318
-0.063300051 0.017356467 0.016541779
-0.061755862 0.017210651 0.016498536
-0.061206162 0.017341746 0.01667133
-0.059805769 0.017232172 0.017010897
-0.05893752 0.01727479 0.017240554
-0.058384281 0.017412856 0.01759696
-0.05728906 0.017391322 0.017922223
-0.056179546 0.017364588 0.018278897
-0.055340972 0.017422158 0.018465161
-0.053813394 0.0172609 0.018419206
-0.052814744 0.017266359 0.018894553
-0.05188236 0.01729412 0.019006521
-0.05068285 0.017232168 0.01904732
-0.049087942 0.017030511 0.019059956
-0.048442639 0.017156769 0.018972307
-0.046435297 0.016795747 0.018182039
-0.047098938 0.01740613 0.015728056
-0.046514295 0.017572068 0.015201122
-0.045157552 0.017447237 0.013564378
-0.044847529 0.017730419 0.012353271
-0.043843579 0.01774621 0.011690766
-0.042716883 0.017711878 0.011579275
-0.04232201 0.017986853 0.011339426
-0.040402118 0.01761118 0.010802746
-0.039576344 0.017705208 0.010923237
-0.038554758 0.017714348 0.010726362
-0.036988568 0.017466825 0.010696799
-0.03584047 0.017408228 0.010967582
-0.035132591 0.017566295 0.011023998
-0.033995036 0.017512595 0.011211306
-0.032578573 0.017307367 0.011176288
-0.03177179 0.017423239 0.010575175
-0.03041127 0.017233053 0.0095570982
-0.029832391 0.017487952 0.0094965398
-0.028919982 0.01755856 0.0090562403
-0.027856022 0.017538978 0.0084504187
-0.027159138 0.017757898 0.0075135529
-0.02606138 0.017721739 0.0063225925
-0.13644873 0.019188102 0.0060313046
-0.13213757 0.018728159 0.0073955059
-0.13333099 0.019047284 0.008580029
-0.13129178 0.018906016 0.0093905032
-0.12696277 0.018430078 0.010320336
-0.12808523 0.01874418 0.011193335
-0.12542555 0.018505409 0.011858344
-0.1248321 0.018570065 0.012638211
-0.12532128 0.018798193 0.013517857
-0.12310684 0.018621203 0.013614237
-0.12110808 0.018474115 0.01369068
-0.12249439 0.018845292 0.013595074
-0.11942817 0.018531958 0.013599098
-0.1175082 0.018392589 0.01363349
-0.117575 0.018564474 0.013901919
-0.11795841 0.018789835 0.014324456
-0.11626632 0.018685658 0.014154255
-0.11480398 0.018616863 0.014247954
-0.11267564 0.018437831 0.014138013
-0.11294039 0.018650705 0.01387912
-0.11136284 0.018560475 0.013743699
-0.10896391 0.018330377 0.013662994
-0.1093602 0.0185706 0.013789386
-0.10873131 0.018639652 0.013543814
-0.10714651 0.018544588 0.013725221
-0.10753454 0.018792443 0.013675481
-0.10680396 0.018847758 0.013580322
-0.10698356 0.019066377 0.013573945
-0.10478484 0.018861271 0.013621837
-0.10128407 0.018415285 0.013685852
-0.099697374 0.018311761 0.014415979
-0.099800088 0.018519605 0.015347302
-0.097389184 0.018260472 0.016075611
-0.099346779 0.018823599 0.016205728
-0.096211277 0.018423436 0.015645713
-0.09410736 0.018214328 0.015400589
-0.095462427 0.01867743 0.015253365
-0.093098305 0.018415049 0.015240043
-0.09208142 0.018416284 0.015066743
-0.092438094 0.018695345 0.015240043
-0.090367459 0.018484253 0.015112698
-0.089386284 0.018493714 0.015157014
-0.089474626 0.018727247 0.015237629
-0.087685458 0.018568685 0.01537168
-0.085783646 0.01838221 0.015414923
-0.086074688 0.0186668 0.015759289
-0.084909149 0.018638594 0.01555711
-0.083132699 0.018473933 0.015695065
-0.081496499 0.018336713 0.015888929
-0.080833659 0.018417796 0.015856564
-0.080254115 0.01852018 0.015365452
-0.0790013 0.018467836 0.015365452
-0.077442668 0.018341685 0.015538245
-0.076640263 0.018393664 0.015389502
-0.076394081 0.018582344 0.015765786
-0.0742241 0.018301833 0.015386164
-0.07459905 0.018649762 0.015438676
-0.073062479 0.018522883 0.015597463
-0.071430951 0.018367959 0.015325814
-0.070743345 0.018454785 0.015372455
-0.069766738 0.018467665 0.015597463
-0.068489179 0.018400079 0.015797019
-0.067540869 0.018420236 0.015658677
-0.066489302 0.018412422 0.016216159
-0.066151507 0.018605111 0.01650551
-0.065304115 0.018658319 0.016535491
-0.063193224 0.018346421 0.016767353
-0.062167741 0.018344579 0.016850352
-0.061185081 0.018355524 0.017077267
-0.05986971 0.018265337 0.017285347
-0.059565049 0.018485704 0.017544329
-0.058319852 0.018416796 0.017751753
-0.05652282 0.018168051 0.018114269
-0.056255497 0.018410889 0.018338054
-0.055428416 0.01847614 0.018770546
-0.053807452 0.018274229 0.018997282
-0.053032987 0.018357571 0.019102573
-0.051314771 0.018111097 0.019166678
-0.050737143 0.01826537 0.019233972
-0.049728442 0.018267591 0.019250631
-0.047847681 0.017942879 0.019208848
-0.047703817 0.018269546 0.01903981
-0.046707474 0.018276837 0.018316984
-0.046152674 0.018461069 0.016106427
-0.045424275 0.018582659 0.015144199
-0.044548091 0.018648038 0.013360351
-0.043798059 0.018770598 0.012066334
-0.043565985 0.019126529 0.011434406
-0.041846063 0.018830728 0.010934472
-0.040561374 0.018720634 0.010522187
-0.039393589 0.018660121 0.010433584
-0.038212229 0.018589733 0.0097618997
-0.037527427 0.018763714 0.009708792
-0.036326639 0.018682271 0.00973171
-0.034778874 0.018412346 0.0094331205
-0.034062542 0.018579569 0.0095024109
-0.033235151 0.018694771 0.0094772279
-0.031816624 0.018474169 0.0089670122
-0.030907933 0.01854476 0.0086990893
-0.030048858 0.018651016 0.0085371137
-0.028682292 0.018438617 0.0081987679
-0.028423376 0.018948918 0.0075529516
-0.02736412 0.01894439 0.0062983334
-0.13469651 0.020151448 0.0064177513
-0.13119762 0.019783769 0.0074938536
-0.13075902 0.01987537 0.0087758601
-0.13046828 0.019991107 0.0098539889
-0.12810716 0.019788912 0.01073283
-0.12538441 0.01952708 0.011203974
-0.12623858 0.019822588 0.012275457
-0.12444038 0.01970306 0.012866467
-0.12384445 0.019773485 0.013499081
-0.12190861 0.019629352 0.013579398
-0.12143021 0.019719437 0.013504595
-0.11920707 0.019525295 0.013499081
-0.11920415 0.019694598 0.013613999
-0.11722494 0.01953749 0.013803005
-0.11734154 0.019729994 0.014338791
-0.11549844 0.019593485 0.013988048
-0.11455915 0.019609224 0.014460683
-0.11377779 0.019652527 0.01421994
-0.11200756 0.019524254 0.014034629
-0.10978986 0.019314881 0.013841957
-0.11089298 0.019691277 0.013902158
-0.10947821 0.019623451 0.013855666
-0.10781205 0.019508846 0.01386103
-0.10827709 0.019781392 0.014214426
-0.10823897 0.019966412 0.014096141
-0.10743622 0.02001263 0.014256418
-0.10622046 0.019982066 0.014497399
-0.10332652 0.01963204 0.014877081
-0.10087283 0.019359432 0.015420079
-0.10132406 0.01964446 0.016270071
-0.098554365 0.019304464 0.016394109
-0.099350758 0.01966317 0.016364217
-0.098253109 0.019650621 0.016505867
-0.096101284 0.019424729 0.016348958
-0.095945179 0.019601705 0.016272724
-0.093811929 0.019374203 0.016255349
-0.092863075 0.019388992 0.016115665
-0.092823729 0.01959612 0.01584813
-0.091882214 0.019615304 0.015849292
-0.089931995 0.019417135 0.015601665
-0.089971378 0.019648923 0.015717059
-0.087911569 0.019422323 0.015998334
-0.086812422 0.01940513 0.016072601
-0.086290024 0.019517982 0.016148925
-0.084701285 0.019389451 0.016386926
-0.084147945 0.019497694 0.016126007
-0.083655052 0.01962279 0.016666353
-0.081525244 0.019362245 0.016745061
-0.08161024 0.01962778 0.016643018
-0.079404064 0.019342015 0.016389668
-0.078015812 0.019250656 0.016294181
-0.077614136 0.019403534 0.016116977
-0.076595955 0.019404307 0.015939653
-0.075603604 0.019411737 0.01601249
-0.074891739 0.019492369 0.016052246
-0.073863365 0.019491721 0.015876442
-0.072931647 0.019516921 0.016188562
-0.071963668 0.019532995 0.015914708
-0.070484869 0.019408876 0.015823334
-0.070126735 0.019594235 0.016021371
-0.068895943 0.019537656 0.016327679
-0.066935785 0.019269392 0.016369998
-0.066539653 0.019450054 0.016705483
-0.065762341 0.019523196 0.017239898
-0.064605393 0.019484168 0.017280459
-0.063348584 0.019413276 0.017285764
-0.061898567 0.019279882 0.017477334
-0.060597982 0.019189361 0.017467767
-0.060007207 0.019324355 0.017685235
-0.059499141 0.019491099 0.017924547
-0.058244906 0.019414969 0.018143326
-0.057436548 0.0194874 0.018319488
-0.055722881 0.019249722 0.018539816
-0.055066679 0.019375313 0.01904732
-0.054438375 0.019515643 0.019179791
-0.052584972 0.01921374 0.01921016
-0.051745381 0.019277692 0.019256353
-0.050838992 0.019318817 0.019338429
-0.049658082 0.019255174 0.019526511
-0.048408728 0.019161789 0.019352645
-0.0472054 0.019083034 0.019230515
-0.045858338 0.018941488 0.018918693
-0.046206504 0.019509412 0.018131375
-0.044846181 0.019365396 0.016093016
-0.044212487 0.01953575 0.015081108
-0.043487709 0.019673012 0.013633788
-0.042932935 0.019895749 0.011859119
-0.042443536 0.020160679 0.010938466
-0.041404061 0.02017121 0.010554075
-0.039792694 0.019896347 0.0097618997
-0.038131986 0.01958129 0.0093548
-0.03768282 0.019888155 0.0090358853
-0.036345284 0.019730298 0.0089033842
-0.035220232 0.019681895 0.0088411868
-0.034477003 0.019850396 0.0088120997
-0.032905817 0.019537829 0.0086549819
-0.032152109 0.01970613 0.0082803965
-0.031228999 0.019778365 0.0079449713
-0.030212646 0.019794492 0.0068760216
-0.029335968 0.019906549 0.0061359704
-0.028507505 0.020060837 0.0059126616
-0.13485651 0.021237245 0.0052455068
-0.13150232 0.020873383 0.0065315962
-0.13262402 0.021219842 0.0075303316
-0.12993161 0.020956712 0.0088876784
-0.12859672 0.020910036 0.010052025
-0.12832896 0.021037536 0.011097819
-0.12571409 0.020779191 0.011806816
-0.12441266 0.020735443 0.012753338
-0.12411278 0.02085929 0.013428509
-0.12076116 0.020467995 0.013504982
-0.12116579 0.020712102 0.013453066
-0.12067315 0.020805717 0.013455689
-0.11835692 0.020583812 0.013587713
-0.11818453 0.020734128 0.013699532
-0.1177482 0.02084039 0.0140149
-0.11484759 0.020508498 0.013878196
-0.11645037 0.020982049 0.014356405
-0.11297117 0.020540213 0.013988048
-0.11168398 0.020492474 0.013981223
-0.11136964 0.020624006 0.013803005
-0.11044361 0.020643665 0.013765097
-0.10889683 0.020546572 0.013845354
-0.11039829 0.021028247 0.013881952
-0.10868353 0.02090068 0.014232755
-0.10803347 0.020977372 0.014472753
-0.10742334 0.021063399 0.014630735
-0.1032946 0.020454377 0.015012205
-0.10248327 0.020496655 0.015609235
-0.10116293 0.020436956 0.016725749
-0.099342264 0.020273931 0.016736656
-0.098247454 0.020257207 0.016911775
-0.098392829 0.020498507 0.017033905
-0.097399443 0.020505145 0.017165691
-0.09590248 0.020404782 0.01719287
-0.095425613 0.020521637 0.017107546
-0.093952589 0.020424476 0.017137498
-0.093200319 0.020483587 0.01710549
-0.093469635 0.02077103 0.017150819
-0.091782197 0.020625213 0.01705873
-0.089999281 0.020454381 0.017130792
-0.088724554 0.020396449 0.01705873
-0.087586768 0.020369016 0.017277777
-0.086867459 0.020439401 0.017359227
-0.085476346 0.02035151 0.016994148
-0.085005119 0.02048316 0.017004758
-0.084273614 0.020554541 0.016973078
-0.083027132 0.020500526 0.017147839
-0.081969939 0.020492485 0.017166406
-0.081656463 0.020672522 0.017062604
-0.078882039 0.020226164 0.017083257
-0.079124182 0.020551736 0.017083257
-0.077816576 0.020478047 0.01684916
-0.07671576 0.020457536 0.016590446
-0.076187119 0.020591114 0.016845107
-0.074787386 0.020489695 0.016786784
-0.073478259 0.020410627 0.016619623
-0.073348694 0.020661604 0.016671419
-0.071380921 0.020394549 0.016543657
-0.069779105 0.020225827 0.016307592
-0.070409253 0.020708604 0.016558677
-0.067193516 0.020057766 0.016543657
-0.06689243 0.020270433 0.016712397
-0.066473491 0.020453382 0.016801119
-0.065178663 0.020368332 0.017467767
-0.064267136 0.020402266 0.017338723
-0.063913643 0.020617304 0.017509222
-0.061731067 0.020239694 0.017383575
-0.061073884 0.020357961 0.017367989
-0.059792206 0.020268545 0.017726421
-0.058965553 0.020332949 0.018152386
-0.058452174 0.020509535 0.018186063
-0.057406012 0.020502148 0.018497646
-0.055972461 0.020353623 0.018889338
-0.054140035 0.020051865 0.019301981
-0.053997438 0.020376392 0.019376665
-0.052824289 0.020317035 0.019385487
-0.051226452 0.020088805 0.019603908
-0.050395876 0.02015835 0.019639701
-0.04956108 0.020229012 0.019639701
-0.048535079 0.020222949 0.019654065
-0.046811219 0.019919667 0.019567311
-0.045684773 0.019862946 0.019262642
-0.045361947 0.020160867 0.01889357
-0.044268228 0.020121923 0.017723024
-0.044016089 0.020472599 0.015942663
-0.042985875 0.020469464 0.014464557
-0.041581839 0.020283824 0.01337418
-0.041405711 0.020702856 0.0118801
-0.040759444 0.020902278 0.010817975
-0.039744124 0.020917961 0.010173261
-0.038427066 0.020771388 0.0095278621
-0.037152436 0.020640243 0.0089229047
-0.036260672 0.020720383 0.0088120997
-0.035681494 0.020989114 0.0086201429
-0.034670815 0.021012615 0.008405149
-0.033815335 0.021134585 0.0079648197
-0.032373466 0.020886106 0.0064026713
-0.031219508 0.020813005 0.0060968697
-0.030493004 0.021029659 0.0052448213
-0.13512009 0.022520015 0.0054396093
-0.13263686 0.022282992 0.0070903301
-0.1283941 0.021744162 0.0077392161
-0.13020605 0.022230301 0.0089950562
-0.1289262 0.022192216 0.010175794
-0.12485386 0.021668851 0.011243641
-0.12554932 0.021971131 0.011833817
-0.12319658 0.021740573 0.012617797
-0.12108877 0.021549696 0.013192683
-0.12168679 0.021841219 0.013296962
-0.11989256 0.021704689 0.013319522
-0.11852983 0.021644577 0.013465643
-0.11855415 0.021838922 0.013639987
-0.1158381 0.021527436 0.014000624
-0.11715703 0.021966944 0.01401037
-0.11714593 0.022162745 0.014336556
-0.11502459 0.02195924 0.013981462
-0.11331403 0.021831144 0.01397866
-0.11141927 0.021664858 0.013800204
-0.11116617 0.02181766 0.013894588
-0.11122029 0.022034209 0.014142752
-0.10947788 0.021895576 0.014164507
-0.10769868 0.021746848 0.014737993
-0.10869392 0.022160897 0.015026003
-0.10639632 0.021905126 0.015434593
-0.10258528 0.021329613 0.016065657
-0.10341898 0.021717984 0.017073095
-0.10047264 0.021312376 0.01680705
-0.099657796 0.021355242 0.017293602
-0.098906793 0.02141281 0.017417371
-0.097356185 0.021296665 0.01738888
-0.098134659 0.021692924 0.017573535
-0.09637662 0.021530947 0.017708451
-0.094288498 0.02129095 0.017654508
-0.094633378 0.021601098 0.017512888
-0.093081906 0.021480439 0.017530531
-0.091297261 0.021302694 0.017570585
-0.091728874 0.021643892 0.017610431
-0.089236662 0.021295112 0.017493993
-0.087852374 0.021205744 0.01749295
-0.087925956 0.021470292 0.017715484
-0.086656198 0.021409178 0.017876536
-0.085198171 0.021299543 0.017700434
-0.085293531 0.021580292 0.017431974
-0.083798021 0.021460468 0.017430007
-0.082959332 0.021507975 0.017734528
-0.081065603 0.021279721 0.017734528
-0.081033818 0.021540636 0.017734528
-0.079361774 0.021366632 0.017654419
-0.077864863 0.021235872 0.017583311
-0.076951347 0.021262871 0.017526329
-0.07626605 0.021354493 0.017369717
-0.075655267 0.021469738 0.017492473
-0.07422363 0.021352004 0.017201185
-0.073639944 0.021478318 0.017293841
-0.072563626 0.02146248 0.01717329
-0.071654662 0.021496398 0.016789496
-0.070393652 0.021424154 0.016762495
-0.069999926 0.021617625 0.016817957
-0.068695374 0.021531386 0.016851902
-0.066542439 0.021172594 0.016927332
-0.065354742 0.02111461 0.017204404
-0.066046819 0.021671612 0.017586917
-0.06459292 0.021530973 0.017667502
-0.063000269 0.021338802 0.0178563
-0.062603198 0.02155192 0.017979264
-0.06062606 0.021219121 0.017932355
-0.059886701 0.021315606 0.018223017
-0.059027255 0.021371936 0.018437982
-0.05820984 0.021445731 0.018579572
-0.057127725 0.021422897 0.018991232
-0.05616568 0.021445077 0.019145072
-0.05475276 0.021292739 0.019427657
-0.053509001 0.021201679 0.019580632
-0.052767776 0.021310063 0.019673944
-0.051640932 0.021263914 0.019636035
-0.050422397 0.021177405 0.019740283
-0.049730692 0.021313153 0.019738138
-0.048232939 0.021101911 0.019865811
-0.047531463 0.021237463 0.019755542
-0.045938101 0.020971742 0.019166827
-0.045207895 0.021097017 0.018868178
-0.044230968 0.021110235 0.018297642
-0.043358214 0.021174941 0.01686132
-0.042912241 0.021456121 0.01493144
-0.041979712 0.021501804 0.01385355
-0.041208193 0.021634301 0.012865335
-0.040206313 0.021649553 0.01125297
-0.039839033 0.022016307 0.010721624
-0.03850849 0.02185617 0.0097854733
-0.037597049 0.021931611 0.0089421868
-0.036533229 0.021919936 0.0086843967
-0.035521355 0.021939659 0.0083689392
-0.034832556 0.022166172 0.007532388
-0.033787534 0.022173069 0.0069561303
-0.032564655 0.022059927 0.0059192181
-0.13141115 0.023128362 0.005354017
-0.13003603 0.023070907 0.0069737434
-0.1299202 0.023237759 0.0077782273
-0.12798092 0.023078525 0.0089950562
-0.12749328 0.023180597 0.010232717
-0.12445226 0.022816246 0.011308849
-0.12403457 0.02293076 0.012392253
-0.12231652 0.022804774 0.012845278
-0.11977537 0.022521865 0.013045877
-0.1196158 0.022685755 0.013146251
-0.11954183 0.022868872 0.013408661
-0.11668801 0.022518739 0.013614237
-0.11614536 0.022612371 0.014147192
-0.11542506 0.02267278 0.014147192
-0.11616974 0.023024632 0.014436394
-0.11726142 0.023452284 0.014087886
-0.11399101 0.023007361 0.013879985
-0.11038677 0.022486193 0.01389733
-0.1118253 0.022992117 0.013879985
-0.11168788 0.023180503 0.014352918
-0.10935363 0.022912189 0.014742285
-0.10875326 0.023005497 0.015498102
-0.10658654 0.022766057 0.015531898
-0.10445163 0.022528782 0.016413867
-0.10290921 0.022415869 0.017081559
-0.10201355 0.022442982 0.017279714
-0.10107445 0.022460988 0.017365545
-0.10023656 0.022502085 0.017748296
-0.098041825 0.022236289 0.017672598
-0.098402239 0.022550512 0.017814606
-0.096700944 0.022393903 0.017976671
-0.095713317 0.022400988 0.018114805
-0.094877489 0.022444136 0.01818639
-0.094556361 0.022611303 0.018149734
-0.092331775 0.022321967 0.018027425
-0.091846928 0.02245147 0.018008024
-0.090784676 0.022441156 0.018048882
-0.08937566 0.022343915 0.018068105
-0.088830516 0.02246289 0.018004
-0.087134033 0.022290103 0.018216729
-0.085988447 0.022255834 0.01859954
-0.085866287 0.02248879 0.01799953
-0.084665082 0.022441348 0.018118143
-0.083695158 0.022454798 0.018398762
-0.082508229 0.022409642 0.018674314
-0.080979563 0.022269379 0.018587172
-0.080883041 0.02252439 0.018363625
-0.079056144 0.022297885 0.018189162
-0.077877678 0.022250764 0.018114746
-0.07746353 0.022423653 0.01810047
-0.076513879 0.022444071 0.017606735
-0.074965455 0.022287028 0.017510533
-0.075270198 0.02268417 0.017442018
-0.072758868 0.022231877 0.017374486
-0.072705738 0.022528538 0.017417312
-0.071836345 0.022577139 0.016958594
-0.069433495 0.022138216 0.01693514
-0.069505639 0.022487117 0.016927332
-0.069327459 0.022764241 0.017064482
-0.066243358 0.022081118 0.017255306
-0.065686598 0.022232389 0.017517
-0.066144519 0.022737177 0.018051267
-0.063121364 0.022042383 0.018221945
-0.063811734 0.022642873 0.018272489
-0.061984137 0.022354934 0.018385708
-0.060525116 0.022192542 0.018223017
-0.060364239 0.022508699 0.018323839
-0.059292678 0.022490326 0.018453985
-0.057868712 0.022335291 0.018765688
-0.056652103 0.022256183 0.01931411
-0.055862557 0.022345023 0.019376665
-0.054155245 0.022063248 0.019444883
-0.053910401 0.022377903 0.019574493
-0.052064575 0.022027321 0.019667149
-0.051527329 0.022227475 0.01972127
-0.05078648 0.022346051 0.019705683
-0.04953349 0.022239527 0.019705683
-0.048419006 0.022192044 0.019693822
-0.047406957 0.022190491 0.019693822
-0.046089076 0.0220426 0.01937294
-0.045463316 0.022226511 0.018868178
-0.044609919 0.02230496 0.01858902
-0.043014903 0.022007626 0.017414004
-0.042571578 0.022299398 0.015688747
-0.04161017 0.022327408 0.014818609
-0.040871464 0.022479305 0.013590038
-0.04040188 0.022790803 0.011945665
-0.039215524 0.022703724 0.010869563
-0.038547438 0.022920098 0.0097884834
-0.037773184 0.023083612 0.0090938807
-0.03632421 0.02283236 0.0086300373
-0.035481568 0.022958662 0.0078303516
-0.034912713 0.023275143 0.0072496235
-0.033567328 0.023077538 0.0065352023
-0.0329399 0.023376703 0.0052794814
-0.13120478 0.02433637 0.0051742494
-0.12903127 0.0241278 0.0068250597
-0.12764066 0.024063405 0.0077873766
-0.12741375 0.024219142 0.0092948377
-0.12598869 0.024147833 0.01070565
-0.12543519 0.024243776 0.011806816
-0.12320156 0.024013864 0.012425095
-0.1212904 0.023843413 0.01248461
-0.12118571 0.024028201 0.012494594
-0.11900656 0.023801312 0.012914002
-0.11645512 0.023495331 0.013222635
-0.11721221 0.023857353 0.013796836
-0.11674961 0.023975367 0.013799697
-0.11604473 0.024045303 0.014014751
-0.11617757 0.024291676 0.013851017
-0.11289176 0.023821196 0.013739049
-0.11217654 0.023889448 0.013698488
-0.11113742 0.023889352 0.013817728
-0.10917122 0.023688095 0.014417022
-0.10874522 0.02382038 0.014791876
-0.10757371 0.023790339 0.01544714
-0.1065123 0.0237843 0.015931904
-0.10459291 0.023584677 0.016666621
-0.10322645 0.023507012 0.0173724
-0.1021991 0.023505792 0.017664313
-0.10147831 0.02357577 0.017843664
-0.099236608 0.023290224 0.018322885
-0.098955356 0.02346364 0.018133581
-0.098265447 0.023542764 0.018329352
-0.096220329 0.023295447 0.018439978
-0.096197128 0.023537597 0.018476516
-0.095629297 0.023650257 0.018625468
-0.093392693 0.023348173 0.018586218
-0.092335701 0.023337595 0.018643349
-0.091570124 0.023401253 0.018630028
-0.089678325 0.023175297 0.018341839
-0.090063088 0.023539217 0.018892765
-0.087455824 0.023120504 0.018479228
-0.086955309 0.02325549 0.019148201
-0.086909071 0.023516571 0.019313127
-0.085443534 0.023395253 0.0187895
-0.084452905 0.023402611 0.018834621
-0.083906554 0.023534765 0.018809408
-0.081688605 0.023195529 0.018906951
-0.081833854 0.023527233 0.018763781
-0.081605271 0.023758495 0.018786311
-0.079022475 0.023301499 0.018613905
-0.078290977 0.023385618 0.018449932
-0.077336021 0.023404323 0.018300831
-0.076068126 0.023327559 0.017823428
-0.075529724 0.023475455 0.017724931
-0.074480817 0.023466559 0.017531693
-0.073056482 0.023337489 0.017431378
-0.072872624 0.023606624 0.017486006
-0.071319506 0.023433551 0.017134845
-0.070104271 0.02336809 0.017180443
-0.069592968 0.023538796 0.017237037
-0.068282478 0.023440253 0.017310381
-0.065649837 0.022877973 0.017365098
-0.065159649 0.023056492 0.017500073
-0.064501658 0.023180284 0.018000662
-0.06463895 0.023598347 0.0180507
-0.063127205 0.023418155 0.018188179
-0.062088192 0.023410302 0.018312007
-0.06151782 0.023581831 0.018212527
-0.060197521 0.023466829 0.018318027
-0.05814315 0.023056766 0.018443048
-0.058251649 0.023505051 0.018553704
-0.056353584 0.023145221 0.019320279
-0.05569721 0.02329156 0.019362152
-0.054741077 0.023315644 0.019448876
-0.053801563 0.023347847 0.019537777
-0.052187957 0.023083134 0.019580632
-0.051776201 0.023350051 0.01972127
-0.050698664 0.023321385 0.019705027
-0.049333215 0.023156406 0.019667149
-0.048854433 0.023409415 0.019567311
-0.047771566 0.023377575 0.019625068
-0.046864595 0.023432298 0.019277722
-0.045295339 0.023150951 0.01887849
-0.044081971 0.023042848 0.018593192
-0.043763619 0.023408448 0.017418891
-0.04254042 0.023295945 0.016015112
-0.041383166 0.023214946 0.015021145
-0.040611472 0.023351597 0.013814241
-0.039636035 0.023375096 0.012004972
-0.038993325 0.023601223 0.011081189
-0.038384162 0.023860425 0.0098081231
-0.037190855 0.023760824 0.0090810955
-0.03631046 0.023861161 0.0086251199
-0.035982404 0.024341039 0.0076711476
-0.034309115 0.023912415 0.0063511431
-0.03347199 0.024057992 0.0060734451
-0.1294816 0.025264703 0.0051696002
-0.12865743 0.02530966 0.0068933368
-0.12653778 0.025098402 0.0075315833
-0.12624867 0.025249736 0.0089580417
-0.1250124 0.025212586 0.010756493
-0.12231176 0.024876969 0.011484474
-0.12309471 0.025250196 0.012041956
-0.12037019 0.024904177 0.012048632
-0.11788487 0.024602061 0.01216048
-0.11856071 0.024960149 0.012621105
-0.11626573 0.024693606 0.013371795
-0.11614866 0.024888998 0.013459057
-0.11569355 0.025014821 0.013669133
-0.11543261 0.025185296 0.013669133
-0.1125785 0.024787925 0.013475627
-0.11299051 0.025109002 0.013516098
-0.10935938 0.024529206 0.013816327
-0.10930456 0.024748202 0.014368117
-0.10852831 0.02480647 0.015310526
-0.10653389 0.024584746 0.015770406
-0.10754944 0.025060061 0.016656697
-0.10400098 0.024470817 0.017073721
-0.10297641 0.024469642 0.017426938
-0.10307372 0.024737693 0.018051535
-0.1018929 0.02470131 0.01799202
-0.10006059 0.024504635 0.018482715
-0.099356472 0.024583045 0.018422335
-0.098156318 0.02453908 0.018319339
-0.096552573 0.024392229 0.01863724
-0.096409902 0.024615293 0.018580526
-0.09395688 0.024246937 0.018869817
-0.094017334 0.024526261 0.018625468
-0.093590029 0.024683084 0.01888746
-0.091240123 0.0243307 0.019117236
-0.08979176 0.024213508 0.018862367
-0.088652529 0.024177963 0.019173771
-0.08898551 0.024547728 0.019217014
-0.086583741 0.024162903 0.019331843
-0.086235732 0.024348911 0.019514173
-0.085099824 0.024314236 0.018877119
-0.083667591 0.024193039 0.019173771
-0.083555974 0.024455408 0.019133747
-0.081787325 0.024233282 0.019217014
-0.08148203 0.02444461 0.019172639
-0.08102861 0.024616286 0.018987685
-0.079804629 0.02455527 0.018656164
-0.078484915 0.02446283 0.018518955
-0.076672964 0.024212515 0.018503904
-0.077633724 0.024842791 0.017863482
-0.075869605 0.024606358 0.017858386
-0.074660525 0.024545927 0.017857522
-0.073780276 0.024593426 0.017724931
-0.072158918 0.024391746 0.017794758
-0.071512818 0.02451868 0.017498046
-0.069799401 0.024278054 0.017489195
-0.068848044 0.024299311 0.017499387
-0.068404011 0.024502929 0.017552763
-0.066860549 0.024312928 0.017686903
-0.065904044 0.024333801 0.017557919
-0.064614318 0.02423037 0.018332094
-0.065214224 0.024843514 0.018332094
-0.062450193 0.024174267 0.018677682
-0.062896393 0.024746124 0.018600971
-0.061022803 0.024409123 0.018383056
-0.059696622 0.024283372 0.018498749
-0.058770992 0.024319032 0.018519193
-0.057658594 0.024277303 0.018644422
-0.05646912 0.02420105 0.01954037
-0.055981219 0.024428168 0.019619316
-0.054465659 0.024206959 0.019792557
-0.0536482 0.024293525 0.019704521
-0.052953761 0.024440197 0.019719034
-0.051134955 0.024063509 0.019885451
-0.050461221 0.024221387 0.019885451
-0.049712729 0.024349092 0.019792914
-0.048413899 0.024206949 0.019638389
-0.047424436 0.024216732 0.019684494
-0.046742108 0.024387188 0.019277722
-0.045391124 0.024208598 0.018871486
-0.044881564 0.024480853 0.018219799
-0.043821532 0.024458529 0.016894996
-0.042413455 0.02423626 0.015929312
-0.041900277 0.024526993 0.014965087
-0.040396977 0.024238186 0.013679892
-0.039581098 0.024357598 0.011876404
-0.038834855 0.024527276 0.010929227
-0.037947912 0.024614861 0.0098584592
-0.037193842 0.024795895 0.0087446868
-0.036355302 0.024929348 0.0077858865
-0.035529986 0.02507999 0.0063356757
-0.034557331 0.025132604 0.0055142343
-0.033618532 0.025213901 0.0051286817
-0.12727521 0.026080986 0.0051678717
-0.12912288 0.026678283 0.0067078471
-0.12511584 0.0260658 0.0076770484
-0.12342788 0.025930226 0.0086919069
-0.1244904 0.026375085 0.010410517
-0.12112191 0.02588075 0.010970324
-0.11871561 0.02558526 0.011103481
-0.12008592 0.026105637 0.011193395
-0.11748719 0.025764734 0.012177944
-0.11730429 0.025952276 0.012675077
-0.11788652 0.026313955 0.012852103
-0.1160121 0.026128851 0.013141453
-0.116451 0.026466137 0.01319018
-0.11293637 0.025902836 0.012959599
-0.11096432 0.025686186 0.012999684
-0.11202775 0.026174707 0.013432384
-0.10839411 0.025564648 0.014200896
-0.10646345 0.02534844 0.015511632
-0.1081983 0.026009208 0.016329527
-0.10603174 0.025735859 0.017064065
-0.10192653 0.024981992 0.017525464
-0.10434803 0.025828721 0.017745793
-0.1018143 0.025453575 0.018231183
-0.10102163 0.02551051 0.01800099
-0.10112418 0.025796985 0.018419534
-0.098677978 0.025432469 0.018315554
-0.097889297 0.025492003 0.018497676
-0.09678939 0.025470892 0.018614739
-0.094296247 0.02507879 0.0186764
-0.094691046 0.025454583 0.01915288
-0.094176605 0.025591468 0.018963248
-0.092261821 0.025346654 0.019206822
-0.091401614 0.025389338 0.019335657
-0.08984182 0.025236465 0.01927039
-0.089286953 0.025365612 0.019430429
-0.089407742 0.02569188 0.019588709
-0.087189168 0.025345689 0.020112038
-0.086493678 0.025439318 0.020020902
-0.084156908 0.025046699 0.019453764
-0.083572432 0.02517242 0.019375861
-0.083263233 0.025385132 0.019375861
-0.082812928 0.025559546 0.019424587
-0.080860764 0.025268989 0.019344985
-0.081077278 0.025657365 0.01926282
-0.0789354 0.025299808 0.01884225
-0.07787694 0.025284721 0.018718839
-0.077561006 0.025513489 0.018587679
-0.07637918 0.025459727 0.018038869
-0.074776098 0.025262196 0.018038869
-0.074610502 0.025551541 0.01795426
-0.073274329 0.025442475 0.01790005
-0.072438672 0.025506577 0.017710239
-0.072498515 0.025892328 0.017655224
-0.069482096 0.025174672 0.01760751
-0.068870179 0.025319919 0.017703503
-0.068560861 0.02558241 0.0178774
-0.067144692 0.025433596 0.017659873
-0.064434141 0.024782363 0.0178774
-0.06458956 0.025230296 0.01850152
-0.064061441 0.025421208 0.01850152
-0.063960679 0.025790596 0.018600971
-0.062825032 0.025747964 0.018476665
-0.060824312 0.025343463 0.018496096
-0.05904115 0.025017437 0.018521845
-0.05927017 0.025547486 0.018519193
-0.056956954 0.024981121 0.01858288
-0.057044983 0.025466511 0.019193739
-0.055733293 0.025333315 0.019564658
-0.054718472 0.025332626 0.019791901
-0.053368118 0.02517364 0.019692153
-0.052154131 0.0250741 0.019607753
-0.051572002 0.025280394 0.019619018
-0.050713483 0.025356742 0.019615024
-0.049731545 0.025373237 0.019615024
-0.048696373 0.025362695 0.019485712
-0.047717951 0.025381889 0.019485712
-0.046314102 0.025170708 0.019154817
-0.046288729 0.02571596 0.01881358
-0.044816751 0.025464064 0.017723024
-0.043516271 0.025300158 0.016801983
-0.042937558 0.025558071 0.01582253
-0.042014103 0.025618356 0.015055329
-0.04056574 0.025353588 0.013838828
-0.039712891 0.02545698 0.012026608
-0.038765084 0.025503343 0.010525256
-0.037773453 0.025522603 0.0093727112
-0.036948416 0.025658622 0.0083182752
-0.036034714 0.025739083 0.0070870519
-0.035224527 0.025900386 0.0061236024
-0.12855944 0.027624344 0.0051678717
-0.12744443 0.02761296 0.00712201
-0.12649444 0.027637441 0.0074211955
-0.12306777 0.027116627 0.0082006454
-0.1216725 0.027038332 0.0097312331
-0.12004062 0.026905654 0.0099671781
-0.11797825 0.026673343 0.0099770725
-0.11723912 0.026738746 0.010963082
-0.11813842 0.027182292 0.012346327
-0.11655688 0.027057845 0.012390077
-0.11783051 0.02759994 0.012538224
-0.11335483 0.02679296 0.012616605
-0.11326168 0.02701655 0.01260829
-0.11141275 0.026821587 0.012871385
-0.10896103 0.026476514 0.012978882
-0.10885342 0.026699895 0.0140962
-0.1090777 0.027009716 0.015237451
-0.10674571 0.026686428 0.016388297
-0.1061602 0.026797721 0.017356724
-0.10485197 0.026726972 0.017621726
-0.10293506 0.026498135 0.017966688
-0.10090572 0.026235485 0.018291712
-0.10124978 0.02659085 0.018600851
-0.099647671 0.026437137 0.018793821
-0.098413751 0.026378945 0.018634468
-0.097284719 0.026347945 0.018687814
-0.095856912 0.026234524 0.018995881
-0.094756395 0.026209215 0.019160509
-0.094698817 0.026474938 0.019459635
-0.092975006 0.026275545 0.019426227
-0.093578286 0.026736652 0.019368291
-0.091456756 0.026420841 0.019589603
-0.08990179 0.026263446 0.019496143
-0.090153202 0.026636172 0.019798577
-0.08823245 0.026368318 0.019798577
-0.087327987 0.026401484 0.020097435
-0.086976171 0.026604475 0.019939154
-0.084575057 0.026177993 0.019589633
-0.083100177 0.026031382 0.019420862
-0.083173327 0.02637203 0.019420862
-0.082298532 0.026416814 0.019435197
-0.081179157 0.026383225 0.01930815
-0.08075691 0.026578223 0.01929149
-0.078531794 0.026177265 0.019128591
-0.078593366 0.026538018 0.018966049
-0.077661462 0.026568394 0.018780798
-0.0760791 0.026374087 0.018111736
-0.075469904 0.026516452 0.018008798
-0.074443385 0.026514081 0.017939746
-0.072755545 0.026272837 0.017906755
-0.073407829 0.026881739 0.017838299
-0.07153672 0.02657078 0.017747462
-0.069762103 0.02628717 0.017816752
-0.069928803 0.026737483 0.017841905
-0.06771899 0.026279012 0.017929971
-0.067200921 0.026473088 0.017598152
-0.066768311 0.026707325 0.017864436
-0.06425257 0.026102606 0.018248528
-0.064459734 0.026602428 0.018151969
-0.063891523 0.026793221 0.018531859
-0.062669903 0.02671176 0.018385708
-0.061700437 0.026736856 0.018383056
-0.059271012 0.02611943 0.018383056
-0.058725424 0.02632519 0.018191159
-0.057790447 0.026360555 0.01850304
-0.056205008 0.026095182 0.018853068
-0.055675406 0.026319284 0.01959759
-0.055399068 0.026673626 0.019788951
-0.053713955 0.026350241 0.019730598
-0.051997144 0.025998572 0.019597888
-0.051570032 0.026290605 0.019610703
-0.050015867 0.02600825 0.019502133
-0.049638838 0.026338976 0.019498676
-0.048485093 0.026262758 0.019350052
-0.047364939 0.026201881 0.01938504
-0.047483794 0.026838666 0.0188936
-0.045813072 0.026469775 0.018170357
-0.04452277 0.026308909 0.017379165
-0.04392359 0.026558449 0.016135067
-0.043126721 0.026697494 0.015289247
-0.041806102 0.026511187 0.0141083
-0.041471746 0.026956635 0.012687504
-0.040264741 0.02684316 0.011469662
-0.038192101 0.026131436 0.0098584592
-0.037756305 0.026531458 0.0087755024
-0.036605887 0.026437586 0.0077104568
-0.035965912 0.026717534 0.0064271986
-0.12965296 0.029171918 0.0054237247
-0.12520443 0.028407728 0.0066975653
-0.12353292 0.028266007 0.0073340237
-0.12287776 0.028356405 0.0079394579
-0.11932504 0.027773932 0.0080613792
-0.11862607 0.027851339 0.0083673
-0.11825778 0.02800842 0.0098406374
-0.11677176 0.027901217 0.010684997
-0.11788299 0.028418221 0.011329383
-0.1175866 0.028602146 0.011367887
-0.1135292 0.027866257 0.012021869
-0.11329494 0.028063886 0.012149096
-0.11062381 0.027655952 0.012616605
-0.10974113 0.027691687 0.013063312
-0.11205012 0.028541069 0.014065951
-0.10898747 0.028025348 0.015328616
-0.10785024 0.027999582 0.016228676
-0.10510527 0.027551869 0.017532885
-0.1037056 0.027451484 0.017790914
-0.10237133 0.027366592 0.017992795
-0.10169637 0.027458021 0.018397063
-0.10020476 0.027328569 0.018640935
-0.099386178 0.027381906 0.018756032
-0.099658296 0.027739938 0.018806309
-0.096915998 0.027257625 0.019069314
-0.097689174 0.027764292 0.019198656
-0.094896257 0.027257435 0.019370466
-0.093937404 0.02727215 0.019532472
-0.094816908 0.027826702 0.019483745
-0.092228681 0.027364554 0.019542068
-0.09114147 0.027342441 0.019814551
-0.090128504 0.027342355 0.019704372
-0.089523628 0.027467476 0.019776165
-0.088715017 0.027532248 0.019941211
-0.088437609 0.027765296 0.020135373
-0.085981898 0.027311897 0.020112038
-0.085180372 0.027379405 0.019664973
-0.083684079 0.027222533 0.019472927
-0.08301051 0.027332727 0.019449294
-0.082161449 0.02738715 0.01947251
-0.0810626 0.027358627 0.019285053
-0.080184512 0.027404834 0.019240797
-0.079468504 0.027508328 0.019080371
-0.078307919 0.027458619 0.018827558
-0.07684049 0.027298594 0.018581867
-0.076461814 0.027526254 0.017939746
-0.075339675 0.0274888 0.017907351
-0.074189544 0.027439969 0.01792872
-0.074027322 0.027760245 0.017906755
-0.072302341 0.027495256 0.017816603
-0.071624778 0.027626701 0.01778999
-0.07085146 0.027724484 0.018057704
-0.069005951 0.027399423 0.018072039
-0.068225034 0.027493671 0.017994702
-0.066171557 0.027070181 0.017860681
-0.065634258 0.027263461 0.017855734
-0.065592058 0.02767165 0.018006295
-0.064026207 0.027439803 0.017937899
-0.063239709 0.027539872 0.018048018
-0.063018762 0.027893551 0.018180817
-0.062564805 0.028154163 0.017781943
-0.059861992 0.027394472 0.017648995
-0.059720751 0.027801039 0.01764524
-0.058188446 0.027562948 0.018213093
-0.056656424 0.02731649 0.018940449
-0.05624982 0.027613549 0.018890202
-0.054794416 0.027397208 0.019488007
-0.054093972 0.027557306 0.01954037
-0.05261853 0.02732116 0.019408226
-0.051032182 0.027017038 0.019222111
-0.050864376 0.027466765 0.019060522
-0.050043255 0.027574854 0.018841594
-0.048689354 0.027387761 0.018493086
-0.047730692 0.027419759 0.018320739
-0.046810638 0.02747581 0.018168539
-0.045700636 0.027420381 0.017409414
-0.045017947 0.02762465 0.016696244
-0.043607727 0.027381597 0.015641421
-0.042335659 0.027215783 0.014595598
-0.042255469 0.027826771 0.013280809
-0.041218139 0.027822245 0.012080342
-0.039903089 0.027625216 0.010311276
-0.039871868 0.028330011 0.0093440115
-0.037956107 0.027697699 0.0083176792
-0.037289903 0.027967427 0.0071269572
-0.036180053 0.027910328 0.0055892766
-0.12553637 0.029788289 0.0063352883
-0.12160805 0.029102782 0.0070511103
-0.12071456 0.029137999 0.0071826279
-0.12000436 0.029218452 0.0073077083
-0.11701868 0.02874143 0.0083146393
-0.11758455 0.029135995 0.010098696
-0.11818853 0.029547133 0.010536134
-0.11871953 0.029947268 0.010724813
-0.11524728 0.029335672 0.011465669
-0.11298583 0.029023882 0.012103319
-0.11019876 0.028570049 0.012484312
-0.11167062 0.029222218 0.012959868
-0.10926981 0.028863724 0.014051765
-0.10802898 0.028807728 0.015437305
-0.10815998 0.029119996 0.016352981
-0.10631305 0.028900634 0.017219633
-0.10410564 0.028578021 0.01752317
-0.10348655 0.02868934 0.017822683
-0.10124265 0.028347943 0.018347651
-0.099917367 0.028259458 0.018621087
-0.10027535 0.028650099 0.018876046
-0.099041179 0.028589206 0.018865794
-0.097501718 0.028438002 0.019004643
-0.096811585 0.028533939 0.019223452
-0.095151074 0.028342875 0.019223452
-0.095731743 0.028822459 0.019455791
-0.094806895 0.028854273 0.019346565
-0.092395499 0.028429385 0.019654036
-0.091623455 0.028505076 0.019678593
-0.090359762 0.028427789 0.019479901
-0.089297287 0.028412772 0.019633532
-0.089948408 0.028948912 0.019725561
-0.087194197 0.028388809 0.019940227
-0.086048134 0.028345268 0.019834369
-0.085433669 0.028477889 0.019593745
-0.084311038 0.028442279 0.01940611
-0.082953647 0.028325636 0.019382894
-0.082931228 0.028667586 0.019367099
-0.08116743 0.0284086 0.019218653
-0.080525734 0.028540768 0.019165516
-0.078622073 0.028223308 0.019018054
-0.078149594 0.028418032 0.018780798
-0.077739574 0.028640896 0.018521369
-0.075903922 0.028337466 0.017917275
-0.074771501 0.02829192 0.017846197
-0.07502386 0.028776273 0.01795426
-0.073546164 0.028601285 0.017926276
-0.07207597 0.028424326 0.0178774
-0.071471855 0.028588744 0.017840713
-0.070418395 0.028575579 0.017958462
-0.069409795 0.028580504 0.018082857
-0.068670668 0.028698191 0.018000036
-0.067323834 0.028561626 0.017864436
-0.066599563 0.028689042 0.017864436
-0.063981108 0.027991734 0.01794669
-0.06428498 0.028571103 0.017871022
-0.063085414 0.028490188 0.018188924
-0.062888332 0.028866775 0.017646879
-0.060866311 0.028404279 0.017632246
-0.060346872 0.028639194 0.017550588
-0.059355054 0.028654164 0.017496735
-0.058433101 0.02870398 0.01807183
-0.057247214 0.028623607 0.018340975
-0.055650555 0.02833119 0.018528849
-0.055377267 0.028714137 0.018794954
-0.054504972 0.028795078 0.018677771
-0.05328251 0.028690584 0.018583477
-0.051023744 0.028013038 0.018479079
-0.050742403 0.028415745 0.018303305
-0.049715973 0.028409127 0.018148452
-0.049073689 0.028626319 0.017983109
-0.048109904 0.028661219 0.017674088
-0.046387788 0.028236046 0.017276794
-0.046047769 0.028651945 0.016828328
-0.044847183 0.028539117 0.01591301
-0.043687724 0.02844782 0.014525741
-0.042976454 0.028650969 0.013440102
-0.042260382 0.02886075 0.012430161
-0.041050646 0.028735453 0.011056989
-0.040752657 0.029258318 0.0094463229
-0.039491765 0.029099196 0.0084635615
-0.03804699 0.028792316 0.007178843
-0.037147548 0.028892538 0.0059141815
-0.12347987 0.030606121 0.0060028732
-0.12271895 0.030679736 0.0059999824
-0.11902073 0.030013924 0.0061115623
-0.11796282 0.030008085 0.0072689652
-0.11918102 0.03058628 0.0085176528
-0.1162096 0.030089986 0.0092947781
-0.11932983 0.031176262 0.0098944902
-0.11620423 0.030635662 0.010650843
-0.11220825 0.029853571 0.011298716
-0.11191192 0.030050425 0.012166977
-0.11170802 0.030276004 0.012845039
-0.10909786 0.029847529 0.013844818
-0.10867099 0.030013893 0.015437305
-0.10823885 0.030181987 0.016227126
-0.10589957 0.029816385 0.017060041
-0.10433241 0.029663136 0.01752454
-0.10252728 0.029438525 0.017966688
-0.10130214 0.029377621 0.018450677
-0.10150213 0.029732948 0.019002318
-0.099039599 0.029307637 0.019305944
-0.099257313 0.029674865 0.019262701
-0.098456927 0.029742196 0.019363284
-0.096011944 0.02930891 0.019379973
-0.09586738 0.029576106 0.019319385
-0.094713449 0.029534301 0.019517571
-0.093286775 0.029405612 0.019410908
-0.093121909 0.029676212 0.019359052
-0.09116476 0.029375311 0.019320965
-0.090715691 0.029559044 0.019407779
-0.089974962 0.029650841 0.019446075
-0.089089684 0.029696561 0.019426614
-0.086633734 0.0292137 0.0197905
-0.085788898 0.029269153 0.01974529
-0.084445655 0.029153857 0.019449294
-0.082894593 0.028963171 0.019318104
-0.083615966 0.029571502 0.019137174
-0.081637986 0.029228415 0.019129872
-0.082276292 0.029825155 0.019123673
-0.080717139 0.029630342 0.018966228
-0.078213133 0.029079242 0.018690556
-0.07870917 0.029643713 0.018666655
-0.077425554 0.029543962 0.018400729
-0.076170325 0.029452525 0.017733604
-0.07562504 0.029636839 0.017637432
-0.073944569 0.02937524 0.01772356
-0.073299259 0.029523311 0.017643481
-0.072454527 0.029594103 0.017637461
-0.071505174 0.029623572 0.017594606
-0.070332713 0.029560125 0.01775381
-0.069446199 0.02961676 0.017749876
-0.068134442 0.029491026 0.017507523
-0.0672535 0.02955078 0.017482907
-0.066703685 0.029760106 0.017555982
-0.06434641 0.029156966 0.017592192
-0.064539433 0.029708629 0.017496735
-0.06325496 0.029586999 0.017548472
-0.062253814 0.029596075 0.017477989
-0.062157594 0.030042836 0.017196715
-0.060525779 0.02974996 0.017207235
-0.058806453 0.029403226 0.017215461
-0.058728095 0.029879207 0.017753303
-0.057270519 0.029657947 0.017881244
-0.055657301 0.029346578 0.0178909
-0.055438269 0.029772403 0.018069327
-0.05393637 0.029512353 0.018191159
-0.053273108 0.029710002 0.018198788
-0.051826861 0.029470176 0.018095881
-0.050593399 0.029344171 0.017673463
-0.049666367 0.029394381 0.017640263
-0.049394414 0.029842457 0.017526865
-0.047938671 0.029579181 0.016984522
-0.047665082 0.030049726 0.016592562
-0.046676539 0.030080436 0.015831739
-0.044920746 0.029606856 0.014624149
-0.044605024 0.030082457 0.012845546
-0.043666672 0.030150799 0.01192379
-0.042260148 0.029891323 0.010262698
-0.041667603 0.030209012 0.0096521974
