ply
format ascii 1.0
comment PCL generated
element vertex 1292
property float x
property float y
property float z
element camera 0
property float view_px
property float view_py
property float view_pz
property float x_axisx
property float x_axisy
property float x_axisz
property float y_axisx
property float y_axisy
property float y_axisz
property float z_axisx
property float z_axisy
property float z_axisz
property float focal
property float scalex
property float scaley
property float centerx
property float centery
property int viewportx
property int viewporty
property float k1
property float k2
end_header
-0.060342271 -0.11352529 0.015487969
-0.059857205 -0.1145543 0.015161723
-0.058438603 -0.11380149 0.015155762
-0.057845645 -0.11465833 0.015190989
-0.057053953 -0.11514525 0.015077174
-0.056028355 -0.1151694 0.0154562
-0.054967299 -0.11512019 0.015553802
-0.053631198 -0.11448198 0.015520811
-0.051829133 -0.11280458 0.015724838
-0.051468752 -0.11426064 0.016276777
-0.050366666 -0.11409592 0.016804278
-0.049175635 -0.11371866 0.017289072
-0.048523609 -0.11459831 0.017671674
-0.047035147 -0.11349785 0.017857671
-0.04530821 -0.11176025 0.018361747
-0.0453059 -0.11429443 0.018645644
-0.043971989 -0.11350909 0.018668205
-0.042671885 -0.11277569 0.018681765
-0.041822992 -0.11322811 0.018817902
-0.04034441 -0.11195574 0.018170893
-0.039983749 -0.11379991 0.018259883
-0.038906202 -0.11364706 0.017970324
-0.037762582 -0.11328775 0.017118514
-0.036778022 -0.1133989 0.016403288
-0.036163907 -0.11469126 0.015892565
-0.034904022 -0.11395136 0.014658958
-0.033892158 -0.11400089 0.01248157
-0.032913692 -0.11416937 0.011449069
-0.031521894 -0.11286872 0.010524154
-0.031295616 -0.11579378 0.0095527172
-0.030638136 -0.1172701 0.0089733005
-0.029299954 -0.11615339 0.0078968108
-0.028609198 -0.11761559 0.0073774457
-0.027465209 -0.11725532 0.0069048107
-0.026420409 -0.11730661 0.006370157
-0.025869342 -0.11964571 0.0053811371
-0.1313345 -0.11745362 0.0064534545
-0.12633428 -0.11390796 0.0075650215
-0.12901227 -0.11728388 0.0083718598
-0.1255575 -0.11509437 0.0089003742
-0.12359282 -0.11424547 0.0098212361
-0.1234249 -0.11505711 0.010567427
-0.12175714 -0.11447253 0.011028349
-0.11935496 -0.11318143 0.011858732
-0.12122723 -0.11595648 0.01242438
-0.11792991 -0.11379202 0.012905568
-0.11655162 -0.11345733 0.013226807
-0.11664395 -0.11456102 0.013228387
-0.11385521 -0.11282948 0.013228387
-0.11656673 -0.11656673 0.013281703
-0.1109754 -0.11199352 0.013281703
-0.11167981 -0.11374795 0.013506591
-0.1112414 -0.11436032 0.013333172
-0.10897473 -0.11308698 0.013575852
-0.10959888 -0.11481787 0.013067901
-0.10903715 -0.11532776 0.013172358
-0.10700298 -0.11427503 0.013206154
-0.10446335 -0.11265655 0.013210118
-0.10336963 -0.11258078 0.01336354
-0.1028482 -0.11313302 0.014017522
-0.10237452 -0.11374947 0.014671624
-0.10273654 -0.11531652 0.014982015
-0.099897735 -0.11328609 0.015247613
-0.10017958 -0.11478911 0.015669137
-0.097018085 -0.11233673 0.016229093
-0.095256992 -0.11147095 0.016567975
-0.094936863 -0.11229091 0.017069459
-0.094575107 -0.11307894 0.017077148
-0.09278585 -0.11215872 0.017287135
-0.092531972 -0.11309464 0.017349869
-0.091545992 -0.11314673 0.017258316
-0.089752778 -0.11219097 0.016891122
-0.089559615 -0.1132363 0.01693818
-0.087417416 -0.11181298 0.016685694
-0.086663716 -0.11215304 0.01681307
-0.086368032 -0.11310099 0.016659409
-0.084888004 -0.11250217 0.016649157
-0.084426954 -0.11325567 0.016668856
-0.083861612 -0.11388615 0.016679794
-0.082063749 -0.11283766 0.016661227
-0.082281925 -0.11456977 0.016603202
-0.079989441 -0.11280562 0.016625285
-0.078790739 -0.11255819 0.016773403
-0.078421518 -0.11350483 0.017165273
-0.077516936 -0.1136915 0.017232656
-0.075209402 -0.11179776 0.016952276
-0.075722523 -0.11410244 0.017210305
-0.073439635 -0.11219944 0.017326295
-0.07275255 -0.11271521 0.017192304
-0.072557293 -0.1140186 0.017020136
-0.07071247 -0.11273003 0.016859293
-0.069715805 -0.11277556 0.016803861
-0.069774099 -0.11455449 0.016803861
-0.067789316 -0.1129822 0.016786069
-0.066063322 -0.11179947 0.016409427
-0.065626167 -0.11279497 0.016366452
-0.064987749 -0.11347067 0.016483724
-0.064053506 -0.11364332 0.016573727
-0.062224526 -0.11220817 0.016222
-0.0611373 -0.11208504 0.016060174
-0.060949668 -0.11363497 0.016019911
-0.05930635 -0.11247756 0.015555173
-0.058188479 -0.11229356 0.01546672
-0.057646666 -0.11323452 0.01558724
-0.056158029 -0.11231606 0.015404224
-0.055678941 -0.11342007 0.015457034
-0.054788385 -0.11371174 0.015886754
-0.052665502 -0.11140779 0.015793145
-0.052917745 -0.11413632 0.015905708
-0.051809352 -0.11398058 0.016492128
-0.050399575 -0.1131419 0.016818613
-0.049705997 -0.11390957 0.017468214
-0.047820583 -0.11192051 0.017628312
-0.046321996 -0.11076999 0.018199146
-0.046144005 -0.11279646 0.018319219
-0.045159515 -0.11289879 0.018440306
-0.044005986 -0.11257345 0.018086076
-0.043297168 -0.11339734 0.018207014
-0.041654479 -0.11175592 0.018289924
-0.040932924 -0.11256554 0.017967045
-0.039975032 -0.1127501 0.017768711
-0.038945414 -0.11273672 0.017497092
-0.037712194 -0.11211733 0.016730189
-0.037543144 -0.11471516 0.016248673
-0.035737328 -0.11231732 0.015021414
-0.03471126 -0.11230114 0.013952225
-0.034538731 -0.11512911 0.012250453
-0.032753311 -0.1125895 0.010933191
-0.031795204 -0.11282169 0.010540098
-0.030525433 -0.11192659 0.009562403
-0.030261986 -0.11478684 0.0091304481
-0.029579185 -0.11620394 0.0076579154
-0.028668297 -0.11679676 0.0068444312
-0.027183913 -0.11500886 0.0063478053
-0.026804844 -0.11794131 0.0058114529
-0.12921241 -0.11544387 0.0063726306
-0.12714614 -0.11453661 0.0069553256
-0.12329667 -0.11199448 0.0078121126
-0.1246495 -0.11417475 0.0085912347
-0.12312567 -0.11373473 0.0097795129
-0.12102771 -0.1127523 0.010485291
-0.12214929 -0.11477821 0.011072546
-0.11906062 -0.11284876 0.011820376
-0.11695381 -0.11182425 0.01239568
-0.11728407 -0.11313242 0.012868553
-0.11458125 -0.11151211 0.01304242
-0.11517374 -0.11309854 0.013041496
-0.11484539 -0.11380134 0.013041496
-0.11108231 -0.11108231 0.013041496
-0.11282127 -0.11386591 0.01319924
-0.11249758 -0.11460035 0.013038307
-0.10943681 -0.11253408 0.01319924
-0.11094324 -0.11516965 0.012961268
-0.106562 -0.11168517 0.012921989
-0.10737532 -0.11363019 0.012771457
-0.10331001 -0.11039991 0.012915611
-0.10546606 -0.11381981 0.013042182
-0.10368257 -0.113014 0.013708591
-0.10224188 -0.11256935 0.014503241
-0.1007683 -0.11207902 0.014943779
-0.099631466 -0.11195701 0.015275627
-0.099214762 -0.1126501 0.015540093
-0.096578874 -0.11081155 0.016195744
-0.09707246 -0.11256275 0.016683817
-0.096282199 -0.11284688 0.016970694
-0.093313731 -0.11055648 0.016923845
-0.093628787 -0.11214877 0.017160863
-0.091750816 -0.11112043 0.017187744
-0.090449281 -0.11077496 0.01693818
-0.09119454 -0.11295688 0.016743004
-0.088777877 -0.11122745 0.01677683
-0.08736676 -0.11073229 0.016717196
-0.086943686 -0.11149249 0.016850531
-0.086234912 -0.11190006 0.016649306
-0.08488328 -0.11147322 0.016826272
-0.084852368 -0.11279156 0.016842753
-0.08272624 -0.11132296 0.016656011
-0.082922429 -0.1129818 0.016645223
-0.081248328 -0.11210212 0.016632318
-0.079469658 -0.11105376 0.016762108
-0.078809172 -0.11156104 0.016988695
-0.078206591 -0.11216472 0.017114699
-0.075962044 -0.11039817 0.017470598
-0.076268077 -0.11234082 0.01730001
-0.075174965 -0.11224754 0.01733157
-0.0737295 -0.11161827 0.01737237
-0.072769709 -0.11171687 0.017319947
-0.07208547 -0.11224738 0.017294735
-0.071289174 -0.11261623 0.017244488
-0.070626937 -0.11321083 0.016877055
-0.068166219 -0.11089728 0.017008871
-0.067821093 -0.11200756 0.016901255
-0.066815525 -0.11204449 0.016549617
-0.065687358 -0.11187378 0.016489178
-0.064861141 -0.11222007 0.016638428
-0.06344647 -0.11154298 0.016672879
-0.062116075 -0.1109943 0.016449749
-0.061761703 -0.11220043 0.016197473
-0.060869597 -0.112454 0.015978545
-0.058872003 -0.11063877 0.015249223
-0.059026569 -0.11287536 0.015166581
-0.057200521 -0.11133672 0.01554808
-0.05655463 -0.112081 0.015282065
-0.056020439 -0.11307829 0.015329808
-0.054684784 -0.11246493 0.015744835
-0.053350594 -0.11183105 0.015432
-0.052574847 -0.11236585 0.015495688
-0.050342921 -0.10974757 0.01610595
-0.049759906 -0.11069041 0.016524225
-0.049159542 -0.11163313 0.017122239
-0.047700211 -0.1106239 0.017572194
-0.047516771 -0.11259409 0.017912835
-0.045652602 -0.11058074 0.018273056
-0.044770926 -0.1109098 0.01831618
-0.043939546 -0.11138164 0.01816541
-0.042634942 -0.11064782 0.017981619
-0.041593436 -0.11057767 0.018180043
-0.041414056 -0.11285331 0.017520249
-0.040103707 -0.11208472 0.01734677
-0.039282244 -0.11267801 0.01669991
-0.038361195 -0.11301 0.016019166
-0.036849953 -0.11157347 0.015111566
-0.035854958 -0.11166258 0.01425913
-0.035593081 -0.11410723 0.012229145
-0.034140136 -0.11276591 0.010987431
-0.032985561 -0.11235707 0.010244548
-0.032159571 -0.1130772 0.0099837184
-0.030824078 -0.11199415 0.0093019009
-0.03028859 -0.11384332 0.008277297
-0.029484177 -0.11477769 0.0070701241
-0.028369524 -0.11452882 0.0064629912
-0.027939022 -0.11712898 0.0058114529
-0.12690893 -0.11327408 0.0057071149
-0.12678869 -0.11410982 0.0071609914
-0.12293311 -0.11156955 0.0075618625
-0.12194689 -0.1116124 0.0087505281
-0.12187161 -0.11249688 0.010062009
-0.11966866 -0.11141565 0.010585397
-0.11935255 -0.11208761 0.010947615
-0.12067366 -0.11432242 0.011892915
-0.11731625 -0.11212527 0.012281746
-0.11604036 -0.11189605 0.012358814
-0.11458758 -0.11149061 0.012487084
-0.11305824 -0.11100263 0.012594223
-0.11206195 -0.11103386 0.012594223
-0.11245104 -0.11245104 0.012746453
-0.11192562 -0.11297166 0.012527376
-0.11082958 -0.1129207 0.01271379
-0.10902501 -0.11214001 0.012707621
-0.10969216 -0.11391108 0.012710124
-0.10582094 -0.11095788 0.012850493
-0.10365371 -0.10975099 0.012770057
-0.10609065 -0.11344346 0.013314158
-0.10525827 -0.11367893 0.013835281
-0.10257111 -0.11189575 0.014901161
-0.10061894 -0.11088617 0.01532945
-0.10053837 -0.11193962 0.015727431
-0.098029606 -0.11028331 0.016307175
-0.098007061 -0.11141855 0.016717225
-0.096890606 -0.11132113 0.016976923
-0.094816282 -0.11010923 0.0172095
-0.094192035 -0.11057326 0.01725179
-0.093425676 -0.11087883 0.017500132
-0.090736113 -0.10888334 0.017393619
-0.091708019 -0.11128613 0.017121255
-0.090052068 -0.11051845 0.016864985
-0.090081364 -0.11182514 0.017091423
-0.08854451 -0.11119544 0.016842753
-0.087208383 -0.11080594 0.016869634
-0.086397879 -0.11108299 0.016655117
-0.084511459 -0.10996671 0.016826272
-0.084311321 -0.11104418 0.016830951
-0.082878709 -0.11050494 0.016626775
-0.082479089 -0.11134677 0.016639233
-0.081350803 -0.11121376 0.016626775
-0.080482297 -0.11143702 0.016601652
-0.079009078 -0.11081793 0.016588867
-0.077937156 -0.11075281 0.016748905
-0.076772869 -0.11055293 0.017154127
-0.075904928 -0.11078017 0.017020881
-0.074293964 -0.10991435 0.017190427
-0.074274898 -0.11141234 0.017264932
-0.072773866 -0.11069827 0.017285943
-0.072429731 -0.11174873 0.01723665
-0.071187139 -0.11142335 0.016769677
-0.069151781 -0.10982929 0.016748905
-0.069223024 -0.11158339 0.016751677
-0.06787207 -0.11106339 0.016594261
-0.067174427 -0.11161289 0.016536057
-0.065660819 -0.11080263 0.016433448
-0.065003499 -0.11143456 0.016538024
-0.062731728 -0.10927462 0.016470909
-0.062928222 -0.1114139 0.016364962
-0.061415777 -0.1105484 0.01621443
-0.060195953 -0.11018921 0.016087115
-0.059890032 -0.11151937 0.015414
-0.058959037 -0.11171186 0.015035272
-0.057173852 -0.11026385 0.015251219
-0.056836557 -0.11160633 0.015183687
-0.055605724 -0.11121145 0.015503287
-0.054710317 -0.11148518 0.015659541
-0.053654578 -0.11143643 0.015318364
-0.052638963 -0.11147074 0.015543073
-0.051759638 -0.11180082 0.016055673
-0.04996454 -0.11012592 0.016636491
-0.049302928 -0.11093158 0.017267585
-0.048592631 -0.11165966 0.017660558
-0.047129642 -0.1106522 0.017778754
-0.045663297 -0.10959192 0.017966807
-0.044615779 -0.10951146 0.018271685
-0.043728851 -0.1098306 0.017628312
-0.042891067 -0.11029132 0.017468214
-0.041904822 -0.11038343 0.017806709
-0.040505063 -0.10936367 0.017122239
-0.040570632 -0.11234944 0.016733825
-0.038802635 -0.11028118 0.016116112
-0.037335973 -0.10898069 0.014852285
-0.037149701 -0.11144911 0.014006585
-0.036372844 -0.11223621 0.012475729
-0.035298206 -0.11212371 0.011122793
-0.034233335 -0.11203637 0.010328978
-0.033438344 -0.11285441 0.009863764
-0.031944327 -0.1112899 0.0094402134
-0.030969916 -0.1114917 0.0087761283
-0.029814251 -0.11103238 0.0077643991
-0.029004388 -0.11187407 0.006862551
-0.028339166 -0.11335666 0.005918473
-0.027418723 -0.11389315 0.0051011741
-0.12633136 -0.11264546 0.0059624016
-0.12507397 -0.11246146 0.0064559877
-0.12315134 -0.11167113 0.0076982379
-0.12222876 -0.11178186 0.0089994669
-0.12096156 -0.11157662 0.010159165
-0.1214738 -0.11302345 0.010566026
-0.11797398 -0.11072996 0.011108637
-0.11647718 -0.11029255 0.011329174
-0.11393559 -0.10884918 0.011646867
-0.11582888 -0.11165486 0.011490047
-0.11405273 -0.1109422 0.012134343
-0.11285814 -0.11078735 0.012245208
-0.1111008 -0.11007209 0.012487888
-0.11261562 -0.11261562 0.012459874
-0.1123585 -0.11341848 0.012602121
-0.1074959 -0.10954344 0.012699157
-0.10805017 -0.111167 0.012745947
-0.10659417 -0.11073375 0.012850493
-0.10469905 -0.10983136 0.012922943
-0.10754617 -0.11393505 0.013610065
-0.10340133 -0.11063943 0.014187872
-0.10202088 -0.11026499 0.015508205
-0.10300668 -0.11246648 0.015842855
-0.099527813 -0.10978841 0.016276926
-0.098320499 -0.10958639 0.01659891
-0.096582226 -0.10878209 0.016817778
-0.094510764 -0.1075814 0.017036498
-0.095665477 -0.11006673 0.017540097
-0.094725192 -0.11016952 0.0175834
-0.092031106 -0.1082124 0.017867029
-0.092372619 -0.10982078 0.0175699
-0.091226354 -0.10967663 0.017284691
-0.090133898 -0.10959463 0.017097801
-0.0892675 -0.10978877 0.017163485
-0.087962031 -0.10944113 0.016869634
-0.08770293 -0.11040252 0.016875654
-0.08664456 -0.11036867 0.01674211
-0.085185334 -0.10981724 0.016846657
-0.083919205 -0.10950433 0.016736299
-0.084158152 -0.11117189 0.016588748
-0.082039654 -0.10972803 0.016639233
-0.081401616 -0.11025282 0.016626775
-0.081334069 -0.11157366 0.016498715
-0.078812897 -0.10951922 0.016385108
-0.078089342 -0.10994157 0.016626716
-0.077078305 -0.10996505 0.016818792
-0.075431608 -0.10907003 0.016818792
-0.07489381 -0.10977586 0.016869903
-0.073294036 -0.10892309 0.017210305
-0.072605155 -0.10941904 0.017201096
-0.07172849 -0.10964212 0.017148942
-0.070896454 -0.10994088 0.016665339
-0.070171513 -0.11041693 0.016662478
-0.06956473 -0.11109591 0.016547292
-0.067491777 -0.10941848 0.016514152
-0.066587605 -0.10961344 0.016381294
-0.065664291 -0.10978249 0.016428918
-0.064613983 -0.10974121 0.016471386
-0.063822053 -0.11014451 0.016494751
-0.06231501 -0.10930666 0.016350269
-0.061468992 -0.1096197 0.016033322
-0.061403401 -0.11135871 0.015623003
-0.059523933 -0.1098114 0.015180767
-0.05807982 -0.10902704 0.014998764
-0.057390358 -0.10965658 0.015473992
-0.056410424 -0.10974392 0.015350759
-0.055592734 -0.11015597 0.015730768
-0.054842994 -0.11072076 0.015659541
-0.053511839 -0.1101109 0.015318364
-0.052529369 -0.11020868 0.015543073
-0.051673125 -0.11058049 0.016205549
-0.05032995 -0.10990417 0.016469598
-0.049265545 -0.10982111 0.017325699
-0.048359614 -0.11009528 0.01763624
-0.047027789 -0.10939073 0.017757028
-0.046106778 -0.10963167 0.017835796
-0.045228396 -0.10998724 0.017752737
-0.043065142 -0.1071621 0.017397761
-0.042968772 -0.10946807 0.017494291
-0.041865416 -0.10925853 0.017539918
-0.040935662 -0.10950289 0.016370773
-0.040895294 -0.11219991 0.015844554
-0.039082348 -0.11004767 0.014856458
-0.038162183 -0.11036091 0.013694048
-0.037464578 -0.11135305 0.012241811
-0.036106661 -0.11038322 0.011122793
-0.035469472 -0.11162452 0.010528505
-0.034403548 -0.1115509 0.0098507404
-0.033421285 -0.11175242 0.0092110336
-0.032364447 -0.11170954 0.0092120171
-0.031182269 -0.11121675 0.0082596242
-0.029828159 -0.11005563 0.0070741475
-0.029405959 -0.11237277 0.0064761341
-0.027830681 -0.11029196 0.0057876408
-0.12786147 -0.11389341 0.0050069094
-0.12327907 -0.11074222 0.0066197813
-0.12200388 -0.11053343 0.0079456866
-0.12189245 -0.11138448 0.0090770125
-0.12335633 -0.11370235 0.010024548
-0.11817666 -0.10988356 0.010607481
-0.11767346 -0.11038395 0.011005402
-0.11480326 -0.10865308 0.011281639
-0.11479683 -0.1096258 0.011192083
-0.11300994 -0.10890049 0.011256486
-0.11164683 -0.10857398 0.011489362
-0.11185225 -0.10978092 0.011598349
-0.11192375 -0.11087774 0.011838049
-0.11161748 -0.11161748 0.011732042
-0.11055148 -0.11160435 0.011836588
-0.10737602 -0.10944095 0.012354523
-0.10609414 -0.10918426 0.012487888
-0.10655992 -0.11073875 0.012626857
-0.10514022 -0.11034518 0.013682336
-0.10438704 -0.11065026 0.014315128
-0.10379563 -0.11113472 0.015484631
-0.099980064 -0.1081417 0.016110212
-0.099673726 -0.1089218 0.016570508
-0.09899886 -0.10931125 0.016897827
-0.096546941 -0.10772606 0.017031133
-0.097218953 -0.10962988 0.017277509
-0.096373014 -0.10984451 0.017945737
-0.093261085 -0.10745299 0.017885804
-0.09381333 -0.10927706 0.01831153
-0.091890201 -0.10822624 0.017885804
-0.090393402 -0.10765956 0.017671794
-0.090686105 -0.10923553 0.017488003
-0.089030795 -0.1084743 0.017653406
-0.08777339 -0.10818581 0.016889244
-0.087806992 -0.10950048 0.017027438
-0.086856321 -0.1096044 0.016888082
-0.08478792 -0.10828336 0.016862363
-0.084599763 -0.10936067 0.016850889
-0.082618706 -0.10811831 0.01667726
-0.082024373 -0.1086823 0.016717821
-0.081722572 -0.10965307 0.016632318
-0.078835927 -0.10713601 0.016562641
-0.079276033 -0.10913324 0.016391724
-0.078420952 -0.10937659 0.016652316
-0.076065786 -0.10750631 0.016748905
-0.07659547 -0.10971783 0.016646415
-0.075619049 -0.10980301 0.016660899
-0.073843107 -0.10871346 0.016783088
-0.073643446 -0.10994655 0.016749054
-0.071777418 -0.10869151 0.016646415
-0.070380047 -0.10812007 0.016518712
-0.070501722 -0.10989974 0.01650992
-0.068562098 -0.10847138 0.016403675
-0.067357682 -0.10818052 0.016360313
-0.067196906 -0.10958265 0.016279489
-0.065058865 -0.10775375 0.016284674
-0.065040246 -0.10943279 0.016475707
-0.064278677 -0.10989581 0.016505033
-0.061853364 -0.1074829 0.016400874
-0.061614737 -0.10885271 0.016188443
-0.061083496 -0.10974323 0.01562956
-0.059091572 -0.10799494 0.01524055
-0.058493383 -0.10877717 0.015139222
-0.057032678 -0.10795472 0.015536129
-0.056285281 -0.10847709 0.015532076
-0.056130081 -0.11018127 0.015881002
-0.054257765 -0.10851553 0.015814304
-0.053533137 -0.10912524 0.015264899
-0.052321967 -0.10874762 0.015367121
-0.051705655 -0.10961599 0.015876293
-0.05085047 -0.11000306 0.016207665
-0.048892312 -0.10797052 0.017247528
-0.048199154 -0.10870448 0.017289072
-0.047387548 -0.10919739 0.01763624
-0.045944918 -0.10822581 0.017601222
-0.044820148 -0.10797581 0.017404884
-0.044654191 -0.11007777 0.016732723
-0.043247361 -0.1091481 0.016542166
-0.042107958 -0.10886448 0.01676634
-0.041318476 -0.10949396 0.015411556
-0.03981398 -0.10821236 0.01456511
-0.040076781 -0.11179313 0.013086826
-0.038795978 -0.11114524 0.011700451
-0.037811846 -0.11133488 0.010564268
-0.03655751 -0.11071704 0.010273635
-0.035642717 -0.11112141 0.009504199
-0.034393627 -0.1104765 0.0091107786
-0.034213923 -0.11333362 0.0087544322
-0.03256714 -0.11135861 0.0083965361
-0.031216413 -0.11029799 0.0069727004
-0.030294368 -0.11073114 0.0065678954
-0.029429559 -0.1114119 0.0059385598
-0.12453812 -0.11081783 0.0050550997
-0.12463319 -0.1118503 0.006444484
-0.1215011 -0.10997944 0.0075216293
-0.119753 -0.1093397 0.0087423027
-0.12057165 -0.11105284 0.0099937618
-0.11533895 -0.10717336 0.010238826
-0.11656108 -0.10927601 0.010617763
-0.11438194 -0.10819913 0.010425508
-0.1123938 -0.10728499 0.010506332
-0.11301239 -0.10886515 0.011150539
-0.11348295 -0.11033065 0.011245459
-0.11162303 -0.10953662 0.011208415
-0.11106662 -0.11001882 0.010781765
-0.108678 -0.108678 0.011049449
-0.10771327 -0.10874898 0.011646003
-0.10662655 -0.10869697 0.012185276
-0.10587358 -0.1089875 0.012688756
-0.10567517 -0.10986032 0.013629794
-0.10451391 -0.10973961 0.014348328
-0.10190722 -0.10808342 0.015465796
-0.1003101 -0.10747511 0.01591894
-0.10006334 -0.10831598 0.016672045
-0.096860424 -0.10594109 0.016838104
-0.09638302 -0.1065286 0.017162204
-0.095690571 -0.10688841 0.017320812
-0.094620124 -0.10682917 0.017762303
-0.094370991 -0.10770602 0.017702371
-0.093945131 -0.10839823 0.018128097
-0.091523238 -0.10677711 0.017623216
-0.091662519 -0.10814117 0.017323852
-0.090337627 -0.10778922 0.0173015
-0.088875309 -0.1072633 0.017323762
-0.088586628 -0.10815809 0.017045617
-0.087209664 -0.10772958 0.017143786
-0.086236075 -0.1077951 0.017040163
-0.084629506 -0.10706142 0.016822308
-0.084274217 -0.10791211 0.016801089
-0.083075859 -0.10769092 0.016482294
-0.082041688 -0.10767972 0.016570538
-0.081497289 -0.10831918 0.01667726
-0.080009505 -0.1077051 0.016423285
-0.078942306 -0.1076486 0.016450733
-0.077646427 -0.10727467 0.016652316
-0.07728909 -0.10820472 0.0167135
-0.076059833 -0.10792274 0.016550273
-0.075012624 -0.10789488 0.016712219
-0.074383639 -0.10847614 0.016787529
-0.072358705 -0.10700935 0.016679525
-0.072552487 -0.10882873 0.016617209
-0.071095102 -0.1081882 0.016525269
-0.069197111 -0.10684848 0.016467631
-0.068445481 -0.10726531 0.016291469
-0.068716861 -0.10932229 0.0162597
-0.066462077 -0.10736182 0.016210556
-0.066141903 -0.10851406 0.016207516
-0.064657174 -0.10776196 0.016414672
-0.063492224 -0.10752716 0.016313434
-0.063300624 -0.10896008 0.016171038
-0.061338708 -0.10734274 0.01599142
-0.060386989 -0.10746837 0.015904248
-0.059553526 -0.10781242 0.0151847
-0.058540039 -0.10783692 0.015071541
-0.057589188 -0.10797973 0.015507966
-0.057114244 -0.10903628 0.015798658
-0.055063181 -0.10706729 0.015944034
-0.054762971 -0.10849268 0.01590243
-0.053935956 -0.10890914 0.015211105
-0.051797364 -0.10664164 0.01552996
-0.051113699 -0.10733877 0.015726775
-0.050703574 -0.10865051 0.016324967
-0.048788179 -0.10672414 0.016922802
-0.048518777 -0.10839301 0.017028183
-0.0470706 -0.10744376 0.017158568
-0.046006087 -0.10734753 0.017044246
-0.044250719 -0.1055983 0.016750127
-0.043943483 -0.10730385 0.016124487
-0.043128647 -0.10782162 0.015898019
-0.042146675 -0.10793661 0.015444249
-0.04151208 -0.10896921 0.014643639
-0.040612429 -0.10934116 0.012994647
-0.039598495 -0.10941689 0.01191321
-0.038786925 -0.110071 0.010497838
-0.037477177 -0.10930843 0.0098085403
-0.037495412 -0.11248624 0.0091774464
-0.035414167 -0.10936728 0.0088931918
-0.034470599 -0.10967918 0.0075711608
-0.033661086 -0.11045044 0.0070881546
-0.03224333 -0.10921128 0.0069174767
-0.031823009 -0.11138052 0.0064502358
-0.030255903 -0.10954723 0.0059966743
-0.029200828 -0.10950311 0.0052163601
-0.12216967 -0.10953142 0.0065299869
-0.12240764 -0.11069908 0.0077525675
-0.11845499 -0.1080642 0.0088430047
-0.11850047 -0.10906238 0.0095541179
-0.11661013 -0.10828084 0.0094689131
-0.11521013 -0.10794463 0.0091647506
-0.11528561 -0.1089973 0.0095869601
-0.11276229 -0.1075897 0.0097228587
-0.1107914 -0.10668802 0.010587215
-0.11242395 -0.10927188 0.010639608
-0.11271898 -0.1105922 0.010464013
-0.10898117 -0.10794325 0.010587215
-0.10822606 -0.10822606 0.011156172
-0.10604684 -0.10707642 0.011636883
-0.1046144 -0.10666566 0.012708753
-0.10635743 -0.10951656 0.013571799
-0.10359397 -0.10773773 0.014470518
-0.10268039 -0.10786627 0.015510529
-0.10104129 -0.1072275 0.016079098
-0.098544262 -0.10565571 0.016817778
-0.096885212 -0.10495897 0.016974092
-0.097438022 -0.10666899 0.017315298
-0.09601295 -0.10622709 0.017399967
-0.095555931 -0.10685825 0.017718643
-0.094038934 -0.10630488 0.017734081
-0.092809536 -0.10606804 0.017997861
-0.093054555 -0.10752971 0.017885417
-0.091429956 -0.10683949 0.017540097
-0.09008158 -0.10646004 0.017599076
-0.089251824 -0.10669184 0.017540097
-0.087460011 -0.1057656 0.017305017
-0.088214189 -0.10793266 0.017253697
-0.086630084 -0.10725629 0.017236888
-0.084754437 -0.10619833 0.017204762
-0.083318867 -0.10567271 0.017211616
-0.08315029 -0.10676087 0.016863883
-0.082384609 -0.10709999 0.016870588
-0.080981925 -0.10660911 0.016723365
-0.080025986 -0.10670131 0.016482294
-0.078475803 -0.10599329 0.016561806
-0.078620374 -0.10758577 0.016518712
-0.077131972 -0.10695633 0.016553372
-0.075277902 -0.10579597 0.016646415
-0.075356953 -0.10735785 0.016847998
-0.073776007 -0.10656535 0.016930491
-0.073742136 -0.10801665 0.016787529
-0.07225623 -0.10735211 0.01664263
-0.070610315 -0.10642714 0.016536385
-0.069950357 -0.1069829 0.016557515
-0.068805985 -0.10680333 0.01644665
-0.067774408 -0.10679603 0.016403675
-0.066800542 -0.10688087 0.016297489
-0.066574521 -0.1081836 0.016429722
-0.064224705 -0.10602174 0.016521871
-0.06438008 -0.1079924 0.016280144
-0.062478729 -0.10652111 0.016275197
-0.061494522 -0.1065905 0.016178668
-0.061151955 -0.10779327 0.015772521
-0.059655964 -0.10696931 0.015350759
-0.058059618 -0.10593333 0.015298873
-0.057734974 -0.1072221 0.015647262
-0.056621097 -0.10706535 0.015891016
-0.055641986 -0.10716234 0.015977651
-0.055388484 -0.10868683 0.015915543
-0.053329516 -0.10665903 0.015284866
-0.051817406 -0.10566687 0.015543073
-0.051282875 -0.10666838 0.015606999
-0.050374664 -0.10691766 0.01570189
-0.049627904 -0.10752713 0.016392082
-0.048402667 -0.10710377 0.01654911
-0.0467944 -0.10579603 0.016882122
-0.046777952 -0.10810905 0.016529202
-0.045405675 -0.10732251 0.016324967
-0.043597545 -0.10544523 0.015080988
-0.043298852 -0.10721621 0.014818698
-0.042295702 -0.10728665 0.014431626
-0.04120947 -0.10714462 0.012785077
-0.040614218 -0.10830458 0.011624724
-0.039452188 -0.1079744 0.01063782
-0.038620126 -0.10855386 0.0095333457
-0.038407225 -0.1109542 0.0089625716
-0.036817193 -0.10939966 0.0075327754
-0.035772741 -0.1094225 0.0072545409
-0.035038561 -0.11042456 0.0063441694
-0.033545546 -0.10902303 0.006147325
-0.032635584 -0.10948712 0.0062168539
-0.0319039 -0.11060018 0.0057079196
-0.030727521 -0.11019525 0.0052371621
0.17315935 -0.11770309 0.0054955482
-0.11984614 -0.10734046 0.0065207779
-0.11780348 -0.10643648 0.0075639784
-0.11891018 -0.10838716 0.0082543492
-0.11631397 -0.10696732 0.0084212124
-0.11772121 -0.1092368 0.0084212124
-0.11537194 -0.10803009 0.0085135996
-0.11311365 -0.10688721 0.0087272823
-0.1124971 -0.1072889 0.0092501938
-0.11284473 -0.10862623 0.00975281
-0.1103633 -0.10723981 0.0096634626
-0.11048999 -0.10838542 0.01009202
-0.10801663 -0.106978 0.010784537
-0.10744425 -0.10744425 0.011616826
-0.10561167 -0.10664708 0.012758225
-0.10487919 -0.10695601 0.013612241
-0.1027137 -0.10579511 0.014370114
-0.10233559 -0.10647037 0.015583634
-0.10072829 -0.10586748 0.016358525
-0.097512163 -0.10354384 0.016767591
-0.097432733 -0.1045372 0.017034471
-0.096849844 -0.10500561 0.017431468
-0.096241251 -0.10545584 0.017462134
-0.094521008 -0.10468455 0.017802805
-0.093306229 -0.10446241 0.017819375
-0.093458749 -0.10578298 0.017867416
-0.092289813 -0.10562056 0.017685533
-0.091222875 -0.10557254 0.017504662
-0.08986108 -0.10517831 0.017344177
-0.089167021 -0.10556556 0.017470092
-0.087978847 -0.10537001 0.01742807
-0.088788055 -0.10759023 0.01728031
-0.085557476 -0.10490976 0.017199308
-0.084550858 -0.10492456 0.017019421
-0.083790377 -0.10524888 0.016736627
-0.083506569 -0.10618737 0.016585946
-0.082850218 -0.10666966 0.016622722
-0.082259111 -0.10724922 0.01667726
-0.080194272 -0.10589756 0.016355246
-0.079639643 -0.10653096 0.016272068
-0.078622781 -0.10655456 0.016344607
-0.076814368 -0.10549174 0.016327411
-0.076573268 -0.10658172 0.016462535
-0.075376563 -0.10635323 0.01657328
-0.073718309 -0.10545813 0.016577899
-0.073845662 -0.10712821 0.01644665
-0.071610332 -0.10536949 0.01644665
-0.071243249 -0.10634861 0.01628828
-0.069847442 -0.10579833 0.016226113
-0.068879701 -0.10588969 0.016017914
-0.067619488 -0.10552738 0.015957952
-0.067494512 -0.10695285 0.016072333
-0.065514497 -0.10543739 0.016189486
-0.065565094 -0.10719372 0.01622653
-0.064245701 -0.10673077 0.01624012
-0.061982829 -0.10465953 0.016178668
-0.062325761 -0.10699256 0.016015202
-0.061234921 -0.10690164 0.015180767
-0.059491854 -0.10564933 0.015291274
-0.059278376 -0.10711707 0.015103072
-0.057750229 -0.10621917 0.015305668
-0.057007 -0.10675856 0.015647262
-0.055769548 -0.10637525 0.015579343
-0.054887276 -0.10666773 0.015458316
-0.053884163 -0.10673209 0.014882684
-0.052763689 -0.10656196 0.015120059
-0.051236674 -0.10554755 0.015295953
-0.04954125 -0.10413773 0.015459776
-0.049026698 -0.10520312 0.016120911
-0.048620813 -0.10655199 0.016080558
-0.046696659 -0.10455991 0.016434461
-0.045559339 -0.10428027 0.016104072
-0.045280781 -0.10599819 0.015452981
-0.043979965 -0.10534736 0.014703721
-0.043431189 -0.10650982 0.014509261
-0.042491268 -0.10674636 0.013475507
-0.04161609 -0.10716143 0.011784673
-0.040377267 -0.1066374 0.010653913
-0.039663307 -0.10750844 0.010058135
-0.038508449 -0.10719919 0.0077527463
-0.038285907 -0.10954024 0.0072645247
-0.036936358 -0.10869843 0.0066404641
-0.035825271 -0.10852949 0.0059891045
-0.03477072 -0.10852679 0.0055678785
-0.033673745 -0.10838736 0.0055552423
-0.032890178 -0.10928027 0.0053915381
-0.1197229 -0.10712049 0.005117774
-0.11668968 -0.10533051 0.0065565705
-0.11850159 -0.10792109 0.0070768297
-0.11606009 -0.10664981 0.0072138309
-0.11338533 -0.10513912 0.0071173012
-0.11442226 -0.10707404 0.0076404214
-0.11268806 -0.10642761 0.0081427693
-0.11449315 -0.109143 0.0088205934
-0.11226869 -0.10803214 0.0092501938
-0.11079893 -0.10763325 0.0096623302
-0.10754543 -0.10547724 0.010493964
-0.10870972 -0.10765429 0.011576831
-0.10668655 -0.10668655 0.012698174
-0.10573173 -0.10677857 0.01378423
-0.10348184 -0.10555147 0.014351875
-0.10161914 -0.10469851 0.015484631
-0.099886462 -0.10396346 0.016043991
-0.099968679 -0.1051217 0.016689599
-0.097451031 -0.10354172 0.016982853
-0.097960427 -0.10517856 0.017280519
-0.096551932 -0.10476912 0.017390966
-0.094085574 -0.10319063 0.017455906
-0.094291478 -0.10454055 0.017455906
-0.093974151 -0.10533366 0.017691314
-0.090931103 -0.10305525 0.017540097
-0.091790311 -0.10519788 0.017450333
-0.089955993 -0.10426717 0.017298996
-0.089573674 -0.10501741 0.017322838
-0.088725664 -0.10523277 0.017220795
-0.088815466 -0.10657856 0.017120779
-0.086039752 -0.10447684 0.017019421
-0.086649306 -0.10648469 0.016815662
-0.083893701 -0.10435558 0.016385108
-0.083106458 -0.10465258 0.016226172
-0.082350977 -0.10499749 0.016108334
-0.080485918 -0.10391852 0.01616466
-0.080731414 -0.10557185 0.016158819
-0.079240508 -0.10496794 0.016067356
-0.077598557 -0.10414543 0.016002059
-0.07667385 -0.10427643 0.01609084
-0.075952359 -0.1046911 0.016170204
-0.074975841 -0.10476076 0.016297132
-0.074202597 -0.10512035 0.016462535
-0.072908007 -0.10474108 0.016323686
-0.07211066 -0.10507554 0.016360313
-0.070851594 -0.10473714 0.01621756
-0.070022859 -0.10503428 0.01622209
-0.06780199 -0.10322093 0.016162306
-0.068861373 -0.10642212 0.016039342
-0.066904739 -0.10498898 0.016118973
-0.066251166 -0.1055878 0.01625967
-0.065135635 -0.1054577 0.0162476
-0.064114548 -0.10547877 0.01622358
-0.062736496 -0.10490365 0.016229421
-0.061294015 -0.10419983 0.016046733
-0.060621049 -0.10480249 0.015486985
-0.059555605 -0.10473572 0.015235215
-0.058242824 -0.104224 0.015485436
-0.057531178 -0.10478893 0.015768558
-0.057064466 -0.10582865 0.015970498
-0.055645309 -0.10510781 0.015658826
-0.05480653 -0.10547672 0.015416294
-0.053913705 -0.10575381 0.014941156
-0.051807832 -0.10361566 0.014975816
-0.050762564 -0.10355563 0.015151709
-0.050207652 -0.10451389 0.015100092
-0.049283527 -0.10472749 0.015342236
-0.047761414 -0.10365243 0.015084833
-0.046276346 -0.10261277 0.01514563
-0.045611538 -0.10338615 0.014984816
-0.044457048 -0.10305952 0.014548481
-0.044063542 -0.10452282 0.013721168
-0.043492891 -0.10562558 0.012810141
-0.042325426 -0.1052974 0.011784673
-0.041036967 -0.10464427 0.01063782
-0.040916495 -0.10701237 0.0095243156
-0.039847005 -0.10695775 0.0074941218
-0.038947079 -0.10736762 0.0071558654
-0.037963323 -0.10756275 0.0060057938
-0.036771748 -0.10716338 0.0055905879
-0.035832711 -0.10749814 0.005130738
-0.11575401 -0.10628323 0.0052586496
-0.1153188 -0.10685503 0.0060982108
-0.11307351 -0.10574467 0.0070382059
-0.11446474 -0.10804617 0.0077319145
-0.11363088 -0.10827093 0.0080494583
-0.11051323 -0.1063032 0.0092513263
-0.10951409 -0.10635503 0.010061443
-0.10756877 -0.10548006 0.010819823
-0.10658114 -0.10553623 0.012653619
-0.1044755 -0.1044755 0.013514012
-0.10231884 -0.10334203 0.014276624
-0.10287823 -0.10495657 0.015480191
-0.10031231 -0.10338309 0.015984982
-0.099401474 -0.10350051 0.016589195
-0.098718755 -0.10386036 0.016853571
-0.096991807 -0.1031176 0.017041057
-0.094991297 -0.10206512 0.016896963
-0.094293967 -0.10240527 0.017319798
-0.093551859 -0.10270367 0.017335624
-0.092279151 -0.10241972 0.017328352
-0.092340514 -0.10362658 0.017450333
-0.090801477 -0.10304437 0.017185569
-0.090345904 -0.10369246 0.017073274
-0.089805789 -0.10425729 0.017200768
-0.088894457 -0.1043993 0.017180204
-0.08530736 -0.10136522 0.01703462
-0.087111846 -0.10474163 0.016731292
-0.084823027 -0.10321838 0.01674965
-0.0846361 -0.1042469 0.016429931
-0.084089197 -0.10485197 0.01640743
-0.081505559 -0.10290077 0.016296476
-0.081220776 -0.10383922 0.01614365
-0.079698794 -0.10319972 0.016080827
-0.078557923 -0.10304351 0.015975505
-0.079053983 -0.10505859 0.016006798
-0.077332892 -0.10414163 0.016031802
-0.075751804 -0.10339097 0.016176313
-0.075834557 -0.10492178 0.016072571
-0.073580123 -0.10321657 0.016201317
-0.073326603 -0.10430968 0.016197085
-0.07204549 -0.10395135 0.01622209
-0.070574045 -0.10330404 0.016074121
-0.068952978 -0.10241546 0.015851229
-0.069237255 -0.10437258 0.015828639
-0.06769684 -0.10359667 0.015510887
-0.066720337 -0.10367314 0.015752047
-0.066401191 -0.10478938 0.015851229
-0.06442406 -0.10328302 0.01591298
-0.064304307 -0.10475379 0.015825361
-0.062890433 -0.10413006 0.015774816
-0.061402399 -0.10336071 0.015657276
-0.060108416 -0.10289746 0.014982909
-0.059490997 -0.1035964 0.014866382
-0.058420781 -0.10351752 0.014911175
-0.058030538 -0.10466222 0.015235215
-0.056356218 -0.10349051 0.015579343
-0.055852976 -0.10446575 0.015604734
-0.054899625 -0.10462004 0.015086263
-0.053492155 -0.10389823 0.014442146
-0.051207818 -0.10141156 0.014475942
-0.051280864 -0.10358734 0.014531016
-0.04978054 -0.10260887 0.014523596
-0.049166739 -0.10345501 0.015000701
-0.04865713 -0.10456107 0.014723569
-0.046852786 -0.10287242 0.014543384
-0.046399493 -0.10414108 0.014281452
-0.045609973 -0.10469562 0.013372421
-0.044159807 -0.1037242 0.012532622
-0.043511569 -0.10463496 0.011950046
-0.042237889 -0.10404944 0.010949105
-0.041625697 -0.10510489 0.010041296
-0.041139979 -0.106542 0.0074951947
-0.039925691 -0.10611828 0.0067857504
-0.039052647 -0.10660317 0.0057617724
0.16736321 -0.1104816 0.0092126727
-0.11590622 -0.10732058 0.0052586496
-0.11407391 -0.10661113 0.0061083436
-0.1119451 -0.10560858 0.007114619
-0.11313159 -0.10774437 0.0085077882
-0.1101473 -0.10591087 0.0095577538
-0.10836451 -0.10520826 0.010759771
-0.10717881 -0.10507727 0.012678951
-0.10469503 -0.10365845 0.013223708
-0.10167544 -0.10167544 0.013943404
-0.10271116 -0.10374865 0.014950305
-0.10053112 -0.10258278 0.015565723
-0.10000502 -0.10309796 0.016372412
-0.098460414 -0.10256293 0.016694069
-0.096635416 -0.1017215 0.016886771
-0.096609183 -0.10277573 0.016742885
-0.095119551 -0.10227908 0.016881138
-0.094033733 -0.10221058 0.016889721
-0.093516178 -0.10276503 0.017018408
-0.0918433 -0.10204811 0.016800106
-0.090644807 -0.1018481 0.016782552
-0.090652615 -0.10301434 0.016754776
-0.08925283 -0.10258946 0.016904682
-0.088357791 -0.10274161 0.016730934
-0.088452518 -0.10406178 0.016452342
-0.086517833 -0.10299741 0.016011626
-0.085696414 -0.10324869 0.016270518
-0.085010223 -0.10367101 0.015839845
-0.08270625 -0.10210648 0.015980393
-0.083148308 -0.10393538 0.015980393
-0.081389956 -0.10302527 0.01602447
-0.079279222 -0.10164003 0.016032875
-0.079329439 -0.10302525 0.015942127
-0.078312024 -0.10304214 0.015889287
-0.076702416 -0.10226989 0.016004622
-0.075866692 -0.10252255 0.016066611
-0.075502157 -0.10342761 0.016097009
-0.073448338 -0.10201158 0.016218483
-0.073378213 -0.1033496 0.016197085
-0.07142251 -0.10203215 0.016260892
-0.070496865 -0.10216937 0.016145229
-0.069806732 -0.10265696 0.015867561
-0.069126651 -0.10317411 0.015828639
-0.067214519 -0.10184018 0.015512854
-0.066999793 -0.10307661 0.015790582
-0.065460742 -0.10228241 0.015851229
-0.065198064 -0.10348898 0.015915632
-0.063703008 -0.10274678 0.015754253
-0.062680379 -0.10275472 0.01528725
-0.062777437 -0.10462906 0.015205622
-0.060739223 -0.10294783 0.014866382
-0.059225202 -0.10211242 0.014698207
-0.058564488 -0.10274472 0.014794618
-0.056900926 -0.1016088 0.014996886
-0.056964926 -0.10357259 0.01500541
-0.056176662 -0.10403086 0.014946997
-0.055128727 -0.10401647 0.014321327
-0.053418308 -0.10272752 0.014021069
-0.053069375 -0.1040576 0.013805628
-0.051287569 -0.10257514 0.013796479
-0.049971744 -0.10198315 0.01398766
-0.048773643 -0.10161176 0.014054865
-0.04831735 -0.10280287 0.014020205
-0.046787202 -0.10171131 0.01398766
-0.046171021 -0.10260227 0.013283044
-0.045302201 -0.10295954 0.013162315
-0.044678744 -0.10390405 0.0117926
-0.04352748 -0.10363685 0.011337548
-0.042568192 -0.10382486 0.010563612
-0.041823365 -0.10455842 0.0090641081
-0.040729012 -0.10443336 0.0071796179
-0.039862759 -0.104902 0.0059507489
-0.039195832 -0.10593468 0.0052841604
0.16726202 -0.10932158 0.0065403581
-0.11272544 -0.10528131 0.0056077838
-0.11184596 -0.10545477 0.0070408583
-0.11011806 -0.10482392 0.0080091655
-0.10925049 -0.10500776 0.010115951
-0.10575976 -0.10264918 0.011693209
-0.10335363 -0.10130702 0.012781292
-0.10383598 -0.10279762 0.013408333
-0.10212576 -0.10212576 0.014405847
-0.10064611 -0.10167311 0.015268713
-0.10052306 -0.10259571 0.015673131
-0.098483063 -0.10156066 0.016566873
-0.097460926 -0.10156455 0.016723961
-0.095797516 -0.10089312 0.016505808
-0.094736919 -0.10084898 0.016661108
-0.09505114 -0.10228329 0.016670793
-0.093195111 -0.10138809 0.016727984
-0.092214301 -0.10143573 0.01660952
-0.092805013 -0.10323255 0.0163818
-0.090404011 -0.10170452 0.015802681
-0.090038076 -0.10245712 0.01587218
-0.087546222 -0.10077995 0.015733123
-0.086817443 -0.10111678 0.01565969
-0.086116381 -0.10149431 0.015759557
-0.084853329 -0.10121059 0.015813112
-0.083871625 -0.10125965 0.015790045
-0.083099298 -0.10156581 0.015723974
-0.082282692 -0.10182483 0.015936464
-0.081591532 -0.10224762 0.015882045
-0.080937907 -0.10272888 0.015954733
-0.079325356 -0.10198975 0.015975505
-0.077870965 -0.10143717 0.01587382
-0.077894866 -0.10282122 0.016031802
-0.074984476 -0.10031707 0.016197085
-0.07526008 -0.10206504 0.01624316
-0.074042954 -0.10180906 0.016201317
-0.072792441 -0.10149933 0.016135871
-0.071643293 -0.10132408 0.016201317
-0.070792586 -0.10157198 0.016020477
-0.069588736 -0.10131301 0.01581794
-0.069274738 -0.10236118 0.015705526
-0.068652891 -0.10297934 0.015433043
-0.066771932 -0.10169879 0.0156793
-0.066486843 -0.10284684 0.015712261
-0.065078527 -0.10226626 0.015577257
-0.063418821 -0.10126553 0.015384227
-0.063786961 -0.10352311 0.015203953
-0.061926231 -0.10217828 0.015074581
-0.060295992 -0.10117463 0.014531523
-0.060216043 -0.10278255 0.014348596
-0.058278952 -0.10122134 0.014607102
-0.057409778 -0.10149229 0.014726192
-0.057770982 -0.10398777 0.014625758
-0.055883557 -0.10245319 0.014660239
-0.054495435 -0.10179336 0.013903707
-0.053776551 -0.10238228 0.013110161
-0.052767899 -0.1024318 0.013152987
-0.050345089 -0.099683277 0.013144284
-0.050538391 -0.10210817 0.012945443
-0.048647378 -0.10033522 0.012867242
-0.048455801 -0.10206647 0.012865096
-0.047366455 -0.10194085 0.012837917
-0.046481684 -0.10225971 0.012088776
-0.0457354 -0.10290465 0.011613965
-0.044483315 -0.10241508 0.011109382
-0.04323823 -0.10191868 0.010460556
-0.042829588 -0.10341778 0.0092564523
-0.0419681 -0.10387105 0.0077780485
-0.041251849 -0.10471623 0.006172955
-0.040166978 -0.10464554 0.0055465996
-0.11185077 -0.10539784 0.0063872337
-0.10770921 -0.1024806 0.0092904568
-0.10484048 -0.10072909 0.010702223
-0.10447645 -0.1013732 0.012372494
-0.10185007 -0.099813066 0.013119429
-0.10269409 -0.10165678 0.014127791
-0.1009905 -0.1009905 0.014636874
-0.09985701 -0.10088646 0.015414268
-0.098854616 -0.10091409 0.015966028
-0.097672582 -0.10075698 0.01643762
-0.096244425 -0.10033993 0.016313732
-0.095666066 -0.1008094 0.016395539
-0.094634205 -0.100806 0.016020328
-0.092985801 -0.10013855 0.016187847
-0.093427919 -0.10173262 0.015828222
-0.092296474 -0.10162983 0.015493095
-0.089708492 -0.099902637 0.015336156
-0.090458959 -0.1018963 0.015235752
-0.087139666 -0.099298693 0.015332222
-0.087695494 -0.10110775 0.01513657
-0.086627342 -0.10106523 0.015332222
-0.085113071 -0.10049495 0.015634835
-0.084429055 -0.10090302 0.015567958
-0.083765328 -0.1013457 0.015656412
-0.081397049 -0.099711388 0.015729159
-0.082452476 -0.10228282 0.015755028
-0.0802726 -0.10085532 0.015770406
-0.078818731 -0.10031474 0.015883058
-0.078172833 -0.1008018 0.01585865
-0.076564617 -0.10004443 0.016047567
-0.074926987 -0.09922763 0.016045481
-0.075758696 -0.10170345 0.016185254
-0.074077204 -0.10082731 0.016031802
-0.073484465 -0.10142926 0.015964568
-0.071959548 -0.10074337 0.015900493
-0.070706405 -0.10042358 0.015825361
-0.069985248 -0.10086109 0.01550746
-0.069023661 -0.10095998 0.015333176
-0.068122603 -0.10115175 0.015175551
-0.066833965 -0.10076505 0.015203953
-0.06627357 -0.1014814 0.015263408
-0.065604627 -0.10205165 0.015238166
-0.064435787 -0.10185012 0.015094519
-0.063132286 -0.10142564 0.015011162
-0.061052568 -0.099719189 0.014676303
-0.06047919 -0.10045696 0.014216661
-0.059897639 -0.10120635 0.014002502
-0.058810305 -0.10111246 0.014390737
-0.057741247 -0.10104718 0.014604747
-0.057054635 -0.10166099 0.014563531
-0.055945203 -0.10153018 0.01440835
-0.055297878 -0.10224891 0.013329357
-0.052709315 -0.099336781 0.013256431
-0.052041471 -0.10000126 0.013040513
-0.052177452 -0.1022678 0.013260871
-0.050547414 -0.10109483 0.012986034
-0.049855355 -0.10178801 0.012859344
-0.048765905 -0.1016821 0.012199789
-0.047579017 -0.10136399 0.011845648
-0.047062177 -0.10249097 0.011258513
-0.045667116 -0.10171312 0.010642081
-0.044282321 -0.1009225 0.0094297826
-0.044256866 -0.10326602 0.0088912547
-0.043282911 -0.10345672 0.0077780485
-0.042581089 -0.10432366 0.0060304105
-0.040952582 -0.10290649 0.0052466989
-0.1066061 -0.10039604 0.0059509277
-0.10545428 -0.10028495 0.0088015795
-0.10365341 -0.099548325 0.010300815
-0.10345428 -0.10035065 0.012323648
-0.10293137 -0.10085195 0.013282359
-0.10065614 -0.099629037 0.014203727
-0.10007814 -0.10007814 0.014661789
-0.099107459 -0.10013983 0.015118688
-0.097688422 -0.09974502 0.015381038
-0.09687347 -0.099965177 0.015635431
-0.096091971 -0.10022496 0.01566726
-0.094010659 -0.099119939 0.015216351
-0.093488552 -0.099652633 0.014973044
-0.092981994 -0.10021393 0.015032113
-0.091650635 -0.099888898 0.014754981
-0.090973988 -0.10027815 0.014693052
-0.088810533 -0.099018633 0.014596641
-0.088235341 -0.099521257 0.014782608
-0.088779524 -0.1013131 0.014652967
-0.086651616 -0.10006198 0.014960021
-0.085804395 -0.10027742 0.015118986
-0.084050119 -0.099425144 0.015105695
-0.082925923 -0.099306352 0.015742332
-0.082959518 -0.10058842 0.015693069
-0.081806496 -0.10044595 0.015605241
-0.080739051 -0.10040626 0.015699446
-0.079763278 -0.10048101 0.01579994
-0.077892825 -0.099415846 0.015763909
-0.076185606 -0.098533385 0.015930861
-0.076068595 -0.09971153 0.015934646
-0.075255476 -0.099997006 0.015892446
-0.074247971 -0.10002851 0.015845835
-0.074100547 -0.10123596 0.015722722
-0.071126454 -0.098560944 0.01568985
-0.070804499 -0.099536754 0.015579313
-0.070551641 -0.10063984 0.015321732
-0.069091208 -0.10002757 0.015109599
-0.068244278 -0.1002984 0.015035003
-0.067623951 -0.10091574 0.015252531
-0.065563701 -0.09936998 0.015274346
-0.065266445 -0.10048961 0.015160859
-0.064428367 -0.10079921 0.015109599
-0.062873669 -0.099979438 0.015024483
-0.061661161 -0.099685542 0.014676303
-0.060683299 -0.099767461 0.014216661
-0.059540551 -0.099576436 0.014201105
-0.05956655 -0.10136764 0.014374763
-0.058276858 -0.10094384 0.014636993
-0.057682972 -0.10173179 0.014463097
-0.056077648 -0.10073207 0.01410526
-0.054926839 -0.10052648 0.013291299
-0.052848991 -0.098583691 0.012812555
-0.052694831 -0.1002235 0.012713581
-0.052219514 -0.10130586 0.012424737
-0.051419452 -0.10178953 0.012145072
-0.049648236 -0.10033081 0.011886388
-0.048757486 -0.10062715 0.011190861
-0.048053555 -0.10133032 0.011245877
-0.046813969 -0.1009101 0.01017347
-0.045852002 -0.10108282 0.0092902482
-0.04529665 -0.10218081 0.0085543394
-0.043788102 -0.10112967 0.0070645809
-0.043012366 -0.10176096 0.0059434474
-0.042689651 -0.10352241 0.0052976608
-0.10472419 -0.098563947 0.0062419176
-0.10558651 -0.10035945 0.00883919
-0.10383388 -0.099680521 0.011081547
-0.10194307 -0.098853879 0.012444466
-0.099613622 -0.097580686 0.013164967
-0.10147785 -0.10043168 0.013789862
-0.098581582 -0.098581582 0.013954163
-0.099217087 -0.10026147 0.013913602
-0.097286761 -0.099356696 0.013882279
-0.096041471 -0.099139586 0.014431089
-0.095065385 -0.099198669 0.014077306
-0.094752349 -0.099958524 0.014034599
-0.092232876 -0.098381735 0.013790905
-0.092226751 -0.09948054 0.013531566
-0.091050789 -0.099328138 0.013531566
-0.090093069 -0.099413045 0.013707101
-0.088808067 -0.099134587 0.013924539
-0.087703936 -0.099053852 0.013991803
-0.087142244 -0.099591136 0.01434207
-0.086363122 -0.099889874 0.0147385
-0.083898522 -0.098222658 0.014797837
-0.083447501 -0.098900743 0.015135795
-0.081916176 -0.098299406 0.015216649
-0.08199764 -0.099642709 0.015366435
-0.078911498 -0.097121842 0.015366435
-0.07926923 -0.098829173 0.015455216
-0.077801608 -0.098275714 0.015213042
-0.077604853 -0.099334218 0.015361875
-0.076709442 -0.099514954 0.01560089
-0.074608333 -0.098115064 0.015490055
-0.074118793 -0.09882506 0.015364856
-0.073825628 -0.099820569 0.015317917
-0.071841747 -0.09852583 0.015317917
-0.071128145 -0.098960899 0.015317917
-0.069996342 -0.098818362 0.015211791
-0.069114491 -0.09902972 0.015081614
-0.068483628 -0.099612549 0.014920413
-0.067251496 -0.099325292 0.015100271
-0.06581869 -0.098728038 0.015160859
-0.064935178 -0.098948844 0.015031606
-0.064494573 -0.099862561 0.014786899
-0.063488647 -0.099916555 0.014607102
-0.06214796 -0.099436738 0.014310896
-0.060890719 -0.099076428 0.013694912
-0.05940821 -0.098330833 0.013466418
-0.058656313 -0.09878958 0.013415873
-0.058008593 -0.099443302 0.013672322
-0.057946112 -0.1011423 0.013387859
-0.054952547 -0.097693421 0.013073742
-0.055040732 -0.09969642 0.012755841
-0.054075383 -0.099831469 0.012268096
-0.052639462 -0.099086046 0.012062252
-0.051218521 -0.098339565 0.011820525
-0.051442873 -0.10078604 0.011323661
-0.05005376 -0.10010752 0.010943651
-0.049385902 -0.10087333 0.0099666119
-0.048475694 -0.10116667 0.0098498464
-0.046546407 -0.099299006 0.0087652802
-0.046332575 -0.10108925 0.0076954961
-0.045317322 -0.10117355 0.0066331029
-0.043772832 -0.10005219 0.005580008
-0.10566769 -0.099390395 0.0053264797
-0.10379096 -0.098601416 0.0099761188
-0.10262633 -0.098479807 0.010987401
-0.10160737 -0.098496944 0.012034118
-0.10029127 -0.098223403 0.012845546
-0.10074595 -0.09969651 0.012991786
-0.099293776 -0.099293776 0.012907416
-0.096621349 -0.097649232 0.012773991
-0.097578026 -0.099676475 0.012702167
-0.096548326 -0.099696644 0.011834949
-0.094434485 -0.098585449 0.012271345
-0.094480872 -0.099729806 0.012051165
-0.093096726 -0.099372908 0.012271345
-0.091251783 -0.098510444 0.012294978
-0.091303997 -0.099699765 0.012690812
-0.088445745 -0.097701699 0.012881786
-0.088471122 -0.098879486 0.01293844
-0.087185569 -0.098602727 0.013345838
-0.085605554 -0.097982258 0.013771623
-0.084149241 -0.097489975 0.01382038
-0.083364457 -0.097773135 0.014421344
-0.082203731 -0.097616933 0.014506042
-0.081312649 -0.097781032 0.01448226
-0.080154084 -0.097623564 0.014615208
