ply
format ascii 1.0
comment PCL generated
element vertex 1321
property float x
property float y
property float z
element camera 0
property float view_px
property float view_py
property float view_pz
property float x_axisx
property float x_axisy
property float x_axisz
property float y_axisx
property float y_axisy
property float y_axisz
property float z_axisx
property float z_axisy
property float z_axisz
property float focal
property float scalex
property float scaley
property float centerx
property float centery
property int viewportx
property int viewporty
property float k1
property float k2
end_header
0.03412459 -0.11168047 0.011903197
0.034854203 -0.11071336 0.012384057
0.035733514 -0.11026341 0.012623727
0.037319995 -0.11195998 0.013146609
0.037878647 -0.11056471 0.013089478
0.039066464 -0.111031 0.013675332
0.03970718 -0.10995834 0.013820976
0.040634278 -0.10971256 0.013641536
0.041644894 -0.10969874 0.01323244
0.042624868 -0.1096068 0.012780547
0.044201817 -0.11101852 0.012810946
0.044881366 -0.11016336 0.012739778
0.045668676 -0.10960482 0.012710273
0.047640696 -0.11185207 0.012780547
0.049159553 -0.11296238 0.012683898
0.049878884 -0.11222748 0.012533605
0.050692685 -0.11173082 0.011737466
0.051249526 -0.11069898 0.011060476
0.05290056 -0.11202472 0.010879904
0.054439008 -0.11306563 0.011458755
0.055136804 -0.11235424 0.011571586
0.05710841 -0.11421682 0.011909962
0.057491809 -0.11289301 0.012468845
0.057874143 -0.11161442 0.013265461
0.057282832 -0.10853589 0.013672471
0.059696753 -0.11115947 0.014136761
0.059574727 -0.10905204 0.014668733
0.059917223 -0.10785101 0.015307724
0.062213868 -0.11014915 0.015278041
0.062204875 -0.10835688 0.01616016
0.063993081 -0.10970242 0.016245335
0.064281322 -0.10847473 0.016903549
0.065337941 -0.1085615 0.016243428
0.067954302 -0.11119795 0.015713453
0.067856051 -0.1093799 0.015709609
0.067648038 -0.10744101 0.015709609
0.069625109 -0.10897844 0.015717894
0.070941083 -0.10945196 0.01560995
0.070402719 -0.10709146 0.015648842
0.07413426 -0.1112014 0.015778601
0.072462738 -0.10720515 0.015758932
0.073940024 -0.10791247 0.015620053
0.076302931 -0.10987622 0.015532285
0.076037675 -0.10805354 0.015685141
0.07765846 -0.10892355 0.01557076
0.07943707 -0.10998979 0.016089857
0.079528198 -0.10872209 0.015892774
0.080247372 -0.10833395 0.016107708
0.082181565 -0.10957542 0.016013414
0.081320569 -0.10710514 0.016083837
0.084198616 -0.10955964 0.016097814
0.085102372 -0.10941734 0.016497165
0.084932901 -0.10791475 0.016277492
0.086744092 -0.10893444 0.016403228
0.089058645 -0.11055555 0.015866339
0.08880616 -0.10898937 0.015821785
0.090521753 -0.10984662 0.015720904
0.091058299 -0.10926996 0.015922427
0.093468376 -0.1109295 0.01556325
0.0954649 -0.11206749 0.015649825
0.094511122 -0.10975485 0.015642434
0.093945518 -0.1079374 0.015512526
0.095682822 -0.10877626 0.015599519
0.096412256 -0.10846379 0.015477747
0.099024162 -0.11025371 0.015761703
0.09908998 -0.1092012 0.015897602
0.098668538 -0.10763841 0.016173869
0.10025042 -0.10827045 0.016399503
0.10082942 -0.1078176 0.016632408
0.10078749 -0.10671617 0.017074198
0.10418858 -0.10924628 0.017265946
0.10476258 -0.1087919 0.018122047
0.10547476 -0.10848832 0.018589318
0.10848068 -0.11052749 0.019098073
0.10622237 -0.1072151 0.019439161
0.10757004 -0.10757004 0.019166172
0.10844868 -0.10745374 0.0192191
0.10802917 -0.10606501 0.019336432
0.11048137 -0.10749539 0.019506782
0.11090679 -0.10694584 0.018231511
0.11399204 -0.10894814 0.017635673
0.11728918 -0.11111606 0.016467273
0.11873401 -0.11150672 0.015952766
0.11980275 -0.11154049 0.015431881
0.12279744 -0.11335149 0.014566153
0.12151778 -0.11121967 0.013588727
0.12030408 -0.10918353 0.013643414
0.12337843 -0.11104058 0.013583958
0.12192513 -0.10882574 0.013808072
0.12251242 -0.10845362 0.013450593
0.12646092 -0.11103886 0.012314081
0.12591168 -0.10966501 0.011441588
0.12467789 -0.10772169 0.011794835
0.1296459 -0.11112505 0.0099179745
0.12859432 -0.10935581 0.0094263554
0.13210586 -0.11146432 0.0090302527
0.13344997 -0.11172556 0.008197546
0.13211124 -0.10975395 0.0067310035
0.13599946 -0.11212169 0.0050236881
0.16767512 -0.11835891 0.0057235956
0.023924977 -0.11130316 0.0053041875
0.025075462 -0.11179477 0.006403476
0.025696231 -0.10997987 0.0067844391
0.027050752 -0.11132425 0.0073825419
0.027947331 -0.11075424 0.0079880655
0.028943995 -0.11060742 0.0089713633
0.030071698 -0.1109542 0.0094089806
0.030835019 -0.10997824 0.0096258223
0.031918321 -0.11016969 0.010248601
0.033123925 -0.11075813 0.010969728
0.034041572 -0.11037722 0.011565208
0.034621857 -0.10895702 0.011808932
0.035959866 -0.10993445 0.012306452
0.037013873 -0.11001346 0.012607872
0.038210936 -0.11050189 0.012494236
0.038716029 -0.10901619 0.013028294
0.038976252 -0.10693484 0.01291281
0.041017052 -0.10972061 0.01291281
0.041477822 -0.108247 0.012734592
0.043164734 -0.10996731 0.012410432
0.043834023 -0.10907536 0.012431413
0.0444129 -0.1080041 0.011867881
0.046257403 -0.10998982 0.011908799
0.047824915 -0.11124492 0.012042195
0.04854773 -0.11052355 0.011569589
0.049514938 -0.11037705 0.011510789
0.050818503 -0.11097102 0.0110057
0.05121354 -0.10959698 0.010693878
0.052784991 -0.11074498 0.010868192
0.053611096 -0.11031514 0.011467069
0.053452406 -0.10791335 0.011688501
0.054501481 -0.10799368 0.012065142
0.055908952 -0.10876833 0.013177961
0.057360332 -0.10959921 0.013550043
0.057095416 -0.10717911 0.013966113
0.058160052 -0.10729527 0.014582276
0.059437145 -0.10779279 0.015042335
0.060744401 -0.10832752 0.015750885
0.060853083 -0.10674229 0.016244143
0.062989078 -0.10870696 0.016876638
0.063517049 -0.10787816 0.016945273
0.062976435 -0.10528873 0.017243683
0.065888993 -0.10846342 0.017047822
0.067213625 -0.10896754 0.016667098
0.066845588 -0.10675339 0.016572028
0.069764167 -0.10977598 0.016621888
0.06968151 -0.10805683 0.016572505
0.071052313 -0.10860854 0.016549587
0.072306544 -0.10896902 0.016397506
0.072513863 -0.10776366 0.016617656
0.073420472 -0.10761631 0.016550273
0.074901879 -0.10830407 0.01653105
0.075574785 -0.10782003 0.016019285
0.077694021 -0.109385 0.016444564
0.077793844 -0.10810313 0.016413242
0.078998663 -0.10836995 0.016302109
0.080315083 -0.10878119 0.016361803
0.080736913 -0.10798562 0.016599506
0.081401929 -0.10753094 0.016765386
0.081512123 -0.10636338 0.016659021
0.083170615 -0.10721995 0.016762018
0.082959346 -0.1056744 0.016762018
0.085766762 -0.10796522 0.016515613
0.087061465 -0.10832066 0.0164693
0.088582009 -0.10894569 0.015858829
0.087987609 -0.10698494 0.016074449
0.090243518 -0.10849501 0.016000688
0.091532476 -0.10882195 0.016334385
0.092164606 -0.10836937 0.015931457
0.09256155 -0.10765311 0.016020566
0.095169403 -0.10949598 0.016334385
0.096261986 -0.10957482 0.016063184
0.094029032 -0.10590638 0.016334385
0.097191282 -0.10832778 0.016495854
0.10056604 -0.11093367 0.016184628
0.098257639 -0.1072813 0.016119063
0.10179531 -0.11002119 0.016399503
0.10043517 -0.10746563 0.016719282
0.10060904 -0.10658582 0.016957015
0.10412201 -0.10922604 0.017242104
0.10444488 -0.10850099 0.017333835
0.1043243 -0.10733365 0.018042862
0.10533193 -0.10733825 0.018237948
0.10624657 -0.10724889 0.018587768
0.10570314 -0.10570314 0.019210488
0.10865309 -0.10764705 0.019472003
0.10791411 -0.10593404 0.019534528
0.10976873 -0.10677504 0.019412875
0.11073601 -0.10674553 0.019563287
0.11191645 -0.10692018 0.019042552
0.11342663 -0.10740397 0.018383145
0.115169 -0.10809722 0.016767114
0.1151995 -0.10718562 0.016116917
0.12179323 -0.11234376 0.015123248
0.12376337 -0.11318531 0.014238358
0.11832041 -0.10729054 0.013812572
0.12133151 -0.10909639 0.013719738
0.12192333 -0.10871498 0.012402982
0.12275901 -0.1085555 0.012274086
0.12531264 -0.10990535 0.012234211
0.12462553 -0.10841408 0.011458457
0.12426169 -0.10722581 0.010143131
0.12881936 -0.11026938 0.009694308
0.12732093 -0.10812175 0.0093754828
0.12814675 -0.10796616 0.0090986192
0.13473909 -0.11263346 0.0079218149
0.12961107 -0.10750686 0.0067310035
0.17487212 -0.12229618 0.0065843463
0.025238357 -0.11146941 0.0051154196
0.025969295 -0.11010981 0.0058726966
0.026907114 -0.10969823 0.0067230761
0.028055832 -0.11014511 0.0072726309
0.029054798 -0.10999317 0.0079180002
0.029822759 -0.10900733 0.0083087981
0.030953621 -0.10936946 0.0090852678
0.032027859 -0.10951461 0.0093773901
0.03243481 -0.1074403 0.010052085
0.03426303 -0.110057 0.011284769
0.03533696 -0.11016817 0.011492223
0.035733048 -0.10822009 0.012112528
0.037389003 -0.11008985 0.012442261
0.037980199 -0.10880814 0.012380272
0.038897716 -0.10850416 0.012859672
0.040229708 -0.10934228 0.012619972
0.041294526 -0.10943049 0.012650967
0.04144289 -0.10714503 0.012761563
0.042689394 -0.1077399 0.011888862
0.043527417 -0.10730014 0.011826009
0.044899099 -0.10816601 0.011140972
0.04660416 -0.10977869 0.011278778
0.048061255 -0.11074985 0.011099756
0.048589576 -0.109585 0.011095107
0.050188538 -0.11083303 0.010957301
0.049220331 -0.10647663 0.010868192
0.052117653 -0.11048942 0.010768205
0.052181929 -0.10845656 0.010898203
0.052360199 -0.10673425 0.011531353
0.053713955 -0.10742791 0.011761099
0.05496433 -0.10789294 0.012340367
0.054822899 -0.10565868 0.013538629
0.057022668 -0.10793577 0.013847172
0.058116447 -0.1080762 0.014112175
0.058728877 -0.10733209 0.014668196
0.060166717 -0.10809614 0.015623987
0.061339784 -0.10836695 0.016244143
0.062339656 -0.10832793 0.016296446
0.063190959 -0.10803615 0.016630381
0.062793091 -0.10565186 0.016971052
0.064998016 -0.10765296 0.017153352
0.066316552 -0.10814699 0.017391264
0.066036947 -0.10605934 0.016863108
0.066613406 -0.10538838 0.0171507
0.069710925 -0.10866704 0.017096877
0.068824962 -0.1057311 0.017009318
0.071345821 -0.10803796 0.017222077
0.071430318 -0.10664244 0.017013311
0.072077423 -0.10611399 0.017015606
0.07424023 -0.10780089 0.017029822
0.074909315 -0.10730253 0.016858011
0.075391382 -0.10655315 0.016870797
0.078241199 -0.10912587 0.01688385
0.077460133 -0.10663342 0.016919672
0.077683903 -0.10557043 0.016910315
0.081335373 -0.10913354 0.016923815
0.079847574 -0.10579804 0.017050713
0.081619963 -0.10681131 0.017105639
0.081800073 -0.10574156 0.017062962
0.082938746 -0.10592178 0.017081141
0.083704114 -0.10562662 0.017166287
0.085469678 -0.10658572 0.017158717
0.08737354 -0.10769297 0.017016143
0.087311283 -0.10637926 0.016944736
0.088575199 -0.10669285 0.01694417
0.089263752 -0.10631413 0.01694417
0.090695582 -0.10681924 0.016861796
0.092071898 -0.10724858 0.016535193
0.092025012 -0.10602882 0.016863763
0.093651757 -0.10674287 0.016831428
0.093687624 -0.10564775 0.016732901
0.094376713 -0.10530455 0.016770065
0.096964367 -0.10706482 0.016762167
0.096285433 -0.10521913 0.016452074
0.099894099 -0.10804871 0.016399503
0.09982641 -0.10688484 0.016916215
0.098966457 -0.10490444 0.016878843
0.10236903 -0.10743681 0.017414272
0.10222754 -0.10623647 0.017333835
0.10161374 -0.10457336 0.017670423
0.10553966 -0.10756926 0.018123627
0.10712083 -0.10814102 0.01827231
0.10484306 -0.10484306 0.01882118
0.10831994 -0.1073076 0.019100398
0.10866902 -0.10665663 0.019393712
0.10798649 -0.10501438 0.019529283
0.11113858 -0.10709718 0.019360602
0.11015935 -0.10519722 0.019611299
0.1118416 -0.10585009 0.019266993
0.11232318 -0.1053651 0.018648744
0.11105265 -0.10325948 0.017408639
0.11602137 -0.10694144 0.016704619
0.11759163 -0.10745442 0.015373945
0.11994117 -0.10866465 0.013975561
0.12284965 -0.11035646 0.013478637
0.1223865 -0.10901655 0.012343079
0.12051494 -0.10645486 0.012073994
0.12314641 -0.10788033 0.011288553
0.12394641 -0.10769115 0.011118621
0.12483457 -0.10758101 0.0096308887
0.12827408 -0.10965366 0.0093468726
0.12644513 -0.10722546 0.0086283386
0.12890254 -0.10844182 0.0079134405
0.13210204 -0.1102584 0.0070739686
0.13190269 -0.10923192 0.0059176385
0.17154093 -0.11884535 0.0073475242
0.027095823 -0.10942544 0.0058995783
0.028274514 -0.10995644 0.0065430403
0.029236132 -0.10963549 0.0073833466
0.029474216 -0.10671699 0.0078377128
0.031007312 -0.10852559 0.008320868
0.031958699 -0.10824721 0.0089496076
0.032802854 -0.10763437 0.0095386803
0.033947989 -0.10801633 0.010289818
0.035648674 -0.11009149 0.01120767
0.035910893 -0.10773268 0.011427313
0.037000213 -0.10791729 0.011939257
0.038232509 -0.10849766 0.011793017
0.038942695 -0.10760482 0.011980742
0.039920837 -0.10747918 0.011971056
0.040187202 -0.10549141 0.011983156
0.041631106 -0.10661625 0.011906892
0.042618237 -0.10654559 0.011261076
0.044406723 -0.10843502 0.010939419
0.045330133 -0.10817418 0.01076439
0.045898411 -0.1070963 0.010861486
0.048014157 -0.10959753 0.010717034
0.049550015 -0.11069684 0.010801762
0.048854161 -0.10686848 0.010739654
0.050636232 -0.10850621 0.0097654462
0.051740896 -0.10865588 0.010450214
0.051154774 -0.10531865 0.010646254
0.053197153 -0.10741732 0.01165089
0.053779297 -0.10654389 0.012251914
0.055030968 -0.10700466 0.012876868
0.056543496 -0.10794667 0.014051288
0.057041641 -0.10695308 0.014180154
0.057680551 -0.10625365 0.01440236
0.059474047 -0.10766853 0.015124619
0.059512023 -0.10591123 0.01605776
0.060327768 -0.10557359 0.016521513
0.061659656 -0.10613547 0.016409695
0.062182769 -0.10530953 0.016915202
0.063716747 -0.10619458 0.017176956
0.065247782 -0.10704714 0.017209023
0.065415271 -0.10567082 0.017201185
0.067630857 -0.10759454 0.017027736
0.067335494 -0.10552577 0.017013311
0.067913592 -0.10486658 0.017190367
0.069011293 -0.10501718 0.017197251
0.070136286 -0.10520443 0.017310739
0.071074925 -0.10511081 0.017055064
0.073129259 -0.10664684 0.017024279
0.073464639 -0.10566832 0.017050266
0.074447505 -0.10563497 0.016888887
0.075740024 -0.10603604 0.016841501
0.076081902 -0.10511315 0.017012954
0.077480838 -0.10565569 0.016990751
0.079354897 -0.10682391 0.016943932
0.07923387 -0.10531083 0.017014235
0.081342578 -0.10676213 0.017061293
0.08146482 -0.10560255 0.017439991
0.081860438 -0.10482129 0.017439991
0.084017776 -0.10628755 0.017498523
0.084275715 -0.10534465 0.017889887
0.084100395 -0.10388873 0.017889887
0.086358793 -0.10543806 0.017700255
0.087303601 -0.10536642 0.017312229
0.088867716 -0.10603534 0.017336428
0.090124339 -0.10632647 0.017270327
0.089984454 -0.10498186 0.017062217
0.089862421 -0.10368741 0.017289817
0.093690626 -0.10692952 0.016916752
0.093278073 -0.10531395 0.017011106
0.092940502 -0.10381652 0.016769558
0.094980188 -0.1049781 0.016667753
0.094645247 -0.10351823 0.016604304
0.096651055 -0.10462227 0.016562432
0.099278159 -0.10636946 0.01666978
0.098555848 -0.10452893 0.016941816
0.10145785 -0.10653074 0.016943365
0.10129268 -0.10530428 0.017475247
0.10072397 -0.10368644 0.017496943
0.10441555 -0.10644304 0.017799377
0.1045545 -0.10555984 0.018449008
0.10392467 -0.10392467 0.018577337
0.10601786 -0.10501769 0.018915027
0.10689086 -0.1048929 0.019056737
0.10713926 -0.10416317 0.019335479
0.11102949 -0.10695501 0.019456238
0.11051536 -0.10549194 0.019266993
0.10999403 -0.10404841 0.019563287
0.11162964 -0.10465279 0.019266993
0.10999979 -0.1022122 0.018698424
0.11347803 -0.10451924 0.018045217
0.11196922 -0.10223277 0.016203672
0.11527234 -0.10434134 0.015724033
0.12091894 -0.10851701 0.01430136
0.12353577 -0.1099259 0.013463587
0.12219091 -0.10781551 0.012027979
0.12457568 -0.10900372 0.010794282
0.12486624 -0.108355 0.0097393692
0.12484951 -0.10745245 0.0096626878
0.12858497 -0.10976766 0.0091851056
0.12734318 -0.10783091 0.0083502531
0.12764861 -0.10722482 0.0072973371
0.13061497 -0.1088458 0.0068745017
0.13102676 -0.10832921 0.0053427517
0.16973998 -0.11648822 0.0077483356
0.028116882 -0.10830206 0.0054058135
0.029133201 -0.10820903 0.0068425238
0.029943788 -0.10738462 0.007302165
0.031278826 -0.10843327 0.0075820088
0.032023296 -0.10743299 0.0084514022
0.033090334 -0.10754359 0.0092571378
0.033941437 -0.10696696 0.0096459985
0.035221949 -0.10773773 0.010501027
0.035423115 -0.10525726 0.011214435
0.036893737 -0.1065819 0.011683434
0.038455952 -0.10809241 0.011636168
0.038976088 -0.1066714 0.012090981
0.040128045 -0.10700812 0.011903465
0.041142363 -0.10697014 0.011638939
0.041693967 -0.10576031 0.011762261
0.042581983 -0.1054411 0.010939419
0.044570729 -0.10779897 0.010752678
0.045766499 -0.10817536 0.0106664
0.046791416 -0.10814016 0.010826826
0.048541896 -0.1097469 0.010623664
0.049231913 -0.1089387 0.01029706
0.048362236 -0.10478485 0.0099462867
0.050398096 -0.10696739 0.0096203983
0.05072714 -0.10551246 0.010365069
0.051317755 -0.10464797 0.010889441
0.05264632 -0.10529264 0.011563271
0.053645037 -0.10526573 0.012276828
0.05565488 -0.10718717 0.013445228
0.056847516 -0.10749348 0.014212906
0.056819819 -0.10552252 0.014431119
0.057971254 -0.10577212 0.014822185
0.057982817 -0.10396919 0.015651256
0.059053328 -0.104094 0.016263783
0.060929894 -0.10561182 0.016501248
0.061665196 -0.10513411 0.01683405
0.062202957 -0.10434045 0.017165244
0.063111506 -0.10418408 0.017296642
0.064648576 -0.10505394 0.017342627
0.0652394 -0.10438304 0.017209023
0.066829175 -0.10530657 0.017045587
0.066047862 -0.10252205 0.017122418
0.068516947 -0.10479063 0.017143667
0.069258802 -0.10439008 0.017259508
0.069747731 -0.1036252 0.017320991
0.071510464 -0.10474772 0.017324418
0.073076025 -0.10555425 0.017122418
0.073380142 -0.10454157 0.017204285
0.074085727 -0.10412048 0.017066598
0.075253733 -0.10435185 0.017121822
0.076466084 -0.10463779 0.017381608
0.078576006 -0.10612863 0.017247945
0.077780113 -0.10370681 0.017179668
0.079282545 -0.10437196 0.017005354
0.081845902 -0.10639967 0.0171583
0.081294745 -0.10437844 0.017348439
0.083033361 -0.1053106 0.017369658
0.082468145 -0.10333358 0.017636478
0.083401203 -0.10325863 0.017702073
0.085218951 -0.1042679 0.017960578
0.087378971 -0.10566759 0.017826229
0.086839616 -0.10380828 0.017702073
0.088134766 -0.10415927 0.017635643
0.088902012 -0.10388549 0.017478406
0.089716636 -0.10367256 0.01717788
0.092953876 -0.106233 0.017382115
0.092807338 -0.10491264 0.017069608
0.093902305 -0.10500903 0.017166436
0.094932355 -0.10503154 0.017062217
0.09537755 -0.10441332 0.016926378
0.097357661 -0.1054708 0.016837031
0.097669579 -0.1047179 0.016717762
0.097978741 -0.10397744 0.016917765
0.10043953 -0.10551223 0.016941637
0.10020942 -0.1042178 0.017008871
0.10118854 -0.10419414 0.017250687
0.10289922 -0.10491685 0.017309994
0.10418964 -0.10520119 0.017669648
0.10337396 -0.10337396 0.018000156
0.10563365 -0.10462761 0.018184662
0.10619886 -0.10419511 0.018397838
0.10677441 -0.10378074 0.018438011
0.10969184 -0.10562918 0.019095153
0.11049347 -0.10542496 0.019100398
0.11216649 -0.10604832 0.019338995
0.11255451 -0.10545647 0.01940766
0.11148191 -0.10351892 0.019297421
0.11353292 -0.10449047 0.018699199
0.11387616 -0.10388702 0.018171728
0.11030475 -0.099753864 0.016722083
0.11646909 -0.10442057 0.015891522
0.11739613 -0.10435212 0.014239579
0.11933088 -0.10517298 0.013212889
0.12100458 -0.1057519 0.011846989
0.12441286 -0.10782448 0.010666817
0.1243668 -0.10689379 0.0095234811
0.12775715 -0.10890773 0.0092675984
0.12924775 -0.10928265 0.0083668828
0.13051583 -0.10946488 0.0069353878
0.12794611 -0.10645116 0.0059216619
0.12748885 -0.10522889 0.0050117671
0.1712117 -0.11637919 0.0072297752
0.029136015 -0.10717891 0.0051067472
0.029923962 -0.10628166 0.0062550902
0.031013357 -0.10647919 0.0067417622
0.032054238 -0.10650279 0.0077479482
0.032611173 -0.10496721 0.0084472895
0.033940628 -0.10593589 0.0090438724
0.035241615 -0.10676137 0.0096000135
0.035913497 -0.1056883 0.010337651
0.037264287 -0.10661726 0.011217356
0.037787147 -0.10519125 0.011341512
0.038822412 -0.10522918 0.011700392
0.03941156 -0.10408694 0.011806965
0.04059229 -0.10452515 0.011368096
0.041692749 -0.10474031 0.01136449
0.043559518 -0.10682453 0.010833472
0.043987691 -0.10536586 0.010801762
0.045025207 -0.10539992 0.010614783
0.047237646 -0.10812172 0.010541767
0.048235595 -0.10800579 0.010126859
0.049416631 -0.10829602 0.0099672675
0.049345389 -0.10588698 0.0099462867
0.049254104 -0.10353413 0.0097435713
0.051081248 -0.10522737 0.010535955
0.051919445 -0.10485692 0.010980755
0.052386779 -0.10376612 0.012137771
0.05470052 -0.10630479 0.013076216
0.055134412 -0.10516378 0.014077455
0.056580253 -0.10595939 0.014745504
0.057609897 -0.10596106 0.014478713
0.05735071 -0.10363374 0.015077114
0.058969665 -0.10472199 0.015632451
0.059634857 -0.10410831 0.016243845
0.060313061 -0.10353742 0.016741008
0.061009124 -0.10301541 0.01683405
0.062868804 -0.10444333 0.017214924
0.06232921 -0.10190331 0.017296642
0.064905271 -0.10445692 0.017201185
0.065542355 -0.10385942 0.017113388
0.066297226 -0.10346386 0.01695779
0.068015717 -0.10456147 0.017100632
0.069346569 -0.10503966 0.017143667
0.069510199 -0.10376161 0.017405421
0.070567504 -0.10383504 0.017462939
0.071886949 -0.1042867 0.017320991
0.071604744 -0.10243457 0.017299742
0.074420236 -0.10500389 0.017190576
0.07435026 -0.10348752 0.017052889
0.075610608 -0.10383857 0.017092794
0.077075064 -0.104457 0.017266393
0.076573253 -0.10242915 0.017060429
0.078067504 -0.10308915 0.016974866
0.080068715 -0.10439339 0.017007798
0.07986258 -0.10282307 0.016865641
0.081387207 -0.10349237 0.016791135
0.084351912 -0.10595423 0.016871035
0.082327381 -0.1021653 0.017072827
0.084442802 -0.10354296 0.017386168
0.084709413 -0.10264787 0.017593801
0.086245924 -0.10329454 0.017408669
0.087568536 -0.10367309 0.017420262
0.088213973 -0.10325044 0.017556459
0.088709705 -0.10266404 0.017348439
0.08996141 -0.10295583 0.016908497
0.091362402 -0.10341018 0.017345816
0.094268098 -0.10553928 0.017069608
0.094406359 -0.10455758 0.017223686
0.094559103 -0.10361263 0.017089188
0.095434837 -0.10347145 0.017063856
0.096999496 -0.10407238 0.016926378
0.096358746 -0.10231908 0.016917616
0.099414468 -0.10448663 0.017119229
0.10172739 -0.10583758 0.017119825
0.1009828 -0.10401228 0.017240345
0.10353338 -0.10558355 0.017564833
0.10097661 -0.10196657 0.017810047
0.10225541 -0.10225541 0.018041044
0.10524385 -0.10423189 0.01820004
0.10522506 -0.10322078 0.018265426
0.10791737 -0.10486311 0.018440485
0.10839575 -0.10434357 0.01882118
0.10735559 -0.10238543 0.018983692
0.11068552 -0.10459274 0.019056737
0.11272486 -0.10555146 0.019188434
0.1108154 -0.1028287 0.019282669
0.11451942 -0.10531697 0.018884331
0.11501599 -0.10483759 0.018606603
0.11387736 -0.1028892 0.017138213
0.1137159 -0.10184989 0.016353786
0.11498604 -0.10209967 0.015072107
0.11529189 -0.10149628 0.014409155
0.11978973 -0.10456222 0.013271391
0.12408731 -0.1074033 0.012216508
0.12512936 -0.1074027 0.010573447
0.12510236 -0.10649208 0.0092312098
0.12613496 -0.10649099 0.0085679591
0.12778364 -0.10700581 0.0071706176
0.13056917 -0.10845666 0.0059796274
0.12933666 -0.1065734 0.0050309002
0.16993348 -0.11439967 0.0082161427
0.031324372 -0.10650287 0.0057432055
0.032472417 -0.10684472 0.0067824125
0.033190578 -0.10579497 0.0075195134
0.033142898 -0.10244168 0.0082291365
0.034899738 -0.10469922 0.0093362033
0.036467087 -0.10627551 0.0096771419
0.036628019 -0.10377938 0.01067853
0.037899133 -0.10447869 0.010717362
0.039201848 -0.10522601 0.011334449
0.039938726 -0.10445514 0.011270821
0.040725153 -0.10384914 0.010923713
0.04157576 -0.10343238 0.010960668
0.04322606 -0.10497757 0.0094841719
0.044166606 -0.10476729 0.0094119608
0.045374285 -0.10518584 0.0097540021
0.046622135 -0.10567684 0.009599328
0.047879208 -0.10616694 0.0097435713
0.049446478 -0.10730938 0.0094200671
0.049450111 -0.10508148 0.0094647706
0.050093338 -0.10427593 0.0094011724
0.051510084 -0.10508057 0.010611951
0.051798686 -0.10359737 0.011072159
0.053239316 -0.10443097 0.011714816
0.053986397 -0.10389835 0.012979299
0.055161521 -0.10419399 0.014036685
0.05633216 -0.10447055 0.014919698
0.057260435 -0.10429579 0.014943033
0.057164695 -0.10229472 0.015455693
0.05806455 -0.10211352 0.016071111
0.058777649 -0.1016156 0.016352385
0.06032842 -0.10255831 0.016994119
0.062056828 -0.10376716 0.017098665
0.062242292 -0.10239861 0.017201185
0.063132621 -0.10221472 0.017326772
0.064563751 -0.10289848 0.017201185
0.065067865 -0.1021065 0.016963691
0.066714361 -0.10310401 0.016664028
0.06692972 -0.101893 0.01696074
0.067465037 -0.10119756 0.017000735
0.069212176 -0.10231365 0.017048985
0.070668444 -0.10297402 0.01732555
0.071787126 -0.1031308 0.017143667
0.073843807 -0.10461206 0.017052889
0.073776744 -0.10308532 0.016920447
0.074518055 -0.10271408 0.016640097
0.076425001 -0.10393801 0.016647369
0.075820737 -0.1017594 0.017113358
0.077905022 -0.10319886 0.016860187
0.078562334 -0.10273536 0.016748786
0.078841336 -0.10179514 0.016836852
0.080762029 -0.10297158 0.016800404
0.08088582 -0.10185622 0.016725212
0.083012342 -0.10325926 0.016820103
0.082724951 -0.101662 0.017008871
0.08439438 -0.10247889 0.017152905
0.084725313 -0.10167037 0.017362028
0.086333156 -0.10239514 0.017347246
0.087846465 -0.10299241 0.016855299
0.088541441 -0.10262758 0.016855299
0.089847133 -0.10297088 0.016830623
0.089374729 -0.10129136 0.016667843
0.092412017 -0.1035827 0.01663506
0.093675226 -0.10385732 0.016643167
0.093353726 -0.10238796 0.016346693
0.093545035 -0.10150632 0.016425967
0.095759131 -0.10281506 0.016538978
0.096325338 -0.10234568 0.016414016
0.097149454 -0.10215716 0.016746223
0.09854921 -0.10257163 0.01684016
0.09851905 -0.10150447 0.017009467
0.10270382 -0.1047579 0.017049342
0.10201168 -0.1030217 0.017564833
0.10314643 -0.10314643 0.017894804
0.10309801 -0.10209706 0.018320084
0.10383089 -0.10183414 0.018466204
0.1042828 -0.10130329 0.018580973
0.10686842 -0.10283566 0.018489182
0.10569797 -0.10075881 0.018566519
0.10823008 -0.10221729 0.018782586
0.10942477 -0.10239749 0.018855512
0.11012967 -0.10212024 0.019027174
0.11064184 -0.10167088 0.019061983
0.11230951 -0.10228188 0.018433124
0.11315482 -0.10213975 0.01835534
0.11550447 -0.1033461 0.01699242
0.11496919 -0.10197267 0.014977545
0.11507359 -0.1011854 0.014147907
0.11635515 -0.10143782 0.013759375
0.12149057 -0.10501727 0.013055891
0.12041603 -0.10321374 0.01213342
0.12712127 -0.10805307 0.009842217
0.12485974 -0.10525366 0.0080397427
0.12635502 -0.10564109 0.006655395
0.13051587 -0.10823267 0.0060358942
0.16779977 -0.11186651 0.0082161427
0.032016881 -0.10431306 0.0054012537
0.033399105 -0.10541593 0.0063508451
0.033157248 -0.10148127 0.0071131289
0.035315085 -0.10490657 0.0079704225
0.036354568 -0.1049089 0.0090093613
0.036637343 -0.10278811 0.0097832084
0.038046509 -0.10385669 0.0099758506
0.038970139 -0.10357853 0.010864526
0.039801486 -0.10307565 0.010026783
0.040795486 -0.10300861 0.0098143816
0.042137079 -0.10380109 0.0096071362
0.043146431 -0.1037569 0.0089612305
0.044203624 -0.10382712 0.0087593794
0.045704894 -0.10491351 0.0089821219
0.046879366 -0.10521813 0.0087720156
0.048591241 -0.10668946 0.008589685
0.048676834 -0.10460341 0.0087670088
0.049827583 -0.10484554 0.0088880062
0.050302476 -0.1036847 0.0090219378
0.050787318 -0.10259039 0.010319322
0.052397352 -0.10376731 0.011072159
0.053918079 -0.1047255 0.011825532
0.054440312 -0.10374475 0.013253242
0.055875562 -0.104508 0.014217168
0.05632665 -0.10343622 0.014919698
0.056699727 -0.10226201 0.01521644
0.057791356 -0.10240223 0.015692681
0.058054771 -0.10109538 0.016118616
0.058581069 -0.10028285 0.016440868
0.060829982 -0.10239714 0.017154574
0.060970668 -0.10095143 0.017048985
0.063317969 -0.10314701 0.017682195
0.063425936 -0.10168284 0.017477065
0.064732209 -0.10215551 0.017539263
0.066000789 -0.10255507 0.017032743
0.066130161 -0.10119918 0.016669601
0.066743009 -0.1006126 0.016789109
0.068241544 -0.10135876 0.017016768
0.068265729 -0.09992519 0.017066598
0.069796145 -0.10070587 0.017201185
0.071661532 -0.10194105 0.017202735
0.072610162 -0.10185593 0.017000735
0.072963484 -0.10094947 0.016777813
0.076475792 -0.10437912 0.016378909
0.075519256 -0.10169926 0.016732156
0.076221943 -0.10129496 0.016987771
0.078152113 -0.10251122 0.016860187
0.078530759 -0.10168727 0.01634711
0.079795271 -0.10201674 0.016677439
0.080195144 -0.10124637 0.016601026
0.080848001 -0.10081047 0.016475201
0.082572393 -0.10170502 0.016588628
0.08300963 -0.10101172 0.016743511
0.083958745 -0.1009504 0.017081589
0.085031576 -0.10103752 0.017289221
0.086536579 -0.10163017 0.016985714
0.086621881 -0.10056103 0.016829997
0.089677252 -0.10292502 0.016851008
0.089130059 -0.10114759 0.016805887
0.09021695 -0.10124347 0.016524464
0.09153527 -0.10159409 0.016821235
0.093286887 -0.10241278 0.016667843
0.093845963 -0.10191873 0.016425967
0.094842277 -0.101905 0.016643167
0.095308192 -0.10132766 0.016643167
0.098166965 -0.10327983 0.016465724
0.097218074 -0.10122707 0.01648432
0.098366007 -0.10137721 0.016615629
0.099521987 -0.10153253 0.016864657
0.097801246 -0.098779254 0.016771168
0.10434555 -0.10434555 0.017196476
0.10188316 -0.1008843 0.017119825
0.10431368 -0.10228817 0.017645955
0.10383711 -0.10084181 0.017862201
0.10584495 -0.10181277 0.018071234
0.10625698 -0.10124486 0.018043756
0.10967589 -0.10352584 0.018127233
0.10804789 -0.10104478 0.018520713
0.10865103 -0.10067664 0.018698275
0.11110875 -0.10201804 0.018875718
0.11319052 -0.10299318 0.018675506
0.11290175 -0.10181318 0.01753667
0.11493276 -0.10272751 0.018153846
0.11637805 -0.10310686 0.015420049
0.11331547 -0.099520542 0.014637172
0.11802397 -0.10276224 0.013369828
0.11747948 -0.10141391 0.012836218
0.11830276 -0.10125914 0.012254238
0.12144174 -0.1030724 0.010935843
0.12511241 -0.10530295 0.0081443489
0.12569241 -0.1049168 0.0064522326
0.12733497 -0.10541665 0.0062138438
0.12846808 -0.10549005 0.0050082207
0.16522382 -0.10906932 0.012260735
0.033530638 -0.10478324 0.0050399005
0.034165062 -0.1035305 0.0057642758
0.036008377 -0.10590699 0.0069127083
0.036060918 -0.1030312 0.0077426136
0.037584893 -0.10440248 0.008489728
0.038087126 -0.10293818 0.0084468722
0.038918264 -0.10241648 0.0094583631
0.040022064 -0.10262068 0.008910805
0.041012056 -0.10253014 0.0088196099
0.041805673 -0.10196506 0.0085334182
0.043179844 -0.10280915 0.0077932775
0.044142433 -0.10265682 0.0077203512
0.045629274 -0.1037029 0.0077401698
0.046826366 -0.10405859 0.0077756643
0.048327852 -0.10506056 0.0077401698
0.049375869 -0.10505504 0.0077849627
0.049526703 -0.10318062 0.0082709789
0.05020934 -0.10246804 0.0085245967
0.051404271 -0.10280854 0.010211885
0.052544568 -0.10302857 0.010867
0.052836727 -0.1016091 0.011404961
0.054792829 -0.10338269 0.012631893
0.055437535 -0.1026621 0.01377067
0.055032577 -0.10005923 0.014668196
0.057068173 -0.10190745 0.015334278
0.057332415 -0.10058318 0.015649736
0.058314685 -0.10054256 0.015958726
0.059672512 -0.10113985 0.016711801
0.060329475 -0.10054912 0.017089099
0.061945662 -0.10155027 0.016726226
0.063037813 -0.10167389 0.017642736
0.063580215 -0.10092098 0.017831028
0.064686939 -0.10107334 0.017662585
0.065517619 -0.10079633 0.017488927
0.065698348 -0.099542946 0.017013729
0.067400776 -0.10059817 0.017083347
0.069556028 -0.10228828 0.0171839
0.068659388 -0.099506356 0.017268896
0.071268618 -0.10181231 0.017294407
0.072315551 -0.10185289 0.016994745
0.073076464 -0.10149509 0.016986251
0.073881999 -0.10120822 0.016466469
0.075028315 -0.10138961 0.016133606
0.075728573 -0.10097143 0.016326189
0.077131957 -0.10148942 0.016526937
0.077117227 -0.10015224 0.0162296
0.078591079 -0.10075779 0.016134471
0.081006572 -0.10253996 0.016311854
0.0806638 -0.10082975 0.01624015
0.080752216 -0.099694096 0.016346872
0.083028167 -0.10125387 0.016481251
0.082166381 -0.098995641 0.016683519
0.083765335 -0.099720635 0.016926348
0.08422903 -0.099092975 0.017115682
0.085689656 -0.099639133 0.016829997
0.088042408 -0.10119817 0.016665906
0.088262245 -0.100298 0.016646504
0.089350186 -0.10039347 0.016784549
0.091684371 -0.10187152 0.016660064
0.090609193 -0.099570543 0.01678896
0.092567749 -0.10061712 0.016646504
0.093966357 -0.10103909 0.016346693
0.093268886 -0.09922222 0.01662904
0.095046014 -0.10004844 0.016633898
0.097823948 -0.10189994 0.016435564
0.09639319 -0.099374421 0.01648432
0.099319287 -0.10134621 0.016756535
0.1000264 -0.10103677 0.016860992
0.10027637 -0.10027637 0.016738594
0.10244372 -0.10142943 0.017196476
0.1032545 -0.10122991 0.017055988
0.1013284 -0.098377086 0.017380923
0.10535513 -0.101303 0.017728657
0.10428207 -0.099316262 0.017811954
0.10568161 -0.099699639 0.017645955
0.10797974 -0.10091564 0.017811954
0.10843754 -0.10040513 0.017839432
0.10781267 -0.098910712 0.018203199
0.11224791 -0.10204355 0.018027574
0.11177067 -0.1006943 0.01796627
0.11254999 -0.10049106 0.017474949
0.11537907 -0.10210536 0.017831832
0.11306994 -0.099184163 0.014445961
0.11412132 -0.09923593 0.013668418
0.11764069 -0.10141439 0.01338619
0.11464597 -0.097988002 0.012754232
0.11919008 -0.10100854 0.011531115
0.12071205 -0.10143869 0.0083986819
0.12123539 -0.10102949 0.006655395
0.12746868 -0.10534601 0.0060047209
0.12808244 -0.10498561 0.0052647591
0.16523412 -0.10799616 0.0095884204
0.035494097 -0.10335046 0.005658716
0.036404181 -0.10297183 0.006464988
0.037583321 -0.10335413 0.0065202415
0.037807476 -0.10116055 0.0067811012
0.039612398 -0.10320073 0.0074959099
0.040048204 -0.10166083 0.0071574748
0.041242938 -0.10207627 0.0068043172
0.042017583 -0.10145709 0.0069321394
0.043313831 -0.10209689 0.006547153
0.04400098 -0.10130458 0.0063171387
0.04604676 -0.10360521 0.0065061748
0.046478987 -0.10225377 0.0066590607
0.048124652 -0.10357262 0.006757915
0.049821664 -0.10494351 0.0067934096
0.049041294 -0.10114767 0.0072444975
0.050459161 -0.1019481 0.0079745054
0.051296975 -0.10156801 0.0096239746
0.052249011 -0.10142455 0.010759741
0.053390767 -0.10164781 0.011352003
0.053864602 -0.10061501 0.012713283
0.054698598 -0.10028076 0.013377249
0.05633764 -0.10140775 0.014478713
0.056342356 -0.09960524 0.015253335
0.057281364 -0.099488683 0.015898854
0.058467086 -0.099797271 0.016311586
0.058753464 -0.098586321 0.016514361
0.060494158 -0.099815361 0.016654313
0.06199681 -0.10061777 0.016672701
0.061988153 -0.098981082 0.017339379
0.062453758 -0.098141626 0.017434984
0.064736597 -0.10013942 0.017359912
0.064665951 -0.098491222 0.01696527
0.066334605 -0.099501908 0.016669601
0.067548253 -0.099810101 0.016888112
0.068399459 -0.099581569 0.01677385
0.069926865 -0.10032985 0.01700151
0.070474133 -0.099670559 0.017088145
0.071062908 -0.099087715 0.016918331
0.073713705 -0.10135634 0.016789258
0.073314339 -0.099426292 0.016615063
0.07450147 -0.09967088 0.016087949
0.076391332 -0.10083655 0.016327739
0.076217391 -0.099283181 0.016702622
0.079521559 -0.10224201 0.016809672
0.079029836 -0.10030711 0.01618129
0.079496205 -0.099621832 0.016244113
0.081061304 -0.10031337 0.016162246
0.081633262 -0.099773988 0.016033709
0.08234942 -0.099421859 0.016137481
0.084034264 -0.10023364 0.016278177
0.084389888 -0.099459514 0.016426057
0.084072724 -0.097919993 0.016670197
0.087571591 -0.10080916 0.016614974
0.087657444 -0.099748127 0.016254246
0.088142484 -0.099160299 0.016423583
0.089978918 -0.10008891 0.016484737
0.089977965 -0.098975763 0.016235024
0.090372801 -0.09831766 0.016492158
0.092421204 -0.099453248 0.016505212
0.092976451 -0.098974936 0.016519397
0.094162688 -0.09917134 0.016519397
0.097103886 -0.10119247 0.016594559
0.095429242 -0.098411404 0.016420364
0.097814687 -0.099831484 0.01609382
0.099043176 -0.10005382 0.016528994
0.09705022 -0.09705022 0.016544372
0.10050986 -0.099504761 0.016876251
0.10233694 -0.10031046 0.017129153
0.10252021 -0.09950491 0.017202497
0.10332586 -0.099313207 0.017603785
0.10533032 -0.10026636 0.017645955
0.1051146 -0.099108055 0.017600775
0.10616294 -0.099152178 0.016794086
0.10589494 -0.097977556 0.016936302
0.10795823 -0.098961718 0.016936302
0.10913801 -0.099125348 0.016794086
0.10974402 -0.09876962 0.017266184
0.11076247 -0.09878815 0.016624928
0.11232758 -0.099289559 0.016377449
0.11212242 -0.098231144 0.015523851
0.11445829 -0.099397995 0.013355762
0.11472689 -0.098764889 0.013017267
0.11557496 -0.098637253 0.012299359
0.1175048 -0.099427134 0.011751562
0.12007735 -0.10074286 0.010915667
0.11929945 -0.099249125 0.0072500408
0.12545355 -0.10349918 0.0057245493
0.16469111 -0.10656483 0.0066076517
0.036440264 -0.10203274 0.0052558184
0.037386779 -0.10177512 0.0058580935
0.038358975 -0.10159945 0.0060627759
0.039450664 -0.10174119 0.0064707696
0.039846893 -0.10012809 0.0062521398
0.041658703 -0.10206382 0.0062307119
0.041621406 -0.099485308 0.0064472854
0.043377072 -0.10121316 0.0059715807
0.04496609 -0.10248085 0.0059247613
0.045572091 -0.10150147 0.0059715807
0.04728888 -0.10298467 0.0062055886
0.048905633 -0.10419026 0.0063039362
0.049185667 -0.10255735 0.0064747632
0.050111346 -0.10231066 0.0072874427
0.050027851 -0.1000557 0.0079741776
0.05103359 -0.10002583 0.0096221864
0.052963588 -0.10177317 0.010867
0.053450033 -0.10073275 0.011404961
0.053759884 -0.099405073 0.012766242
0.055796627 -0.10126054 0.013537496
0.055913478 -0.099627651 0.014603287
0.05653286 -0.098932505 0.015813529
0.05762504 -0.099074632 0.01621148
0.058002561 -0.098004326 0.01689294
0.058996011 -0.097993374 0.017015189
0.060497444 -0.098812498 0.016726226
0.061119482 -0.098191954 0.016707689
0.062790133 -0.099248916 0.017229885
0.063929297 -0.099445574 0.017493904
0.063630104 -0.097433597 0.017048448
0.066183358 -0.099784143 0.01676327
0.066841207 -0.099249065 0.016301781
0.066682324 -0.097535335 0.016437322
0.069022164 -0.099473119 0.016359299
0.070012756 -0.099438407 0.016659617
0.070648469 -0.098907858 0.016702622
0.071939997 -0.099297464 0.016686052
0.072610028 -0.098830312 0.016585439
0.073036306 -0.098048739 0.016390562
0.075392596 -0.099844247 0.016017526
0.076649159 -0.10015491 0.016232282
0.076825179 -0.099064052 0.016666502
0.07751786 -0.098659098 0.01693663
0.078863017 -0.099084303 0.016660988
0.079631232 -0.098783046 0.016737312
0.080251016 -0.09830749 0.01618129
0.080496758 -0.097391143 0.015964508
0.083105154 -0.099320792 0.016109943
0.083513647 -0.098606475 0.016137481
0.084528036 -0.098616049 0.016481251
0.085582294 -0.098671347 0.016808957
0.086865567 -0.098986343 0.01642248
0.086465932 -0.097398408 0.016213834
0.088743381 -0.098827854 0.016254246
0.08957956 -0.098638162 0.016373068
0.090416849 -0.098453902 0.015930504
0.092487574 -0.099602006 0.016119093
0.092122458 -0.09813045 0.015931636
0.092357241 -0.09732268 0.015913635
0.095581435 -0.099648729 0.01601091
0.094463706 -0.097446769 0.016178727
0.097558275 -0.099590741 0.015565425
0.098582044 -0.099598356 0.015962958
0.097070888 -0.097070888 0.015848607
0.098800562 -0.097802579 0.016142547
0.099489361 -0.097499572 0.016011685
0.09955094 -0.096593983 0.016464829
0.10482258 -0.10071189 0.016283602
0.10448088 -0.099408992 0.016794086
0.1031959 -0.097242288 0.017430335
0.10511306 -0.09810552 0.01651144
0.10471974 -0.096816361 0.016245574
0.10619254 -0.097260453 0.016142547
0.10997136 -0.099788822 0.016202122
0.10944751 -0.098402351 0.016219109
0.11014568 -0.098129794 0.015922129
0.11236244 -0.099202879 0.015122801
0.11236493 -0.098319314 0.014674991
0.11566649 -0.10031252 0.013980418
0.11641634 -0.1000772 0.012606114
0.11371697 -0.096906632 0.011672437
0.11736257 -0.099151134 0.011272281
0.11733337 -0.098279238 0.010580689
0.11989824 -0.099576503 0.0088603497
0.12168778 -0.10021347 0.006072998
0.1658393 -0.10622386 0.0062450469
0.039181244 -0.10001528 0.0053678751
0.040491164 -0.10070879 0.0054957569
0.041521847 -0.10069048 0.0054228306
0.041978177 -0.099314228 0.0052216947
0.047579005 -0.10032964 0.0051745176
0.049540941 -0.10224407 0.0060163736
0.049826629 -0.10069131 0.0067635477
0.049648799 -0.098284356 0.0072444975
0.051839091 -0.10056784 0.008792907
0.05330877 -0.10139119 0.010726243
0.053297311 -0.099419989 0.011448801
0.054895118 -0.10046842 0.013155013
0.055056639 -0.098898038 0.013367087
0.054508336 -0.096132882 0.014835089
0.057366073 -0.099366233 0.015636772
0.057219047 -0.097372763 0.016280174
0.05846272 -0.097773857 0.017117113
0.05911855 -0.097194903 0.017015189
0.06033916 -0.097548306 0.016726226
0.061173294 -0.09727557 0.016654313
0.062508389 -0.097795375 0.016795993
0.062850289 -0.096769489 0.017301798
0.064861581 -0.098305836 0.016795993
0.06562499 -0.097932674 0.016664028
0.066349037 -0.097512983 0.01614055
0.068508662 -0.099184185 0.01614356
0.069256298 -0.098792076 0.016198397
0.069576867 -0.097810954 0.016378909
0.071305484 -0.098809026 0.016615063
0.071386255 -0.097527698 0.016548634
0.071975857 -0.096967474 0.016349465
0.073538229 -0.097715177 0.016088754
0.074877828 -0.098150663 0.016073495
0.075860649 -0.098113112 0.016312987
0.078321159 -0.099962525 0.016495347
0.078210838 -0.098525345 0.016637027
0.079204157 -0.09849748 0.016412139
0.080201156 -0.098474845 0.016571105
0.079870805 -0.096843347 0.015982985
0.082379378 -0.098651849 0.016008139
0.0834971 -0.098770954 0.016120374
0.083428979 -0.097501338 0.016217023
0.084318265 -0.097367525 0.016375303
0.085822046 -0.097938105 0.01693517
0.086173795 -0.09719602 0.016518295
0.087670743 -0.097747847 0.016190886
0.088326827 -0.097360253 0.016057283
0.089363046 -0.097395681 0.016284376
0.090484306 -0.097521976 0.015995204
0.090433896 -0.096396573 0.01564607
0.092819355 -0.097863883 0.01531896
0.093783222 -0.097816914 0.015302837
0.094436154 -0.097450078 0.015508473
0.09532702 -0.097333901 0.015950859
0.096575931 -0.09758193 0.015486777
0.096758716 -0.096758716 0.015472561
0.099494815 -0.098479562 0.015732616
0.098734714 -0.096740074 0.016109198
0.099914983 -0.096917532 0.016114742
0.10016359 -0.096196719 0.016484588
0.10335881 -0.098292194 0.016339302
0.1038105 -0.097763292 0.016813844
0.10509042 -0.098017029 0.017233342
0.10554649 -0.097504854 0.016728431
0.10537317 -0.096426398 0.016202122
0.10838787 -0.09825816 0.016114742
0.10837622 -0.097337902 0.01593411
0.10922298 -0.097198434 0.015753478
0.11217438 -0.09891741 0.015807033
0.11106823 -0.097059622 0.014823198
0.11545736 -0.099994317 0.013898969
0.11689331 -0.10034204 0.013426572
0.11620262 -0.098874159 0.011978775
0.11683206 -0.098545298 0.010924071
0.11853148 -0.099116839 0.010356009
0.11858585 -0.098314762 0.0089812279
0.12221405 -0.10046409 0.0068292022
0.16315231 -0.10343643 0.0064725578
0.050750308 -0.10150062 0.005954951
0.05086714 -0.099658072 0.0064401925
0.051263466 -0.098425858 0.00815323
0.052712794 -0.099224083 0.010402471
0.05404735 -0.099779725 0.011513889
0.054275971 -0.098311193 0.013142556
0.053818073 -0.095676571 0.014093339
0.056060426 -0.097850926 0.015068829
0.056826178 -0.097416304 0.016184717
0.056764722 -0.095603742 0.016308814
0.058669768 -0.09710858 0.016732126
0.058687344 -0.095491275 0.016732126
0.060510125 -0.096816204 0.017028481
0.061667509 -0.097050503 0.016810715
0.062078055 -0.096120864 0.016918331
0.062942959 -0.095913075 0.016830534
0.06431856 -0.096477844 0.016712993
0.064922459 -0.095885478 0.016630322
0.067287885 -0.097873293 0.016079336
0.067170694 -0.096244574 0.01615563
0.06780567 -0.095725648 0.01614055
0.070668139 -0.098320894 0.01615563
0.07132113 -0.097811833 0.016539961
0.071410239 -0.096554689 0.015944749
0.072804719 -0.097072966 0.016238421
0.073506497 -0.096666075 0.015611142
0.07484138 -0.097091518 0.015267819
0.076950282 -0.098496355 0.015507668
0.076164387 -0.096207649 0.015735537
0.078168459 -0.097456783 0.016233027
0.079202846 -0.097480431 0.015523225
0.079572454 -0.096695639 0.015833586
0.081546545 -0.097855851 0.015672237
0.081634678 -0.096752204 0.015741736
0.082636818 -0.096745543 0.015752912
0.083967283 -0.097118787 0.015663713
0.086635686 -0.099012211 0.015827239
0.084835894 -0.095814653 0.016167849
0.086486787 -0.096543394 0.015976459
0.087345384 -0.096381113 0.015923411
0.088480644 -0.096524343 0.015903413
0.090715185 -0.097850084 0.015903413
0.091251507 -0.097334936 0.015602648
0.091584109 -0.096616201 0.015237629
0.093034081 -0.097079039 0.015184492
0.0934036 -0.096416622 0.014963746
0.093742929 -0.095737457 0.015082598
0.096095435 -0.097106963 0.015251487
0.0970193 -0.0970193 0.015230507
0.096323363 -0.095330335 0.015263945
0.099584863 -0.097552523 0.015297771
0.097855352 -0.094890036 0.015955687
0.10081511 -0.096782506 0.016045094
0.10153346 -0.09650705 0.016367644
0.10301024 -0.096950814 0.016444892
0.10483267 -0.097708121 0.016673654
0.10503332 -0.096953832 0.016654402
0.106581 -0.097445481 0.016510606
0.10688084 -0.096797749 0.015645981
0.10651793 -0.095567495 0.015645981
0.10911059 -0.096987195 0.015294731
0.111063 -0.097816944 0.014796555
0.10975586 -0.095786929 0.014313191
0.11267456 -0.097448274 0.013733357
0.11406066 -0.097766273 0.012669325
0.11282374 -0.095850259 0.012042254
0.11993679 -0.1009994 0.010770857
0.12034924 -0.10046545 0.010231137
0.1181991 -0.097819947 0.0097741187
0.12102607 -0.099303439 0.0080650449
0.12245823 -0.099627033 0.0050270855
0.05089302 -0.09867014 0.00593099
0.051154763 -0.097194053 0.0079823136
0.053644344 -0.099925734 0.010924786
0.053208701 -0.097208209 0.011911124
0.05325295 -0.095453396 0.013036937
0.054767236 -0.096349768 0.013997316
0.055042181 -0.095072858 0.014922291
0.055618793 -0.094353311 0.015538841
0.057584878 -0.095974803 0.016175002
0.057624646 -0.094385199 0.01641351
0.059800137 -0.096288361 0.016449302
0.06129748 -0.09705434 0.016768187
0.061502203 -0.095782124 0.016757667
0.06198024 -0.09496972 0.016995132
0.064193442 -0.096799634 0.016950458
0.064076453 -0.095113479 0.016718328
0.065420814 -0.095615037 0.016440421
0.06666097 -0.095951401 0.016263545
0.067017272 -0.095024489 0.016100734
0.068330392 -0.095461577 0.01615712
0.068875544 -0.094828643 0.015962601
0.069894806 -0.094857238 0.016346872
0.071425371 -0.095569156 0.016032308
0.072045185 -0.095059611 0.015828282
0.073088109 -0.095114663 0.015484571
0.074997924 -0.096281119 0.015411228
0.07522504 -0.095285051 0.015503794
0.076645114 -0.09580639 0.015963107
0.077686965 -0.095847555 0.016115546
0.079140939 -0.096389607 0.015963107
0.079757772 -0.095911242 0.015782118
0.080359705 -0.095427148 0.015622675
0.081613407 -0.095719434 0.015666693
0.083129846 -0.096308962 0.015940011
0.083395556 -0.095452748 0.015954316
0.084423453 -0.0954789 0.015696138
0.08559712 -0.09566737 0.016394287
0.086911276 -0.096006639 0.015750736
0.086351432 -0.094291799 0.015634507
0.089859813 -0.097007751 0.015607566
0.088544793 -0.094514102 0.0157049
0.091164358 -0.096229039 0.015165478
0.091265216 -0.095276877 0.015123516
0.092917882 -0.09594781 0.014871001
0.092837073 -0.094833568 0.014838696
0.096350357 -0.097375363 0.014829636
0.096003532 -0.096003532 0.015071988
0.097823486 -0.096804492 0.015058368
0.096924104 -0.094925664 0.015158862
0.098512322 -0.09549664 0.015236199
0.099460818 -0.095442198 0.015563577
0.10046632 -0.095443003 0.015559465
0.10216969 -0.096100204 0.016192257
0.1009643 -0.09403538 0.016183525
0.10523997 -0.097065993 0.016039431
0.10458624 -0.095535502 0.016282618
0.10670093 -0.096538931 0.016296357
0.10719357 -0.096069716 0.015294731
0.10605197 -0.094158299 0.014796555
0.10944777 -0.096273497 0.014244914
0.10828216 -0.094374359 0.013942599
0.11211789 -0.096829087 0.01336959
0.11352485 -0.097160913 0.012854099
0.11358819 -0.096347123 0.011238068
0.11420691 -0.096014656 0.011229843
0.11689951 -0.097416259 0.0099506378
0.11566359 -0.095548175 0.0092017055
0.12444576 -0.10191678 0.0079375207
0.12215699 -0.099187307 0.0053023398
0.052580886 -0.098852061 0.0070811212
0.051949807 -0.09575063 0.010480821
0.052425276 -0.09476877 0.011222452
0.053270455 -0.094479673 0.012623101
0.055034269 -0.095800392 0.013081431
0.055343464 -0.094587013 0.01403594
0.05705151 -0.095765039 0.015163898
0.05807101 -0.095766224 0.015567005
0.058320019 -0.094518654 0.016132444
0.060733408 -0.096761703 0.016038924
0.060037252 -0.094058357 0.016489536
0.061478581 -0.094737485 0.016489536
0.062752217 -0.095140465 0.016738236
0.063676521 -0.095009409 0.016996831
0.064926215 -0.095360376 0.01652047
0.064868227 -0.093809433 0.016336143
0.066430792 -0.094613552 0.016032696
0.067885809 -0.095242776 0.015879214
0.068449862 -0.094621867 0.015995204
0.068737634 -0.093642578 0.015774488
0.071413711 -0.095898412 0.015962601
0.07188376 -0.095170051 0.01622346
0.072531112 -0.094693393 0.015894532
0.073519818 -0.094669349 0.015468687
0.074107349 -0.094136357 0.01505205
0.075592458 -0.094742544 0.015155762
0.077098623 -0.095358826 0.015749276
0.077876575 -0.095070109 0.0158571
0.078393638 -0.094474383 0.01505205
0.080275372 -0.095517531 0.015628666
0.080195881 -0.09423016 0.015035242
