ply
format ascii 1.0
comment PCL generated
element vertex 1268
property float x
property float y
property float z
element camera 0
property float view_px
property float view_py
property float view_pz
property float x_axisx
property float x_axisy
property float x_axisz
property float y_axisx
property float y_axisy
property float y_axisz
property float z_axisx
property float z_axisy
property float z_axisz
property float focal
property float scalex
property float scaley
property float centerx
property float centery
property int viewportx
property int viewporty
property float k1
property float k2
end_header
-0.0020332823 -0.046765491 0.017293066
-0.0010072616 -0.046334032 0.017183721
0 -0.047032513 0.017121732
0.0010113465 -0.046521936 0.017160773
0.0020303559 -0.046698187 0.017184913
0.0030679833 -0.047042411 0.017360002
0.0040212977 -0.046244923 0.017632544
0.0050523905 -0.046481993 0.017656058
0.006071439 -0.0465477 0.017892569
0.0070510539 -0.046335496 0.017665833
0.0081954878 -0.047124058 0.017616034
0.0090976497 -0.046499096 0.017685592
0.010092053 -0.046423443 0.017560184
0.011152823 -0.046639074 0.017428368
0.01225506 -0.046977729 0.017219186
0.013188139 -0.046665724 0.017097175
0.014306339 -0.04700654 0.016834944
0.015197061 -0.04660432 0.016741157
0.016355813 -0.047022961 0.016718835
0.017288243 -0.046779953 0.016501814
0.018155197 -0.046396613 0.016391873
0.019318974 -0.046772253 0.016803861
0.02050988 -0.047172725 0.016667306
0.021331882 -0.046726979 0.01669243
0.022421034 -0.046880342 0.016772896
0.023393488 -0.046786975 0.016953498
0.024366127 -0.046701744 0.01722616
0.025234513 -0.046431504 0.017109513
0.026467515 -0.046827145 0.017133862
0.027190259 -0.046324145 0.017363876
0.028320203 -0.046526048 0.017909825
0.028968461 -0.045949969 0.018084347
0.030142449 -0.046218421 0.018409193
0.031523827 -0.046777293 0.018678993
0.032050107 -0.046072029 0.018840611
0.033297654 -0.046414912 0.018825918
0.034563925 -0.046762958 0.018809885
0.034958549 -0.045945521 0.018648863
0.035986613 -0.045982894 0.019016266
0.037103668 -0.046128884 0.018806934
0.037788555 -0.045744039 0.018072963
0.039185531 -0.046218831 0.017462045
0.039624762 -0.045568477 0.016996175
0.040876258 -0.045861166 0.01617074
0.042588305 -0.046644334 0.014347553
0.042996552 -0.045996308 0.012668133
0.045277923 -0.047336012 0.011193186
0.046722297 -0.047760569 0.010336936
0.048073154 -0.048073154 0.0095011592
0.048290201 -0.047262751 0.0083228052
0.050212685 -0.048120491 0.0071454346
0.050911363 -0.047794342 0.0066946745
0.052373163 -0.048183311 0.0058682263
0.053555164 -0.048304658 0.0060360134
0.054135263 -0.047888886 0.0053603053
-0.055309817 -0.047864266 0.0050764978
-0.053553898 -0.047253437 0.0059619546
-0.051818326 -0.046636496 0.0065142214
-0.050862677 -0.046710622 0.0072968602
-0.049371719 -0.046285987 0.0084356368
-0.049171269 -0.047078874 0.0091478229
-0.048111003 -0.047065113 0.009716481
-0.046271283 -0.046271283 0.010863662
-0.045530125 -0.046564903 0.011621505
-0.044885285 -0.046972971 0.012206107
-0.042999782 -0.046071194 0.01246953
-0.042608444 -0.046765365 0.012661189
-0.04079337 -0.04589254 0.012646049
-0.04000809 -0.046163179 0.01241985
-0.0392983 -0.046537463 0.012382388
-0.038295489 -0.046575595 0.012539148
-0.037356347 -0.046695437 0.012681276
-0.036885768 -0.047424562 0.012462378
-0.035591692 -0.04710665 0.012304097
-0.034864876 -0.047543012 0.012040555
-0.033323135 -0.046860658 0.011871308
-0.031752922 -0.04609295 0.011657774
-0.031163096 -0.046744645 0.012016267
-0.02983005 -0.04628801 0.012433439
-0.028680511 -0.046093676 0.013003975
-0.027736491 -0.046227481 0.013709068
-0.02678322 -0.046355572 0.014457315
-0.025786091 -0.04641496 0.015278131
-0.024815388 -0.046528853 0.01537469
-0.023479691 -0.045938525 0.016602039
-0.022441892 -0.045903869 0.017711729
-0.021379923 -0.045814119 0.018360585
-0.020359563 -0.045809016 0.01848799
-0.019262936 -0.045622744 0.018618315
-0.018369609 -0.045924027 0.018756092
-0.017319903 -0.045846801 0.01873678
-0.016306663 -0.045862488 0.01870656
-0.015297199 -0.045891598 0.018522143
-0.014172898 -0.045555744 0.018473804
-0.01324563 -0.045850258 0.018864334
-0.012170646 -0.045639925 0.018790632
-0.011058675 -0.045240037 0.018705338
-0.010194189 -0.045873851 0.018625319
-0.0091231978 -0.04561599 0.018642604
-0.0080928719 -0.045522403 0.018537283
-0.0071665128 -0.046070442 0.018239319
-0.006111884 -0.045839131 0.01803273
-0.0050876196 -0.045788579 0.017932892
-0.0040660645 -0.045743223 0.017804861
-0.0030721126 -0.046081688 0.017738402
-0.0020088423 -0.045198951 0.017513275
-0.0010257093 -0.046156917 0.017331004
0 -0.045163848 0.017369628
0.0010108324 -0.04548746 0.017579347
0.0020328644 -0.04573945 0.017670006
0.0030646133 -0.045969199 0.017629325
0.0040353364 -0.045397535 0.017898053
0.005056222 -0.045505997 0.017945111
0.0060127564 -0.045095671 0.017979294
0.0071413363 -0.045908593 0.018000573
0.0081172548 -0.045659561 0.017715365
0.0091056423 -0.045528214 0.017756462
0.010019868 -0.045089405 0.017667502
0.011110298 -0.04545122 0.01754874
0.012248166 -0.045930624 0.017427236
0.013282072 -0.0459764 0.017089635
0.014276973 -0.045890268 0.017057508
0.015198495 -0.045595486 0.016760439
0.016409012 -0.046150345 0.016753852
0.017325081 -0.045860507 0.016637683
0.018162396 -0.045405991 0.016507477
0.019293021 -0.045694001 0.016750991
0.020379048 -0.045852859 0.016637683
0.021547424 -0.046173051 0.016602039
0.022436533 -0.045892909 0.016573668
0.023182888 -0.045357823 0.0171462
0.024663478 -0.046244022 0.017330498
0.025274932 -0.045494877 0.017242223
0.026381416 -0.045660142 0.017144352
0.026997374 -0.044995625 0.017635286
0.028229211 -0.045368373 0.018034875
0.029323919 -0.045502633 0.01827234
0.030522872 -0.045784306 0.018434018
0.030959567 -0.044941306 0.018477708
0.032311812 -0.045438483 0.018566489
0.032947879 -0.044928923 0.018712908
0.034356486 -0.045471817 0.018550128
0.035848349 -0.046090737 0.018416762
0.036427248 -0.045534063 0.018653959
0.037125148 -0.04515221 0.018271953
0.038666319 -0.045789063 0.017813295
0.038815301 -0.044786885 0.017336369
0.039715901 -0.044680391 0.017024338
0.041019395 -0.045021284 0.016234666
0.041981071 -0.044979718 0.015025645
0.042982373 -0.04498155 0.013301075
0.044900801 -0.045921274 0.011326909
0.04604226 -0.04604226 0.010639846
0.047160875 -0.046135638 0.0095023215
0.049014732 -0.046928998 0.0085197091
0.049833737 -0.04671913 0.0063598454
0.050924953 -0.046767812 0.0060902238
0.052731879 -0.047458693 0.0050781965
0.053032607 -0.046793479 0.005127579
-0.052721243 -0.046394695 0.0051082075
-0.051122084 -0.045905545 0.0060857236
-0.050282612 -0.046092395 0.0069829524
-0.04906163 -0.045930035 0.0080738962
-0.047151044 -0.045100998 0.0085677505
-0.047284126 -0.046233371 0.010295093
-0.045542061 -0.045542061 0.010859907
-0.044297393 -0.045327567 0.011864543
-0.043877095 -0.04596648 0.012108773
-0.041997865 -0.045070879 0.012178332
-0.04117794 -0.045295734 0.012200087
-0.040574845 -0.045776747 0.012108773
-0.03902261 -0.045184072 0.012041003
-0.038462788 -0.045739532 0.012130916
-0.037971705 -0.046409864 0.012050956
-0.036912307 -0.046404041 0.012017995
-0.035807505 -0.046339128 0.012025416
-0.034565054 -0.04608674 0.011531383
-0.032985654 -0.045355272 0.011502117
-0.032224935 -0.045738615 0.011369318
-0.030711604 -0.045043685 0.011885166
-0.029527549 -0.044800419 0.012433439
-0.029047471 -0.045646027 0.013350099
-0.02802635 -0.045672573 0.013921559
-0.026478656 -0.044810031 0.014803201
-0.02582941 -0.045459762 0.015475899
-0.024545852 -0.045000728 0.016268253
-0.023350144 -0.04466984 0.016872793
-0.022544315 -0.04508863 0.01786539
-0.021223247 -0.044467758 0.018304497
-0.020235905 -0.044518992 0.0184986
-0.019585172 -0.045355134 0.018706471
-0.018164003 -0.044400901 0.0187684
-0.017196117 -0.044507597 0.018728703
-0.016242785 -0.044667657 0.018530965
-0.015190698 -0.044559382 0.018606812
-0.014227041 -0.04471356 0.01850009
-0.01317787 -0.044602022 0.01884079
-0.01216587 -0.044608191 0.019079238
-0.011311073 -0.045244291 0.018996149
-0.010112798 -0.044496309 0.019026369
-0.0090729818 -0.044356801 0.018680394
-0.0082359891 -0.045297943 0.018671483
-0.0071334285 -0.044838693 0.01849547
-0.0060582836 -0.044427413 0.018172771
-0.0050591077 -0.044520151 0.018134892
-0.0040295972 -0.044325568 0.018111587
-0.003053176 -0.044779915 0.017852694
-0.0020484084 -0.045064986 0.01741153
-0.0010130559 -0.044574458 0.017164737
0 -0.045186277 0.01753369
0.0010187873 -0.044826642 0.017530888
0.0020151178 -0.04433259 0.017693371
0.0030202519 -0.044297028 0.017675996
0.0039835041 -0.043818548 0.017802775
0.0050548404 -0.044482592 0.017879039
0.0060520652 -0.044381812 0.017968833
0.0071052639 -0.04466166 0.017950088
0.0080745658 -0.044410113 0.017797232
0.0091794133 -0.044877131 0.017892569
0.010176189 -0.044775233 0.017769575
0.011160223 -0.044640891 0.017639399
0.012201705 -0.044739585 0.017359078
0.013246002 -0.044832621 0.017309815
0.014233867 -0.044735011 0.017243057
0.015194353 -0.044570103 0.017110974
0.016139457 -0.044383507 0.016833007
0.017363884 -0.044941816 0.016472697
0.018189222 -0.044462539 0.016445637
0.018966084 -0.043921459 0.016688228
0.020260265 -0.044572581 0.016917139
0.021207904 -0.044435609 0.01652348
0.022304568 -0.044609137 0.016985714
0.023620354 -0.045186762 0.017078638
0.024293147 -0.044537436 0.017251402
0.025257383 -0.044452991 0.017201096
0.02663685 -0.045077745 0.017071605
0.027142672 -0.044232503 0.017575681
0.028170394 -0.044267762 0.018000633
0.029130746 -0.044198371 0.018265992
0.030217284 -0.044318683 0.018405318
0.031107424 -0.044152472 0.018260032
0.031890668 -0.043849669 0.018275142
0.033175394 -0.044233859 0.017995536
0.034181863 -0.044235352 0.018215984
0.034578048 -0.043469548 0.017782986
0.036340818 -0.044416554 0.018081486
0.037175603 -0.044208828 0.017524362
0.038609728 -0.044706002 0.017225802
0.03902702 -0.044030484 0.017020613
0.040445045 -0.044489548 0.016546369
0.040896192 -0.043888599 0.016141474
0.042061191 -0.044064105 0.014385462
0.043640479 -0.044655375 0.012901485
0.044195373 -0.044195373 0.011907816
0.045907211 -0.044887051 0.01110068
0.04782813 -0.045748647 0.009698987
0.04874571 -0.045634281 0.0089552402
0.050390132 -0.046190955 0.0059739351
0.051655874 -0.046384864 0.0054614246
-0.050245926 -0.045011975 0.0059756041
-0.048282832 -0.044173654 0.006796062
-0.048414312 -0.045256857 0.007930249
-0.047478739 -0.045368575 0.0081947744
-0.045145694 -0.044119656 0.0096655786
-0.044963103 -0.044963103 0.010623425
-0.043496009 -0.044531628 0.011325777
-0.041822206 -0.043862313 0.011704206
-0.041200675 -0.044290725 0.011829317
-0.040268049 -0.044398103 0.011384189
-0.039182611 -0.044338219 0.011040986
-0.0382884 -0.04449733 0.01156497
-0.037474073 -0.0447607 0.011326462
-0.036630359 -0.045003012 0.011326462
-0.03617391 -0.045749355 0.011180937
-0.034242947 -0.044619594 0.011113167
-0.033163361 -0.044563264 0.011049628
-0.031705502 -0.043978598 0.011206657
-0.030517092 -0.043741163 0.011752963
-0.029826244 -0.044225119 0.012659371
-0.02923204 -0.044892062 0.013485521
-0.027659027 -0.044049561 0.014343619
-0.027180048 -0.044951618 0.015052706
-0.025569815 -0.043980084 0.015434682
-0.024568297 -0.044018202 0.016319066
-0.023489259 -0.043914702 0.017125398
-0.022345236 -0.043674778 0.018000096
-0.02141168 -0.043842964 0.018361509
-0.020369103 -0.043793574 0.018670082
-0.019431692 -0.043976985 0.018881321
-0.018275138 -0.043657277 0.019031465
-0.017288662 -0.043730147 0.018963814
-0.016082298 -0.043221176 0.01877597
-0.015276941 -0.043793902 0.018697619
-0.014245267 -0.043753318 0.018685639
-0.013076752 -0.043253873 0.018945485
-0.012188807 -0.043676559 0.019011736
-0.011128284 -0.043501474 0.019057721
-0.010023416 -0.043100689 0.018731624
-0.0090616597 -0.043294594 0.018527597
-0.0081001036 -0.043538056 0.018521279
-0.0071340124 -0.04382322 0.018284798
-0.0061030439 -0.043738484 0.018176049
-0.005082387 -0.043708526 0.018196791
-0.0040560248 -0.043602265 0.018015921
-0.0030510477 -0.043731682 0.017477304
-0.0020299174 -0.043643225 0.017182231
-0.0010166146 -0.043714426 0.017369628
0 -0.043454994 0.017341971
0.0010074686 -0.043321148 0.017280489
0.0020455266 -0.043978821 0.017425597
0.0030402557 -0.043577 0.017324656
0.0040377332 -0.043405633 0.017712712
0.0051040305 -0.043894663 0.017794698
0.0061187739 -0.043851212 0.01781404
0.0070311651 -0.04319144 0.01785633
0.0080240238 -0.043129127 0.017805904
0.0090984171 -0.043470215 0.018092096
0.010087418 -0.043375898 0.017909706
0.011183932 -0.043719009 0.017713368
0.01212006 -0.043430213 0.017505288
0.013238369 -0.043788455 0.017438203
0.014241856 -0.043742843 0.017405301
0.015255007 -0.043731019 0.017405301
0.016371813 -0.043999247 0.017297119
0.017217204 -0.0435494 0.016876191
0.018121639 -0.043290585 0.016439348
0.01916785 -0.043379873 0.016737998
0.019944038 -0.042879682 0.016714245
0.021404006 -0.043827251 0.016714245
0.022315769 -0.043617185 0.016927898
0.02363487 -0.044186931 0.017018348
0.024455819 -0.043816678 0.017489523
0.025542431 -0.043932982 0.017173558
0.025927119 -0.042879466 0.017334849
0.027411001 -0.043654557 0.017697006
0.028223803 -0.0433437 0.018061161
0.029311268 -0.043461535 0.018343121
0.030553574 -0.043793458 0.018256843
0.031387012 -0.043536827 0.018223554
0.031663802 -0.042548236 0.018196404
0.032863282 -0.042821851 0.017977744
0.033961583 -0.042951416 0.017936409
0.035184704 -0.04322692 0.017645955
0.036267277 -0.043319244 0.017780155
0.037412286 -0.043479145 0.017255157
0.038439877 -0.043497756 0.016810954
0.039508317 -0.043560453 0.016743869
0.040343992 -0.043369792 0.015825182
0.041372076 -0.043390226 0.015693903
0.042467061 -0.04347818 0.013437808
0.043060094 -0.043060094 0.01269412
0.044823017 -0.04380431 0.011594117
0.045188375 -0.043180004 0.010983229
0.046488885 -0.043457001 0.0093758702
0.04813768 -0.044040855 0.0083294809
0.049641497 -0.044470508 0.0056576431
-0.04935661 -0.044105906 0.0057705045
-0.048501439 -0.044283923 0.0065021217
-0.04724225 -0.044092767 0.007683903
-0.045695752 -0.043618675 0.0083257854
-0.044864733 -0.043821368 0.0088218451
-0.043020401 -0.043020401 0.0097490847
-0.042322729 -0.043354992 0.010454923
-0.041012011 -0.043062612 0.010353982
-0.040131398 -0.043218426 0.010255098
-0.039132468 -0.043251675 0.010226488
-0.038095795 -0.043243878 0.010800391
-0.037223231 -0.043427102 0.010800391
-0.036866911 -0.044240292 0.010800809
-0.036114562 -0.04461211 0.010800809
-0.034171283 -0.043490723 0.010721475
-0.032944091 -0.04323912 0.010726005
-0.031483613 -0.042655218 0.010831773
-0.031033793 -0.043447312 0.01163277
-0.030011889 -0.043465495 0.0126127
-0.028852697 -0.043279044 0.013498068
-0.027843427 -0.043311998 0.014292836
-0.026895713 -0.043446921 0.015031993
-0.025740612 -0.043244228 0.016275227
-0.024805324 -0.043409318 0.016391397
-0.023458824 -0.042837854 0.017416447
-0.022318795 -0.042608608 0.017933756
-0.021286698 -0.042573396 0.018409252
-0.020256151 -0.042537916 0.018634081
-0.019372975 -0.042824473 0.01895377
-0.018253494 -0.042591486 0.018836856
-0.017401816 -0.042992722 0.018801957
-0.016288236 -0.042756617 0.018727362
-0.015396913 -0.043111354 0.018741608
-0.014181505 -0.042544514 0.018723577
-0.013163311 -0.042527623 0.018801123
-0.012344779 -0.043206729 0.018838137
-0.011127788 -0.042487919 0.018717438
-0.010075994 -0.042319175 0.01839903
-0.0090338197 -0.042157825 0.018315524
-0.0081051067 -0.042551808 0.018261254
-0.0070824851 -0.042494912 0.018068224
-0.0061020423 -0.042714294 0.01805827
-0.005025764 -0.04221642 0.017722577
-0.0040312111 -0.042327717 0.017569929
-0.0030243893 -0.042341448 0.01729092
-0.0020477537 -0.043002825 0.017208666
-0.00099632586 -0.041845687 0.017434388
0 -0.042447638 0.017199039
0.0010126671 -0.042532016 0.0169608
0.0020367783 -0.042772342 0.017123282
0.0030492663 -0.042689729 0.017312825
0.0040251142 -0.042263698 0.01767993
0.0050065583 -0.042055093 0.017803788
0.0060870438 -0.042609308 0.017794698
0.0070308475 -0.042185083 0.017886341
0.0081148604 -0.042603016 0.017802089
0.0090519255 -0.042242318 0.017950088
0.010214363 -0.042900324 0.017838299
0.011079514 -0.042303599 0.017769575
0.012128294 -0.042449031 0.017715365
0.013347114 -0.04312145 0.017483652
0.014200274 -0.042600822 0.01757434
0.015104439 -0.042292431 0.017623693
0.01623462 -0.042615879 0.017597407
0.017098375 -0.042243045 0.017275572
0.018454144 -0.043059666 0.016997814
0.018923976 -0.041831948 0.017052472
0.020060055 -0.042126115 0.017092586
0.021426078 -0.042852156 0.016820729
0.022487562 -0.0429308 0.016924739
0.023752848 -0.043374766 0.017017663
0.024524856 -0.042918496 0.01739341
0.024902318 -0.041835897 0.017264873
0.026474899 -0.042767145 0.017482668
0.027033634 -0.042052321 0.017865419
0.027992617 -0.041988924 0.017715693
0.02873325 -0.041613672 0.017658442
0.030847732 -0.043186825 0.017910182
0.031330965 -0.042448401 0.017969549
0.031903528 -0.041873381 0.017840892
0.033100422 -0.04212781 0.01759544
0.034143887 -0.042177744 0.017338187
0.035391469 -0.042469759 0.017226249
0.036545489 -0.042636406 0.017075092
0.037015241 -0.0420173 0.01659897
0.039003298 -0.043108907 0.015925288
0.039378755 -0.042407889 0.015771806
0.040337335 -0.042354204 0.015010238
0.04174576 -0.042763948 0.014380276
0.042674016 -0.042674016 0.012722284
0.043391835 -0.042382725 0.011832863
0.04489838 -0.042857546 0.010623008
0.045328129 -0.042306256 0.010024518
0.046291765 -0.042266391 0.0088604391
0.048195343 -0.043068178 0.0062651336
-0.048613355 -0.043329291 0.0056294799
-0.047706228 -0.043465674 0.0065629482
-0.046098866 -0.042955764 0.007799238
-0.044690482 -0.042611856 0.0080583692
-0.043306064 -0.042274967 0.0087836683
-0.042696167 -0.042696167 0.0091644228
-0.041034237 -0.042060092 0.009180516
-0.040231176 -0.042294312 0.0092307329
-0.039280459 -0.042381551 0.0088959932
-0.038208473 -0.04233912 0.0093141794
-0.037866347 -0.043125559 0.0096744001
-0.036340002 -0.042569716 0.0097712874
-0.035889737 -0.043278802 0.0097953975
-0.03444634 -0.042796969 0.0097796023
-0.032837424 -0.042072952 0.010270894
-0.032119013 -0.042479984 0.010538787
-0.030964766 -0.042318512 0.011261553
-0.029758204 -0.042071946 0.012446672
-0.029057341 -0.04254825 0.013507187
-0.027753346 -0.042143967 0.014394909
-0.026712446 -0.042123474 0.01493293
-0.025768237 -0.042259909 0.016234219
-0.024685772 -0.04217153 0.016521096
-0.023221023 -0.041393999 0.017450809
-0.022454286 -0.041846626 0.017925262
-0.02132526 -0.041635033 0.018406779
-0.020247813 -0.041508015 0.018531084
-0.019540954 -0.042167325 0.019043684
-0.01844993 -0.04202484 0.018979579
-0.017163781 -0.041395001 0.018854827
-0.016271815 -0.041696526 0.018834442
-0.015280979 -0.041768011 0.018787801
-0.014143246 -0.041419506 0.018816531
-0.013215724 -0.041680362 0.01916787
-0.012156201 -0.041533686 0.019045621
-0.011149348 -0.04155666 0.019059896
-0.010056582 -0.04123199 0.018457115
-0.009191364 -0.041871767 0.018477947
-0.0081290808 -0.041661538 0.018265754
-0.0070996224 -0.041583501 0.018157721
-0.0061884304 -0.042287607 0.018015921
-0.00514135 -0.042159073 0.017697006
-0.0040631983 -0.041647784 0.017508626
-0.0030388685 -0.041531201 0.0171417
-0.0020224073 -0.041459348 0.017008275
-0.0010144449 -0.041592237 0.016994357
0 -0.04148487 0.016814113
0.0010048718 -0.04119974 0.016780406
0.0020198463 -0.041406851 0.016930073
0.0030575264 -0.041786194 0.017018378
0.0040305173 -0.041312803 0.017545938
0.0050108731 -0.041089159 0.017803788
0.0060563725 -0.041385211 0.017831504
0.0071068774 -0.041625995 0.018245459
0.0080949403 -0.041486569 0.01787439
0.0091419872 -0.041646831 0.018509954
0.010061459 -0.04125198 0.017954737
0.011068891 -0.041256774 0.018089801
0.012154737 -0.041528687 0.017979324
0.01330525 -0.041962709 0.017696261
0.01389925 -0.040704947 0.017835557
0.015032373 -0.041088488 0.017825305
0.016057353 -0.041146968 0.017749935
0.017388517 -0.041937012 0.017567158
0.018429097 -0.041977391 0.017104745
0.018902166 -0.040788881 0.017104745
0.020177169 -0.041363198 0.016807079
0.021104041 -0.041203126 0.016552985
0.022056475 -0.041105248 0.016480684
0.02364666 -0.04215274 0.016391754
0.024790948 -0.042351201 0.016611427
0.025529375 -0.041868173 0.016407788
0.026388131 -0.041612055 0.016471446
0.027464246 -0.041704968 0.016962469
0.028454427 -0.041665412 0.01732558
0.029209707 -0.041296482 0.017552972
0.030360976 -0.041493334 0.017656982
0.03103726 -0.041049279 0.017593622
0.032074984 -0.041096073 0.017397046
0.033225067 -0.041279629 0.017156005
0.034299139 -0.041360725 0.016783476
0.035604399 -0.041708011 0.016604751
0.036121696 -0.041138597 0.016209543
0.037199795 -0.041221395 0.015906334
0.038394697 -0.041425858 0.01517269
0.03894126 -0.040938247 0.014863402
0.040694468 -0.04171183 0.013967544
0.041116942 -0.041116942 0.013227016
0.042343307 -0.041335136 0.011871666
0.043530401 -0.041505732 0.011034727
0.045224145 -0.042140681 0.010190934
0.046176549 -0.042071968 0.0092369914
0.047105853 -0.041985653 0.0077342689
-0.047744546 -0.042439599 0.0055974722
-0.045666981 -0.04151544 0.0066155493
-0.044834007 -0.041706052 0.0073354542
-0.04347175 -0.041401669 0.0079532564
-0.042226259 -0.04119635 0.0080941021
-0.041796412 -0.041796412 0.0080941021
-0.040134259 -0.041163344 0.0080632269
-0.039003782 -0.041056611 0.0082402825
-0.038392805 -0.041505735 0.0083689392
-0.037571311 -0.041745901 0.0089080036
-0.037160758 -0.042469438 0.0090332329
-0.035848532 -0.042174745 0.0090332329
-0.03414965 -0.041393515 0.0090773702
-0.033016466 -0.041270584 0.0097290874
-0.032041844 -0.041344315 0.010270894
-0.030820755 -0.04109434 0.010898322
-0.030199213 -0.041654088 0.012188375
-0.029047215 -0.04149602 0.013403833
-0.027676228 -0.041001819 0.014343709
-0.026970401 -0.041492928 0.015669495
-0.025544669 -0.040871471 0.016237259
-0.024459427 -0.040765714 0.016970485
-0.023429712 -0.040747326 0.017537802
-0.022264156 -0.040480286 0.018028051
-0.021130959 -0.040249445 0.018459052
-0.020318519 -0.040637039 0.018712103
-0.019460009 -0.04096844 0.01912263
-0.018174779 -0.040388394 0.019013882
-0.017337823 -0.040794879 0.018811464
-0.016083725 -0.040209308 0.018800765
-0.015204253 -0.040544674 0.019040614
-0.014144143 -0.040411837 0.018820286
-0.01313337 -0.04041037 0.018611848
-0.012158432 -0.040528107 0.018527597
-0.011225817 -0.04082115 0.018572599
-0.0099785896 -0.039914358 0.018565267
-0.0091014151 -0.040450733 0.018481046
-0.0081164259 -0.040582128 0.018437356
-0.0070710508 -0.040406007 0.01825431
-0.0062060091 -0.041373394 0.018137157
-0.0050807004 -0.040645603 0.017722577
-0.00404053 -0.040405296 0.01758787
-0.0030348536 -0.040464714 0.017163128
-0.0020383892 -0.040767781 0.017016798
-0.00100457 -0.040182799 0.017096013
0 -0.040539026 0.016814113
0.0010139602 -0.040558409 0.016790837
0.0020242431 -0.040484861 0.016877294
0.0030608284 -0.040811047 0.016930073
0.0040446757 -0.040446758 0.017326653
0.0050999061 -0.040799249 0.017723054
0.0060684634 -0.040456425 0.017752081
0.0070774523 -0.040442586 0.018242955
0.0081895813 -0.04094791 0.01785633
0.0091228122 -0.040545832 0.018384486
0.01006149 -0.040245961 0.018095762
0.011235204 -0.040855285 0.018095762
0.011969737 -0.039899122 0.017861366
0.013240325 -0.040739462 0.017651618
0.014250786 -0.040716533 0.017797321
0.0150114 -0.040030397 0.017828166
0.016033033 -0.040082581 0.017727494
0.01750767 -0.041194521 0.017680287
0.018344728 -0.04076606 0.017119676
0.019432236 -0.040909972 0.017040104
0.019794784 -0.039589569 0.016702771
0.021230701 -0.040439431 0.016437024
0.022580264 -0.041055027 0.016266793
0.023410112 -0.040713236 0.01618275
0.024601122 -0.041001871 0.016471446
0.025503591 -0.040805746 0.016152054
0.026160404 -0.040246777 0.016017348
0.027308283 -0.040456716 0.016341776
0.028285908 -0.04040844 0.016975641
0.029303271 -0.040418305 0.017274618
0.030466869 -0.040622491 0.017280161
0.031084474 -0.040108997 0.017378449
0.032300703 -0.040375881 0.017082334
0.033299368 -0.040362872 0.016645581
0.034547128 -0.040643681 0.016120911
0.035196312 -0.040224358 0.015946597
0.036403835 -0.040448707 0.015687287
0.037444782 -0.040480845 0.015172303
0.038267948 -0.040282048 0.014805168
0.039840773 -0.040862329 0.013891518
0.040408216 -0.040408216 0.012561917
0.041373227 -0.040364124 0.012088478
0.042277221 -0.040264018 0.011003077
0.043590497 -0.040549301 0.010104865
0.044392232 -0.040356576 0.0092779398
0.047035605 -0.041809428 0.0069160759
0.047075346 -0.04093508 0.0052762628
-0.046133537 -0.040891089 0.0053389072
-0.044883396 -0.040708195 0.0059844851
-0.043423221 -0.040321562 0.006812036
-0.04301947 -0.040920958 0.0072683394
-0.04113131 -0.040103029 0.0071737468
-0.040522292 -0.040522292 0.0071455538
-0.039548036 -0.040588774 0.0069905221
-0.038311813 -0.040382724 0.0074225068
-0.037728608 -0.04087266 0.0078438818
-0.037005447 -0.041234639 0.0079690516
-0.035838094 -0.041108403 0.0080891848
-0.034636851 -0.040934458 0.0081318915
-0.033187527 -0.040447298 0.008718729
-0.031945631 -0.040189665 0.0093314052
-0.031300407 -0.04069053 0.01030159
-0.029959261 -0.040290043 0.011835158
-0.028699681 -0.039974555 0.013121545
-0.027955385 -0.040380001 0.014210701
-0.02680737 -0.040211055 0.015241981
-0.025508074 -0.039792597 0.016029328
-0.024250459 -0.039406996 0.016676009
-0.023275627 -0.039467368 0.017047465
-0.022325702 -0.03957738 0.017625034
-0.021520903 -0.039967392 0.018446237
-0.020407369 -0.039794371 0.01876235
-0.019404402 -0.039830089 0.018855214
-0.018423613 -0.03991783 0.018800378
-0.016974257 -0.038940944 0.018760175
-0.016547691 -0.040334996 0.018718362
-0.015079902 -0.039207745 0.018554002
-0.014037458 -0.039104346 0.018418908
-0.013237908 -0.039713725 0.018356889
-0.012277609 -0.039902229 0.018279344
-0.011156723 -0.039555654 0.018474758
-0.01010169 -0.039396591 0.018523127
-0.0090717608 -0.039310966 0.018439889
-0.008116887 -0.039569825 0.018425941
-0.0070492644 -0.039274473 0.01826486
-0.006071371 -0.039463911 0.017807782
-0.0050569056 -0.039443865 0.017750561
-0.0040814904 -0.039794531 0.017428368
-0.0030381368 -0.039495777 0.017368495
-0.0020266755 -0.039520174 0.017453611
-0.0010239569 -0.039934322 0.017328143
0 -0.038916647 0.0171673
0.0010243838 -0.039950967 0.0169608
0.0020330169 -0.039643828 0.017105907
0.0030385025 -0.039500535 0.017081439
0.004065881 -0.039642341 0.017503977
0.0050282497 -0.039220348 0.01803714
0.0060267416 -0.039173823 0.017914295
0.0071175462 -0.039654899 0.018488646
0.0081100594 -0.039536539 0.018261015
0.009119493 -0.039517801 0.01850611
0.01024128 -0.039940991 0.017955035
0.011126552 -0.039448682 0.018343508
0.012059659 -0.039193891 0.017913759
0.01331951 -0.039958533 0.017576188
0.014193581 -0.039539263 0.017799884
0.015193236 -0.039502416 0.017876089
0.016290337 -0.039707694 0.017941564
0.017132711 -0.039304454 0.017699033
0.018426904 -0.039924957 0.017165124
0.019189157 -0.039388269 0.016770184
0.019949406 -0.03890134 0.016664654
0.021302244 -0.039561309 0.016441941
0.022317665 -0.039563134 0.016118586
0.023494046 -0.039837729 0.016060114
0.024479803 -0.039779678 0.016390175
0.025471561 -0.039735634 0.016091257
0.026076473 -0.03911471 0.015945345
0.027763199 -0.0401024 0.015977651
0.028640071 -0.039891526 0.01647675
0.029280253 -0.039376892 0.016877472
0.030787824 -0.040024173 0.017145008
0.030973185 -0.038966265 0.017002791
0.032767404 -0.039935272 0.016425312
0.033090707 -0.0391072 0.016227752
0.034323923 -0.039371561 0.015629053
0.035525735 -0.039585821 0.01541248
0.036517411 -0.03956053 0.015246511
0.037655834 -0.039691284 0.014433593
0.039250474 -0.040283382 0.013665169
0.040013429 -0.040013429 0.012733102
0.041308478 -0.040275764 0.011732429
0.041895363 -0.039851688 0.011037111
0.042817045 -0.039758686 0.00996387
0.043921441 -0.039835725 0.0092602074
0.046208207 -0.040957276 0.0079248846
0.046149284 -0.039996047 0.0051551759
-0.043804858 -0.039632969 0.0051650107
-0.042780325 -0.039650057 0.0055960119
-0.041507095 -0.03943174 0.0056685209
-0.040647358 -0.039605118 0.0056685209
-0.039568428 -0.039568428 0.0057345033
-0.038592268 -0.039635304 0.0059911311
-0.037728257 -0.03982427 0.0063366294
-0.037136909 -0.040320072 0.0066245794
-0.035821237 -0.040035497 0.007725805
-0.034692679 -0.039949145 0.0076630116
-0.033054955 -0.039252762 0.0080512166
-0.032243095 -0.039523795 0.0087620616
-0.031292818 -0.039637569 0.01030159
-0.030137109 -0.039490003 0.011789292
-0.028692601 -0.03893996 0.01335755
-0.028132522 -0.03959392 0.014050692
-0.026538178 -0.038786568 0.015120447
-0.025705619 -0.03907254 0.015809059
-0.024345182 -0.038546536 0.016629785
-0.023253009 -0.038418014 0.017154068
-0.022200925 -0.038347051 0.017700225
-0.021284143 -0.03851416 0.018416494
-0.020336535 -0.038639419 0.018628865
-0.019273456 -0.038546912 0.018795252
-0.018127404 -0.038268965 0.018795162
-0.01728479 -0.038636591 0.018702596
-0.016247293 -0.038587321 0.018810868
-0.01523788 -0.038602632 0.018470109
-0.014259992 -0.038705692 0.018461049
-0.013210054 -0.038614005 0.018418908
-0.012281882 -0.038892627 0.018353075
-0.011115049 -0.038397443 0.018541515
-0.010172304 -0.038654756 0.018605381
-0.008902696 -0.037589163 0.018632472
-0.0082153277 -0.039022803 0.018650949
-0.0071324161 -0.038718831 0.018346161
-0.0060413177 -0.038261678 0.017975032
-0.0050769788 -0.038585041 0.017788768
-0.0040017008 -0.038016159 0.017689824
-0.0030633511 -0.038802449 0.017504156
-0.0020528752 -0.039004631 0.017475933
-0.0010166304 -0.038631957 0.017142236
0 -0.038875367 0.017100304
0.0010153499 -0.038583297 0.0171673
0.0020315344 -0.038599156 0.017081439
0.0030404862 -0.038512826 0.017049104
0.0040299916 -0.03828492 0.017415553
0.0050361287 -0.038274579 0.018008113
0.0060610715 -0.038386784 0.018132538
0.0070905937 -0.038491793 0.018477261
0.0081280284 -0.038608134 0.018406153
0.009231329 -0.038976721 0.018640429
0.01004003 -0.038152114 0.01854378
0.01118746 -0.038647588 0.018477261
0.01218973 -0.03860081 0.017926186
0.013086463 -0.038252737 0.01750508
0.014145674 -0.038395401 0.017670363
0.015312826 -0.038792495 0.017699778
0.016053304 -0.038126595 0.017503709
0.017152229 -0.038340278 0.017596245
0.018381778 -0.038805973 0.016700178
0.019102186 -0.038204372 0.016573042
0.020269547 -0.038512141 0.016407728
0.021088498 -0.038160138 0.01613003
0.022393802 -0.038680203 0.015763402
0.023502229 -0.038829766 0.015759826
0.024298437 -0.038472526 0.016092241
0.025396774 -0.038603097 0.015829593
0.026394214 -0.03857616 0.015677959
0.027201178 -0.038283139 0.015656203
0.028580196 -0.03878741 0.015549302
0.02910185 -0.038133461 0.016309679
0.030293198 -0.038371384 0.016423374
0.030965358 -0.037957538 0.016446501
0.032430615 -0.038511358 0.015864223
0.033270881 -0.038311921 0.015461236
0.034478534 -0.038534831 0.015023172
0.035251152 -0.038272679 0.014592499
0.036147591 -0.03815579 0.014017284
0.038044125 -0.039072346 0.013209403
0.039402347 -0.039402347 0.012601465
0.039466325 -0.038454369 0.011859149
0.041868702 -0.039775267 0.010780096
0.042837523 -0.039703071 0.0099636316
0.042788632 -0.038713522 0.0091599524
0.044604044 -0.039417528 0.0073469281
0.045735758 -0.039499063 0.0053795874
-0.037791073 -0.038840827 0.0050243437
-0.037644442 -0.039795555 0.0051516891
-0.036368083 -0.039577033 0.0059442818
-0.034894679 -0.039124336 0.0066465139
-0.033326734 -0.038534038 0.0077709258
-0.032268979 -0.038514588 0.0085893273
-0.031115394 -0.038375653 0.010204554
-0.030332401 -0.038699958 0.011913359
-0.029255884 -0.038659561 0.012992144
-0.02769188 -0.037948132 0.013848722
-0.026773479 -0.038100719 0.014369667
-0.025609372 -0.037901871 0.01558727
-0.024356488 -0.037549589 0.016520858
-0.023312848 -0.037503276 0.016926348
-0.022224689 -0.037377886 0.017471373
-0.021306828 -0.0375406 0.018175006
-0.020384938 -0.037712134 0.018653214
-0.019246541 -0.037480105 0.018929005
-0.018106289 -0.037218485 0.018830776
-0.017258629 -0.037562899 0.018354654
-0.016018935 -0.037043784 0.018430412
-0.015316243 -0.037780065 0.018412679
-0.014246974 -0.037652716 0.018353075
-0.013254214 -0.037723534 0.01808399
-0.012261943 -0.037807658 0.01815924
-0.011090739 -0.037305214 0.018267035
-0.010033778 -0.037124977 0.018466085
-0.0092108855 -0.037866972 0.018512785
-0.0081347292 -0.037623122 0.018435866
-0.0071152351 -0.0376091 0.018244565
-0.006024397 -0.037150446 0.018069685
-0.0050305626 -0.037226163 0.018047422
-0.004066024 -0.037610721 0.017816037
-0.003044097 -0.037543863 0.017665237
-0.0020441853 -0.037817426 0.017778397
-0.0010233216 -0.037862901 0.017391205
0 -0.036888413 0.017383873
0.0010142366 -0.037526753 0.017465472
0.0020599163 -0.038108453 0.017483324
0.0030148304 -0.037182909 0.017482996
0.004065292 -0.037603952 0.017474085
0.0051034209 -0.037765317 0.017659485
0.006148404 -0.037915159 0.018008113
0.0070332987 -0.037176009 0.018303633
0.0081283897 -0.037593804 0.018235654
0.0091724815 -0.037709091 0.018388093
0.010096561 -0.037357278 0.018406153
0.010899658 -0.036662485 0.018296331
0.012120791 -0.03737244 0.017824769
0.012957916 -0.036880221 0.017354846
0.014116447 -0.037307754 0.01723507
0.015016463 -0.037040606 0.017394394
0.016143709 -0.037332326 0.017485261
0.017221346 -0.037481755 0.017425746
0.018402323 -0.037826996 0.016546845
0.019458307 -0.037892494 0.016413063
0.02018032 -0.037333593 0.016351193
0.020909153 -0.036839936 0.016034961
0.02224746 -0.037416182 0.015579402
0.023387054 -0.037622653 0.015579402
0.024587287 -0.037905402 0.01575473
0.025273148 -0.037404262 0.015724152
0.026558328 -0.037794545 0.015630603
0.027343657 -0.037470937 0.015564084
0.02864958 -0.037858374 0.015500665
0.029330669 -0.03742189 0.016068548
0.030259894 -0.037320536 0.01591894
0.031292789 -0.037349455 0.015472233
0.03215782 -0.037182476 0.014892906
0.033681456 -0.037764054 0.014341205
0.034430489 -0.037468474 0.013898075
0.035339899 -0.03735932 0.013526648
0.036606144 -0.037622981 0.012709081
0.037823386 -0.037823386 0.012129754
0.038432959 -0.037421566 0.011656165
0.040211245 -0.03814913 0.01074475
0.042217527 -0.039051212 0.0092145205
0.042640395 -0.038480356 0.0084197521
0.043768529 -0.038557988 0.0053549111
0.04422015 -0.038049895 0.0050515831
-0.035762064 -0.037865713 0.0050445199
-0.035256874 -0.038462047 0.005856663
-0.033683877 -0.037894361 0.0072707832
-0.031887606 -0.037030768 0.0082463622
-0.031585325 -0.037902389 0.0099258125
-0.030213581 -0.037506513 0.011777341
-0.02882948 -0.037066475 0.012762606
-0.027546732 -0.036728978 0.013696581
-0.026769735 -0.037065785 0.014254004
-0.02534258 -0.036493313 0.015469342
-0.024456747 -0.03668512 0.016448766
-0.023301141 -0.036471352 0.016766697
-0.022250993 -0.036410715 0.017408431
-0.021397145 -0.036680821 0.018086284
-0.020455133 -0.036819238 0.018557191
-0.019425482 -0.036806177 0.018613368
-0.018177159 -0.036354318 0.018414378
-0.017329708 -0.036698207 0.017917752
-0.016221339 -0.036498014 0.017922372
-0.01520989 -0.036503736 0.018018544
-0.014161353 -0.036414906 0.018068254
-0.013299081 -0.036828224 0.017841458
-0.012103706 -0.036311116 0.017846823
-0.011160223 -0.036524367 0.017977327
-0.010081102 -0.036291968 0.017998487
-0.0092227533 -0.036891013 0.017981738
-0.0079882471 -0.035947111 0.018159449
-0.0071342825 -0.036690596 0.018094093
-0.0060019512 -0.036011707 0.017801464
-0.0049996641 -0.035997581 0.01769653
-0.0041020289 -0.03691826 0.017585218
-0.003061407 -0.036736887 0.017518252
-0.0020369457 -0.036665022 0.017584562
-0.0010262869 -0.036946326 0.017171353
0 -0.036584269 0.016981393
0.0010267136 -0.036961693 0.0171673
0.0019803639 -0.03564655 0.017259926
0.0030169594 -0.036203515 0.017204791
0.004125441 -0.03712897 0.017320812
0.0050685578 -0.036493618 0.017658085
0.0061182738 -0.036709644 0.017946661
0.0071214801 -0.036624756 0.018163353
0.0080770049 -0.036346521 0.018052429
0.0090921838 -0.036368735 0.018134326
0.010200571 -0.036722057 0.018163353
0.01103485 -0.036114052 0.018163145
0.012116139 -0.036348414 0.01767993
0.013270561 -0.036749244 0.017229021
0.014140026 -0.036360066 0.016933948
0.015067315 -0.036161557 0.017212778
0.016005913 -0.036013301 0.017148107
0.017422913 -0.036895581 0.01714316
0.018481959 -0.036963917 0.01632154
0.019240335 -0.03645537 0.016316533
0.020128727 -0.036231712 0.015874356
0.021338329 -0.036579989 0.015809655
0.02204071 -0.036066618 0.015376598
0.023462148 -0.036723364 0.015376598
0.024589673 -0.036884509 0.015631109
0.025182838 -0.036263287 0.015558302
0.026578318 -0.03680075 0.015408546
0.027623933 -0.036831912 0.01534304
0.028291311 -0.036374543 0.015155554
0.029626312 -0.036777489 0.015347481
0.030279303 -0.036335163 0.01506874
0.031277027 -0.036321711 0.014501274
0.032281596 -0.036316793 0.013842404
0.033480197 -0.036523849 0.013674617
0.034287214 -0.036304109 0.01320371
0.03586423 -0.036888923 0.012676835
0.036627207 -0.036627207 0.011838377
0.037786622 -0.036765363 0.011374861
0.038741205 -0.036702193 0.010686934
0.040087305 -0.037003666 0.0091797709
0.041500703 -0.037350632 0.0064247251
-0.033842411 -0.03701514 0.0058740079
-0.032436971 -0.036622386 0.0075216293
-0.031485945 -0.036733601 0.0097818077
-0.030216262 -0.036467902 0.01160261
-0.028772473 -0.035965592 0.012598246
-0.027715137 -0.035927031 0.013476759
-0.026534861 -0.035720006 0.013914615
-0.025585277 -0.035819389 0.015251756
-0.024121568 -0.035177287 0.016296118
-0.023391491 -0.035595745 0.016605556
-0.022336084 -0.03553468 0.017215669
-0.021229045 -0.035381742 0.017706841
-0.020370524 -0.035648417 0.017985731
-0.01908705 -0.035160355 0.018158615
-0.017967243 -0.034936305 0.017983615
-0.017245343 -0.035505116 0.0175758
-0.015942104 -0.034873355 0.017572194
-0.015263384 -0.035614561 0.017551035
-0.014288063 -0.035720158 0.0175291
-0.013160865 -0.035433099 0.017436594
-0.011975384 -0.034928203 0.017343313
-0.011116332 -0.035370149 0.017677605
-0.010264284 -0.035924993 0.017677605
-0.0089904368 -0.034962811 0.017674208
-0.0080826301 -0.035361506 0.017679214
-0.0071204263 -0.035602134 0.01761806
-0.0060270219 -0.035157628 0.017511636
-0.0051970538 -0.036379375 0.017458558
-0.0040175337 -0.035153423 0.017361909
-0.0030388234 -0.03545294 0.017361909
-0.0020600571 -0.036051001 0.017374814
-0.0010193683 -0.035677891 0.016975373
0 -0.035639592 0.01687175
0.00100126 -0.0350441 0.016936094
0.0020439611 -0.035769317 0.016744971
0.0030741245 -0.035864785 0.016825289
0.0040014386 -0.035012588 0.017201453
0.0050495155 -0.035346609 0.017461389
0.0060266564 -0.035155494 0.017811179
0.0070218514 -0.035109259 0.018170357
0.0079938741 -0.0349732 0.018102378
0.0091879321 -0.03573085 0.018138409
0.010169199 -0.035592195 0.018102378
0.011190079 -0.035604797 0.017937392
0.012049979 -0.035145771 0.01719439
0.013337526 -0.035908725 0.01705116
0.014257352 -0.03564338 0.016133428
0.015214032 -0.035499409 0.016764134
0.016187742 -0.035410687 0.01657933
0.017238094 -0.035490192 0.016571254
0.018431006 -0.035838068 0.015378147
0.019227063 -0.035418276 0.015423089
0.020140341 -0.035245597 0.015121877
0.020869751 -0.03478292 0.01539737
0.022341441 -0.035543203 0.015161067
0.023272488 -0.035414655 0.015167385
0.024469208 -0.035684261 0.015221059
0.025430104 -0.035602145 0.015185803
0.026889207 -0.03619701 0.014990658
0.027455626 -0.035590626 0.014981538
0.028498286 -0.035622858 0.014736801
0.029653698 -0.035788946 0.014897138
0.030459033 -0.035535537 0.014506578
0.031076403 -0.035086263 0.014078349
0.032640491 -0.035700537 0.013101429
0.033118319 -0.03512549 0.012700915
0.034773726 -0.035796486 0.01191622
0.035680406 -0.035680406 0.01145792
0.036298268 -0.035289984 0.010744333
0.037895642 -0.035847228 0.010046691
0.038920034 -0.035847399 0.0090849996
0.040019922 -0.035915315 0.0054866374
-0.032645036 -0.035804231 0.006449759
-0.031426501 -0.035616703 0.0080735385
-0.030278714 -0.035499182 0.011327595
-0.028762974 -0.034926467 0.012401938
-0.027535167 -0.034673914 0.012892336
-0.026545027 -0.034712728 0.013450623
-0.025620911 -0.034844439 0.014525503
-0.024566231 -0.034802161 0.01556462
-0.023673482 -0.034995582 0.016167819
-0.022250943 -0.034387823 0.016835213
-0.02120786 -0.034336537 0.016952455
-0.020160357 -0.034272604 0.017119199
-0.01926459 -0.034473479 0.017363548
-0.018234132 -0.03444225 0.017083466
-0.017258212 -0.034516424 0.016873181
-0.016244695 -0.034519974 0.016873181
-0.015376183 -0.034852684 0.016821027
-0.014231271 -0.03456166 0.017037272
-0.013154075 -0.034402966 0.016869783
-0.012241896 -0.034685373 0.016867191
-0.011276846 -0.034855705 0.01712364
-0.010137765 -0.034468401 0.01712364
-0.0091547016 -0.034584429 0.017216563
-0.0081594018 -0.034677457 0.017252266
-0.007027158 -0.034131911 0.017189026
-0.0060633919 -0.03435922 0.017154753
-0.0050929319 -0.034631938 0.017090142
-0.0040781177 -0.034664001 0.017028689
-0.0029562307 -0.033503946 0.017010331
-0.0020254785 -0.034433134 0.017158836
-0.0010256132 -0.034870844 0.016900629
0 -0.034331992 0.016863018
0.0010011648 -0.034039602 0.0170165
0.0020058467 -0.034099396 0.016698867
0.0030357926 -0.034405649 0.01716432
0.0040198341 -0.03416859 0.017216027
0.0050530005 -0.034360401 0.017530113
0.0060052341 -0.034029659 0.017685145
0.0069733914 -0.03387076 0.018134326
0.0081350198 -0.034573831 0.018102378
0.0092594801 -0.03498026 0.018182963
0.010056092 -0.034190714 0.018182963
0.011289584 -0.034895077 0.0178698
0.012112456 -0.034318626 0.017293185
0.013112091 -0.03429316 0.016961187
0.014428324 -0.035040215 0.016715318
0.01498047 -0.03395573 0.016734242
0.01617549 -0.034372915 0.016327292
0.017362801 -0.034725603 0.016068459
0.018294429 -0.034556147 0.015380979
0.019472867 -0.034846183 0.015193552
0.020255348 -0.034434091 0.014771938
0.021101737 -0.034164719 0.014898598
0.022244247 -0.034377474 0.014693499
0.023401888 -0.034594093 0.014579982
0.024363205 -0.034514539 0.014759898
0.025479436 -0.034652032 0.014642835
0.026340967 -0.034445882 0.014299929
0.027428409 -0.03453948 0.014251947
0.028529666 -0.034643166 0.014001548
0.029215345 -0.034252476 0.014070302
0.030255532 -0.034289602 0.013119072
0.031700961 -0.034768794 0.012952745
0.032229029 -0.034243342 0.012242615
0.033608455 -0.034626894 0.01191783
0.034661006 -0.034661006 0.011143059
0.03569407 -0.034674238 0.01051122
0.036802005 -0.03475745 0.0099625289
0.038298678 -0.035193376 0.0084454119
0.038854126 -0.034764219 0.0055994987
-0.032357302 -0.034444869 0.0051491261
-0.031405173 -0.03454569 0.007474333
-0.029815486 -0.033927966 0.0099998415
-0.028773732 -0.033911899 0.011851072
-0.027808327 -0.033987954 0.012309968
-0.026545536 -0.033692408 0.012911081
-0.025568156 -0.033749964 0.013456494
-0.024429407 -0.033590432 0.014629722
-0.023641724 -0.033920735 0.015875489
-0.022347808 -0.033521712 0.016264319
-0.021389831 -0.033612594 0.016606271
-0.020292278 -0.033482261 0.016303092
-0.019183973 -0.033319533 0.016222507
-0.018267378 -0.033490196 0.016579986
-0.016994497 -0.032989319 0.016425729
-0.016492579 -0.034015946 0.016393393
-0.014871114 -0.032716449 0.016420782
-0.014185484 -0.033437211 0.01640296
-0.013024422 -0.033061996 0.01640296
-0.012201911 -0.033555254 0.016367644
-0.011115499 -0.033346497 0.016412914
-0.010199521 -0.033658419 0.016501039
-0.0090095112 -0.033034872 0.01655817
-0.0081327381 -0.033547543 0.016646087
-0.0069769486 -0.032891329 0.016438276
-0.0060210838 -0.033115961 0.016543359
-0.0049921381 -0.03294811 0.016523391
-0.0040735626 -0.033606891 0.016574293
-0.0030473748 -0.033521123 0.016721785
-0.0020145443 -0.033239983 0.016551793
-0.001031729 -0.03404706 0.016579032
0 -0.033457678 0.01642552
0.0010108177 -0.033356983 0.01681453
0.0020230794 -0.03338081 0.016576886
0.0030546903 -0.033601593 0.016785681
0.004085999 -0.033709493 0.016843617
0.0049525131 -0.032686587 0.01737985
0.0059632943 -0.032798119 0.017676711
0.0072415019 -0.034138508 0.01846686
0.0080834869 -0.033344384 0.018420696
0.0090885032 -0.033324514 0.018432945
0.010156857 -0.033517629 0.018498003
0.010985445 -0.032956336 0.018339247
0.012054927 -0.033151049 0.017698318
0.01329296 -0.033743668 0.017132372
0.014319407 -0.033752888 0.016833276
0.015303366 -0.033667404 0.016900033
0.016316162 -0.033652086 0.016349256
0.017412836 -0.033801388 0.015939564
0.018330961 -0.033606764 0.015082866
0.019307777 -0.03353456 0.014771938
0.02025331 -0.033417959 0.014664471
0.021168645 -0.033265013 0.014605612
0.022205848 -0.033308774 0.014269799
0.023477934 -0.033685733 0.014251143
0.024134371 -0.033184759 0.014198363
0.02566551 -0.033878475 0.014101684
0.026357302 -0.033453498 0.013934106
0.027729493 -0.033891603 0.01386559
0.028119823 -0.033141222 0.013273716
0.029436354 -0.03349654 0.013177067
0.030502357 -0.033552594 0.012649089
0.03153763 -0.033572312 0.012486905
0.032599166 -0.033617891 0.011640579
0.033159964 -0.033159964 0.011167228
0.034327075 -0.033317454 0.010594189
0.035769153 -0.033725202 0.0099632144
0.036691226 -0.033633623 0.0084609985
0.037888333 -0.033792295 0.0055994987
-0.03092223 -0.032983713 0.0061179399
-0.029445561 -0.032491654 0.0086362958
-0.02887626 -0.033001438 0.010701776
-0.027738055 -0.032874733 0.011809915
-0.026401943 -0.032494698 0.012015909
-0.02579665 -0.03301971 0.012852222
-0.024599142 -0.032798856 0.013277352
-0.023483839 -0.032673169 0.014140993
-0.022784673 -0.033141341 0.01521948
-0.021193227 -0.032294441 0.01528132
-0.020230442 -0.032368708 0.015151411
-0.019356625 -0.03260063 0.015701085
-0.018381629 -0.032678451 0.015689641
-0.017221501 -0.032416943 0.015558332
-0.016509352 -0.033018705 0.01561743
-0.01539403 -0.032840598 0.015520751
-0.01416435 -0.032375656 0.015471071
-0.013198868 -0.032489523 0.015406936
-0.012221083 -0.032589555 0.015605301
-0.011395182 -0.033149619 0.016177565
-0.010106407 -0.032340501 0.016222209
-0.0090699764 -0.032248806 0.016244262
-0.0081245555 -0.032498222 0.016345799
-0.007099505 -0.032454878 0.016155243
-0.0060229963 -0.032122646 0.016167045
-0.0050254315 -0.032162763 0.016192794
-0.0040199705 -0.032159764 0.016298264
-0.0030346126 -0.0323692 0.016431242
-0.0020203022 -0.032324836 0.016863018
-0.0010247919 -0.032793339 0.016718239
0 -0.032268669 0.016718239
0.0010097339 -0.032311484 0.016862988
0.0019905525 -0.03184884 0.016744971
0.003102463 -0.033092938 0.016843617
0.0040660566 -0.032528453 0.017292231
0.0050397571 -0.032254446 0.017676711
0.0060855374 -0.032456201 0.018001169
0.0070820111 -0.032374907 0.018389016
0.0080918856 -0.032367542 0.018404305
0.0092345355 -0.032833904 0.018274367
0.010175274 -0.032560878 0.018101901
0.011070064 -0.032203823 0.018048555
0.012231321 -0.032616854 0.017431617
0.013026981 -0.032066416 0.016660094
0.014254764 -0.032582317 0.016301692
0.015264269 -0.032563776 0.01619038
0.016143864 -0.032287728 0.015507519
0.017508319 -0.032956835 0.015182793
0.018200751 -0.032356892 0.014690727
0.019401748 -0.03267663 0.014501959
0.020431371 -0.032690194 0.014459312
0.021258429 -0.032393795 0.014291972
0.022065537 -0.032095328 0.013989866
0.023647619 -0.032901037 0.013888359
0.024253005 -0.032337338 0.01374501
0.024835302 -0.031789187 0.013625354
0.026400361 -0.032492753 0.013177067
0.027462153 -0.032547735 0.013072759
0.028443748 -0.03250714 0.012687743
0.029667737 -0.032736812 0.012388855
0.030176302 -0.032188058 0.011799663
0.031532392 -0.032549568 0.011305183
0.032348737 -0.032348737 0.010796875
0.033503279 -0.032488026 0.010460287
0.035000835 -0.03294196 0.0099058151
0.035716478 -0.032655064 0.0084874034
0.036750726 -0.032667313 0.0066995323
-0.029978259 -0.032045726 0.0072978437
-0.028769167 -0.031851579 0.0096612871
-0.027493544 -0.031566661 0.010994434
-0.02680386 -0.03195845 0.011663526
-0.025766386 -0.031950317 0.011959285
-0.024443036 -0.031572256 0.012666404
-0.023850735 -0.032146644 0.012889743
-0.022625454 -0.031881321 0.012925625
-0.020958157 -0.030938232 0.012757152
-0.020401064 -0.03162165 0.013036042
-0.019195942 -0.031319696 0.013480037
-0.017964108 -0.030938184 0.013611674
-0.017347941 -0.03163448 0.014152139
-0.016174195 -0.031337503 0.014271408
-0.015279908 -0.031578474 0.014124781
-0.014367447 -0.031813633 0.014124781
-0.013138763 -0.031330895 0.014601648
-0.012394459 -0.032019019 0.015042067
-0.011208232 -0.031586833 0.015342236
-0.010130856 -0.031405654 0.015676409
-0.0091139236 -0.031392403 0.015726
-0.0081821475 -0.031705819 0.015967518
