ply
format ascii 1.0
comment PCL generated
element vertex 1261
property float x
property float y
property float z
element camera 0
property float view_px
property float view_py
property float view_pz
property float x_axisx
property float x_axisy
property float x_axisz
property float y_axisx
property float y_axisy
property float y_axisz
property float z_axisx
property float z_axisy
property float z_axisz
property float focal
property float scalex
property float scaley
property float centerx
property float centery
property int viewportx
property int viewporty
property float k1
property float k2
end_header
-0.033829011 -0.06048217 0.016430438
-0.032843523 -0.060555242 0.016490906
-0.031908084 -0.060728293 0.016352147
-0.030809926 -0.060592853 0.015803128
-0.029776046 -0.060578849 0.015588939
-0.02925113 -0.06163631 0.015435278
-0.027743645 -0.060625006 0.014556795
-0.026951216 -0.06115853 0.014298975
-0.026151251 -0.061716951 0.013850272
-0.024788009 -0.060937192 0.013567328
-0.023778228 -0.060996324 0.013183028
-0.022952275 -0.061553832 0.01285845
-0.021699889 -0.060966354 0.012324065
-0.020649729 -0.060916703 0.011668473
-0.019699384 -0.06117177 0.011155456
-0.018650483 -0.06113214 0.010272056
-0.017795231 -0.061759919 0.0091920197
-0.016841704 -0.062103786 0.0077495277
-0.015687456 -0.061703995 0.0072408319
-0.14255415 -0.06124549 0.0058090389
-0.14171328 -0.061338581 0.007268995
-0.14142236 -0.061672911 0.0078234076
-0.1385469 -0.060876667 0.0084323585
-0.13678764 -0.060562465 0.0090382993
-0.13595635 -0.060657445 0.009483099
-0.13388732 -0.060197398 0.010548174
-0.13637716 -0.061795898 0.010840595
-0.13230498 -0.060422745 0.01107353
-0.13083029 -0.060223464 0.011526078
-0.13098927 -0.060779024 0.012074053
-0.12801313 -0.059877113 0.012218833
-0.12788659 -0.060304247 0.012177289
-0.12839285 -0.061039221 0.012264252
-0.12764049 -0.061183043 0.011980891
-0.12420819 -0.060033958 0.011914939
-0.12456375 -0.060711741 0.011727363
-0.12270465 -0.060312457 0.011025161
-0.12137067 -0.060166657 0.010560423
-0.12155416 -0.060777079 0.010359466
-0.12046526 -0.060756393 0.0093174279
-0.11907583 -0.06058244 0.0083005428
-0.12030803 -0.061751023 0.0081622899
-0.11583873 -0.05998791 0.0075250268
-0.11869028 -0.062018346 0.0066851974
-0.1168047 -0.061587937 0.0058703423
-0.11522702 -0.061313462 0.0051856339
-0.070235088 -0.062671311 0.0059073567
-0.066240557 -0.060030501 0.0078316331
-0.067865446 -0.062479302 0.0087884665
-0.064077944 -0.059943885 0.0092955232
-0.062675007 -0.059592631 0.010197699
-0.063528143 -0.061410539 0.011382073
-0.061375588 -0.060335323 0.012547404
-0.059573665 -0.059573665 0.013415158
-0.059144601 -0.060182225 0.014628112
-0.057620313 -0.059678178 0.014943361
-0.05602644 -0.059082426 0.015031934
-0.055723745 -0.05985143 0.015031934
-0.053816814 -0.058893871 0.014868319
-0.05257025 -0.058636047 0.014779717
-0.052293617 -0.059471175 0.014671117
-0.051087711 -0.059261743 0.014252454
-0.050501883 -0.059777737 0.013663709
-0.049619526 -0.059956927 0.013399094
-0.048582923 -0.059953395 0.012958318
-0.048239298 -0.060823463 0.012531042
-0.046642702 -0.06011726 0.012602061
-0.045027256 -0.059354112 0.012565494
-0.044518344 -0.060047999 0.012133807
-0.043321412 -0.059824809 0.01260975
-0.042181525 -0.059671428 0.013151109
-0.041458789 -0.060115244 0.013620496
-0.039919097 -0.059366859 0.013697594
-0.0389647 -0.059472438 0.01461336
-0.038049106 -0.059644543 0.015313566
-0.036745179 -0.059200566 0.015743047
-0.035766307 -0.059269883 0.015954196
-0.035195522 -0.06003942 0.016271025
-0.033752751 -0.059323017 0.016299456
-0.032602463 -0.059091963 0.016265005
-0.031832673 -0.059557904 0.015857339
-0.030698655 -0.059350733 0.015453845
-0.029874606 -0.059749212 0.01538682
-0.029103063 -0.060284916 0.015095204
-0.027789498 -0.059695959 0.01424998
-0.026606617 -0.059353221 0.014035732
-0.026418719 -0.06129143 0.013736725
-0.024700383 -0.059692591 0.013355792
-0.024022939 -0.060579583 0.012873769
-0.022866601 -0.060284678 0.012223661
-0.021693446 -0.05991523 0.011420816
-0.020957515 -0.060776792 0.010918349
-0.019629974 -0.059923079 0.010359645
-0.018715067 -0.060304105 0.0095226765
-0.018014548 -0.0614614 0.00785321
-0.016758921 -0.060751084 0.0069380105
-0.14415014 -0.060863391 0.0058831275
-0.14179686 -0.06031657 0.0073437393
-0.13757627 -0.058961257 0.0078275204
-0.13867509 -0.059882428 0.0085697174
-0.13701349 -0.059616558 0.0089532733
-0.13421468 -0.058847979 0.0097669065
-0.13384072 -0.059138924 0.010586411
-0.13251351 -0.059009925 0.010957778
-0.13040803 -0.058529589 0.011483759
-0.13150226 -0.059489112 0.011571646
-0.12926501 -0.058944844 0.012155712
-0.1286681 -0.059145819 0.012471497
-0.12890215 -0.059735142 0.012512803
-0.12800753 -0.059806794 0.012544781
-0.12521888 -0.058987409 0.012527943
-0.12555815 -0.059640121 0.012201399
-0.12360337 -0.059204973 0.012059599
-0.1214965 -0.058688987 0.011608064
-0.12144445 -0.059165247 0.011097729
-0.12186506 -0.059881967 0.010461777
-0.1195347 -0.059247635 0.01009649
-0.12057738 -0.06028869 0.0093801916
-0.11896865 -0.060010735 0.0083633065
-0.11869563 -0.060407601 0.0080715418
-0.11671481 -0.059934631 0.0078660548
-0.11591192 -0.060063448 0.0074641109
-0.11547579 -0.060386423 0.0067929029
-0.11514286 -0.060769841 0.0062287152
-0.11333574 -0.060375109 0.0050995052
-0.070804 -0.060236234 0.0061916113
-0.069477841 -0.060003594 0.0087351501
-0.068045884 -0.059671007 0.0090292394
-0.066971406 -0.059646409 0.0094522238
-0.065715402 -0.059456792 0.010291755
-0.064431906 -0.059235785 0.011188567
-0.063357666 -0.059203066 0.011816919
-0.061666038 -0.058582738 0.012157261
-0.060230028 -0.058188334 0.013384312
-0.059698932 -0.058669642 0.014140069
-0.058690265 -0.058690265 0.015078217
-0.057721078 -0.058751814 0.015507668
-0.056610029 -0.058668576 0.015641153
-0.055807967 -0.058908407 0.015641153
-0.054190684 -0.05828055 0.015650183
-0.05326388 -0.058385409 0.016052991
-0.052111235 -0.058241967 0.016014993
-0.050667021 -0.057760403 0.015954614
-0.050720651 -0.059001576 0.015488207
-0.049206775 -0.058433045 0.01415956
-0.048994806 -0.059419233 0.013431221
-0.048060745 -0.059553534 0.013150096
-0.046617765 -0.059049167 0.012616575
-0.045770168 -0.059293173 0.012522608
-0.0444372 -0.058905125 0.012170374
-0.042921487 -0.058250587 0.01260975
-0.042881817 -0.059616182 0.012931228
-0.041436598 -0.059047151 0.013165623
-0.040502768 -0.059196357 0.013442248
-0.039111804 -0.058667708 0.013706058
-0.038039755 -0.058601785 0.014622986
-0.036779735 -0.058234584 0.015129298
-0.036292721 -0.059105288 0.015220165
-0.034937225 -0.058571231 0.015439689
-0.033872619 -0.058507249 0.01572302
-0.033185091 -0.059110943 0.015592456
-0.031369165 -0.057678789 0.015451372
-0.030722033 -0.058371864 0.015117317
-0.02938623 -0.05775914 0.0146842
-0.028927555 -0.058888238 0.014317483
-0.027567681 -0.058198441 0.013937205
-0.027273366 -0.05979161 0.013622493
-0.025886532 -0.05902129 0.013304085
-0.025126318 -0.059675004 0.012776643
-0.024299731 -0.060221072 0.012520939
-0.022974811 -0.05952565 0.011568218
-0.022025421 -0.059783284 0.010551125
-0.020967098 -0.059756227 0.0098197758
-0.020062216 -0.060186651 0.0089137256
-0.018858422 -0.059718333 0.0076604187
-0.017800253 -0.059683204 0.0070749521
-0.14062504 -0.058333348 0.0060433149
-0.14095837 -0.058907975 0.0073797107
-0.13867331 -0.058388758 0.0078498125
-0.13868797 -0.058837321 0.0085860193
-0.13678351 -0.058472339 0.0091512501
-0.13736102 -0.059170902 0.0098349154
-0.13452646 -0.058399085 0.010298669
-0.13058716 -0.057131879 0.010804832
-0.13247798 -0.058415491 0.011536568
-0.13078231 -0.05812547 0.011629999
-0.1290227 -0.057802167 0.012468696
-0.12927917 -0.058384143 0.012527049
-0.12667926 -0.057675112 0.01258266
-0.12553813 -0.057624057 0.012672275
-0.12519541 -0.057941679 0.01255402
-0.12355305 -0.057658087 0.012507677
-0.122795 -0.05778588 0.01231733
-0.12279757 -0.058276813 0.011951178
-0.12129175 -0.058054168 0.011671245
-0.11939891 -0.057640854 0.011137426
-0.12192325 -0.059371319 0.010317534
-0.11999433 -0.058944583 0.0098674595
-0.11827766 -0.058615476 0.0091806948
-0.11835868 -0.05917934 0.0085389912
-0.11475783 -0.057895839 0.0081036985
-0.11591008 -0.05900877 0.0082648098
-0.11787696 -0.06056064 0.0079256594
-0.1134132 -0.058806844 0.0075603127
-0.11434171 -0.059842393 0.0071149468
-0.11075877 -0.05851407 0.0061039031
-0.10897082 -0.05811777 0.0053976774
-0.079510763 -0.059368037 0.0052448809
-0.077608056 -0.05873042 0.0054827332
-0.077595256 -0.059525128 0.005597651
-0.075413086 -0.058654621 0.0055949986
-0.074368022 -0.058656469 0.0058421791
-0.074179508 -0.059343606 0.0062724352
-0.072404861 -0.05876337 0.0079365969
-0.0710053 -0.058474954 0.0088204443
-0.071193576 -0.059505079 0.0092502534
-0.069568127 -0.059027504 0.0096480846
-0.067884624 -0.058485217 0.010495037
-0.067016646 -0.058639564 0.011323839
-0.064948484 -0.057731986 0.011874259
-0.063874707 -0.057693284 0.012298137
-0.063782893 -0.058554791 0.012476176
-0.061227579 -0.057145741 0.013658345
-0.060762431 -0.057672814 0.014757037
-0.059844837 -0.057781223 0.014831901
-0.058355812 -0.057332024 0.015366465
-0.057693124 -0.057693124 0.015795529
-0.056200776 -0.057222608 0.016327441
-0.055833172 -0.057901066 0.016447097
-0.054759577 -0.057859179 0.016141295
-0.05302421 -0.057102997 0.016416281
-0.05142606 -0.056467831 0.016705692
-0.051427871 -0.057599213 0.01668039
-0.049584925 -0.056668486 0.01634872
-0.049609572 -0.057877835 0.016225904
-0.048937213 -0.058308166 0.01545313
-0.047241472 -0.057511359 0.014534086
-0.04690858 -0.05837512 0.013657361
-0.045646921 -0.058096081 0.013200283
-0.04492883 -0.058511965 0.012536764
-0.044053275 -0.058737699 0.012739211
-0.042878728 -0.058566071 0.012917072
-0.0418749 -0.05862486 0.012967259
-0.040764678 -0.058533899 0.013165623
-0.039330147 -0.057960216 0.013260931
-0.038263623 -0.05791251 0.013773739
-0.037272833 -0.05797996 0.013909608
-0.035750471 -0.057200756 0.014005333
-0.035017166 -0.057675336 0.015056103
-0.034020357 -0.057731513 0.015197039
-0.032663751 -0.057161566 0.015197039
-0.031588931 -0.057063874 0.014794856
-0.031053266 -0.057966094 0.014257073
-0.029752264 -0.057452649 0.014211833
-0.028731408 -0.057462815 0.0140616
-0.028123623 -0.058330476 0.013541162
-0.026713407 -0.057536568 0.013395339
-0.026103538 -0.058471926 0.012776643
-0.025194578 -0.05878735 0.012450039
-0.023634894 -0.05754583 0.011548847
-0.022908913 -0.058313597 0.010624737
-0.021802805 -0.058140814 0.009109199
-0.02081104 -0.058270913 0.0082727671
-0.020139437 -0.05935834 0.0075538456
-0.018956769 -0.058976613 0.0068247914
-0.14063726 -0.057296664 0.0057446063
-0.1402583 -0.057568703 0.0073437393
-0.14082338 -0.058235228 0.0078880191
-0.13795914 -0.057482976 0.0086348355
-0.13823684 -0.058038369 0.0090522468
-0.13631076 -0.057669934 0.0098243058
-0.13544351 -0.057747234 0.010434449
-0.13175008 -0.056611363 0.010605216
-0.13305022 -0.057620171 0.011416823
-0.12938042 -0.05647558 0.011734784
-0.13240752 -0.058259305 0.012246907
-0.1289658 -0.057202574 0.012472123
-0.12744269 -0.05698657 0.01255402
-0.12687185 -0.057196327 0.012861788
-0.12682268 -0.057646669 0.01255694
-0.12507686 -0.057326894 0.012702525
-0.12405002 -0.057334043 0.0125902
-0.12249125 -0.057093378 0.012396872
-0.12107675 -0.056916419 0.012108207
-0.12031248 -0.057044711 0.011755109
-0.1188496 -0.056841113 0.010968238
-0.11843511 -0.057139751 0.010543883
-0.1175726 -0.0572256 0.010269552
-0.11685115 -0.057382263 0.0097639859
-0.11811167 -0.0585238 0.0091043711
-0.11569429 -0.057847146 0.0091998875
-0.11442708 -0.057738435 0.0088535845
-0.11323281 -0.057664853 0.0084810853
-0.11207192 -0.057607062 0.0081754625
-0.10863971 -0.056369659 0.0077916384
-0.1115118 -0.058410943 0.007748723
-0.1083767 -0.057314601 0.0076587498
-0.10782509 -0.057576504 0.007185787
-0.10801678 -0.058244344 0.0061846375
-0.1063472 -0.057911839 0.0061346292
-0.10570518 -0.058137849 0.0059631169
-0.10820532 -0.060114067 0.0056601167
-0.084786929 -0.057571374 0.0052148402
-0.083876237 -0.057664912 0.0055029988
-0.083174296 -0.057906155 0.0056014359
-0.081497774 -0.05746638 0.0058591664
-0.081550144 -0.058250099 0.0060341954
-0.080241509 -0.058069516 0.0076836944
-0.077672072 -0.056959521 0.0078830719
-0.078541987 -0.058375802 0.0083185434
-0.077287458 -0.058230277 0.0082218349
-0.075294927 -0.057516959 0.0088301599
-0.074234426 -0.057505541 0.0085302293
-0.072430223 -0.056909461 0.0088467598
-0.072134078 -0.057498176 0.0092737377
-0.070591226 -0.057095844 0.0096529722
-0.070878148 -0.058183558 0.010151118
-0.068062879 -0.056719065 0.011121988
-0.067980938 -0.057522334 0.011842549
-0.065663628 -0.05642968 0.012147844
-0.065580316 -0.057252653 0.012726963
-0.064500473 -0.057218164 0.013199896
-0.061812058 -0.055732183 0.014158666
-0.062755525 -0.057525896 0.014849216
-0.060490765 -0.056389693 0.015081555
-0.059850506 -0.05675479 0.015325129
-0.059554491 -0.05746486 0.015773565
-0.057029489 -0.056011103 0.016503632
-0.056305714 -0.056305714 0.016752064
-0.055714566 -0.056746315 0.01679495
-0.054306969 -0.056356288 0.016722202
-0.053060681 -0.056121875 0.017125875
-0.052343424 -0.056448791 0.017080396
-0.05062861 -0.055691473 0.017098248
-0.049764503 -0.055858113 0.017105281
-0.048490472 -0.055561997 0.017125875
-0.047545332 -0.055638157 0.016357988
-0.048234511 -0.057671696 0.01494503
-0.046983909 -0.057424776 0.014424801
-0.045600645 -0.057000808 0.01364851
-0.045368187 -0.058029074 0.013032228
-0.044558894 -0.058350932 0.012872607
-0.042721294 -0.05730905 0.012869209
-0.041920137 -0.057640187 0.012963176
-0.040773317 -0.057500832 0.012832642
-0.039513711 -0.057190899 0.012947023
-0.03861526 -0.057401061 0.013204426
-0.037121292 -0.056713086 0.01339668
-0.036044966 -0.056642093 0.013522148
-0.035134062 -0.056834515 0.013664901
-0.033995569 -0.056659281 0.014017791
-0.033075057 -0.056847751 0.014257073
-0.032098569 -0.056949075 0.013934046
-0.030611472 -0.056121033 0.013746411
-0.029885547 -0.056679487 0.013436288
-0.028470371 -0.055923942 0.013263345
-0.028047545 -0.057133887 0.013116837
-0.027115954 -0.057360671 0.012537271
-0.025992027 -0.057182457 0.01228869
-0.02487294 -0.057000484 0.011312664
-0.023848446 -0.057028893 0.010610253
-0.022765223 -0.056913059 0.0097387433
-0.021643903 -0.056686409 0.0085990131
-0.021063779 -0.057925388 0.0077882111
-0.019795612 -0.057303086 0.006628871
-0.14142039 -0.056568161 0.0051197112
-0.1410518 -0.056841768 0.0070346296
-0.13941199 -0.056603361 0.0077907443
-0.13713774 -0.056101803 0.0081375837
-0.13726944 -0.056584347 0.0088461041
-0.13580205 -0.056410078 0.0096910298
-0.13324742 -0.055777989 0.010286033
-0.13354395 -0.056338858 0.010582715
-0.13202842 -0.056138065 0.011238217
-0.13019671 -0.05579859 0.011607826
-0.1301208 -0.056212187 0.011999577
-0.12729469 -0.055434782 0.012334675
-0.1294307 -0.056823231 0.012484729
-0.12499071 -0.055323757 0.012861788
-0.12345944 -0.055097602 0.012663692
-0.12737073 -0.057316832 0.012936711
-0.12367804 -0.05612281 0.012748867
-0.12095647 -0.055352964 0.012590855
-0.12123056 -0.055952564 0.01231733
-0.12015958 -0.055936355 0.012314737
-0.11892015 -0.055840764 0.012090921
-0.11889266 -0.056317575 0.011450708
-0.11817888 -0.056474861 0.011310965
-0.11706471 -0.056441918 0.010815471
-0.11718297 -0.057007931 0.010222763
-0.11529683 -0.056600265 0.010202438
-0.11510324 -0.057023626 0.0099543035
-0.11196519 -0.055982597 0.009322226
-0.11148297 -0.056262434 0.0086001754
-0.10922336 -0.055642087 0.0088032484
-0.10935506 -0.056239747 0.0081036985
-0.10658865 -0.055344108 0.0083937049
-0.1065091 -0.055839725 0.008089751
-0.10620697 -0.056227218 0.0079977512
-0.10727526 -0.057355091 0.007337749
-0.10787209 -0.05825093 0.007546097
-0.10376955 -0.056601573 0.007196188
-0.10561743 -0.05819736 0.0064201951
-0.10212955 -0.056855626 0.0061346292
-0.099768944 -0.056120031 0.0061835945
-0.10015411 -0.056929704 0.0061935782
-0.096333556 -0.055340551 0.0064049363
-0.096504182 -0.056034684 0.006331861
-0.09710335 -0.056995444 0.0066134036
-0.098463051 -0.058428623 0.0071448982
-0.093645006 -0.056187004 0.0068254471
-0.09466029 -0.057434335 0.006716758
-0.09209048 -0.056510065 0.0058923662
-0.091423027 -0.056745328 0.0056485832
-0.091274485 -0.057311885 0.0066607296
-0.089894414 -0.057109389 0.0065385401
-0.088385738 -0.056819405 0.0066778958
-0.088204235 -0.057385884 0.0071465969
-0.086900666 -0.057227269 0.0077610016
-0.084170215 -0.056113474 0.0083126128
-0.084208608 -0.056840811 0.0082325935
-0.082010232 -0.056057628 0.0082325935
-0.081061669 -0.056119617 0.0086195767
-0.080165714 -0.056220114 0.0083763301
-0.079324871 -0.056362405 0.0084704757
-0.079736277 -0.057410121 0.0089828372
-0.077568889 -0.056604326 0.0096083283
-0.075119212 -0.055567633 0.0096682012
-0.076480411 -0.05736031 0.010285348
-0.074377261 -0.056568623 0.009860456
-0.072339945 -0.055805098 0.010025352
-0.07207825 -0.056409068 0.010210365
-0.069853917 -0.055472232 0.011082232
-0.070034727 -0.056445897 0.011887491
-0.069053024 -0.056497928 0.012301862
-0.066704534 -0.055416074 0.012538701
-0.066270202 -0.055915482 0.013431549
-0.065237202 -0.055917602 0.013901711
-0.063531689 -0.055334054 0.01425609
-0.062916286 -0.055696387 0.014841735
-0.061607607 -0.055446848 0.015278071
-0.06043566 -0.055313993 0.015407473
-0.05979285 -0.055669207 0.015571773
-0.058510948 -0.055431426 0.016249985
-0.057784829 -0.055721086 0.016735405
-0.056702524 -0.055671569 0.016988873
-0.05548472 -0.05548472 0.017363131
-0.054295789 -0.055320237 0.017281383
-0.053159669 -0.055204269 0.017381668
-0.052150775 -0.055218469 0.017446548
-0.050515212 -0.054556429 0.017625988
-0.050355781 -0.055494126 0.017382324
-0.048320543 -0.05436061 0.017711699
-0.047868166 -0.054997467 0.017438918
-0.047152739 -0.055353217 0.016633332
-0.04639677 -0.055676121 0.014955193
-0.045759309 -0.05615915 0.013823211
-0.044832934 -0.056301825 0.013085604
-0.04404616 -0.056630779 0.012768865
-0.042993553 -0.056625653 0.012757927
-0.041567355 -0.056115929 0.01219672
-0.040944915 -0.056692962 0.011912882
-0.039558753 -0.05621507 0.011988461
-0.038748946 -0.056552514 0.012007535
-0.037428331 -0.056142498 0.012188166
-0.036366913 -0.056108952 0.012551934
-0.035164062 -0.055848803 0.013111442
-0.034022674 -0.055673465 0.013235182
-0.033120792 -0.055891339 0.013267934
-0.031739838 -0.055288747 0.013213754
-0.031159315 -0.056086767 0.01306951
-0.029798346 -0.055486575 0.012722015
-0.028585272 -0.055128738 0.012515426
-0.028002463 -0.056004927 0.012340665
-0.027078871 -0.056240734 0.011668533
-0.025930509 -0.056009896 0.011379957
-0.025029933 -0.056317352 0.010425568
-0.023951344 -0.056233589 0.0098976791
-0.022392467 -0.054963328 0.0089336634
-0.021896333 -0.056304857 0.0079083145
-0.020930566 -0.056512527 0.0067900717
-0.13892516 -0.054948013 0.0063026249
-0.13913028 -0.055442892 0.0075077713
-0.1379656 -0.055395283 0.0079967976
-0.13657424 -0.055255227 0.008643657
-0.1352548 -0.055142339 0.0094411075
-0.13650504 -0.056083467 0.010005981
-0.13084222 -0.05417686 0.010540724
-0.13111636 -0.054717854 0.011175126
-0.13275559 -0.05584164 0.011412531
-0.12991266 -0.055082966 0.011796564
-0.1291091 -0.055183724 0.012319654
-0.12700447 -0.054725505 0.012561649
-0.12515682 -0.054371402 0.012936085
-0.12670887 -0.055500582 0.01280728
-0.12459255 -0.055028375 0.013295084
-0.12389615 -0.055180639 0.012963235
-0.12324211 -0.055354506 0.012748867
-0.12048029 -0.054576542 0.01265955
-0.11970042 -0.054690711 0.012729317
-0.1199398 -0.055276603 0.012262255
-0.11791304 -0.054819219 0.011779666
-0.11781696 -0.055259284 0.011618286
-0.11742224 -0.055565882 0.011480957
-0.11580368 -0.055293649 0.010800213
-0.11513134 -0.055472374 0.010968894
-0.1134907 -0.055183552 0.010522693
-0.11164991 -0.054791156 0.010421515
-0.11119565 -0.05507822 0.0098538697
-0.11063701 -0.055318505 0.009087652
-0.10773583 -0.054380942 0.0084380805
-0.10832082 -0.055201959 0.0087812841
-0.10941724 -0.056302074 0.0084072351
-0.10758274 -0.055900835 0.0083666742
-0.10842369 -0.056895599 0.0082657933
-0.10581126 -0.056079965 0.0083647966
-0.10333267 -0.05531951 0.0083063543
-0.10310237 -0.055759445 0.0078968704
-0.099127218 -0.054162294 0.0077686608
-0.10034581 -0.055399247 0.0087945461
-0.09886086 -0.055153951 0.0096202493
-0.096792981 -0.054574765 0.0098059475
-0.096925937 -0.05523736 0.0095348656
-0.096056521 -0.055336908 0.0098133087
-0.0942204 -0.05487562 0.0098417699
-0.095295355 -0.056118377 0.0096902251
-0.093677804 -0.055785656 0.0093973577
-0.092286445 -0.055581607 0.0092824996
-0.092383698 -0.056279726 0.0092824996
-0.088637769 -0.054625601 0.0094119906
-0.088634871 -0.055266447 0.0090841353
-0.089234568 -0.056302764 0.0090841353
-0.085814148 -0.054796986 0.0093173385
-0.08523827 -0.055093028 0.010463357
-0.084743112 -0.055449199 0.010457098
-0.083240129 -0.055146586 0.010293275
-0.082725398 -0.055499319 0.010916293
-0.081996746 -0.055715736 0.011037081
-0.079384245 -0.054641105 0.010624886
-0.079404123 -0.055373929 0.01100257
-0.078790359 -0.05567852 0.011367977
-0.077247046 -0.05532559 0.011885613
-0.076547749 -0.055575762 0.011994839
-0.074754901 -0.055027913 0.012250036
-0.074276835 -0.055446085 0.012104809
-0.072921567 -0.05521204 0.01250425
-0.07088241 -0.054445907 0.012526125
-0.070068009 -0.054611832 0.01253438
-0.069718294 -0.055150293 0.01263991
-0.068495147 -0.055003677 0.012708575
-0.067061916 -0.054681253 0.013543248
-0.066102326 -0.054740991 0.013909847
-0.065348767 -0.054975946 0.014778495
-0.064433068 -0.055079885 0.01488483
-0.062774464 -0.054541744 0.015158892
-0.061124496 -0.053993307 0.015577346
-0.061006241 -0.054802217 0.015576005
-0.059762806 -0.054610837 0.015847981
-0.058371339 -0.054275107 0.016492873
-0.057651028 -0.05456258 0.016849875
-0.055936817 -0.053902749 0.017197251
-0.055453431 -0.054426517 0.01747939
-0.054738972 -0.054738972 0.017173409
-0.052956663 -0.053975061 0.017354697
-0.052281514 -0.054331768 0.017592102
-0.051223919 -0.054297354 0.01781711
-0.049497411 -0.053538017 0.01790756
-0.049097151 -0.054211438 0.018100679
-0.047627494 -0.0537076 0.017900229
-0.046290509 -0.053334717 0.01769045
-0.04643061 -0.054684941 0.016387612
-0.045589864 -0.054915063 0.014580816
-0.044748083 -0.055154614 0.01366505
-0.044090562 -0.055638094 0.012842029
-0.042910136 -0.0554692 0.012725472
-0.041832794 -0.055428449 0.012022734
-0.041163601 -0.055940282 0.011455536
-0.039631218 -0.055275124 0.011486739
-0.038666856 -0.055387661 0.011425912
-0.037912194 -0.055815175 0.011550188
-0.036499579 -0.055270787 0.011704028
-0.035179388 -0.05483846 0.011840999
-0.03397942 -0.054573011 0.012440383
-0.032787256 -0.054303896 0.01248771
-0.032147471 -0.054961804 0.012423307
-0.030966843 -0.05470809 0.012189507
-0.029453587 -0.05382897 0.011845261
-0.028865138 -0.054637581 0.011645555
-0.027861983 -0.054692037 0.011225015
-0.026874008 -0.054781631 0.011031896
-0.026174461 -0.05548986 0.010426819
-0.02478821 -0.05474063 0.0097387433
-0.023902977 -0.055080775 0.0089399815
-0.022754466 -0.05481758 0.0078823864
-0.021408679 -0.054031432 0.0065947771
-0.14087103 -0.05466637 0.0059182346
-0.13895543 -0.054328438 0.0068357885
-0.14006111 -0.055175588 0.0078399777
-0.13758551 -0.054614093 0.0085187554
-0.13760038 -0.055040155 0.0092767179
-0.13385819 -0.053958338 0.0097253025
-0.13288745 -0.053985529 0.010318786
-0.13332425 -0.054589454 0.011056781
-0.13111691 -0.054111741 0.011549294
-0.13027094 -0.054192714 0.011851817
-0.13074978 -0.054830547 0.012294799
-0.12808123 -0.054148164 0.012578338
-0.12542892 -0.053461503 0.012676477
-0.12489668 -0.053674608 0.012899667
-0.1223737 -0.053028602 0.013029367
-0.12363392 -0.054024905 0.012998462
-0.12209206 -0.05380328 0.0128268
-0.11977029 -0.053231239 0.01269868
-0.11992633 -0.053760078 0.012559652
-0.11929501 -0.053942088 0.012442589
-0.11774781 -0.053709526 0.012050927
-0.11819665 -0.054391377 0.012349337
-0.11509053 -0.053434893 0.012050927
-0.11798294 -0.055271287 0.011901885
-0.11484879 -0.054292157 0.011530876
-0.11278746 -0.05380686 0.011022031
-0.11130215 -0.053589925 0.011020303
-0.11020204 -0.053556129 0.010436505
-0.10860917 -0.05327997 0.010015726
-0.10877743 -0.053870723 0.0097573102
-0.10802814 -0.054014068 0.0097500086
-0.10811816 -0.054583926 0.0093539953
-0.10714484 -0.054622859 0.0090343058
-0.10502357 -0.054071542 0.0088761151
-0.10414565 -0.054155737 0.0090717077
-0.10759266 -0.056513313 0.0089330077
-0.10130569 -0.053754043 0.0088162124
-0.09995614 -0.053584736 0.0094180107
-0.099090122 -0.053673819 0.010145903
-0.097042896 -0.053118218 0.011102647
-0.09714593 -0.0537403 0.011615396
-0.097788878 -0.05467765 0.011615396
-0.097047284 -0.054852813 0.011642426
-0.094357193 -0.053918395 0.011542767
-0.093461461 -0.053999957 0.011362374
-0.091699138 -0.053577024 0.011362374
-0.091931872 -0.054323379 0.011231214
-0.089784317 -0.053664189 0.011161387
-0.089961395 -0.054395262 0.011290878
-0.089426957 -0.054708257 0.011112005
-0.087121814 -0.053932555 0.011457533
-0.085429259 -0.053521946 0.011191487
-0.085719571 -0.054358754 0.011907011
-0.084478498 -0.054233108 0.011826992
-0.083867937 -0.054514159 0.011689574
-0.081692383 -0.0537722 0.011810243
-0.081121005 -0.054080673 0.011810243
-0.080067664 -0.054071672 0.011508644
-0.078932278 -0.054006293 0.011757761
-0.077691048 -0.053865794 0.01199913
-0.076481193 -0.053743541 0.012735218
-0.075695641 -0.05392018 0.012390196
-0.074756235 -0.053990614 0.013350844
-0.074529573 -0.054585043 0.012991369
-0.072355539 -0.05374983 0.013554871
-0.070896067 -0.053428922 0.013728768
-0.070334829 -0.053785454 0.013573229
-0.069179885 -0.053691849 0.013447225
-0.067873247 -0.053475894 0.01372087
-0.067653574 -0.054122861 0.013909847
-0.065645158 -0.053336691 0.014411688
-0.065733045 -0.054255843 0.014882773
-0.064396895 -0.054010302 0.015105575
-0.062654294 -0.053410217 0.015428483
-0.062257506 -0.053956505 0.015709847
-0.061121184 -0.053869519 0.015708506
-0.058990721 -0.052888233 0.015855461
-0.059218444 -0.054023843 0.016664892
-0.057314049 -0.053220186 0.016774535
-0.056230024 -0.053162932 0.016999811
-0.056018688 -0.053943921 0.017526716
-0.054432545 -0.053405516 0.017297566
-0.053284444 -0.053284444 0.017412663
-0.052251611 -0.053276151 0.017707884
-0.050916392 -0.05295305 0.017895311
-0.049557537 -0.052591674 0.018096387
-0.048537415 -0.052582197 0.018174797
-0.046993878 -0.051993228 0.018090814
-0.046647802 -0.052732296 0.018112987
-0.045731008 -0.052844722 0.01769045
-0.045388125 -0.053640511 0.016241223
-0.04452223 -0.053840835 0.01444456
-0.043948852 -0.054412864 0.013038665
-0.042873677 -0.054376371 0.012691647
-0.042241141 -0.05491348 0.011762202
-0.041121837 -0.054829113 0.011200905
-0.040017027 -0.054760143 0.011017859
-0.03878437 -0.054507766 0.0109438
-0.037502103 -0.054169703 0.011167824
-0.03664903 -0.05444999 0.011193335
-0.035444345 -0.054208998 0.011024535
-0.034256671 -0.053980209 0.011207283
-0.033145577 -0.053861566 0.011632144
-0.032229081 -0.054061688 0.011207283
-0.031054946 -0.053828571 0.011168242
-0.030319678 -0.05436632 0.010884434
-0.028763535 -0.053417992 0.010791928
-0.027995497 -0.053917252 0.010359198
-0.027176546 -0.054353092 0.010021836
-0.025823688 -0.05371327 0.0095168352
-0.025106987 -0.054398473 0.0087141395
-0.023741096 -0.053675521 0.0078823864
-0.022566123 -0.053338107 0.0071136951
-0.022000851 -0.054478299 0.0050974488
-0.13903366 -0.053313658 0.0060832202
-0.13835102 -0.053453803 0.0068331659
-0.13797383 -0.053715006 0.0076945126
-0.13497923 -0.052953389 0.008587867
-0.13474996 -0.053273242 0.0090608001
-0.13267317 -0.05286197 0.0097155869
-0.13176875 -0.052915011 0.010550886
-0.13120607 -0.053107213 0.011147052
-0.12949404 -0.052833572 0.011726826
-0.1266938 -0.052107934 0.012078404
-0.12750201 -0.052866682 0.012413085
-0.12412126 -0.051886756 0.012549907
-0.12428366 -0.052384023 0.01270166
-0.12446257 -0.052896593 0.013174772
-0.12290512 -0.052673623 0.013216525
-0.12069968 -0.052166812 0.013216525
-0.12195488 -0.053159818 0.01320371
-0.12037569 -0.052923795 0.01285243
-0.11889198 -0.052726012 0.012578577
-0.11923251 -0.053340856 0.01238817
-0.11697825 -0.052795492 0.012394309
-0.1183392 -0.053886596 0.012394309
-0.11743013 -0.053954381 0.012191266
-0.11320789 -0.052487295 0.012105346
-0.11180141 -0.05231075 0.011648804
-0.11105537 -0.052442815 0.011237442
-0.11025352 -0.052550741 0.011005849
-0.10927849 -0.052577384 0.010468513
-0.1086733 -0.052784178 0.01041925
-0.10755686 -0.052744228 0.010510534
-0.10743841 -0.053197656 0.010519892
-0.1058327 -0.052916348 0.010342211
-0.10562756 -0.053336687 0.0099150538
-0.10700886 -0.054574519 0.010246783
-0.10322425 -0.053176127 0.010464787
-0.10026822 -0.052180402 0.010712832
-0.099497497 -0.052313119 0.01111111
-0.097230539 -0.05165372 0.012229681
-0.098317131 -0.052780773 0.012527078
-0.097063303 -0.052662008 0.012947142
-0.09589617 -0.052588221 0.012947142
-0.095611125 -0.053001821 0.01279515
-0.095093794 -0.053294323 0.012452662
-0.092777438 -0.052573882 0.01269114
-0.092722133 -0.053132907 0.012767017
-0.09245155 -0.053579878 0.012844056
-0.090153195 -0.052848425 0.012833267
-0.089183457 -0.052887864 0.012833267
-0.087233633 -0.052340176 0.012760937
-0.087002531 -0.052822966 0.013030291
-0.086128652 -0.052922424 0.013064951
-0.083624937 -0.052010633 0.01378718
-0.083719768 -0.052712448 0.013611346
-0.081937194 -0.052234963 0.013437837
-0.081442937 -0.052577086 0.01341328
-0.080935292 -0.052919231 0.013258755
-0.080036335 -0.053011078 0.013129354
-0.077531487 -0.05202771 0.012871385
-0.077615559 -0.052778579 0.013188571
-0.075980879 -0.052365202 0.013186485
-0.074584693 -0.052107114 0.013367683
-0.074273363 -0.052610297 0.013994575
-0.073818907 -0.053024847 0.013519406
-0.071700729 -0.052239105 0.014111519
-0.071593158 -0.05291668 0.01428175
-0.069567442 -0.052175581 0.014286935
-0.069583461 -0.052966516 0.014286935
-0.068592452 -0.053003259 0.014325589
-0.066117503 -0.051876813 0.014575869
-0.066219851 -0.052768942 0.014851421
-0.06568455 -0.053173207 0.015099019
-0.063971952 -0.052622091 0.015179932
-0.063147552 -0.052795492 0.015429765
-0.061260045 -0.052071039 0.015865743
-0.060574029 -0.052360602 0.01622206
-0.059810065 -0.052591611 0.01632905
-0.058534697 -0.052373149 0.016408652
-0.057686549 -0.052535962 0.01663968
-0.056612596 -0.052495319 0.016906798
-0.054812483 -0.051767346 0.017173409
-0.054490834 -0.052434575 0.017387927
-0.054382011 -0.053336203 0.017536968
-0.0518976 -0.0518976 0.01793322
-0.050620604 -0.051633015 0.018143177
-0.050079834 -0.052123908 0.018551588
-0.048639622 -0.051679596 0.01867041
-0.047993034 -0.052077547 0.018789798
-0.046091229 -0.051101144 0.018701822
-0.045407172 -0.051461462 0.018303573
-0.044863507 -0.052000884 0.017695069
-0.043965105 -0.052144662 0.016397089
-0.043284919 -0.052560259 0.014562577
-0.043239687 -0.053785954 0.013260275
-0.041615807 -0.053060155 0.011813879
-0.041870032 -0.054753121 0.011256427
-0.04078541 -0.054738317 0.010918707
-0.038706288 -0.053351909 0.01056397
-0.037694912 -0.053401124 0.01056397
-0.036596388 -0.053326167 0.010560095
-0.035527408 -0.053291112 0.0099891126
-0.034273148 -0.052967589 0.010552138
-0.033284046 -0.053046446 0.010291368
-0.032252107 -0.053059917 0.0102458
-0.0315185 -0.053581446 0.010083228
-0.030082079 -0.052902967 0.0095881522
-0.028925627 -0.052685965 0.0095500648
-0.028271711 -0.053402118 0.0093686283
-0.027055139 -0.053069692 0.0092716515
-0.026116015 -0.053276669 0.0088508725
-0.025476763 -0.05413812 0.0080745518
-0.023474075 -0.052051209 0.0067714751
-0.022918539 -0.053129341 0.0051865578
-0.13906983 -0.052677963 0.0059660971
-0.13574328 -0.05181041 0.0068248808
-0.13593683 -0.052283399 0.0079783201
-0.13519952 -0.052402917 0.0085573792
-0.13299319 -0.051950462 0.0090539753
-0.13426323 -0.052859541 0.010153145
-0.1313604 -0.052127142 0.010860354
-0.12991634 -0.051966537 0.011392206
-0.12849912 -0.051814161 0.011961728
-0.12711546 -0.051672954 0.012078911
-0.12501788 -0.051236834 0.012126118
-0.12583727 -0.051998869 0.012559652
-0.12453311 -0.051888797 0.012919247
-0.12355218 -0.05191268 0.013153851
-0.12312856 -0.052173119 0.013087004
-0.11986076 -0.051222548 0.012946874
-0.11971063 -0.051599409 0.012818009
-0.11935732 -0.051894486 0.012627482
-0.11731501 -0.051453952 0.012442589
-0.11758196 -0.052027415 0.012628794
-0.1166765 -0.052087724 0.012742102
-0.11315368 -0.050970126 0.012462825
-0.11404883 -0.05184038 0.012639225
-0.11276983 -0.051729281 0.011840612
-0.11048379 -0.051149905 0.011624008
-0.11109829 -0.051915087 0.011227995
-0.10917901 -0.051499531 0.011128485
-0.10807946 -0.051466413 0.011125028
-0.10793775 -0.051893145 0.011281163
-0.10623503 -0.051570404 0.011615753
-0.10681525 -0.052360415 0.011246681
-0.1063504 -0.052648712 0.01086989
-0.1059569 -0.052978452 0.01138109
-0.10335364 -0.052198809 0.011590511
-0.10093588 -0.051497899 0.012180537
-0.099469185 -0.051272776 0.012888372
-0.099524073 -0.051835455 0.013370991
-0.098785251 -0.051992238 0.013553411
-0.096745804 -0.051460534 0.013929009
-0.095891096 -0.051554352 0.014056325
-0.095294617 -0.051790554 0.013959438
-0.093433768 -0.051337238 0.013360858
-0.093452275 -0.051917929 0.013621777
-0.092357211 -0.051886074 0.013970912
-0.090712763 -0.051541343 0.01371482
-0.09063042 -0.052086446 0.013758361
-0.089317173 -0.051928591 0.014050871
-0.087761134 -0.051624198 0.014407784
-0.086557001 -0.051522024 0.014843494
-0.084940173 -0.051168777 0.014637232
-0.08431574 -0.051412035 0.014787644
-0.084455773 -0.052133195 0.014438897
-0.082363166 -0.051476978 0.014649838
-0.081103198 -0.05133114 0.014659911
-0.080520399 -0.051615641 0.014400721
-0.07867711 -0.051089033 0.014341354
-0.079147555 -0.052070759 0.01441583
-0.077481173 -0.051654115 0.014442205
-0.075661898 -0.051122904 0.014477491
-0.075307347 -0.051580377 0.014687747
-0.073876359 -0.051303029 0.015264601
-0.073644623 -0.051862411 0.014791548
-0.073092319 -0.0522088 0.014990062
-0.070482761 -0.051074464 0.015166759
-0.069253132 -0.050921421 0.014990062
-0.069801383 -0.052090585 0.014921337
-0.068184011 -0.051654551 0.014879316
-0.066610597 -0.051238921 0.01489678
-0.065892793 -0.051478744 0.014987737
-0.065347329 -0.051862963 0.015375018
-0.063979782 -0.051596597 0.015437543
-0.062456854 -0.051194143 0.015646607
-0.060728669 -0.050607223 0.016106308
-0.060791399 -0.051518135 0.016548783
-0.059544493 -0.051331457 0.016628712
-0.058025926 -0.050899938 0.016447753
-0.057869431 -0.051669136 0.016822934
-0.056144606 -0.051040553 0.017170548
-0.055514101 -0.051401947 0.017084748
-0.054295775 -0.051222429 0.017222673
-0.053203631 -0.051157337 0.017499238
-0.052918617 -0.051880997 0.017777652
-0.051346686 -0.051346686 0.018304676
-0.049694695 -0.050708871 0.01850161
-0.049000088 -0.05104176 0.018741161
-0.048112802 -0.051183831 0.01915589
-0.046356063 -0.050387025 0.018931836
-0.045620006 -0.050688893 0.01878801
-0.044605143 -0.050687663 0.0181503
-0.04397317 -0.051131591 0.017695069
-0.043150231 -0.051369324 0.016297013
-0.042300224 -0.051585641 0.014640778
-0.041421991 -0.051777489 0.013139814
-0.041498911 -0.053203732 0.011351794
-0.040631253 -0.053462174 0.011034429
-0.038989533 -0.052688558 0.010475665
-0.038208801 -0.053067777 0.010372609
-0.036141817 -0.051631168 0.010000646
-0.035364516 -0.05200664 0.0095838904
-0.034744494 -0.052643172 0.0096311867
-0.033385377 -0.052164651 0.0092035234
-0.032632895 -0.052633703 0.0095154047
-0.031338196 -0.052230325 0.0090822577
-0.030075226 -0.051853836 0.0090007186
-0.029218663 -0.052176185 0.0088969767
-0.02828341 -0.052376684 0.0086955428
-0.027074303 -0.052065969 0.0082360804
-0.026469061 -0.052938122 0.0077065825
-0.025043249 -0.052173436 0.006344527
-0.13759477 -0.051466744 0.0058544278
-0.13892123 -0.052362617 0.0068928599
-0.13604504 -0.051676024 0.007648766
-0.13580959 -0.051989608 0.0083923638
-0.13222644 -0.051016502 0.0095258653
-0.12916961 -0.050232626 0.010393888
-0.13087615 -0.051303454 0.011111081
-0.12904759 -0.050994612 0.011730492
-0.12786058 -0.050936326 0.011852473
-0.12683156 -0.050940547 0.012078404
-0.12498274 -0.050612845 0.0121589
-0.12380417 -0.050553374 0.013026506
-0.12541543 -0.05164165 0.012926459
-0.12139661 -0.050410457 0.013417125
-0.12339281 -0.051677331 0.013530433
-0.12037598 -0.050848473 0.013214886
-0.11862946 -0.050546467 0.012884676
-0.11631224 -0.049993854 0.012728006
-0.11773425 -0.051052906 0.012965173
-0.11636732 -0.0509107 0.012965173
-0.11511599 -0.050816968 0.012965173
-0.11399692 -0.050780449 0.012981266
-0.11203239 -0.050363183 0.012615949
-0.11233319 -0.050965987 0.012669206
-0.11044911 -0.050579499 0.012292057
-0.10904139 -0.050405927 0.01178214
-0.11025857 -0.051454 0.012022972
-0.10723197 -0.050522756 0.012222081
-0.10720777 -0.051001754 0.012861222
-0.10802022 -0.051892065 0.012861222
-0.10738312 -0.052096762 0.012883574
-0.10353804 -0.050733641 0.013166815
-0.10245138 -0.050708257 0.013437837
-0.099612743 -0.049806371 0.013653606
-0.099963225 -0.050496884 0.013866931
-0.097839542 -0.049938932 0.014440417
-0.097703315 -0.050394341 0.014588326
-0.098921239 -0.051565327 0.014952898
-0.095874406 -0.050514475 0.014701873
-0.094332568 -0.050242346 0.01504764
-0.093828514 -0.050523046 0.014520526
-0.09383224 -0.051086441 0.014773518
-0.091673955 -0.050472178 0.015192598
-0.091556177 -0.050980143 0.015069008
-0.089350313 -0.05032374 0.015140027
-0.088917337 -0.050662201 0.015418768
-0.087436661 -0.050404664 0.015657276
-0.085669897 -0.04997411 0.015734613
-0.084142417 -0.04967444 0.015678108
-0.085153021 -0.050884124 0.015688539
-0.082853846 -0.050121464 0.015543014
-0.081617057 -0.049990449 0.015680671
-0.080262117 -0.049782835 0.015696675
-0.080366328 -0.050486539 0.015507251
-0.079460591 -0.050565831 0.015465349
-0.077991433 -0.05028395 0.015375078
-0.076631807 -0.05006611 0.015367836
-0.076114267 -0.050399989 0.01543349
-0.075329185 -0.050563421 0.0155572
-0.073396802 -0.049950603 0.01619491
-0.073022403 -0.050395742 0.015583098
-0.071663186 -0.05016423 0.015883088
-0.071353145 -0.050671071 0.015781045
-0.06964536 -0.050185628 0.015839726
-0.068770155 -0.050294589 0.015624791
-0.067894183 -0.050406288 0.015287161
-0.066856936 -0.050399844 0.015358597
-0.065207012 -0.049924117 0.015380442
-0.065692551 -0.051094208 0.015587389
-0.064338312 -0.050848022 0.015709847
-0.063059688 -0.050654501 0.015761346
-0.062099479 -0.050714575 0.016321987
-0.060481809 -0.050230656 0.016313881
-0.059222534 -0.050032832 0.016268373
-0.058486823 -0.050278146 0.016224414
-0.057274397 -0.050115097 0.016472965
-0.056320596 -0.050176531 0.016958088
-0.055422727 -0.050290994 0.017015934
-0.054135591 -0.050049886 0.017160416
-0.052807517 -0.049760927 0.017428994
-0.052184626 -0.050138172 0.017696083
-0.050560296 -0.049549088 0.018153667
-0.050109725 -0.050109725 0.018516719
-0.048700809 -0.049715411 0.018618882
-0.047677398 -0.049706221 0.019089013
-0.046612289 -0.049652219 0.019293606
-0.045513634 -0.049559291 0.018761486
-0.044114519 -0.04912753 0.018160015
-0.043715123 -0.049814906 0.018122584
-0.042717338 -0.049836896 0.017412871
-0.0419944 -0.05018843 0.016297013
-0.041523904 -0.050866779 0.014640272
-0.040240146 -0.050558135 0.012885869
-0.039337609 -0.050724812 0.011367112
-0.039074928 -0.051747877 0.010864079
-0.037767343 -0.051405549 0.010256708
-0.036407504 -0.050970506 0.0096882582
-0.035523552 -0.051195711 0.0090402663
-0.034594174 -0.051367108 0.0089735687
-0.033430126 -0.051189877 0.0087224245
-0.032627281 -0.051572155 0.0087431073
-0.031340044 -0.051188737 0.0079782009
-0.030496648 -0.051528815 0.0077046454
-0.029341282 -0.051347245 0.0073752105
-0.028040392 -0.050888121 0.0063174963
-0.0270759 -0.051027659 0.0061291754
-0.026198359 -0.051348783 0.0057511032
-0.13609387 -0.050250046 0.0055223107
-0.13622373 -0.050687902 0.0066329539
-0.13391349 -0.050217558 0.0077548027
-0.13344307 -0.050435174 0.008634299
-0.13034078 -0.049653634 0.010007322
-0.13096251 -0.050289605 0.011016756
-0.12703209 -0.049173709 0.011498958
-0.12816781 -0.050016705 0.011762112
-0.12597692 -0.049564689 0.011974245
-0.12498882 -0.049582344 0.012158483
-0.12395035 -0.049580138 0.012777448
-0.1231686 -0.049681447 0.013048798
-0.1231482 -0.050094184 0.013803363
-0.12231034 -0.050178602 0.013655096
-0.11914573 -0.04930168 0.013416409
-0.11894522 -0.049646702 0.012944132
-0.1181961 -0.049766779 0.012944013
-0.11821737 -0.050216228 0.013164967
-0.11593252 -0.049685363 0.013248861
-0.11647796 -0.050368849 0.013417125
-0.1129098 -0.049269728 0.013377398
-0.11386515 -0.050142452 0.013109237
-0.11019025 -0.048973445 0.013104916
-0.11002608 -0.049357496 0.012677431
-0.11173283 -0.050596002 0.012224227
-0.10997305 -0.050273392 0.012519449
-0.10871615 -0.050176684 0.013199121
-0.10877591 -0.050691687 0.013605475
-0.1072001 -0.050447106 0.013707131
-0.10658253 -0.050653081 0.013680696
-0.10432392 -0.050075483 0.014169455
-0.10170659 -0.049312286 0.014311224
-0.099635139 -0.048800882 0.01446709
-0.099410787 -0.049192965 0.014713049
-0.098128997 -0.049064498 0.014826566
-0.098412588 -0.049724255 0.015057355
-0.096700333 -0.049378894 0.015304476
-0.094255663 -0.048648082 0.015301436
-0.096026309 -0.05010068 0.015334129
-0.094471574 -0.049831159 0.015218198
-0.092022337 -0.04907858 0.015506268
-0.092324749 -0.049793124 0.015538573
-0.090539105 -0.049384966 0.015601754
-0.088805474 -0.048996121 0.015805632
-0.089557432 -0.049985543 0.015872627
-0.087674268 -0.049510177 0.01616317
-0.086190447 -0.049251683 0.01616618
-0.084969141 -0.049138781 0.015932828
-0.08323276 -0.048721615 0.016274154
-0.083143629 -0.049270298 0.016282886
-0.082376853 -0.049426112 0.01640451
-0.080200076 -0.048729159 0.016210854
-0.079978384 -0.049217466 0.016175866
-0.079390913 -0.049490437 0.01610449
-0.077135146 -0.048716933 0.01610744
-0.076298691 -0.048831161 0.016048044
-0.07662832 -0.049704853 0.016156942
-0.074794553 -0.049179982 0.016075224
-0.074096091 -0.049397394 0.016723454
-0.0729324 -0.049306415 0.016059577
-0.072465554 -0.049690668 0.016166002
-0.071638703 -0.049835619 0.016096085
-0.069820605 -0.049285136 0.016071349
-0.068946935 -0.049394816 0.015906334
-0.068294689 -0.049668867 0.015893608
-0.066414505 -0.049044557 0.015693426
-0.06548778 -0.049115833 0.015557051
-0.064880259 -0.049432579 0.015885264
-0.063665591 -0.049289487 0.015887558
-0.063015163 -0.049585704 0.015780717
-0.061806083 -0.049444865 0.015981108
-0.060086414 -0.048883863 0.016235441
-0.059621036 -0.049341545 0.016137004
-0.058341939 -0.049130052 0.016251653
-0.057236806 -0.049060121 0.016711861
-0.056449756 -0.049265243 0.016914457
-0.055112422 -0.048988819 0.016834587
-0.054513179 -0.049370427 0.017229825
-0.05335727 -0.049252864 0.017441094
-0.051604446 -0.048568889 0.017898709
-0.050768614 -0.048737869 0.018170178
-0.050337683 -0.049310386 0.018565625
-0.048723698 -0.048723698 0.018625766
-0.048041299 -0.049063455 0.018987536
-0.046536725 -0.048560061 0.019230783
-0.045442417 -0.048471913 0.018571824
-0.044439457 -0.048479408 0.018223941
-0.043360338 -0.048402239 0.018024683
-0.042431831 -0.048493523 0.017493457
-0.041710664 -0.048831996 0.01677537
-0.040414777 -0.048497729 0.015161693
-0.040426839 -0.04975611 0.013564289
-0.039551854 -0.049960237 0.012387902
-0.03827963 -0.049660061 0.01096347
-0.038020704 -0.050694272 0.010248572
-0.036802661 -0.050472222 0.0092349946
-0.035795979 -0.0505355 0.0089473426
-0.034668174 -0.050426435 0.008612752
-0.03365941 -0.050489113 0.0080036521
-0.032581899 -0.050449394 0.0076439679
-0.031784881 -0.050855808 0.0073306561
-0.030505313 -0.050491553 0.0061701536
-0.029465431 -0.050512169 0.0056756139
-0.028697144 -0.051017147 0.0053516924
-0.137502 -0.050097629 0.0056210756
-0.13287118 -0.048788637 0.0066927969
-0.1339801 -0.049583185 0.0077019632
-0.13220006 -0.049312722 0.0088755786
-0.12922235 -0.048587605 0.010455042
-0.13046023 -0.049448635 0.011274397
-0.12651756 -0.048344105 0.01163137
-0.12608904 -0.048575282 0.011792988
-0.12565793 -0.048809275 0.011862814
-0.12357026 -0.048398353 0.012726843
-0.12329906 -0.048697948 0.012986124
-0.122843 -0.048928991 0.013532579
-0.12119283 -0.048684299 0.013584852
-0.11936823 -0.048364714 0.013364792
-0.12129528 -0.049572855 0.012994051
-0.11693125 -0.048208497 0.012993932
-0.11637279 -0.048402842 0.013164967
-0.11599016 -0.048674442 0.013251156
-0.11484629 -0.04862861 0.013277352
-0.11493222 -0.049107399 0.013417125
-0.11406887 -0.04918566 0.012925714
-0.11149821 -0.048522368 0.01310423
-0.11116523 -0.048829585 0.012681305
-0.11081944 -0.049136922 0.01267153
-0.10886335 -0.048729308 0.012906998
-0.10914433 -0.04932484 0.013490111
-0.10891448 -0.049698841 0.013590723
-0.10678905 -0.049206719 0.013776362
-0.10565586 -0.04916659 0.014406711
-0.10219925 -0.048033647 0.014489055
-0.1006799 -0.047797531 0.014821053
-0.10051001 -0.048203781 0.014882028
-0.098679535 -0.047813796 0.015212268
-0.098423593 -0.048186552 0.015555263
-0.097853445 -0.048411705 0.015988022
-0.095058843 -0.047529422 0.015977263
-0.096507557 -0.048772633 0.015774548
-0.095139593 -0.048603922 0.01609692
-0.093437105 -0.048258726 0.015811145
-0.092331566 -0.048217598 0.015963256
-0.09208522 -0.048629273 0.016226113
-0.090176374 -0.048162382 0.016290367
-0.089358836 -0.048274316 0.016526282
-0.087808356 -0.047988288 0.016526282
-0.087156095 -0.048192192 0.01702404
-0.086064011 -0.048154864 0.016870916
-0.084943235 -0.048100386 0.016568154
-0.083598912 -0.04791645 0.016718537
-0.083403885 -0.048394848 0.016588926
-0.081567518 -0.047920916 0.016888171
-0.081139259 -0.048272725 0.016888916
-0.079869971 -0.048126779 0.017060548
-0.078315802 -0.047803152 0.016494215
-0.077402651 -0.047867432 0.016511828
-0.075587571 -0.04736821 0.016345024
-0.075380765 -0.047876973 0.016396493
-0.075857483 -0.048839748 0.016564369
-0.073758163 -0.04814769 0.016808838
-0.072539352 -0.048019007 0.016325206
-0.072153568 -0.04844597 0.016429633
-0.071165226 -0.048474867 0.016385227
-0.069713436 -0.048184283 0.016166389
-0.069377109 -0.048667524 0.016016424
-0.067920648 -0.048367731 0.016059875
-0.066855624 -0.048341759 0.015878081
-0.06531354 -0.047964629 0.015840143
-0.064185105 -0.047884129 0.015994042
-0.064482801 -0.048882123 0.015975475
-0.063106284 -0.048622873 0.015660793
-0.0621779 -0.048706021 0.016310215
-0.060893394 -0.048508298 0.016263217
-0.059466291 -0.048188202 0.016206205
-0.057814807 -0.047671858 0.01625663
-0.057469353 -0.048233207 0.016711861
-0.056319479 -0.048127554 0.016848624
-0.055066023 -0.047927834 0.01701808
-0.054679051 -0.048488971 0.017451078
-0.052756116 -0.047683414 0.01765421
-0.052115738 -0.048028227 0.018017858
-0.051061336 -0.047997653 0.018513858
-0.050156169 -0.048108976 0.018605262
-0.04955693 -0.048524495 0.018950343
-0.048311029 -0.048311029 0.019102365
-0.046664253 -0.04767869 0.019300103
-0.046147902 -0.04819892 0.01885277
-0.045140121 -0.048217855 0.018296331
-0.043294571 -0.047321975 0.018087834
-0.042640075 -0.047716275 0.017762959
-0.041424152 -0.04748622 0.017113715
-0.040275909 -0.047324196 0.015819281
-0.03974954 -0.047903292 0.014038354
-0.03877876 -0.047963202 0.012836933
-0.037922025 -0.048171218 0.011414826
-0.037624627 -0.049121041 0.010617644
-0.036547162 -0.049077615 0.0090920329
-0.035847217 -0.049553506 0.0088457167
-0.035004634 -0.049855087 0.0079205334
-0.033771828 -0.049602371 0.0076723993
-0.033080876 -0.050154876 0.0072125196
-0.031707935 -0.049675763 0.0061701536
-0.030402696 -0.049273334 0.0057224631
-0.029790357 -0.050005242 0.0052357912
-0.13656275 -0.049077239 0.0059610009
-0.13368244 -0.048420414 0.0070818961
-0.13095932 -0.047810543 0.0081318915
-0.13277698 -0.048861925 0.0094326735
-0.12929523 -0.047964357 0.010965198
-0.12790567 -0.047834639 0.01124531
-0.12759493 -0.048109561 0.011482209
-0.12576851 -0.047812823 0.01150465
-0.12302125 -0.047158148 0.012444913
-0.12478489 -0.048236176 0.012602776
-0.12163312 -0.047416303 0.013143897
-0.12206688 -0.047992107 0.013216525
-0.12126104 -0.048086274 0.012871146
-0.11877963 -0.04751185 0.012841851
-0.11757065 -0.04744079 0.012695879
-0.1164501 -0.047404464 0.013078481
-0.11542902 -0.047408346 0.013082892
-0.11634396 -0.048214614 0.013134211
