ply
format ascii 1.0
comment PCL generated
element vertex 1331
property float x
property float y
property float z
element camera 0
property float view_px
property float view_py
property float view_pz
property float x_axisx
property float x_axisy
property float x_axisz
property float y_axisx
property float y_axisy
property float y_axisz
property float z_axisx
property float z_axisy
property float z_axisz
property float focal
property float scalex
property float scaley
property float centerx
property float centery
property int viewportx
property int viewporty
property float k1
property float k2
end_header
0.10680876 0.02274631 0.02208367
0.10706553 0.022591809 0.022120655
0.10996907 0.022993533 0.021823853
0.11105397 0.023011183 0.021654755
0.11258183 0.023119485 0.021325707
0.11385561 0.02317415 0.021012038
0.11254221 0.022705885 0.019982636
0.11640122 0.023280242 0.019227803
0.11689363 0.023177186 0.01780951
0.11539344 0.022684181 0.016538352
0.11849322 0.023096137 0.014599204
0.12104771 0.023395775 0.011845261
0.12102676 0.023196796 0.010022163
0.12401997 0.023574043 0.0072561204
0.019700661 0.024885045 0.0057786405
0.020635253 0.024762304 0.0062276125
0.021683257 0.024780864 0.0070955157
0.022846416 0.024923364 0.0075216889
0.023433663 0.024452517 0.0083236992
0.024724543 0.024724543 0.0092452765
0.025551084 0.024529042 0.0096954703
0.026539335 0.024497848 0.010258585
0.027766516 0.024681348 0.011032313
0.028214907 0.024184205 0.011560738
0.029447425 0.024370283 0.012009203
0.030579897 0.024463918 0.013070613
0.031265844 0.024205815 0.013458252
0.03250451 0.024378384 0.014438778
0.033283956 0.024206514 0.015429825
0.034081612 0.024057608 0.015508413
0.034757566 0.023833759 0.016335368
0.036153182 0.024102123 0.01660502
0.037053842 0.024034925 0.017161876
0.037925944 0.023953229 0.017383844
0.039034154 0.024021018 0.017834932
0.040361028 0.024216617 0.017774254
0.041016098 0.024009423 0.017546117
0.041865118 0.023922924 0.017616838
0.042457018 0.02369694 0.017601639
0.04517654 0.02464175 0.017344564
0.045197234 0.024105191 0.017305493
0.046599008 0.024312526 0.016622454
0.048096266 0.024559796 0.016273797
0.04810968 0.02405484 0.016052186
0.048626095 0.023816863 0.015706837
0.050434332 0.02420848 0.015588671
0.050720613 0.023868524 0.015305251
0.052643217 0.024296869 0.015073627
0.053651363 0.024294958 0.014016956
0.054426983 0.02418977 0.013678789
0.056440618 0.024628634 0.013382465
0.057083678 0.024464434 0.013117611
0.058742709 0.024733773 0.01311329
0.060250554 0.024931263 0.013058513
0.061158981 0.02487823 0.013294905
0.061215781 0.024486313 0.014918387
0.0620647 0.024418898 0.015522629
0.061642073 0.023861447 0.015801728
0.062594265 0.023845432 0.017130047
0.064081453 0.024030546 0.018611252
0.064512931 0.02382016 0.019454926
0.066582076 0.024211666 0.01958105
0.068013966 0.024363212 0.019711316
0.067236975 0.023730695 0.019730359
0.068640381 0.023874916 0.019681692
0.069639757 0.023876486 0.019460022
0.070487261 0.023826681 0.01935181
0.073110171 0.024370058 0.019567013
0.072973527 0.023991296 0.019753635
0.073910408 0.023970943 0.019801468
0.074614339 0.023876589 0.020077407
0.076187238 0.024059128 0.020081073
0.076972783 0.023991518 0.020199001
0.078296617 0.024091266 0.020012021
0.078839026 0.023951096 0.020178914
0.079946242 0.023983873 0.020478398
0.079874396 0.023666488 0.020759225
0.080076694 0.023437081 0.021696866
0.082512207 0.023858951 0.022357821
0.083836995 0.023953428 0.022590816
0.082108513 0.02318358 0.022821605
0.085773312 0.023936739 0.022973895
0.085738502 0.023652 0.023021191
0.086985312 0.023723267 0.022806674
0.087583072 0.023617908 0.022350937
0.088790901 0.023677574 0.022208035
0.089789122 0.023680648 0.022094011
0.091494717 0.023868186 0.021885306
0.093001813 0.024000468 0.021858364
0.093879327 0.02396919 0.021827728
0.094230361 0.023805566 0.021531284
0.095304772 0.023826193 0.021548837
0.097044803 0.024011085 0.021064788
0.097129948 0.023786927 0.021187514
0.09869083 0.023925051 0.021149576
0.10093427 0.024224224 0.021408439
0.099695705 0.023690069 0.021364421
0.10164856 0.023917308 0.021497548
0.1021942 0.02381224 0.021467984
0.1037682 0.023946507 0.02162236
0.10373651 0.023711203 0.021827549
0.10577901 0.023949964 0.022013336
0.1055411 0.023672771 0.021818012
0.10673875 0.023719721 0.021832317
0.1085859 0.023908822 0.021623909
0.10910492 0.023804707 0.021250963
0.10986021 0.023753559 0.020977736
0.11112443 0.023812378 0.020593882
0.11082632 0.023538334 0.020161688
0.11523726 0.024260474 0.019230574
0.11643945 0.024300408 0.018926889
0.11532763 0.023860889 0.01670742
0.11883093 0.024375575 0.015281677
0.12078381 0.024566198 0.014096141
0.11938907 0.024078468 0.01125294
0.12390022 0.024780044 0.0080035925
0.12187472 0.024173498 0.0067492425
0.020836359 0.026045449 0.0051615834
0.021821178 0.025977595 0.0061110258
0.022565102 0.025642162 0.0071473122
0.023584805 0.025635658 0.0075687766
0.024722079 0.025752164 0.0082824528
0.025632698 0.025632698 0.0090855956
0.026655443 0.025630234 0.0096884966
0.027796192 0.025737215 0.010019809
0.028915022 0.025816984 0.01081568
0.029744063 0.025641434 0.011449307
0.030418497 0.025348747 0.01173836
0.031460129 0.025371071 0.013033658
0.032868136 0.02567823 0.013868183
0.033356093 0.025269767 0.015033126
0.033831775 0.024876306 0.015335172
0.034733519 0.024809657 0.016284794
0.035996649 0.024997672 0.016501456
0.036888603 0.024924733 0.017085403
0.03831422 0.025206724 0.017222315
0.039266624 0.025170913 0.017810971
0.039727211 0.024829505 0.017778993
0.041299671 0.025182726 0.017540097
0.042278796 0.025165951 0.017616838
0.043359283 0.025208887 0.017620534
0.044153303 0.025087105 0.017385572
0.045026261 0.025014589 0.01740846
0.046762496 0.0254144 0.016891301
0.047422912 0.025224954 0.016556442
0.047887348 0.024941327 0.016000301
0.049429983 0.025219379 0.015585572
0.050432742 0.025216371 0.015478432
0.051057316 0.025028097 0.015123338
0.052327964 0.025157675 0.014965326
0.053187829 0.025088599 0.013971925
0.055130836 0.025523536 0.013811767
0.055379037 0.025172289 0.01354152
0.056938145 0.025418816 0.01352188
0.05897148 0.025864685 0.013525575
0.059664104 0.025717286 0.014748961
0.060169127 0.025495393 0.015434116
0.060977913 0.025407465 0.016075879
0.060396258 0.024752565 0.017114729
0.061843414 0.02493686 0.01785475
0.0635444 0.02521603 0.018836051
0.062656745 0.024475291 0.019697458
0.064519122 0.024815049 0.020596147
0.066427216 0.025161825 0.02086857
0.066440344 0.024791172 0.020922035
0.068603784 0.025221981 0.020944893
0.068728812 0.024901742 0.020917237
0.069538467 0.024835166 0.020698369
0.071361147 0.025127163 0.020035177
0.072254613 0.025088407 0.020313323
0.07227122 0.024750417 0.020313323
0.074096993 0.025032768 0.020365298
0.074293047 0.024764348 0.020308942
0.07509283 0.02470159 0.020308942
0.076857097 0.024953602 0.020145327
0.077275835 0.024767894 0.020410687
0.078263156 0.024766823 0.020518064
0.079826266 0.024945708 0.020865917
0.080236226 0.024764268 0.021550268
0.080486663 0.024538618 0.022438139
0.081776381 0.024631441 0.022427171
0.083043061 0.024715196 0.022548378
0.083825022 0.024654418 0.022831321
0.085108176 0.024740748 0.022940069
0.085337698 0.024522327 0.0231947
0.087594479 0.024884796 0.023023129
0.086142883 0.024197439 0.022431374
0.090328172 0.025091158 0.022350043
0.089862421 0.024687478 0.022186607
0.091006964 0.024730153 0.021831423
0.092879824 0.024967695 0.021692306
0.094031706 0.025008433 0.02159223
0.09444578 0.024854152 0.021720916
0.097147152 0.025298739 0.021539956
0.097474314 0.025122246 0.021123737
0.096297011 0.024565563 0.02079019
0.098961025 0.024990158 0.02104944
0.09942437 0.024856092 0.020863026
0.098892041 0.024478229 0.0210509
0.10240875 0.025100183 0.02107662
0.10347227 0.025114628 0.021134228
0.10303272 0.024767481 0.021143496
0.10469548 0.024927495 0.021296859
0.10490071 0.024740733 0.021205217
0.10588839 0.024740279 0.020927489
0.10783645 0.02496214 0.02071929
0.10750716 0.024657605 0.020679623
0.10911611 0.024799116 0.020557314
0.11181749 0.025184121 0.019938201
0.11027172 0.024614222 0.019639522
0.11436284 0.025301512 0.019240946
0.11349125 0.024888432 0.018605828
0.11527184 0.025059095 0.017853677
0.11598381 0.02499651 0.0159612
0.11792862 0.025198422 0.014477015
0.11965588 0.025350822 0.012863815
0.12296744 0.025833497 0.010168821
0.12188875 0.025393488 0.0070061386
0.022586532 0.026693175 0.0058036149
0.023619641 0.026700465 0.0070158243
0.024644513 0.026698222 0.007396251
0.026065372 0.027107986 0.0081615448
0.026819695 0.026819695 0.0089225173
0.027697636 0.026671799 0.0095952451
0.029204367 0.027118342 0.010058343
0.029598266 0.026536375 0.011192858
0.030629631 0.026545681 0.01123333
0.03146068 0.026386376 0.012134016
0.032304302 0.026247244 0.013415426
0.033473484 0.026373047 0.014014721
0.034299441 0.026228983 0.014791727
0.034384117 0.025542486 0.015696734
0.036306016 0.026221011 0.016269714
0.036654562 0.025757261 0.016765833
0.037604846 0.025729632 0.017166764
0.039202072 0.026134714 0.017791122
0.040195286 0.026126936 0.017644197
0.041096859 0.026061423 0.017606139
0.041581005 0.025740623 0.017870724
0.042459812 0.025673375 0.017867893
0.044633299 0.026374221 0.017452657
0.045686606 0.026396705 0.017429858
0.046518605 0.026293125 0.016891301
0.047050349 0.026027853 0.016441196
0.048152436 0.026082568 0.016184717
0.049073998 0.026039263 0.015562028
0.050517429 0.026269063 0.015559018
0.05118341 0.026093502 0.015224665
0.051910259 0.025955129 0.015021056
0.053559035 0.026274243 0.014483124
0.054851618 0.026410038 0.01431185
0.055613108 0.026289834 0.014592558
0.057353068 0.026628211 0.015113145
0.058282841 0.026585154 0.015066206
0.059450813 0.026650364 0.015720367
0.060078904 0.02647545 0.016246915
0.059940018 0.025974007 0.017499596
0.060797311 0.025913609 0.018394172
0.061922565 0.025967527 0.019660771
0.062100217 0.025628662 0.019898385
0.063602217 0.025838399 0.020594388
0.064443856 0.025777543 0.021360308
0.065092437 0.025642477 0.021654338
0.066370815 0.025755838 0.02151379
0.067294158 0.02573012 0.021681815
0.068931356 0.025974134 0.021470249
0.069885045 0.025957301 0.021595031
0.071346164 0.026126763 0.021234363
0.071859911 0.025949413 0.021280497
0.072481044 0.025815167 0.021104336
0.072864018 0.025600871 0.021104336
0.074486256 0.025821904 0.020957828
0.076308757 0.026105627 0.020975918
0.075853586 0.0256129 0.020830989
0.077771455 0.025923818 0.02114588
0.078088492 0.025700008 0.021400988
0.079191223 0.025737148 0.021836132
0.080907941 0.02597045 0.022108614
0.081156969 0.025732698 0.022548378
0.081989698 0.02568352 0.022576898
0.083318129 0.025788944 0.022817433
0.084718935 0.025914026 0.02316466
0.084022954 0.025402287 0.023061156
0.086758576 0.025927851 0.023290157
0.087209314 0.025766389 0.023228377
0.087694786 0.0256187 0.02276355
0.089844555 0.025955094 0.022650212
0.089700118 0.025628604 0.022437096
0.091388091 0.025827069 0.022192776
0.093886256 0.02624777 0.021944791
0.093527861 0.025869409 0.021712333
0.094304375 0.025809618 0.021557093
0.097037427 0.026280971 0.021428376
0.096518129 0.025870837 0.020856649
0.097802341 0.02594756 0.020664722
0.098593988 0.02589337 0.020673543
0.10081226 0.026211187 0.020792454
0.10231597 0.026338764 0.020636946
0.10295952 0.026244584 0.02060622
0.10318728 0.026047274 0.020856649
0.10435177 0.026087943 0.02068907
0.10464415 0.025911884 0.020787984
0.10515155 0.025791889 0.020635515
0.10615391 0.025794409 0.0204871
0.10797839 0.025994796 0.02027753
0.10790416 0.025738606 0.020237863
0.11027634 0.026065318 0.019771725
0.10995325 0.025754815 0.01909712
0.11223779 0.0260552 0.018968135
0.11316796 0.026038645 0.018466681
0.11341632 0.025866879 0.017114013
0.1158816 0.026199318 0.016319275
0.11771911 0.026385317 0.014521122
0.11747946 0.026106546 0.013674945
0.1203549 0.026518876 0.010203063
0.12152781 0.026552295 0.0070976019
0.02365155 0.027764862 0.0059096813
0.024908332 0.028021874 0.0066381991
0.025585186 0.027632002 0.0071853399
0.026763644 0.027793014 0.0079928935
0.028028337 0.028028337 0.0088762343
0.028779371 0.027751535 0.0090967417
0.029555051 0.027516771 0.010025799
0.030674888 0.027607398 0.010777593
0.031412713 0.027359461 0.01107344
0.032632802 0.027533928 0.012577057
0.033729047 0.027596492 0.01317969
0.034228612 0.027181545 0.013928175
0.035678867 0.027523696 0.015249282
0.035905439 0.02692908 0.015973091
0.037054237 0.027039578 0.016549826
0.038333781 0.027237162 0.01705718
0.039174691 0.027120939 0.017791122
0.040736966 0.027497452 0.017778993
0.040388621 0.026597386 0.017646194
0.041305594 0.026553597 0.017848492
0.043142285 0.027089342 0.017655134
0.043794703 0.026874021 0.017488539
0.045194969 0.027116982 0.017270684
0.046115216 0.027067628 0.016622454
0.047346037 0.027198788 0.016256779
0.048333894 0.027187815 0.015919715
0.050253887 0.027690917 0.015585572
0.051550768 0.027837414 0.015462369
0.051613409 0.027324745 0.015362203
0.052863568 0.027448392 0.015362203
0.054090813 0.027555697 0.015366554
0.055274047 0.027637023 0.015292972
0.055866346 0.027425298 0.015309006
0.057133481 0.027546499 0.015566289
0.058266521 0.027599931 0.01601851
0.059306402 0.027608152 0.016364664
0.059577592 0.027264321 0.017466575
0.058995385 0.026547924 0.019165784
0.060138445 0.026618656 0.019589633
0.061791219 0.026909079 0.020174444
0.062891841 0.026953647 0.020839423
0.063736789 0.026888959 0.021652639
0.063858792 0.026525959 0.021921247
0.066261657 0.027107043 0.022011429
0.066595137 0.026836846 0.021987826
0.067364492 0.026747666 0.022078007
0.068294749 0.026724033 0.021971434
0.069579661 0.026837869 0.021955252
0.069690518 0.026502028 0.021953166
0.072223961 0.027083986 0.021868646
0.072206378 0.026706468 0.02149868
0.073190115 0.026704501 0.021521777
0.07495831 0.02698499 0.021511734
0.075834222 0.026941104 0.021563202
0.075864919 0.026601985 0.021474868
0.078303099 0.027104918 0.021902561
0.078235276 0.026738638 0.021685481
0.080930434 0.027314022 0.021971196
0.081430592 0.027143531 0.022256851
0.081168942 0.02672636 0.022868097
0.082261063 0.026759624 0.023346454
0.083533153 0.026849942 0.02357918
0.083215222 0.026433071 0.023682714
0.085746035 0.026920266 0.02383703
0.085978158 0.026682878 0.023898125
0.087154947 0.026740722 0.023664683
0.08833012 0.026796777 0.023439229
0.089450628 0.02683519 0.023172855
0.089735009 0.026624672 0.023118943
0.090942867 0.026689755 0.0226717
0.092912547 0.026974611 0.022239208
0.093431398 0.026836678 0.021739334
0.094791099 0.026940627 0.021670371
0.094702505 0.026635081 0.021338463
0.097604536 0.027168272 0.020724207
0.097650401 0.026903683 0.020352155
0.098249823 0.026795408 0.02034542
0.10113 0.0273051 0.020321339
0.10067388 0.026912818 0.020232767
0.1017306 0.026928687 0.020243317
0.1044869 0.02738977 0.02034542
0.10455451 0.027143959 0.020189881
0.10538694 0.027099499 0.02020666
0.10728269 0.027326722 0.019926459
0.10653687 0.026883136 0.019367546
0.10798782 0.026996955 0.019136786
0.11134518 0.027580917 0.01891157
0.10948142 0.026872713 0.018746167
0.11016299 0.026796402 0.018062323
0.11263061 0.027152022 0.017835647
0.11334807 0.027083168 0.017077178
0.1167068 0.027641082 0.015572399
0.11788753 0.02767794 0.014481008
0.11664223 0.027149484 0.012853056
0.12193129 0.028137991 0.010356635
0.1219385 0.027901182 0.0072238147
0.025769729 0.028862096 0.0059655309
0.027191 0.029282615 0.0070030689
0.027709192 0.028735459 0.007830292
0.028755868 0.028755868 0.0084394813
0.02969427 0.02867033 0.0090138912
0.030604823 0.028564502 0.0096140206
0.03157828 0.028522318 0.010772854
0.032772914 0.028676298 0.011426955
0.033341616 0.028289855 0.012083322
0.034538511 0.02844348 0.013395816
0.035712551 0.028570041 0.014336377
0.036151655 0.028117955 0.015585363
0.037479948 0.028363204 0.016539603
0.038839027 0.028618231 0.016559452
0.038584691 0.027701829 0.017564803
0.040057585 0.028040309 0.017646194
0.040852848 0.027899506 0.0173271
0.041914161 0.027942773 0.017616838
0.042690381 0.027798388 0.0174492
0.043569215 0.027725864 0.017374545
0.04534604 0.028215315 0.017145932
0.045876734 0.02792497 0.016586274
0.047714181 0.028425468 0.016284108
0.049692631 0.028987367 0.015965313
0.050862297 0.029064169 0.015527159
0.050942272 0.028527671 0.015345246
0.052191809 0.028654326 0.014856815
0.05242677 0.028229799 0.014856815
0.053967915 0.028511351 0.014814198
0.055567112 0.028812576 0.015246749
0.056440134 0.028733158 0.015601963
0.056410197 0.028205099 0.015948564
0.058229513 0.028603973 0.01624319
0.058699273 0.028337579 0.01721096
0.0596379 0.028302733 0.017772883
0.060102761 0.028047955 0.019732863
0.060930211 0.027967965 0.020216733
0.06147908 0.027764745 0.020828515
0.062013414 0.027561517 0.021984071
0.063190654 0.02764591 0.022151321
0.063914277 0.027532306 0.022459239
0.065303177 0.027704379 0.02263549
0.067633517 0.028264754 0.022407323
0.066833682 0.027519753 0.022497386
0.067985378 0.027588271 0.022426814
0.068896778 0.02755871 0.022339225
0.069978103 0.027596999 0.022328734
0.071325891 0.027737845 0.022298217
0.07270892 0.027888352 0.02225101
0.074281365 0.028106464 0.02198875
0.074498549 0.02781279 0.021856934
0.075700894 0.027889801 0.021753609
0.077321939 0.028117068 0.021747887
0.0777288 0.027902646 0.022140235
0.078987479 0.027995562 0.021985143
0.079832174 0.02794126 0.022073776
0.080238163 0.027736649 0.022131085
0.082663752 0.028226648 0.022833347
0.08236067 0.027784321 0.023277968
0.082575656 0.02752522 0.023592114
0.084632836 0.027879054 0.023813248
0.085540436 0.027850375 0.023802698
0.086021163 0.027684972 0.02383703
0.087767035 0.027925875 0.023350537
0.087511681 0.027531765 0.023061991
0.087498367 0.027221713 0.022948176
0.090639405 0.027889047 0.022582233
0.091042228 0.027708504 0.02240932
0.092712887 0.027913556 0.022004992
0.094650134 0.028193658 0.021535307
0.093391955 0.027526051 0.021312505
0.096726738 0.028211966 0.020995647
0.096954189 0.027986776 0.020550668
0.096742146 0.027640613 0.020184904
0.099310301 0.028087763 0.020129144
0.10069983 0.028195955 0.019930363
0.10100028 0.028000077 0.019609123
0.10329098 0.028354384 0.019612342
0.10490874 0.028518882 0.020028561
0.10453851 0.028144982 0.01973024
0.10680075 0.0284802 0.019460887
0.10514538 0.02777425 0.019173592
0.10820016 0.02831406 0.018631577
0.10846092 0.028119499 0.018317848
0.10805002 0.027755968 0.018196762
0.11021821 0.028055545 0.017594695
0.11130518 0.028076984 0.016986161
0.11175698 0.027939245 0.016355872
0.11422761 0.028304186 0.016500264
0.11656346 0.028629621 0.014084578
0.11659902 0.028389327 0.012384355
0.11961503 0.028872592 0.010252774
0.12265552 0.029353458 0.0073276758
0.12189921 0.028925236 0.0059079528
0.026906898 0.03001154 0.0054413974
0.027799705 0.029858943 0.0070030689
0.028772503 0.029800091 0.0074417889
0.029673295 0.029673295 0.0079582334
0.03086183 0.029833103 0.0088548064
0.031957123 0.029895373 0.0095296502
0.032512095 0.029464085 0.010432154
0.033960287 0.029843887 0.011275381
0.034711547 0.029606909 0.011878371
0.03513417 0.029111171 0.013189942
0.03669697 0.029561449 0.014234066
0.037229799 0.029180113 0.015168667
0.037529446 0.028640892 0.016246051
0.039823785 0.029612558 0.016820639
0.040160682 0.029116495 0.016967863
0.040904664 0.028932566 0.016886532
0.04237638 0.029259883 0.017272949
0.042847544 0.028897181 0.017363459
0.044019181 0.029012641 0.017292529
0.045343541 0.029221391 0.01686269
0.046662617 0.029417738 0.016459376
0.047624465 0.02938531 0.016089201
0.04889603 0.029541351 0.015524626
0.05015745 0.02968502 0.015323073
0.051508836 0.029875124 0.014978439
0.051878549 0.029499566 0.01473105
0.052780326 0.029435182 0.014798731
0.053519532 0.029284272 0.015345246
0.05450229 0.029269747 0.015309513
0.054802544 0.028895887 0.015807331
0.057207186 0.029625149 0.016114682
0.057364613 0.029185506 0.016862452
0.058337245 0.029168623 0.017641753
0.059525903 0.029258493 0.018623531
0.060210261 0.029101627 0.020229459
0.060626335 0.028822357 0.020828515
0.061030582 0.028546562 0.021499038
0.063372321 0.029171385 0.022005588
0.062910497 0.028506318 0.022352338
0.063903794 0.028510923 0.022727221
0.064936168 0.028532559 0.022650123
0.066918962 0.028964924 0.02249676
0.067201577 0.028659496 0.02256602
0.067827106 0.028507046 0.022306144
0.069341488 0.028727187 0.022411525
0.070126362 0.028643163 0.022302896
0.071595319 0.028837003 0.022280663
0.072532855 0.02881442 0.022266388
0.073669672 0.028870547 0.022060305
0.07421156 0.028695136 0.022079587
0.076016106 0.029006144 0.0217686
0.076390848 0.028770579 0.0217686
0.07741227 0.028781485 0.021985143
0.079445086 0.029163387 0.021916509
0.07920596 0.028712161 0.022073776
0.080912486 0.028968668 0.02204895
0.08100795 0.028649155 0.02275005
0.08119908 0.028370762 0.023120552
0.082814574 0.028590746 0.023525566
0.084224194 0.028735312 0.023799032
0.08506152 0.028683536 0.023735791
0.086268097 0.028756032 0.023682714
0.086621121 0.028545596 0.023350537
0.08831276 0.028776068 0.023019761
0.090441443 0.029142242 0.022691458
0.089819178 0.028623695 0.022545189
0.091863453 0.028956957 0.022040069
0.093482412 0.02915043 0.021686703
0.09296748 0.028681457 0.021365553
0.093432948 0.028521638 0.020899624
0.096290074 0.029087625 0.020716906
0.097641669 0.029191839 0.020366579
0.098907948 0.029268678 0.020109087
0.098595135 0.028881405 0.019731849
0.09925428 0.02878374 0.019370198
0.1010844 0.029024234 0.018762857
0.10212711 0.02903614 0.019032776
0.10315206 0.029042812 0.019232869
0.10589004 0.029527033 0.019032776
0.10485337 0.028959502 0.018128395
0.10657732 0.029157948 0.017931461
0.10744312 0.029120099 0.017700344
0.10688858 0.028701564 0.017334729
0.109444 0.029118128 0.017078549
0.11158541 0.029417971 0.016435593
0.11040004 0.028843252 0.016119331
0.11379627 0.029465105 0.015511274
0.11326122 0.029067038 0.013969898
0.11562163 0.029412521 0.011545718
0.11854204 0.02989321 0.010124624
0.12253129 0.030632824 0.0068806112
0.12086558 0.029958135 0.0059201717
0.027841436 0.030934928 0.0054902136
0.028840963 0.030901032 0.0067197084
0.029603513 0.030624323 0.0071555078
0.031035775 0.031035775 0.0076493323
0.03178221 0.030756976 0.0086102486
0.032927673 0.030869693 0.0093200803
0.033446245 0.030405676 0.010144562
0.034226928 0.030200232 0.010657161
0.035879746 0.030754069 0.011616021
0.036494236 0.030411862 0.012667984
0.03747981 0.030389035 0.013963699
0.038350027 0.030276338 0.014657438
0.039811816 0.030624473 0.016023129
0.040674701 0.030506026 0.016458333
0.0420563 0.030772902 0.01641503
0.042408891 0.030292066 0.016609311
0.041817758 0.029175179 0.016347915
0.044557843 0.03038035 0.01567021
0.045429423 0.030286282 0.015478134
0.046264343 0.030172396 0.015527517
0.047943968 0.030602533 0.01528421
0.048701055 0.030438159 0.014756113
0.050852466 0.031134164 0.014761955
0.051430814 0.030858487 0.014448822
0.051547009 0.030321769 0.014401764
0.053055841 0.03060914 0.01460427
0.053645711 0.030365497 0.015014529
0.054499 0.030277222 0.015500665
0.056095831 0.030597728 0.01588583
0.056050643 0.030027131 0.016265452
0.056964565 0.029981351 0.017297179
0.058578689 0.030299321 0.017859131
0.058877096 0.029937508 0.01956135
0.059147995 0.029573997 0.020694852
0.06047453 0.029741572 0.021069556
0.06125208 0.029638104 0.02210924
0.062460031 0.029742872 0.022514135
0.063776955 0.029895447 0.022790521
0.06388139 0.029483717 0.023037791
0.066130288 0.030059224 0.023008645
0.066017978 0.029560288 0.022705913
0.066996776 0.029557403 0.02276814
0.06821198 0.029657383 0.022686988
0.06962385 0.029838791 0.022855699
0.07026571 0.029689739 0.02241677
0.072077036 0.030032098 0.022363484
0.071860231 0.029531602 0.022280663
0.072865665 0.029540133 0.022077501
0.074739456 0.029895782 0.022079587
0.075496078 0.029801084 0.0217686
0.076078042 0.029640798 0.021776706
0.078084715 0.030032583 0.021902561
0.079282403 0.030107241 0.021723866
0.080220416 0.030082656 0.021988392
0.080583878 0.02984588 0.021700233
0.081337221 0.02975752 0.02244702
0.081547186 0.029474888 0.022682935
0.083734646 0.029905232 0.023228377
0.083385654 0.029430231 0.023317993
0.085057519 0.029671228 0.023396045
0.086376384 0.029784961 0.023346454
0.087831162 0.029942442 0.022998482
0.089483447 0.030162958 0.022596419
0.089682072 0.029894024 0.02238366
0.089911133 0.029641032 0.02222243
0.091573328 0.029860867 0.021598518
0.092786141 0.029931013 0.021402717
0.093601346 0.029872769 0.020716906
0.094617911 0.029879341 0.020569205
0.09532015 0.029787548 0.020379692
0.097976729 0.030302081 0.019965261
0.09910886 0.030339446 0.019533306
0.097735576 0.029616842 0.019037068
0.10098194 0.030294584 0.018325776
0.10089121 0.029967686 0.018192559
0.10268079 0.030200234 0.017833292
0.10359093 0.030172115 0.018149227
0.10490416 0.030260816 0.017608583
0.10451276 0.029860787 0.017494887
0.10784124 0.030521106 0.017128795
0.10685389 0.029959034 0.017239541
0.10772415 0.029923374 0.016553581
0.10979299 0.030218255 0.016168177
0.11093577 0.03025521 0.015725791
0.11152074 0.030140743 0.014888972
0.11413429 0.030571684 0.013503432
0.11459655 0.030423865 0.011973143
0.11868143 0.031231957 0.0098855793
0.11797076 0.030774981 0.0072629452
0.11928126 0.030848602 0.0059509575
0.030144922 0.032223884 0.0060138404
0.030659752 0.031681743 0.006958276
0.031844795 0.031844795 0.0076270401
0.032833252 0.03180721 0.0084749162
0.033416253 0.031391025 0.0093200803
0.03502607 0.031935532 0.0099829733
0.035617493 0.031546924 0.010529548
0.036349595 0.031301036 0.011631608
0.03795062 0.031796467 0.0125072
0.038683593 0.031557668 0.013031274
0.039214607 0.031170584 0.014252186
0.040638372 0.031494737 0.014729321
0.040806625 0.030853789 0.015020341
0.042498816 0.031368174 0.01461488
0.043396924 0.031286154 0.014540851
0.04467297 0.031474136 0.015012622
0.045300156 0.031206774 0.014879405
0.047035147 0.031697597 0.01457116
0.047982622 0.031648111 0.0145441
0.049742285 0.032125227 0.014333844
0.050760958 0.032114074 0.014368623
0.050849043 0.031526405 0.014275134
0.051710647 0.031431962 0.01413998
0.052928254 0.031553384 0.014195889
0.052746017 0.030851444 0.014876574
0.054739647 0.031424612 0.015406579
0.055525843 0.031296384 0.015899003
0.056286935 0.031158838 0.017006427
0.057669315 0.031364016 0.017770469
0.057947453 0.030971915 0.018574685
0.059055779 0.031029308 0.020188153
0.05955445 0.030769799 0.020865858
0.059746657 0.030363055 0.021260917
0.061565042 0.030782521 0.022059798
0.062224664 0.030618485 0.022564471
0.062759727 0.030399241 0.022887647
0.063477136 0.030273711 0.023064047
0.065347902 0.030693714 0.023043096
0.064017989 0.029620264 0.02266714
0.068623833 0.031284392 0.022887647
0.067999862 0.030550664 0.022790521
0.069358885 0.030716078 0.022834122
0.07075306 0.030892182 0.022394508
0.071498103 0.030783907 0.022319764
0.072197147 0.030659063 0.022280663
0.074347839 0.031145714 0.022136748
0.07448718 0.030788034 0.021634847
0.075545639 0.030814668 0.021642238
0.077422895 0.031170256 0.021706462
0.077233933 0.030695537 0.021525174
0.078067206 0.030633967 0.021645188
0.079819843 0.030930189 0.021700382
0.080183536 0.030687526 0.02171734
0.081742972 0.030902831 0.022111475
0.082124017 0.030672826 0.022582233
0.083107702 0.030670701 0.023112088
0.083965905 0.03062286 0.023385555
0.085633934 0.030868046 0.023341686
0.085799716 0.030572312 0.023120552
0.088337481 0.031118887 0.022798628
0.088199489 0.030721171 0.022812873
0.088506058 0.03048542 0.022246987
0.090370357 0.030785507 0.021954745
0.091827013 0.03094171 0.021455765
0.092977062 0.030992353 0.020869315
0.094575062 0.031189647 0.020569205
0.094146401 0.030721456 0.020221263
0.096936263 0.031302333 0.01992631
0.096277468 0.030769087 0.01966095
0.097284339 0.030773617 0.018944591
0.099353485 0.031110687 0.018222809
0.099763669 0.030926736 0.018090099
0.10044458 0.030829523 0.017400861
0.10275239 0.031228667 0.017105311
0.1044185 0.031426929 0.017209202
0.10579361 0.031534635 0.017022341
0.10640565 0.031415004 0.016828984
0.10699143 0.031289946 0.016301215
0.10772438 0.031209867 0.01622048
0.10882164 0.03123584 0.016132832
0.10880116 0.030943448 0.015446991
0.11098722 0.031278219 0.014220625
0.11358496 0.031721927 0.013204306
0.1134602 0.03140416 0.011447966
0.11606748 0.03184152 0.010053277
0.11835106 0.032183181 0.007363081
0.11878107 0.032019246 0.0061661601
0.16480313 0.033611163 0.0056636631
0.030833276 0.032888826 0.0060138404
0.032009162 0.033041716 0.0069105923
0.032240964 0.032240964 0.0072329938
0.033632822 0.032613646 0.0079059899
0.034771081 0.032725725 0.0088767707
0.035074838 0.032068424 0.0095296502
0.03678374 0.032696657 0.010267049
0.037450057 0.032389238 0.011063784
0.038303707 0.032255754 0.011567235
0.039689355 0.032565627 0.012841493
0.040898059 0.032718446 0.013240784
0.041051075 0.032039862 0.013599634
0.043074798 0.032818895 0.013827026
0.043737601 0.032548912 0.013528436
0.044401836 0.032292243 0.013724476
0.046171904 0.032833353 0.013324678
0.046672165 0.032467593 0.013484657
0.048684996 0.033147231 0.013474256
0.049612347 0.033074897 0.013351411
0.051130496 0.033391345 0.013418406
0.050931588 0.032596216 0.013320178
0.051564097 0.032353945 0.013699412
0.052184496 0.032113533 0.01404193
0.053023182 0.032013997 0.014558047
0.054311596 0.032184649 0.015695751
0.055266738 0.032155193 0.016006559
0.056898888 0.032513648 0.01747185
0.05709945 0.032055832 0.01789096
0.058522422 0.032288235 0.019145817
0.058848541 0.031917851 0.020301908
0.058578148 0.03124168 0.021152675
0.060405567 0.031688165 0.021566033
0.061612558 0.031800032 0.02224806
0.062388893 0.031689595 0.02270171
0.063332647 0.031666324 0.023023725
0.064124398 0.031568933 0.023064047
0.064999759 0.031515036 0.023027241
0.066422895 0.031724371 0.022783905
0.067480057 0.031755321 0.022736967
0.068791799 0.031903446 0.02292797
0.069859624 0.03193583 0.022848994
0.070421129 0.031739101 0.02239126
0.071468093 0.031763598 0.022314847
0.07219705 0.031648025 0.022278905
0.073635116 0.031842213 0.022147
0.074774668 0.031903859 0.021724015
0.076020636 0.032008689 0.021665782
0.077040948 0.032017015 0.021830976
0.077449918 0.031774327 0.021936238
0.078667551 0.031865336 0.021735728
0.079942025 0.031976812 0.021709204
0.0812895 0.032114368 0.021727085
0.081583552 0.031837486 0.022527516
0.081352979 0.031365003 0.02274698
0.084040776 0.032015532 0.023119301
0.084475309 0.031802468 0.023262888
0.084800683 0.031553745 0.023048073
0.085871406 0.031584885 0.022989422
0.087320291 0.031752832 0.022450507
0.088131756 0.031687822 0.022168487
0.089334346 0.031763323 0.021669835
0.091457538 0.032160893 0.021556258
0.091649182 0.031877976 0.020768583
0.09308026 0.032027617 0.020497292
0.093272112 0.03175221 0.020005316
0.094213225 0.031734981 0.01979962
0.096946977 0.03231566 0.019530863
0.095586896 0.031533822 0.018959045
0.099062607 0.032346975 0.01807484
0.098810695 0.03193881 0.017906934
0.099344157 0.03179013 0.017632961
0.10069773 0.031904232 0.016987681
0.10363077 0.032511614 0.016837388
0.10354916 0.032170612 0.016773611
0.10528506 0.032395404 0.01649791
0.10581949 0.032249749 0.016480714
0.10596936 0.031990752 0.016070336
0.10874261 0.032521155 0.016052008
0.10867741 0.032200713 0.014802605
0.10997657 0.0322867 0.013982505
0.11208941 0.032607827 0.012763262
0.11308938 0.032602344 0.011329412
0.11550101 0.033000287 0.0097725093
0.11515188 0.032609381 0.0075935125
0.11771073 0.033041608 0.0054573715
0.032021165 0.034087047 0.0053274035
0.032996178 0.034027308 0.0065263808
0.033949632 0.033949632 0.0069677234
0.0344023 0.03339047 0.0073815882
0.036069874 0.034008738 0.0080274045
0.036995742 0.033912763 0.0089324117
0.037714474 0.033637233 0.0098203421
0.03936962 0.034189407 0.010584205
0.040081963 0.033915505 0.011256218
0.040639117 0.03352727 0.012230068
0.04184809 0.033682607 0.012570471
0.042509791 0.03340055 0.012333959
0.043151755 0.033116464 0.012111485
0.044453435 0.033340078 0.011972934
0.045231648 0.033169873 0.011914462
0.046662919 0.033475574 0.012176961
0.048546299 0.034085698 0.012628108
0.048664432 0.033456795 0.012638897
0.051461484 0.034657732 0.012683541
0.050695252 0.033458866 0.012683541
0.050937783 0.032959741 0.01288259
0.052820995 0.033521015 0.013910443
0.053211533 0.033131707 0.014509708
0.054317087 0.033193775 0.01577881
0.056393757 0.033836253 0.016423464
0.056315333 0.033185821 0.017704725
0.057281435 0.033162937 0.018132389
0.059285998 0.033731688 0.019355863
0.05871468 0.032840416 0.020279199
0.059279352 0.032603644 0.021333545
0.060535252 0.03274858 0.021947622
0.061005246 0.032470535 0.022408575
0.062597446 0.032789137 0.02285412
0.063828893 0.032911774 0.023126632
0.063577205 0.032277659 0.023207307
0.065804355 0.032902177 0.023262709
0.067032985 0.033016246 0.023014456
0.067390919 0.032704417 0.023035139
0.06757094 0.032316536 0.022943616
0.069242254 0.032642778 0.023012757
0.069728278 0.032408915 0.022712737
0.072292499 0.033134062 0.022534072
0.072722368 0.032874495 0.022410095
0.074092977 0.033041462 0.022099763
0.074291676 0.032688338 0.021843433
0.075275898 0.032685585 0.021695644
0.07653635 0.032801293 0.021855354
0.078561321 0.03323748 0.021856576
0.078848287 0.032936625 0.021805733
0.081146613 0.033472978 0.021735728
0.080964528 0.032985546 0.02163285
0.080305167 0.032317933 0.022286147
0.082957782 0.032983214 0.022359371
0.08330965 0.032728791 0.02274698
0.084175296 0.032679819 0.022855699
0.085451484 0.032789521 0.022974402
0.086978503 0.032991845 0.022745073
0.087459117 0.032797169 0.022335976
0.088882349 0.032956377 0.021890223
0.088479981 0.032442659 0.021574765
0.09116365 0.033059344 0.021057129
0.092940435 0.033337332 0.020525008
0.092416078 0.032792803 0.019876003
0.093887031 0.03296034 0.019655138
0.094473697 0.032817177 0.018981934
0.095920309 0.032972604 0.018730074
0.097250797 0.033085324 0.018039137
0.098672941 0.033226602 0.017554849
0.098752469 0.032917488 0.017096519
0.099903047 0.032968003 0.016876668
0.10193792 0.03330645 0.016517282
0.1018848 0.032962728 0.016271591
0.10518347 0.033699557 0.016309708
0.10553786 0.033487976 0.01581803
0.10591624 0.033287961 0.015792102
0.10732252 0.03341173 0.015496761
0.1069414 0.032981928 0.014320493
0.10898978 0.033302434 0.013296455
0.11096729 0.033595603 0.012316048
0.11054043 0.033162128 0.011409163
0.11115478 0.033046015 0.0092916489
0.11516245 0.033931796 0.0077033937
0.11575155 0.033803549 0.0056483448
0.033796601 0.034820739 0.0050726533
0.035226129 0.035226129 0.0063319206
0.035849072 0.034824815 0.0074103475
0.036813878 0.03476866 0.0076418817
0.038495425 0.035374176 0.0082469583
0.039291032 0.035155136 0.0092661083
0.039668608 0.034582891 0.010345727
0.04112963 0.034960184 0.010922253
0.041580208 0.034481145 0.011122912
0.042355835 0.03428806 0.011217982
0.043727629 0.034575332 0.01129055
0.04418736 0.034144778 0.011079162
0.045804463 0.034607816 0.011144012
0.047291975 0.034954939 0.011203408
0.048292663 0.034935117 0.01155141
0.05007505 0.035469826 0.011477172
0.050601806 0.035111457 0.011804432
0.050485604 0.034330212 0.011861175
0.051737741 0.034491826 0.012376159
0.052556679 0.034363981 0.013828367
0.053604238 0.034387626 0.014883041
0.054794073 0.034499973 0.01598829
0.055271119 0.034167599 0.016599804
0.056393899 0.034239154 0.017981023
0.057703238 0.034419473 0.018628806
0.057972595 0.033983935 0.01956135
0.058051974 0.033453681 0.020392954
0.059680656 0.033819038 0.021520197
0.0601581 0.033530746 0.022113323
0.061394032 0.033667695 0.022623152
0.062783055 0.03388292 0.022787184
0.063721605 0.033852104 0.023126632
0.064923562 0.033960018 0.023109585
0.065678217 0.033834234 0.023130268
0.065997183 0.033491109 0.022894919
0.067635246 0.033817623 0.022882521
0.067688592 0.033353802 0.022859544
0.068414077 0.033229697 0.023045361
0.070411138 0.033718009 0.022771358
0.071530201 0.03377815 0.02251184
0.072889239 0.03394841 0.02239424
0.073969446 0.033985961 0.022245705
0.073534496 0.033335637 0.021952242
0.075207755 0.033645574 0.021720469
0.077905223 0.034399707 0.021841139
0.077723868 0.033879638 0.02190572
0.078707583 0.03387415 0.021720469
0.079638764 0.033846475 0.021576881
0.080891825 0.033954594 0.021448016
0.080911897 0.033548836 0.021999985
0.081961818 0.033574719 0.022233814
0.083131112 0.033648308 0.022359371
0.085541286 0.034216512 0.022381008
0.085248664 0.033702958 0.022489518
0.085497968 0.033413 0.022062421
0.088309005 0.03411939 0.021574974
0.087525792 0.03343682 0.021224111
0.089670144 0.033875387 0.020853102
0.092221938 0.034456551 0.020650357
0.092433073 0.034160048 0.020220518
0.09206178 0.033656996 0.019321024
0.094671138 0.034242753 0.019142449
0.094816618 0.03393437 0.018320054
0.097470932 0.034520958 0.017993122
0.09732306 0.034113239 0.017617941
0.098334461 0.034116037 0.017245948
0.099074401 0.034025554 0.016876668
0.09969233 0.033895392 0.016624779
0.099103533 0.033361584 0.016102046
0.10430996 0.034769986 0.01599434
0.10277478 0.033925656 0.015649945
0.10411039 0.034036089 0.015275896
0.10699376 0.034645598 0.015354782
0.10690271 0.03428955 0.014221013
0.10759807 0.03419004 0.013120234
0.11087222 0.034904215 0.012006193
0.10945043 0.034140501 0.0116795
0.11076843 0.034237515 0.0088315606
0.11415861 0.034967501 0.0076828897
0.11413078 0.034646846 0.0056147277
0.035837241 0.035837241 0.0052931607
0.037431434 0.036391672 0.0066855252
0.038071912 0.036013968 0.0073307455
0.03910571 0.03601842 0.0075866878
0.040125564 0.03601012 0.0089317262
0.041161399 0.036016226 0.0094511211
0.041598357 0.035510793 0.010111511
0.042885318 0.035737764 0.0098775327
0.043621037 0.035505492 0.0096402168
0.045009278 0.035802834 0.0095925033
0.045784105 0.03560986 0.0095925033
0.046955939 0.035727344 0.0098286867
0.048506267 0.036121689 0.010688752
0.049935695 0.036411446 0.010987312
0.05073389 0.036238495 0.011059701
0.051581528 0.036107071 0.011259705
0.0515268 0.035361528 0.011692256
0.052357208 0.03524043 0.013153851
0.053772662 0.035510246 0.014629334
0.054436196 0.03528272 0.015884131
0.055579878 0.035369013 0.016873062
0.056714773 0.035446733 0.018172115
0.057271808 0.035166901 0.018700868
0.057145223 0.034484185 0.019575208
0.057403505 0.034052927 0.020380735
0.058747228 0.034269217 0.021424592
0.060352165 0.034628291 0.022106349
0.06184458 0.034912262 0.022406608
0.062546521 0.03474807 0.022739679
0.064292304 0.035159852 0.022972167
0.064383462 0.034668017 0.022940487
0.065192603 0.034571834 0.022938699
0.067045957 0.03502401 0.022574544
0.06654045 0.034248762 0.022591382
0.067263521 0.034119178 0.022600502
0.06959971 0.034799855 0.022949368
0.070493571 0.034750354 0.022449553
0.071711451 0.034859732 0.022118777
0.072866075 0.034935787 0.021894813
0.072789662 0.034427542 0.021542698
0.074709274 0.034864329 0.021576375
0.076692879 0.03531909 0.021544546
0.077413425 0.035187922 0.02162689
0.078332886 0.035149373 0.021558225
0.079533301 0.035236273 0.021438956
0.08004649 0.03502034 0.021235168
0.081423379 0.035182942 0.021008968
0.08119005 0.034654289 0.021457404
0.08291582 0.034964502 0.021637619
0.083366409 0.034736004 0.022139996
0.084781356 0.034909971 0.022177398
0.085504428 0.034798313 0.02201283
0.087750547 0.035301946 0.02155453
0.087234929 0.034695711 0.020731628
0.088014498 0.034612443 0.020872474
0.091311716 0.035510112 0.02018702
0.091256343 0.035098594 0.020117849
0.092538714 0.035204947 0.019570708
0.093864381 0.035325304 0.019097865
0.09465266 0.035243012 0.018730074
0.094598748 0.034852169 0.017958939
0.096975826 0.035355769 0.017584026
0.096891448 0.034960832 0.017421156
0.098315485 0.035112672 0.016641229
0.099355169 0.035125565 0.016469181
0.098602429 0.034510851 0.016084343
0.10225157 0.035433713 0.015334576
0.10251657 0.035177253 0.015221566
0.10389227 0.035303202 0.015288889
0.10657855 0.03586778 0.014803976
0.10556546 0.035188485 0.013767958
0.10770605 0.035563316 0.012671173
0.10811716 0.035365425 0.011785865
0.11058789 0.035838667 0.010710627
0.111348 0.035753943 0.0087432861
0.11387856 0.036234088 0.0076695085
0.11404662 0.035960644 0.0056011975
0.038081199 0.037051979 0.0059050024
0.039688669 0.037599795 0.0069618821
0.040223729 0.037129596 0.0077510178
0.040897209 0.036807489 0.0082090795
0.042278498 0.037122585 0.0085666776
0.042805921 0.03669079 0.0085316002
0.043319602 0.036267575 0.0086578131
0.04503094 0.036843497 0.0084652007
0.046055552 0.03684444 0.0086539388
0.047444113 0.037130173 0.0089871883
0.048587948 0.037216302 0.0095510781
0.049621984 0.037216488 0.0093727708
0.051541675 0.037867352 0.0096710026
0.051302712 0.036937952 0.010232627
0.051352117 0.036248554 0.010669112
0.053622231 0.037123084 0.012217641
0.053125203 0.036085043 0.014215976
0.054168116 0.036112078 0.015548736
0.055590928 0.036386788 0.016461074
0.056333821 0.036214601 0.017781347
0.056509044 0.035689924 0.018007189
0.058186017 0.03611546 0.01891163
0.058108933 0.0354563 0.01989308
0.059762895 0.035857737 0.020761579
0.060831215 0.035900388 0.021432102
0.061783995 0.035874579 0.021792591
0.06241427 0.035665296 0.022137344
0.063972093 0.035984304 0.022417903
0.064047255 0.035472326 0.022539973
0.065639794 0.035803523 0.022383004
0.066481583 0.035721447 0.022157907
0.067149788 0.03554989 0.022331506
0.06857042 0.03577587 0.02208814
0.069407746 0.035695415 0.022349954
0.070064358 0.03552559 0.022032738
0.072524965 0.036262482 0.021915823
0.071835302 0.035425629 0.021348447
0.07375633 0.03588146 0.021315217
0.0749503 0.035976145 0.021336377
0.075750612 0.035881869 0.021092266
0.077102907 0.036048114 0.021289259
0.078408614 0.036188588 0.021092266
0.078964122 0.035983648 0.021075696
0.080321737 0.036144782 0.020808369
0.080378808 0.035723913 0.020652473
0.081366383 0.035721827 0.020841599
0.082221866 0.035662495 0.021180928
0.083073713 0.03560302 0.021674424
0.08367271 0.035437852 0.021659851
0.08654581 0.036228478 0.021507114
0.086468749 0.035780173 0.021039575
0.087099075 0.035631441 0.020205349
0.088606447 0.035840813 0.019884616
0.090056002 0.036022399 0.019471675
0.090924151 0.035969995 0.019110858
0.092487857 0.036190901 0.019005001
0.093123131 0.036047664 0.018453091
0.094776325 0.036297318 0.0182015
0.096165061 0.036441498 0.017584026
0.096251108 0.036094166 0.017276734
0.097946264 0.036351189 0.017102927
0.098764002 0.036280654 0.016562998
0.098655492 0.035874724 0.01642403
0.10039259 0.036141332 0.015943468
0.10234863 0.036480699 0.015301168
0.10125166 0.035735879 0.015196294
0.10436819 0.036478207 0.015174985
0.10577846 0.036615618 0.013602853
0.10652533 0.03652297 0.012904674
0.10995217 0.03734225 0.011937648
0.10912497 0.036714941 0.010919005
0.1101281 0.036709368 0.0091958344
0.1133695 0.037443139 0.0079850852
0.11328314 0.037074484 0.0056147277
0.039619561 0.037587792 0.0054434538
0.041400537 0.038295496 0.0068376064
0.042163935 0.03805038 0.0076221228
0.043034039 0.037910942 0.0075925887
0.043909237 0.037782364 0.0072086751
0.045209479 0.038017064 0.0069468617
0.046264887 0.03804002 0.0069468617
0.047017451 0.037818383 0.0069295168
0.048521105 0.038197465 0.0070242286
0.050021857 0.038558513 0.0081516504
0.051559027 0.038932327 0.0083373189
0.051098146 0.037812628 0.0086117387
0.052295383 0.037939787 0.0092325509
0.05318404 0.03784249 0.010609955
0.053016141 0.037011269 0.013125449
0.055117972 0.037766021 0.015143126
0.056016129 0.037683576 0.016233414
0.056275114 0.037181772 0.01717639
0.057257514 0.037167158 0.017742187
0.05769901 0.036807988 0.018532306
0.058047727 0.03640281 0.01908043
0.059561767 0.036729757 0.020182431
0.060518418 0.036707893 0.02108112
0.061447863 0.036670499 0.02154392
0.062978894 0.036987606 0.021730483
0.06315589 0.036511999 0.022036493
0.064395107 0.036655676 0.0220429
0.066070616 0.037039589 0.021894723
0.065161251 0.035984568 0.021844953
0.067151792 0.036538474 0.021844953
0.068560049 0.036764085 0.021618664
0.069405578 0.036685806 0.021423221
0.071255922 0.03713337 0.021076113
0.071656212 0.036823329 0.021002859
0.072203338 0.036596213 0.020813465
0.074006774 0.037003387 0.020830244
0.074987538 0.03699385 0.020471096
0.075367935 0.036692284 0.020106256
0.078133188 0.037544519 0.020122498
0.078226946 0.037107654 0.020246863
0.07860861 0.03681669 0.020131052
0.080361284 0.037167095 0.019851506
0.080019683 0.036552202 0.019649297
0.082215972 0.037097454 0.020022869
0.082389988 0.036728065 0.020210147
0.082342409 0.03626987 0.02079916
0.085349604 0.037152179 0.020756185
0.086426996 0.037183706 0.020814717
0.08553911 0.036378704 0.020429581
0.088080458 0.037033826 0.019679904
0.088801727 0.036917575 0.019264489
0.089558624 0.036818545 0.018723726
0.091400027 0.037162647 0.018419951
0.09185084 0.036940012 0.018336475
0.092778295 0.036911793 0.018039018
0.095047429 0.037412286 0.017891109
0.09539178 0.037152588 0.017345876
0.097428732 0.037550658 0.017115325
0.097875267 0.037333865 0.016751617
0.097927943 0.036972795 0.016486853
0.099637829 0.037238382 0.016271234
0.101698 0.03762826 0.015841782
0.1017935 0.037290689 0.01518175
0.10263552 0.037230529 0.014873952
0.10353372 0.037191726 0.013815075
0.10601021 0.037715171 0.01233393
0.1082874 0.038158417 0.011684716
0.10822169 0.037775494 0.010689199
0.10973472 0.037945651 0.0086678267
0.11326849 0.038804948 0.0075857937
0.11157431 0.037873849 0.0058887601
0.042190839 0.039103705 0.0052047074
0.043874301 0.039695796 0.0059164464
0.043914564 0.038808219 0.0058410764
0.044952992 0.038823038 0.0053939223
0.04660226 0.03935302 0.0057258606
0.047187272 0.038980789 0.0058010221
0.048272412 0.03902876 0.0061610937
0.050204247 0.039745029 0.0062074959
0.051043246 0.039584558 0.0066525638
0.052164692 0.039645165 0.0081578493
0.051880654 0.038656175 0.0081978142
0.052242756 0.038177397 0.0095092654
0.054212254 0.038869165 0.012002409
0.055288121 0.038906455 0.013952494
0.055468518 0.038323704 0.015230268
0.057723545 0.039169546 0.016690165
0.05746441 0.038309608 0.017199457
0.0576245 0.037753984 0.017778903
0.059146453 0.038094327 0.018616647
0.059715737 0.037819967 0.019826144
0.060371637 0.03760856 0.02064234
0.062094819 0.038058113 0.020986944
0.062599927 0.037758686 0.021281958
0.063970931 0.037982743 0.021254987
0.064527139 0.03772356 0.021281332
0.065572664 0.037753958 0.021310806
0.065764718 0.037299391 0.020938694
0.067338057 0.037630092 0.020898461
0.067633189 0.037247263 0.020910591
0.0695723 0.03776782 0.020778835
0.071060382 0.038032316 0.020395249
0.070817538 0.037375923 0.020301104
0.073172696 0.038089897 0.020026207
0.073267415 0.037623808 0.019875705
0.07513468 0.038068235 0.019508809
0.076125376 0.038062688 0.019409239
0.076531217 0.037768655 0.019427657
0.07782951 0.03791694 0.019540995
0.078967787 0.037984505 0.019452602
0.080343954 0.038163379 0.019343197
0.081619374 0.038290571 0.019296795
0.082337864 0.038156569 0.019432366
0.081569396 0.037345026 0.019303292
0.084102713 0.038046464 0.019743711
0.084424995 0.037742939 0.01979804
0.086277582 0.03812265 0.019708335
0.087777078 0.038339414 0.019674957
0.087299861 0.037697665 0.019325078
0.089048386 0.038020659 0.0187397
0.090181477 0.038076624 0.018034071
0.090216607 0.03767287 0.017966121
0.091638178 0.037850551 0.01787141
0.093469694 0.038191918 0.017843187
0.094632544 0.03825571 0.017598182
0.095355086 0.038142033 0.017115325
0.096530013 0.038209796 0.016943038
0.096019179 0.037615761 0.016772449
0.09884277 0.038326789 0.016266346
0.099530593 0.03820366 0.016169816
0.10186829 0.03870995 0.015306681
0.1029691 0.038740851 0.014672667
0.10253714 0.03820011 0.013784289
0.10341658 0.038153689 0.012478352
0.10732071 0.039213337 0.01122719
0.10785054 0.039031629 0.0099699795
0.10927337 0.039173473 0.0087424517
0.11239971 0.039917655 0.0073669553
0.11104481 0.039071321 0.00572896
0.050380472 0.040934134 0.0055103302
0.05202933 0.041411102 0.0059508979
0.052983548 0.041327171 0.0063826144
0.052561872 0.040194374 0.0076787472
0.05306394 0.039797954 0.0085600317
0.054482613 0.040090978 0.010842741
0.054359403 0.039259568 0.013137907
0.056945913 0.04037983 0.015007377
0.05659828 0.03941666 0.016003698
0.05711361 0.039077733 0.016642809
0.058195509 0.039131463 0.017150581
0.058354121 0.038573064 0.018199086
0.059673928 0.038788054 0.01891762
0.061195441 0.039124954 0.019642383
0.061395146 0.038619529 0.020017803
0.062515184 0.038699877 0.020544708
0.063423291 0.038648568 0.020698398
