ply
format ascii 1.0
comment PCL generated
element vertex 370
property float x
property float y
property float z
element camera 1
property float view_px
property float view_py
property float view_pz
property float x_axisx
property float x_axisy
property float x_axisz
property float y_axisx
property float y_axisy
property float y_axisz
property float z_axisx
property float z_axisy
property float z_axisz
property float focal
property float scalex
property float scaley
property float centerx
property float centery
property int viewportx
property int viewporty
property float k1
property float k2
end_header
-0.0074356995 0.089228399 0.014902025
-0.0066206679 0.08937902 0.01498884
-0.0057846848 0.089249425 0.019230872
-0.0049750879 0.089551583 0.01939857
-0.004139564 0.089414589 0.019371271
-0.0033072645 0.089296147 0.014474839
-0.010912863 0.091500156 0.014236152
-0.0097932862 0.088955685 0.019548029
-0.0089984797 0.08916676 0.020825565
-0.008102715 0.088319592 0.021070004
-0.0072557917 0.087875709 0.022722751
-0.0065571982 0.089341827 0.022721529
-0.005729564 0.089217499 0.022788584
-0.0048861811 0.088765621 0.02292183
-0.0041225385 0.089871347 0.022940844
-0.0032529375 0.088642545 0.022722155
-0.0024378111 0.088573806 0.021394551
-0.0016407622 0.08942154 0.021013618
-0.00081527006 0.088864438 0.019873738
0 0.08907631 0.013958573
-0.012275013 0.090016767 0.01536721
-0.011266792 0.088524796 0.023431003
-0.010388739 0.087904721 0.023363948
-0.0095677348 0.087704241 0.023454517
-0.0089959903 0.089959905 0.025534898
-0.007974131 0.087715447 0.025522441
-0.0072792126 0.088968158 0.025536358
-0.0065901768 0.09061493 0.025249988
-0.0056753051 0.089183368 0.025307626
-0.0048583816 0.089070335 0.025412828
-0.0040840534 0.089849181 0.025507003
-0.0032205312 0.088564612 0.025435567
-0.0024408456 0.089497671 0.025358409
-0.001613732 0.088755257 0.025435567
-0.00080881309 0.088969439 0.025193304
0 0.088575192 0.024492145
0.00079517317 0.087469049 0.023669124
0.0016346619 0.089906409 0.02088362
0.0025664242 0.094102219 0.0069755316
-0.014071849 0.091880895 0.020559996
-0.01293912 0.089765146 0.024708122
-0.012078669 0.089382157 0.026361734
-0.011272728 0.089376628 0.026541591
-0.010513395 0.089768223 0.026472837
-0.0097307479 0.090009421 0.026432633
-0.0087879999 0.088678911 0.026482433
-0.0081170397 0.090099141 0.02638793
-0.0072962213 0.089986734 0.026446551
-0.0064853802 0.089984655 0.026312739
-0.0056519262 0.089623407 0.026370376
-0.0048425761 0.089587659 0.026541173
-0.0040511773 0.089936137 0.02662918
-0.0032694631 0.090727605 0.026671171
-0.0024748847 0.091570735 0.026624531
-0.0016008281 0.088845961 0.026613295
-0.0008115258 0.090079367 0.026488453
0 0.089238316 0.02633363
0.0008043577 0.089283705 0.026360184
0.0016097589 0.089341618 0.02581656
0.0023930995 0.088544682 0.025842041
0.0031921449 0.088582017 0.02413401
0.0042021675 0.093288124 0.01402536
-0.01567159 0.092379898 0.020717293
-0.01448512 0.090129636 0.026533186
-0.013724664 0.090421319 0.027092069
-0.012850033 0.089950234 0.027143866
-0.012056788 0.090024017 0.027185202
-0.011266271 0.090130165 0.027519077
-0.010534836 0.090761662 0.027034819
-0.009675866 0.090308078 0.026972413
-0.0089153303 0.090774268 0.0272111
-0.0080419425 0.090069756 0.027058274
-0.0072640339 0.090396874 0.027092665
-0.0065924972 0.092294961 0.02672556
-0.0056832056 0.090931289 0.02693221
-0.0048271166 0.090106182 0.02729252
-0.004063237 0.091016516 0.027378142
-0.0032229614 0.090242915 0.027495295
-0.0024104004 0.089988284 0.027562916
-0.0016174085 0.090574875 0.027391881
-0.00080859382 0.090562508 0.027181655
0 0.090575919 0.027029574
0.00081423065 0.091193832 0.027055353
0.0015858189 0.088805854 0.026966929
0.002427839 0.090639323 0.027014822
0.0031543828 0.088322714 0.026595682
0.0040103956 0.089832865 0.02607432
0.0048848884 0.091184586 0.024931967
0.005767453 0.092279248 0.020511299
-0.017371202 0.093473606 0.020788908
-0.016065346 0.090769202 0.026703626
-0.015152424 0.090117045 0.027612388
-0.014470427 0.090842128 0.027899384
-0.013720723 0.091202453 0.027645499
-0.012884832 0.090999119 0.027858406
-0.012095565 0.091119923 0.027841896
-0.011289318 0.091120929 0.027972698
-0.010516543 0.091413029 0.027611822
-0.0097399531 0.091717891 0.027502328
-0.0087933829 0.090332031 0.027688324
-0.0079123434 0.089409485 0.027610421
-0.0072508571 0.09103854 0.027608752
-0.006474623 0.091454051 0.027420014
-0.0056540417 0.091272384 0.027466148
-0.0048253811 0.090878017 0.027577758
-0.0040280265 0.091033399 0.02769044
-0.0032361185 0.091420345 0.027623147
-0.0024399883 0.091906227 0.027485847
-0.0016122475 0.091091983 0.027673781
-0.00080126041 0.090542421 0.027524203
0 0.090423323 0.027407855
0.00078794034 0.089037254 0.027397722
0.001622927 0.091695376 0.02732414
0.0024384039 0.091846548 0.027540773
0.0031863607 0.090014689 0.027337343
0.0039969292 0.090330593 0.02728349
0.0048429831 0.091209516 0.026830167
0.0055004414 0.088792838 0.026177019
0.00645538 0.091182239 0.025663048
0.0073374473 0.092125729 0.022280872
0.0085183233 0.096257053 0.0076429248
-0.019160498 0.094969422 0.020769745
-0.017743636 0.0919443 0.025827259
-0.016721517 0.090773948 0.027888447
-0.016168458 0.092160217 0.028274685
-0.015437448 0.092624687 0.028654277
-0.014467274 0.09162607 0.028847367
-0.013731654 0.092082851 0.028485835
-0.012858574 0.091617338 0.028567225
-0.012184332 0.092600919 0.028385043
-0.011303251 0.092040755 0.028460979
-0.010385449 0.091072395 0.028198749
-0.0096716676 0.091880843 0.027972698
-0.008815988 0.091365695 0.027986258
-0.0078942562 0.089994527 0.028064877
-0.007133713 0.090360366 0.028133392
-0.0064605256 0.092062488 0.027906746
-0.0057332381 0.093369871 0.027808249
-0.0047581862 0.090405539 0.027569056
-0.0040277289 0.091832221 0.027749389
-0.0032241433 0.091888078 0.027696133
-0.0024070737 0.091468804 0.027763486
-0.0016156461 0.092091821 0.028140485
-0.00080906152 0.09223301 0.028144747
0 0.091390952 0.028110206
0.00080026546 0.091230258 0.027964443
0.0016114239 0.09185116 0.027822882
0.0024179805 0.091883257 0.027957261
0.0032398582 0.092335962 0.028067589
0.0040503042 0.092346929 0.027910799
0.0048366394 0.091896147 0.027685106
0.0056347363 0.091765702 0.027481407
0.0063202833 0.090064034 0.027047426
0.0071300189 0.090313576 0.027023315
0.008105888 0.092407122 0.025965363
0.0089204488 0.092448294 0.022280872
0.010127467 0.096210942 0.0090788901
-0.019484838 0.09336485 0.018726647
-0.01832963 0.091648139 0.02579987
-0.017789872 0.092992507 0.027883887
-0.016903454 0.092566535 0.028439015
-0.016307641 0.093768932 0.028765827
-0.015267095 0.092406094 0.02904889
-0.014447188 0.09230148 0.029017359
-0.013770369 0.093152493 0.028717309
-0.012895056 0.092683218 0.028789699
-0.012097224 0.092745379 0.028774083
-0.011277746 0.092638627 0.028703779
-0.010332902 0.091406435 0.028460979
-0.0096343486 0.092329174 0.028158993
-0.0087721441 0.091708779 0.028144717
-0.0080396021 0.092455424 0.028168082
-0.0072170561 0.092217945 0.028201133
-0.0065485947 0.094136052 0.028126061
-0.0055924566 0.091876067 0.028165728
-0.0048112925 0.09221644 0.027848959
-0.0040534856 0.093230173 0.028234154
-0.0032313876 0.092902392 0.027998209
-0.0024140964 0.092540354 0.028351247
-0.0015912545 0.091497131 0.028340518
-0.00080483465 0.092555977 0.028399229
0 0.092536025 0.028373748
0.00080061529 0.092070758 0.028373748
0.0016090693 0.092521481 0.028290272
0.0024102288 0.092392102 0.028431535
0.0031922436 0.091777004 0.028075039
0.0039831684 0.091612875 0.02835682
0.0047954717 0.091913208 0.028649747
0.0056535699 0.09288007 0.028273016
0.0064567244 0.092815407 0.028091103
0.007146399 0.091315106 0.027323574
0.007911888 0.090986714 0.026975602
0.0087818103 0.091809839 0.025754184
0.0096842563 0.092807457 0.021841466
0.010653473 0.094242252 0.0073049963
-0.020476211 0.095009625 0.017218202
-0.019185655 0.092730671 0.024581611
-0.018579712 0.093706377 0.027941287
-0.017550329 0.092538103 0.028519481
-0.017015051 0.093987897 0.028935432
-0.016061651 0.093157582 0.029227555
-0.015279176 0.093283392 0.029299915
-0.014471283 0.093259387 0.029319227
-0.013664722 0.093241632 0.029002875
-0.012819066 0.092938229 0.028939903
-0.012148872 0.093951277 0.028814435
-0.011241563 0.09314438 0.02891764
-0.010367117 0.092506588 0.028503835
-0.0095387241 0.09220767 0.028235048
-0.0089060459 0.093918301 0.028348297
-0.0079259407 0.091940925 0.028288543
-0.0072480831 0.093419746 0.028282404
-0.006468351 0.09379109 0.028003901
-0.0055821743 0.092504606 0.028204381
-0.004828115 0.093343563 0.028299212
-0.0040525426 0.094018996 0.028484255
-0.0032325147 0.093742929 0.028425127
-0.0024312867 0.094009757 0.02850461
-0.0016158448 0.093718998 0.02854687
-0.00080763659 0.093685843 0.028541923
0 0.093869537 0.028531849
0.00080728519 0.093645088 0.028531849
0.0015898433 0.092210919 0.028384924
0.0024070423 0.09307231 0.028588891
0.0031835584 0.092323199 0.028490007
0.0039573852 0.091811344 0.029305428
0.004841466 0.093601674 0.02940163
0.0055731568 0.092355177 0.029622793
0.0064037098 0.092853792 0.02919805
0.0071521797 0.092183657 0.02937299
0.0079429187 0.092137866 0.027826905
0.0087128561 0.091881029 0.027153492
0.0095935166 0.092737325 0.0254125
0.010432559 0.093090527 0.021745235
0.01131695 0.093769014 0.0070953965
0.012296354 0.095091812 0.005951494
-0.020835981 0.093761921 0.008343935
-0.020144142 0.094274588 0.024339408
-0.019343898 0.094301507 0.027777165
-0.018352244 0.093357064 0.028640032
-0.017536014 0.093259722 0.029104441
-0.016782723 0.093503743 0.029598743
-0.01616898 0.09458854 0.029598743
-0.015132318 0.093183227 0.029581755
-0.014569994 0.094704963 0.029695988
-0.013700302 0.094290316 0.029468089
-0.012725329 0.093053974 0.029125005
-0.011992469 0.093541265 0.029257178
-0.011161969 0.093282171 0.029030293
-0.010309979 0.092789814 0.028749406
-0.0096418392 0.094007939 0.028438002
-0.0087488424 0.093055882 0.028544933
-0.0080101406 0.093718648 0.028583586
-0.007221105 0.093874373 0.028555185
-0.0065094186 0.095200248 0.028506905
-0.0057029501 0.095320739 0.028340459
-0.004790117 0.093407281 0.028358966
-0.0040129572 0.093903199 0.028430164
-0.003218876 0.09415213 0.028568864
-0.0024428226 0.09527009 0.028544426
-0.0016155799 0.094511427 0.028428942
-0.00080475374 0.094156191 0.028541923
0 0.094005823 0.028531849
0.00081031339 0.094806671 0.028531849
0.0015885424 0.092929728 0.028384924
0.0023887486 0.093161196 0.028854609
0.0031999152 0.093597524 0.029183835
0.0039992048 0.093581401 0.029558748
0.0047279713 0.092195444 0.029650748
0.0055579497 0.092897162 0.029804856
0.0064087766 0.093728356 0.029622793
0.0070984103 0.092279337 0.02969256
0.0080048749 0.093657047 0.029246449
0.0086954301 0.09248776 0.027669758
0.0095597068 0.093207143 0.026780188
0.01039819 0.09358371 0.025185704
0.011274972 0.094226554 0.011915416
0.011934568 0.09308964 0.0079848766
-0.021649458 0.094616145 0.0061979294
-0.020466827 0.092887908 0.023031384
-0.019783219 0.0933768 0.027728736
-0.019434562 0.095553271 0.028578818
-0.018506423 0.09494599 0.029636681
-0.017537046 0.094062343 0.029788911
-0.016753012 0.09413597 0.029857337
-0.016200138 0.095580824 0.029861748
-0.015230898 0.094591893 0.029907972
-0.014380318 0.094270982 0.029915452
-0.013795365 0.095756061 0.029535681
-0.012680276 0.093517035 0.029363334
-0.012058018 0.094856404 0.029318422
-0.011048872 0.093126208 0.029130995
-0.010530234 0.095582135 0.029030293
-0.009569387 0.094098978 0.028872281
-0.0089139994 0.095622905 0.028827995
-0.0080766445 0.095304415 0.028882384
-0.0071962313 0.094350591 0.029034883
-0.0064783571 0.095555775 0.028835356
-0.0056413813 0.095097572 0.028679281
-0.0048335455 0.095059738 0.028661489
-0.0039967955 0.094324373 0.028661489
-0.0032028996 0.094485536 0.028511435
-0.0024094163 0.094770372 0.028430164
-0.0016220909 0.095703363 0.028541923
-0.00081257307 0.095883623 0.028552532
0 0.095000558 0.028377593
0.00081421057 0.096076846 0.028500944
0.0015885215 0.093722776 0.028789341
0.0024123986 0.094887681 0.029528737
0.0032459416 0.095755279 0.02962631
0.0039131693 0.092350796 0.029807866
0.0047247768 0.092920616 0.030011892
0.005569749 0.093890056 0.030013502
0.0063305376 0.09337543 0.02985999
0.0071904422 0.094274692 0.03000015
0.0079684807 0.094028078 0.029864132
0.0087152813 0.093491204 0.029442132
0.0095343115 0.093754061 0.02909103
0.010417006 0.094554365 0.026780188
0.011087332 0.093450375 0.024540454
0.01201506 0.094518468 0.011719465
0.01300474 0.095909953 0.0079848766
0.013812253 0.095873289 0.006971091
-0.022481525 0.095546484 0.0051304996
-0.021274177 0.093763962 0.020612776
-0.020559113 0.09409748 0.027688056
-0.020229228 0.096291125 0.028021157
-0.019179119 0.095096469 0.02890563
-0.018524736 0.095845371 0.029824972
-0.017503314 0.094677024 0.029851556
-0.016810279 0.095258251 0.03016305
-0.015738467 0.093643874 0.030082732
-0.015313732 0.095912322 0.030125767
-0.014484059 0.095755726 0.030155391
-0.013697639 0.095883474 0.029945016
-0.01253897 0.093258597 0.029519707
-0.012131298 0.096241631 0.029415488
-0.011264608 0.09574917 0.029241443
-0.010264117 0.09395615 0.029100358
-0.0097311288 0.096500359 0.028992027
-0.0088089667 0.095297001 0.029246062
-0.007972992 0.094878614 0.029241443
-0.007192913 0.095106296 0.029349834
-0.0064912457 0.096557282 0.029077679
-0.0056170905 0.095490538 0.028880626
-0.0047713504 0.094631791 0.028693855
-0.004009854 0.095434532 0.028693855
-0.0032023559 0.09527009 0.028612703
-0.0024417897 0.09685766 0.028612703
-0.0015977265 0.095064729 0.028539956
-0.00080822117 0.096178316 0.028545111
0 0.094627663 0.028377593
0.00079682458 0.094822124 0.028500944
0.0015815961 0.094104968 0.028545618
0.0024193476 0.095967464 0.029303044
0.003174304 0.09443555 0.029668361
0.0039923219 0.095017269 0.029938072
0.0048548002 0.096286871 0.030250162
0.0055459156 0.094280563 0.030316532
0.00639635 0.09514571 0.030236572
0.0071792407 0.094925523 0.030603915
0.007938521 0.0944684 0.03016901
0.008780689 0.094991095 0.030172199
0.0095923236 0.095123872 0.02942881
0.010251207 0.093837976 0.029124737
0.011125589 0.094567508 0.026247323
0.011854451 0.094045311 0.024303854
0.01284359 0.095524207 0.011612952
0.013412726 0.093889087 0.0080798268
0.014561834 0.096269906 0.0059035718
0 0 0 1 0 0 0 1 0 0 0 1 0 0 0 0 0 370 1 0 0
