ply
format ascii 1.0
comment PCL generated
element vertex 1303
property float x
property float y
property float z
element camera 0
property float view_px
property float view_py
property float view_pz
property float x_axisx
property float x_axisy
property float x_axisz
property float y_axisx
property float y_axisy
property float y_axisz
property float z_axisx
property float z_axisy
property float z_axisz
property float focal
property float scalex
property float scaley
property float centerx
property float centery
property int viewportx
property int viewporty
property float k1
property float k2
end_header
0.023849586 0.020559987 0.031141639
0.024496343 0.020413619 0.031356663
0.025366416 0.020456787 0.031834424
0.026057288 0.020357257 0.032606751
0.026617987 0.020165144 0.032710582
0.027515817 0.020232219 0.033423841
0.02787983 0.019914165 0.034159213
0.028999601 0.020138612 0.033394754
0.029751344 0.020102259 0.032977939
0.030559875 0.020105181 0.032635123
0.031715695 0.020330576 0.031993151
0.032339331 0.020212082 0.028986663
0.035522431 0.021660019 0.0082868338
-0.041796777 0.022177882 0.019453198
-0.039801788 0.0215593 0.02690959
-0.038182966 0.021122491 0.027385592
-0.038115345 0.021543456 0.028137743
-0.036984261 0.021368682 0.029136807
-0.036161635 0.021368239 0.029740274
-0.035781085 0.021635074 0.029706538
-0.035041984 0.021692656 0.029331356
-0.03370763 0.021375569 0.029173017
-0.0333369 0.021668984 0.028898269
-0.03224922 0.021499479 0.028557956
-0.031503439 0.021554982 0.028603166
-0.030914649 0.021723807 0.028666884
-0.030164434 0.021785425 0.028501391
-0.028736798 0.021347336 0.028349817
-0.028447358 0.021753861 0.028356194
-0.027330218 0.021532901 0.028054178
-0.026385076 0.021437874 0.027794361
-0.025460208 0.021353722 0.027992547
-0.024590772 0.021312002 0.02798444
-0.023775421 0.021315893 0.027825534
-0.022969829 0.021329127 0.02798444
-0.022164725 0.021343809 0.028009742
-0.021239961 0.021239961 0.027945608
-0.020726878 0.021555953 0.027813584
-0.019913945 0.021573441 0.02786687
-0.019300748 0.021818237 0.028075546
-0.018131344 0.021427952 0.028146029
-0.017457521 0.021614073 0.028400451
-0.016676944 0.021680027 0.028423995
-0.015577101 0.021316033 0.028461337
-0.014967931 0.021620346 0.028692245
-0.014101746 0.021567374 0.028740734
-0.013226898 0.021493709 0.028877705
-0.012415092 0.021519493 0.029032081
-0.011544194 0.021439219 0.029040575
-0.010790871 0.021581743 0.029190749
-0.0099520907 0.021562863 0.028973103
-0.0090029705 0.021279749 0.028905362
-0.0080500143 0.020930039 0.028921902
-0.0073702671 0.021291884 0.02906552
-0.0065804101 0.021386333 0.028858274
-0.0057824021 0.021477493 0.029195786
-0.0049974294 0.021655528 0.029378355
-0.0040715779 0.021172205 0.029684454
-0.0032651417 0.021223422 0.029476136
-0.0025022102 0.021685822 0.029773086
-0.0016334838 0.021235289 0.029668093
-0.00081419386 0.02116904 0.029699206
0 0.021320982 0.029677242
0.00082697172 0.021501264 0.029582679
0.0016248436 0.021122966 0.029565394
0.0024678933 0.02138841 0.029671043
0.00325492 0.02115698 0.029529661
0.0041315076 0.02148384 0.029572308
0.0049492437 0.021446723 0.029189885
0.0058501139 0.021728994 0.029508114
0.0066431919 0.021590373 0.029415429
0.007447463 0.021514894 0.029681057
0.0081643714 0.021227365 0.029539734
0.0090457909 0.021380961 0.029735059
0.0098083122 0.021251343 0.029672474
0.010715765 0.02143153 0.029630691
0.011447993 0.021260558 0.029630691
0.01219802 0.021143235 0.029797554
0.013051797 0.021209169 0.029702365
0.013943625 0.021325544 0.029949725
0.014615616 0.021111446 0.029775411
0.01567295 0.021447193 0.029824704
0.016153092 0.02099902 0.029663205
0.017149996 0.021233328 0.029797971
0.017722335 0.020944579 0.029994249
0.018702753 0.021142241 0.030184597
0.019399367 0.021015983 0.030771732
0.020572018 0.021394897 0.030781567
0.021074196 0.021074196 0.030841261
0.021807387 0.020999705 0.031003565
0.022878051 0.021243904 0.031500787
0.023479749 0.021050807 0.03190136
0.024412381 0.021157397 0.032054543
0.025249574 0.021177063 0.032502741
0.02549807 0.020717181 0.032803446
0.02692998 0.02121756 0.033333838
0.027932007 0.02135977 0.034391195
0.027701467 0.020578234 0.034517884
0.028541237 0.020613117 0.034347147
0.029865479 0.020986551 0.03420645
0.030207485 0.020668278 0.033041954
0.031354066 0.02090271 0.032807469
0.031806283 0.020674083 0.03097558
0.035670724 0.022620458 0.0097995102
-0.041923139 0.023100507 0.019854009
-0.039670635 0.022314733 0.026801854
-0.038770296 0.022272298 0.027417094
-0.037903402 0.02224765 0.02901575
-0.037108824 0.022265293 0.029653132
-0.036717184 0.022531001 0.030429065
-0.036009349 0.022610523 0.030690432
-0.034558516 0.022216188 0.03018263
-0.033997416 0.022388542 0.03028661
-0.033401679 0.022546133 0.030026078
-0.03210935 0.02222955 0.029610842
-0.031726141 0.022542257 0.029610842
-0.030595791 0.022326658 0.029796273
-0.030054795 0.022541096 0.029744804
-0.028903916 0.022297308 0.029514939
-0.027972778 0.022213677 0.029487789
-0.026937574 0.022039834 0.029206902
-0.026642738 0.022479812 0.029011935
-0.025429711 0.022148458 0.029414028
-0.024888866 0.022399981 0.029360533
-0.023764484 0.022125555 0.029325455
-0.022974556 0.022154037 0.02927196
-0.022102086 0.022102086 0.029272407
-0.021430623 0.022254879 0.02927196
-0.02070374 0.02236004 0.02906394
-0.019805735 0.022281453 0.029279977
-0.018979071 0.022279778 0.029031307
-0.018000068 0.022090994 0.028977603
-0.017337276 0.022290783 0.028977603
-0.016741039 0.022600403 0.028696418
-0.015642662 0.022229046 0.028763294
-0.015025637 0.022538457 0.029134959
-0.013863831 0.022019027 0.02922383
-0.013286968 0.022421759 0.029430747
-0.012540718 0.022573292 0.029604465
-0.011523567 0.022224022 0.029586136
-0.01066341 0.022147084 0.029640645
-0.0098088859 0.022069994 0.029592127
-0.0089078331 0.021864682 0.029606611
-0.0081332251 0.021959711 0.029473722
-0.0074560894 0.022368269 0.029395431
-0.0066518295 0.022449924 0.029378355
-0.0057933712 0.02234586 0.029681474
-0.0048955055 0.022029776 0.029738992
-0.0040614777 0.02193198 0.029737502
-0.0032804201 0.022142837 0.029807985
-0.0024798971 0.022319075 0.029902846
-0.0016364994 0.022092743 0.029773086
-0.00083036395 0.022419827 0.029817581
0 0.021909047 0.029721737
0.00082075171 0.022160297 0.029703766
0.001632971 0.022045109 0.02978161
0.0024643838 0.022179456 0.029981166
0.0033064573 0.022318587 0.029754728
0.0040888521 0.022079803 0.029980302
0.0049568224 0.022305703 0.029729933
0.0057329084 0.022112647 0.030406803
0.0065068221 0.021960525 0.030158252
0.0073416834 0.022025052 0.030457675
0.0081520788 0.022010613 0.030313194
0.0088690333 0.021769445 0.030435115
0.0098526692 0.022168506 0.030539691
0.010654715 0.022129025 0.030503452
0.011436744 0.022056578 0.030503452
0.012297234 0.022135023 0.030633718
0.013230556 0.022326563 0.030560702
0.013728468 0.021804038 0.03057012
0.01469526 0.022042891 0.030480146
0.015450996 0.021956678 0.030909717
0.016127346 0.021771919 0.030656815
0.01692901 0.021765869 0.030992538
0.017827671 0.021879414 0.031078547
0.018578144 0.021809125 0.03141138
0.019604603 0.022055179 0.031859279
0.02039711 0.022028878 0.031932503
0.021048637 0.021858202 0.032101184
0.021997197 0.021997197 0.032402426
0.022656787 0.021847617 0.032658011
0.02367474 0.022041999 0.032830209
0.024497561 0.022047805 0.032710582
0.025053643 0.021820916 0.033536196
0.025639437 0.021633277 0.033952504
0.027071632 0.022149518 0.034636706
0.026837131 0.02131184 0.035139263
0.028295122 0.021827666 0.035194784
0.02887686 0.021657648 0.035133153
0.029593863 0.021595521 0.035098314
0.030510947 0.021678831 0.034436494
0.030942766 0.021421917 0.033602327
0.031827725 0.021483716 0.032807469
0.035079297 0.023101 0.014098406
-0.041419048 0.023668028 0.021741986
-0.039191414 0.02286166 0.027197689
-0.038667209 0.023035785 0.028755307
-0.037160352 0.022619344 0.030127317
-0.036797903 0.022896472 0.030576825
-0.036101744 0.022973837 0.031412482
-0.035254277 0.022956273 0.031486839
-0.034448493 0.022965662 0.031178683
-0.033693943 0.023010496 0.031422675
-0.032606754 0.022824729 0.031316727
-0.031813491 0.022840457 0.030954897
-0.031179998 0.022974735 0.030955881
-0.03033288 0.022954611 0.030771285
-0.029338693 0.022818984 0.030753314
-0.02870601 0.022964809 0.030426115
-0.028202949 0.023225958 0.030186057
-0.026892988 0.022818293 0.03021431
-0.0263103 0.023021514 0.030032575
-0.025716791 0.023228068 0.030006647
-0.025035668 0.023366623 0.030106038
-0.023822017 0.023000568 0.029911876
-0.02332234 0.02332234 0.030211091
-0.022452265 0.02328383 0.029720515
-0.021043476 0.022662204 0.029729545
-0.020461928 0.02291736 0.030086696
-0.019634778 0.02290724 0.030054212
-0.018809626 0.022898674 0.029799163
-0.018097211 0.023032812 0.029772371
-0.017233545 0.022978058 0.029836416
-0.016626399 0.02327696 0.029735565
-0.015566109 0.022939529 0.029729754
-0.01483166 0.023071473 0.029659063
-0.014043295 0.023130134 0.029957384
-0.013140776 0.022996357 0.030149668
-0.012357134 0.023066649 0.029959828
-0.011451811 0.022903621 0.030137032
-0.010612587 0.02285788 0.029927373
-0.0097116325 0.022660475 0.030119061
-0.0090782028 0.023108153 0.030113459
-0.0082023721 0.022966642 0.029893696
-0.0074192402 0.023082081 0.030070484
-0.0066195545 0.023168441 0.029735059
-0.005707236 0.022828944 0.030188799
-0.0048891944 0.022816241 0.030171365
-0.0041608354 0.023300678 0.030209452
-0.0032764531 0.022935171 0.03020072
-0.0024612255 0.022971438 0.03037262
-0.0016651729 0.02331242 0.030171365
-0.00081513694 0.022823835 0.030171365
0 0.022687653 0.030443728
0.00083095185 0.023266651 0.030418634
0.0016339083 0.022874715 0.030486882
0.0024778307 0.02312642 0.030691355
0.0033474951 0.023432467 0.030686647
0.0041209972 0.023077585 0.030835181
0.0048475936 0.022622103 0.030577838
0.0057089389 0.022835756 0.030841589
0.0064925728 0.022724004 0.030880123
0.0073738135 0.022940753 0.031124353
0.0081050796 0.022694223 0.030958086
0.008919687 0.022704657 0.031126469
0.0096941227 0.02261962 0.030982226
0.010501941 0.022619564 0.030817807
0.01141096 0.02282192 0.030817807
0.012401811 0.023150047 0.031300187
0.01291225 0.022596437 0.03127721
0.013825306 0.022771092 0.031523883
0.014723376 0.022903031 0.031257302
0.015496844 0.022837454 0.031818658
0.016084498 0.0225183 0.032481164
0.017000105 0.022666806 0.032553673
0.017728424 0.022563448 0.032622218
0.018760739 0.022839161 0.032556564
0.019325843 0.022546817 0.032776684
0.020150796 0.022568891 0.032945633
0.020806748 0.022407267 0.032953531
0.021865642 0.022675479 0.033141404
0.022714093 0.022714093 0.033483684
0.023586262 0.022772942 0.033854395
0.024067577 0.022463072 0.034055144
0.024831301 0.02242827 0.034868211
0.025621498 0.022418812 0.03494665
0.026794963 0.022735119 0.03541857
0.027382785 0.022550529 0.035604417
0.028095201 0.022476161 0.035698801
0.028651681 0.022284642 0.035647392
0.029898115 0.022625599 0.03541398
0.030402225 0.022401638 0.034982115
0.030949326 0.02222003 0.03444314
0.032103177 0.022472225 0.032917529
0.033485543 0.022868173 0.028298348
-0.040272992 0.023835039 0.021972567
-0.039677307 0.023971708 0.028489858
-0.038538378 0.023778999 0.029907644
-0.038037676 0.023980275 0.030780166
-0.036938321 0.023804694 0.031457305
-0.035619292 0.023476353 0.031846762
-0.035302702 0.023808802 0.032011926
-0.034594879 0.02388694 0.031662881
-0.033444941 0.023656178 0.031800449
-0.032772899 0.023760354 0.0316751
-0.031578921 0.023481762 0.031621903
-0.030937554 0.023610238 0.031601191
-0.0304239 0.023845758 0.031320989
-0.029586487 0.02383356 0.031107694
-0.028787903 0.023852834 0.030899793
-0.028181503 0.024037164 0.030700803
-0.027102271 0.023817148 0.030703366
-0.026784835 0.024273757 0.030582666
-0.025516773 0.02387053 0.030526131
-0.024530923 0.023713227 0.030597836
-0.023854759 0.023854759 0.030705422
-0.022837492 0.023653116 0.030748755
-0.022078041 0.023713453 0.030541241
-0.021427926 0.02390038 0.030721337
-0.020588819 0.02388303 0.031068087
-0.019584687 0.02366483 0.031057358
-0.018993432 0.023948239 0.031068087
-0.018207569 0.024000887 0.031029165
-0.017128468 0.023653599 0.030998498
-0.016806897 0.024370002 0.030542582
-0.015521806 0.023691177 0.030463129
-0.014648595 0.023600517 0.030475587
-0.013936483 0.023774002 0.030437887
-0.012986775 0.02353853 0.030559659
-0.012252848 0.02368884 0.030578136
-0.011498285 0.023817878 0.030707687
-0.010605968 0.023659468 0.030590087
-0.0098674772 0.023846403 0.030863345
-0.0091361115 0.024086114 0.030880392
-0.0080367671 0.023306627 0.030706465
-0.0073500713 0.023683565 0.030807197
-0.0065186634 0.023630155 0.030442119
-0.0057245274 0.0237159 0.030548722
-0.0049211653 0.023785634 0.030699879
-0.004073746 0.023627728 0.031089991
-0.0032885217 0.023841783 0.030724406
-0.0024752021 0.023926955 0.03106913
-0.0016362945 0.023726271 0.030971348
-0.00082107412 0.02381115 0.031056225
0 0.023573129 0.03101328
0.0008175468 0.023708858 0.030899674
0.0016463898 0.023872653 0.031104326
0.0024726479 0.023902265 0.03145346
0.0032571419 0.02361428 0.031372011
0.0040129349 0.023275023 0.031333297
0.0048919767 0.023644555 0.031188816
0.0056785583 0.023525456 0.031493127
0.0065376339 0.023698924 0.031623274
0.0073894705 0.023810517 0.03174445
0.0080677737 0.023396546 0.03173542
0.0089515438 0.023599524 0.031719476
0.0097792121 0.023633096 0.031572104
0.010651799 0.023761706 0.031879038
0.011547638 0.023920108 0.031879038
0.011980279 0.023161873 0.03235814
0.012936217 0.023446893 0.032551974
0.013879672 0.023677088 0.033133447
0.014411287 0.023218187 0.033112645
0.0154791 0.023625994 0.033204854
0.016108381 0.023357155 0.033406019
0.017022612 0.023507416 0.033490121
0.017777395 0.02343384 0.033645749
0.018444616 0.023256255 0.033538014
0.019632766 0.023722928 0.033728659
0.020355131 0.023611953 0.033801287
0.020826744 0.02322983 0.034024566
0.021658631 0.023262974 0.034439415
0.022659127 0.023468383 0.034639895
0.023247879 0.023247879 0.034817696
0.024099726 0.023296403 0.035296857
0.024932191 0.023323663 0.0355874
0.025601467 0.023201331 0.035720825
0.026690237 0.023455059 0.03612262
0.027246105 0.023239324 0.036160141
0.027965149 0.023171125 0.036221176
0.028424222 0.022897292 0.036023408
0.029989207 0.023505054 0.035732925
0.030019572 0.022909673 0.035580844
0.03113039 0.023148241 0.034951061
0.032044291 0.023232112 0.034259826
0.03353424 0.023719341 0.028986663
-0.040715247 0.024927704 0.025963515
-0.039090544 0.02443159 0.029117376
-0.038562629 0.024614444 0.030601054
-0.037038758 0.024155712 0.031297594
-0.036637966 0.024425309 0.03173694
-0.03566869 0.024319561 0.032581776
-0.035301503 0.024628956 0.032786757
-0.033979025 0.024270732 0.032172471
-0.033411592 0.024447506 0.032553434
-0.032691922 0.024518942 0.032357872
-0.031603865 0.024310667 0.032028913
-0.031168858 0.024606992 0.032163203
-0.030371321 0.024625394 0.03237164
-0.029581103 0.02465092 0.032191068
-0.028888671 0.024761718 0.031834185
-0.028056895 0.024756085 0.031337976
-0.026923353 0.024475776 0.031278253
-0.025918772 0.02429885 0.031189024
-0.024989663 0.024183543 0.031295061
-0.024631953 0.024631953 0.031263381
-0.023692122 0.024509089 0.031452894
-0.022602342 0.024216793 0.031512082
-0.022262385 0.024735982 0.031380087
-0.021351444 0.02463628 0.031374305
-0.020281622 0.024337947 0.03168869
-0.01983312 0.024791401 0.031691164
-0.019023469 0.02481322 0.031720221
-0.018110741 0.024696466 0.031631976
-0.01716614 0.024523057 0.031503618
-0.016388433 0.024582651 0.031663507
-0.01542203 0.024350574 0.031575352
-0.01488646 0.024810767 0.031451017
-0.013832722 0.024410686 0.03156817
-0.013057305 0.024482446 0.0315485
-0.01236271 0.02472542 0.03148973
-0.011365164 0.024353923 0.031459183
-0.010718581 0.024735188 0.031465739
-0.0098058647 0.024514662 0.031459183
-0.0088576367 0.024157193 0.031279832
-0.0080784522 0.024235357 0.031163007
-0.0074138306 0.024712769 0.031272769
-0.0065753437 0.024657538 0.031073004
-0.0056924112 0.024396049 0.031107038
-0.0049206275 0.02460314 0.031357795
-0.0041195117 0.02471707 0.031585217
-0.0032550858 0.024413144 0.031262726
-0.0024721946 0.024721945 0.031351477
-0.0016389131 0.024583695 0.03136
-0.00081277569 0.024383271 0.031752229
0 0.024297612 0.03170225
0.00082943612 0.024883084 0.031627715
0.0016353865 0.024530796 0.031617254
0.0024648982 0.024648981 0.031866223
0.0032818385 0.02461379 0.031890959
0.0040842472 0.024505485 0.032527447
0.0048082727 0.024041364 0.032164127
0.0056745377 0.024319448 0.032354951
0.0064673754 0.024252657 0.032734215
0.0074006994 0.024668999 0.032552958
0.0080845309 0.024253596 0.032366574
0.0088469395 0.024128018 0.032420278
0.009719803 0.024299508 0.032408655
0.010561362 0.024372373 0.032832801
0.011314119 0.024244541 0.033370018
0.012048266 0.024096532 0.033587396
0.013110772 0.024582697 0.033755094
0.013622039 0.024038892 0.034017771
0.014465505 0.024109177 0.034131646
0.015350482 0.024237603 0.034258544
0.015920816 0.023881225 0.034170985
0.016851177 0.024073109 0.034502447
0.017591154 0.023987938 0.034524173
0.01842868 0.024037406 0.034524173
0.019329099 0.024161374 0.034782827
0.020301346 0.024361616 0.034987837
0.020715663 0.023902688 0.035309881
0.021942971 0.024381079 0.035643101
0.022609135 0.024224073 0.03578335
0.023233088 0.024034228 0.035908163
0.024084415 0.024084415 0.035901606
0.024888178 0.024085334 0.036093652
0.025449391 0.023858804 0.03613764
0.026383406 0.023984915 0.036442071
0.02671379 0.023570992 0.036720812
0.027612362 0.02366774 0.037181467
0.02882457 0.024020476 0.037124634
0.02903612 0.023542799 0.036793917
0.029961208 0.023653585 0.035817623
0.03136548 0.024127293 0.035330683
0.031806134 0.023854602 0.034023523
0.033610001 0.024592683 0.029197544
-0.039584026 0.025042957 0.027336627
-0.039416444 0.025456453 0.029827505
-0.03849015 0.02538712 0.031049043
-0.037706956 0.025411209 0.031372577
-0.037261836 0.025669266 0.032769769
-0.037236113 0.026234536 0.033305496
-0.035606798 0.025670016 0.033570498
-0.035432834 0.026152806 0.033333153
-0.034600496 0.026161352 0.033690482
-0.033549637 0.026000969 0.033264369
-0.031782001 0.025262617 0.033256143
-0.030813428 0.02513727 0.033029675
-0.030128192 0.025242539 0.033096462
-0.029281272 0.02521443 0.033009976
-0.028399941 0.025154235 0.032805622
-0.027425501 0.025005605 0.03267321
-0.027018255 0.025380787 0.032601923
-0.025712214 0.024908708 0.032180548
-0.025244256 0.025244256 0.032161504
-0.024536375 0.025354255 0.032089233
-0.023605008 0.025232941 0.0322119
-0.022812037 0.025256185 0.032242328
-0.02203873 0.025303729 0.032147974
-0.021274857 0.025366176 0.031811893
-0.020609995 0.025556395 0.031972855
-0.019921128 0.025731459 0.032261014
-0.018857943 0.025417229 0.032258689
-0.017933711 0.025270231 0.031916946
-0.016984409 0.025072223 0.032169074
-0.016150966 0.025033999 0.032266647
-0.01549757 0.02528551 0.032087177
-0.014748089 0.025399489 0.032114148
-0.013834236 0.025227137 0.032045484
-0.013039283 0.025263613 0.032033145
-0.012203635 0.025220845 0.032110661
-0.011426808 0.025302218 0.032322377
-0.010553044 0.025164953 0.031881034
-0.0096588992 0.024952156 0.031869769
-0.0089849746 0.025321295 0.031870395
-0.007994269 0.024782235 0.031870395
-0.0072680176 0.025034286 0.032079697
-0.0065682628 0.02545202 0.031945914
-0.0057772822 0.025585108 0.031963259
-0.0048431051 0.02502271 0.032054514
-0.0040649329 0.025202585 0.032267421
-0.0032554416 0.025229674 0.032009363
-0.0024547654 0.02536591 0.032127976
-0.0016111244 0.024972429 0.032315791
-0.00081329042 0.025212003 0.03232035
0 0.025291236 0.032061607
0.0008228349 0.025507882 0.032732487
0.0015970204 0.024753818 0.032747805
0.0024202964 0.025009731 0.032863826
0.0032240739 0.024986574 0.032732487
0.0040014088 0.024808737 0.03375718
0.0048325285 0.024968063 0.033609182
0.0057075019 0.025276082 0.03357023
0.0064510764 0.024997922 0.033620805
0.007338034 0.025275452 0.03347522
0.0080441041 0.024936724 0.033559352
0.0089548947 0.025236523 0.033602506
0.0097996332 0.025315719 0.033519626
0.010530137 0.025110327 0.033749938
0.011373221 0.02518356 0.03389591
0.012276535 0.025371507 0.034471899
0.012741877 0.024687387 0.034546196
0.013618431 0.02483361 0.034771949
0.014533826 0.025030481 0.034782827
0.015284122 0.024937252 0.034995735
0.016069604 0.024907887 0.035173386
0.016577711 0.024471859 0.03564328
0.017278006 0.024346285 0.035619169
0.018374942 0.024766227 0.035657287
0.019057462 0.024615889 0.035825104
0.019963799 0.024755111 0.036236823
0.020714909 0.024698546 0.036367655
0.021614563 0.02481672 0.036396623
0.022377329 0.024774902 0.036521763
0.023341246 0.024950987 0.03674978
0.023914373 0.024711519 0.036525249
0.025086423 0.025086423 0.037116349
0.025611375 0.02481102 0.037133455
0.026318455 0.024723399 0.037538081
0.026787028 0.024423467 0.037694782
0.027984478 0.024786253 0.037986428
0.028149953 0.02424024 0.038094878
0.029389041 0.024623251 0.037657052
0.030397153 0.024797678 0.03713727
0.030805038 0.024486057 0.036128461
0.032020364 0.024815783 0.034971625
0.032862291 0.024847098 0.031312168
-0.039892718 0.026052389 0.028108716
-0.038757049 0.025838032 0.03084898
-0.037920929 0.025818506 0.031229079
-0.03734412 0.025978519 0.03272146
-0.036735475 0.026123002 0.033363104
-0.036014006 0.026192004 0.034002602
-0.035035986 0.026073292 0.034099698
-0.03418697 0.026047215 0.033985853
-0.032461748 0.025335997 0.033997416
-0.032459304 0.025967445 0.033686429
-0.031679105 0.025993111 0.033762842
-0.03069938 0.025852108 0.033525527
-0.030167134 0.026090493 0.033579409
-0.029212384 0.025966564 0.033579409
-0.028421981 0.025985811 0.033371776
-0.027568435 0.025946762 0.033278346
-0.026963031 0.02614597 0.033252865
-0.025846811 0.025846811 0.033051252
-0.025545564 0.026369613 0.032935023
-0.024578879 0.026217472 0.03302604
-0.023892254 0.026363866 0.033002257
-0.022790618 0.026046421 0.03292346
-0.022153968 0.026256554 0.03302604
-0.021171361 0.026057059 0.032817334
-0.020471001 0.02620288 0.032720596
-0.019460015 0.025946688 0.033099264
-0.018629562 0.025919391 0.032981813
-0.017888822 0.026020106 0.032769918
-0.017039727 0.025965299 0.032955617
-0.016302004 0.026083209 0.032557696
-0.015416104 0.025963966 0.032927245
-0.014790022 0.026293373 0.032812774
-0.013966773 0.026290396 0.03269878
-0.012919158 0.025838315 0.032720536
-0.012222205 0.026074037 0.033227921
-0.011395659 0.026047222 0.033127129
-0.01049096 0.025823902 0.032784402
-0.0098487511 0.026263336 0.032696664
-0.0090246564 0.026253546 0.033067852
-0.0081282062 0.026010262 0.032817394
-0.0073732408 0.026215967 0.032914817
-0.0065465593 0.026186237 0.033165514
-0.0057165953 0.026133008 0.033192992
-0.0048596603 0.025918189 0.032680482
-0.0040835864 0.026134955 0.033094466
-0.0032139618 0.025711695 0.032771289
-0.0024316749 0.025937866 0.033017963
-0.0016328116 0.026124986 0.033330113
-0.00081598805 0.026111618 0.033339292
0 0.025854956 0.03388831
0.00080741785 0.025837371 0.033909976
0.0016095936 0.025753498 0.034109205
0.0024167229 0.025778379 0.034186214
0.0032273331 0.025818665 0.034164488
0.004040435 0.025858786 0.034179002
0.0048658596 0.025951251 0.034240335
0.0055945041 0.025574876 0.034247577
0.0064887069 0.025954828 0.034115165
0.0073519121 0.026140133 0.034046918
0.0080267331 0.025685547 0.03420642
0.0087994235 0.025598325 0.034219623
0.0096307648 0.025682041 0.034441888
0.01055493 0.025981367 0.034716487
0.011368446 0.025985019 0.034910083
0.011930658 0.025452072 0.035177916
0.012774371 0.025548741 0.035559922
0.013345294 0.025120553 0.035590708
0.014397648 0.02559582 0.035808772
0.015191161 0.025585113 0.036097765
0.016048254 0.02567721 0.036267966
0.016710864 0.025464175 0.036382735
0.017583065 0.025575368 0.036381096
0.018181549 0.025296068 0.036387682
0.019061027 0.025414705 0.036515385
0.020135833 0.025773864 0.037167519
0.020709297 0.025488365 0.037137479
0.021395853 0.025358047 0.037150681
0.022361087 0.025555527 0.036938936
0.023080025 0.025467612 0.037248015
0.023956997 0.02555413 0.03726843
0.024980096 0.025785904 0.037605554
0.025079027 0.025079027 0.038016587
0.02646327 0.025661355 0.038105696
0.026687102 0.025117273 0.038259476
0.027758637 0.025379326 0.039258152
0.028464857 0.025302097 0.03931883
0.029255696 0.025302222 0.039047897
0.030133726 0.025375769 0.038051575
0.030659864 0.025156811 0.037353158
0.031508535 0.025206828 0.035496384
0.032446872 0.025324387 0.032389581
0.03777197 0.028778642 0.0052000582
-0.04000302 0.02694081 0.028680801
-0.039001316 0.026813405 0.031325489
-0.037496381 0.026327245 0.032481372
-0.037170053 0.026665471 0.033275157
-0.03620366 0.026549349 0.034300119
-0.035517767 0.026638325 0.034940898
-0.034615885 0.02656568 0.035018563
-0.033715609 0.026490835 0.035018563
-0.033283133 0.026788861 0.034650534
-0.032508451 0.026819473 0.034338892
-0.031443961 0.026606429 0.034327596
-0.030925436 0.026856299 0.034088671
-0.030062584 0.026812572 0.034197867
-0.029287158 0.026846562 0.034196198
-0.028532827 0.026902379 0.033955961
-0.027723497 0.0269081 0.03402552
-0.026593875 0.026593875 0.03372702
-0.026060676 0.026875073 0.03372702
-0.025104685 0.02672434 0.03399539
-0.024490319 0.026939351 0.034381539
-0.023491971 0.026732242 0.034430653
-0.022750396 0.026812967 0.034410417
-0.021687865 0.026507389 0.034374684
-0.021070929 0.026743872 0.033974022
-0.020218214 0.026688041 0.033995837
-0.019575482 0.02691629 0.034043729
-0.018804425 0.026980262 0.033977211
-0.017773092 0.026659638 0.033911049
-0.017172661 0.02698561 0.033890098
-0.016422542 0.027097194 0.033802956
-0.0155168 0.026950229 0.033666402
-0.014565216 0.026702898 0.033615351
-0.013810169 0.026807975 0.033415258
-0.012949588 0.026708523 0.033506453
-0.012324495 0.02711389 0.033806354
-0.011316842 0.026675412 0.033692747
-0.010623866 0.026968272 0.033738643
-0.0098445797 0.027072594 0.033848405
-0.0089226048 0.026767813 0.033979058
-0.0080791814 0.026661301 0.033968389
-0.0072574764 0.026610749 0.033647954
-0.0064436533 0.026580069 0.033893138
-0.0056482414 0.026627423 0.034371704
-0.0048189419 0.026504179 0.034133047
-0.0040016421 0.026410837 0.034150958
-0.003242238 0.026748462 0.034399182
-0.0024787651 0.027266417 0.03435111
-0.0016119424 0.026597049 0.03494215
-0.00080081343 0.026426842 0.034846604
0 0.026444973 0.034730405
0.00079655956 0.026286464 0.034589946
0.001608418 0.026538895 0.034842193
0.0023939947 0.026333941 0.034875453
0.0032303275 0.026650202 0.034925282
0.0040308088 0.026603339 0.034875453
0.0048218579 0.026520219 0.034571707
0.0056350562 0.026565265 0.034708887
0.0065097571 0.026852747 0.034659803
0.0072274036 0.02650048 0.034654796
0.0080518443 0.026571086 0.034876823
0.0088731572 0.026619472 0.035020977
0.0096587092 0.02656145 0.035411298
0.010381462 0.026352942 0.035954475
0.011132337 0.026240509 0.036179036
0.012003859 0.026408488 0.036133766
0.012724191 0.026243644 0.036097765
0.013683215 0.026561534 0.036534876
0.014410047 0.02641842 0.037242591
0.015234237 0.026459463 0.037344187
0.015591035 0.025725206 0.0373905
0.016636137 0.026142498 0.037581891
0.017287182 0.025930773 0.03788054
0.018035561 0.025877107 0.038066119
0.019167842 0.026355783 0.038086444
0.019776974 0.026105603 0.038121134
0.020640492 0.026197547 0.03817749
0.021416113 0.026175248 0.038202912
0.022197042 0.026160799 0.038197875
0.023059571 0.0262402 0.038253576
0.023821294 0.026203424 0.038385004
0.024740303 0.02633645 0.038240314
0.025068186 0.025851566 0.038713932
0.026402006 0.026402006 0.039432555
0.026624111 0.025841048 0.039468944
0.027638659 0.026059307 0.039828509
0.028395973 0.026029643 0.039862514
0.029128937 0.02597986 0.039303154
0.029778261 0.025860067 0.039279103
0.030788191 0.026051546 0.038719743
0.031519167 0.026003314 0.03598851
0.032336291 0.02602677 0.033714265
0.036837898 0.02894406 0.0068900287
-0.039879575 0.027671542 0.030428767
-0.039146796 0.02772898 0.032409251
-0.037953824 0.027455956 0.033101469
-0.037154093 0.027461722 0.034525126
-0.036310345 0.027434481 0.035097867
-0.035191584 0.027193498 0.035568506
-0.034790605 0.027508851 0.035727262
-0.033888869 0.027433846 0.035652041
-0.033320889 0.027631957 0.035580575
-0.032598492 0.02770872 0.035164863
-0.031897373 0.027807968 0.034986645
-0.030930556 0.027674707 0.034945637
-0.030300381 0.027843593 0.034959048
-0.029549072 0.027907459 0.034925461
-0.028389242 0.027578121 0.034767866
-0.027884502 0.027884502 0.034727603
-0.026934078 0.027750263 0.034770072
-0.025892498 0.027510779 0.034680992
-0.024960537 0.027376071 0.034682959
-0.024150815 0.027370924 0.034693271
-0.023177816 0.02717399 0.034650952
-0.0226252 0.027473457 0.034770072
-0.021865053 0.02753377 0.034777045
-0.020667745 0.027027052 0.034634203
-0.020226156 0.027507572 0.034550577
-0.019450614 0.027555037 0.034529626
-0.018801926 0.027794151 0.034763634
-0.017705344 0.027362805 0.034442723
-0.017060798 0.027622243 0.034403145
-0.016108446 0.027384359 0.034403145
-0.015354455 0.027476393 0.03428331
-0.014434369 0.027264921 0.034364641
-0.013709269 0.027418539 0.034400135
-0.013038206 0.027706187 0.03432098
-0.012103365 0.027434295 0.034526825
-0.011389298 0.027659724 0.03463915
-0.010529296 0.02753816 0.034672409
-0.0096516004 0.027346201 0.034814864
-0.0089180786 0.027564973 0.034799904
-0.0079797162 0.027131036 0.03462857
-0.0072581545 0.027419696 0.034520119
-0.0065224967 0.02772061 0.034679085
-0.0055756285 0.027081626 0.03482914
-0.0048310617 0.027376018 0.034875244
-0.0040652072 0.02764341 0.035038859
-0.0032352456 0.027499586 0.035238475
-0.0024062556 0.027270898 0.035346359
-0.0016267964 0.027655538 0.035812944
-0.00080010016 0.027203405 0.035691768
0 0.027302643 0.03568238
0.00079700159 0.027098054 0.035136878
0.0015902214 0.027033765 0.035273701
0.0024146398 0.027365917 0.035193324
0.0032060838 0.027251713 0.035229266
0.004040299 0.027474035 0.035037696
0.0048263236 0.027349168 0.03516382
0.005705324 0.027711574 0.035193324
0.006375738 0.027096888 0.035371631
0.0072526881 0.027399044 0.035447538
0.0080726454 0.027446995 0.035771221
0.0088065118 0.027220128 0.036259502
0.0095379157 0.027024094 0.036311984
0.010297996 0.026933221 0.036369443
0.011159779 0.02710232 0.036887586
0.012081509 0.027384752 0.036687523
0.012716694 0.027022975 0.037475109
0.013532809 0.027065618 0.037645876
0.0143131 0.027035857 0.037520111
0.01485863 0.026589127 0.037710309
0.016092669 0.027357539 0.037928104
0.016579172 0.026842467 0.038043171
0.017390369 0.026876025 0.038666606
0.018076468 0.026721735 0.03907907
0.018968826 0.026872505 0.03907907
0.019835033 0.026975645 0.039264858
0.020645676 0.026998192 0.039318413
0.021230003 0.026734078 0.039313942
0.021985408 0.026696566 0.038856179
0.023153214 0.027145145 0.038980991
0.023640061 0.026792068 0.039405107
0.024374641 0.026733479 0.039851576
0.025283946 0.026864193 0.040212482
0.026208721 0.027002925 0.04028675
0.02707351 0.02707351 0.040649891
0.027510088 0.026724085 0.04070285
0.027791029 0.026247084 0.040634215
0.029225901 0.026856232 0.039997369
0.029553769 0.026442846 0.039589912
0.030189892 0.026319394 0.039303154
0.031580396 0.026843337 0.038579881
0.031715062 0.026300294 0.035031706
0.035683177 0.028886382 0.015571713
-0.039407309 0.028148077 0.031301349
-0.038672425 0.028198643 0.033348113
-0.037945811 0.028257517 0.034757942
-0.036752049 0.027963514 0.035351127
-0.036283653 0.028220616 0.035761982
-0.035463113 0.028209293 0.036145389
-0.034881935 0.02839227 0.036148578
-0.034008566 0.02834047 0.036138684
-0.033125535 0.028277893 0.035908878
-0.03251905 0.02845417 0.03588149
-0.031244546 0.028039977 0.03580299
-0.03055172 0.028139742 0.035941392
-0.029958248 0.028338883 0.03565976
-0.029072344 0.02826478 0.035633951
-0.028222242 0.028222242 0.035621524
-0.027627509 0.028440082 0.035730332
-0.026482843 0.028087864 0.035541207
-0.025846301 0.028269392 0.035609484
-0.024919553 0.028134977 0.035507709
-0.023982123 0.027979141 0.035485327
-0.023331011 0.028158115 0.035419524
-0.022367572 0.027959464 0.035404265
-0.021713121 0.028146638 0.035296112
-0.020965938 0.028223377 0.035419613
-0.020388564 0.02854399 0.035263211
-0.019511953 0.028454933 0.035157084
-0.018684937 0.028433597 0.035127997
-0.017721582 0.028193425 0.035053581
-0.016906841 0.028178066 0.035033345
-0.01618145 0.028317537 0.035039037
-0.015227824 0.028051253 0.03500089
-0.014517577 0.028228622 0.035113871
-0.013888955 0.028594907 0.035198003
-0.012768359 0.027930785 0.035094291
-0.012100779 0.028235152 0.035091996
-0.011350319 0.028375797 0.03484571
-0.010273696 0.027659949 0.034858286
-0.0096786804 0.028229486 0.034690231
-0.008861402 0.02819537 0.034853041
-0.007900889 0.027653111 0.034903198
-0.0072921282 0.028358277 0.034913599
-0.0064501674 0.028219482 0.035009265
-0.0056569129 0.028284565 0.035084307
-0.0049003614 0.028585441 0.035291225
-0.0040039024 0.028027317 0.035750031
-0.0032202185 0.028176911 0.035909086
-0.00242451 0.02828595 0.036249071
-0.0016039733 0.028069533 0.036405951
-0.00079294347 0.027753022 0.036344826
0 0.028101774 0.035929114
0.000794705 0.027814675 0.035648465
0.0015947405 0.02790796 0.035656422
0.0024097497 0.028113747 0.035641164
0.003154133 0.027598662 0.035671324
0.0040114946 0.028080463 0.035640478
0.0048413253 0.028241064 0.035911083
0.0055289459 0.027644729 0.035912812
0.006404011 0.028017549 0.036040962
0.007326561 0.028492182 0.036309987
0.0078796344 0.027578723 0.036316991
0.0087385029 0.027804328 0.036856979
0.0095577342 0.027876725 0.037272811
0.010292638 0.027710948 0.037850738
0.011287427 0.028218566 0.038145155
0.012052523 0.028122554 0.037889212
0.012637259 0.027644001 0.037872165
0.013575314 0.027949173 0.038186133
0.014292565 0.0277911 0.039183617
0.015127526 0.027866494 0.039256573
0.016058899 0.028103074 0.039383799
0.016466081 0.027443467 0.03945908
0.017470723 0.027794331 0.039617896
0.017993107 0.027380815 0.039664984
0.019172881 0.027960451 0.03970626
0.019786851 0.02770159 0.040334016
0.020425359 0.027495675 0.040422469
0.021191116 0.027469963 0.040467888
0.022053681 0.027567102 0.040380865
0.023058679 0.027829438 0.040504873
0.0235478 0.027472433 0.0404419
0.024703642 0.027891209 0.040801972
0.024730215 0.027048673 0.040875077
0.026165191 0.027750961 0.041053295
0.026931936 0.02772405 0.041418403
0.027529659 0.027529659 0.041434258
0.028203309 0.027419884 0.041551977
0.028642287 0.027094055 0.04090479
0.029630229 0.027290998 0.040297389
0.030079743 0.02699464 0.039924443
0.031476993 0.027542368 0.039292246
0.031634018 0.027004648 0.037387282
0.035439651 0.029533042 0.017840445
-0.039640978 0.029123982 0.031796515
-0.038198024 0.028648518 0.034384549
-0.037072908 0.028396267 0.035628557
-0.037018832 0.028971257 0.035779327
-0.035757031 0.028605623 0.036389798
-0.035450086 0.029004615 0.036583334
-0.034651037 0.029010171 0.036449879
-0.033153858 0.028417591 0.036458433
-0.032925107 0.028909847 0.03637436
-0.03190523 0.028714709 0.036324769
-0.031254236 0.028850064 0.036324769
-0.030671416 0.029057128 0.036403269
-0.029743621 0.028939737 0.03638351
-0.029015914 0.029015914 0.036309987
-0.028072083 0.028874142 0.036311686
-0.027395152 0.029006628 0.036149621
-0.026423123 0.028825223 0.036114693
-0.025877452 0.029112132 0.036318511
-0.024846528 0.028854029 0.036193699
-0.024105867 0.028927039 0.036004335
-0.023498049 0.02916999 0.036017954
-0.022313477 0.028688755 0.036176622
-0.021811433 0.029081909 0.035964638
-0.021038551 0.029130301 0.0358468
-0.020202257 0.029091248 0.035816669
-0.019440748 0.02916112 0.035735458
-0.018249933 0.028565111 0.035715044
-0.01766433 0.028905267 0.035677284
-0.016908223 0.028985525 0.035677284
-0.016173044 0.02911148 0.035499841
-0.015393908 0.029167404 0.035549164
-0.014590831 0.029181663 0.035516709
-0.013689919 0.028990416 0.03558442
-0.012833518 0.028875412 0.035531223
-0.012134532 0.029122876 0.035739601
-0.011058923 0.028437229 0.035813779
-0.010511316 0.02910826 0.035553277
-0.0096015232 0.028804567 0.035470486
-0.0088020228 0.028806621 0.0357683
-0.0079987179 0.028795384 0.03585428
-0.0072632022 0.029052809 0.036524236
-0.0065279249 0.029375659 0.036621571
-0.0055787349 0.028690634 0.036672503
-0.004796539 0.028779233 0.036601931
-0.004004539 0.028832681 0.036575168
-0.0031677703 0.028509932 0.036797762
-0.0024013852 0.028816622 0.036758572
-0.0015962113 0.028731804 0.037012577
-0.00080448977 0.028961631 0.036366493
0 0.028404217 0.036087275
0.00080479344 0.028972562 0.036111355
0.0016051993 0.028893586 0.03646338
0.0023913649 0.028696379 0.036708295
0.00324793 0.029231368 0.036776096
0.0040063607 0.028845796 0.036761433
0.0047509964 0.028505977 0.036848456
0.0056016874 0.028808678 0.036795884
0.00643369 0.028951604 0.036950052
0.0071063759 0.028425504 0.037654132
0.0080023604 0.028808497 0.037742555
0.0087238932 0.028550923 0.037954956
0.0094347112 0.028304132 0.037971079
0.01042215 0.028861338 0.038189292
0.011052974 0.028421933 0.03836599
0.011809549 0.028342916 0.038722306
0.012725745 0.028632926 0.038980275
0.013317552 0.028201874 0.03964895
0.014204247 0.028408494 0.039735258
0.014983589 0.028389957 0.039759755
0.015691442 0.028244596 0.039807111
0.016552892 0.028376384 0.040133864
0.017218752 0.02817614 0.040662408
0.018163472 0.02842978 0.040565729
0.018988265 0.028482398 0.04063639
0.01959613 0.028218424 0.040767342
0.020340523 0.0281638 0.040944338
0.021418788 0.028558383 0.041095167
0.02197082 0.028248196 0.040951282
0.023007957 0.028561601 0.041176975
0.023644391 0.028373268 0.041101009
0.024352863 0.028280741 0.041214347
0.025292411 0.028453961 0.041671664
0.025989693 0.028352393 0.041681379
0.026541304 0.028102554 0.041907012
0.027508823 0.028294789 0.042031497
0.027918424 0.027918424 0.042227715
0.028917968 0.028136399 0.041982323
0.029159673 0.027624952 0.041546851
0.030224057 0.027899129 0.040422231
0.031073701 0.02796633 0.039402425
0.032335568 0.028392201 0.038789719
0.035322849 0.030276725 0.018896639
-0.039091703 0.029518226 0.033541709
-0.038215555 0.029457824 0.035680205
-0.037693851 0.029673884 0.035967529
-0.036658164 0.029485915 0.036207229
-0.03598256 0.02958566 0.036828727
-0.03489244 0.029341372 0.037304819
-0.034279857 0.029496621 0.036939502
-0.033610575 0.029609317 0.036924809
-0.03304651 0.029822461 0.036880374
-0.031927086 0.029532559 0.036884487
-0.031421639 0.029810274 0.036874652
-0.030448625 0.029647347 0.036906898
-0.029886831 0.029886831 0.036982089
-0.029235817 0.030047927 0.036982089
-0.028288074 0.029904537 0.036920458
-0.02733757 0.02974971 0.036694795
-0.026527015 0.029742412 0.036491662
-0.026131168 0.030214164 0.036534518
-0.024921635 0.029745176 0.03647995
-0.024618128 0.03036236 0.036372721
-0.02306249 0.029424557 0.036413431
-0.022264363 0.029420765 0.036485016
-0.021629872 0.029640935 0.036382258
-0.020613199 0.029334169 0.036486506
-0.020152254 0.029825335 0.03653416
-0.019084351 0.029421711 0.036750108
-0.01855254 0.02984539 0.036804557
-0.017740373 0.029836083 0.036475241
-0.016929876 0.02982883 0.03653416
-0.016200928 0.029971719 0.036025047
-0.01524524 0.029688099 0.036688
-0.014385554 0.029570308 0.036554128
-0.013636298 0.029679002 0.036550611
-0.012843237 0.029699987 0.036679149
-0.012026219 0.029664675 0.036698878
-0.011208488 0.029622432 0.036759406
-0.010414273 0.029640626 0.036503434
-0.0095542017 0.029458789 0.03691256
-0.0088694673 0.029833663 0.036962062
-0.0080430396 0.029759249 0.036840022
-0.0071872622 0.029547635 0.036726892
-0.006476914 0.029955728 0.037012577
-0.005547727 0.029323701 0.037094831
-0.0047422727 0.029244017 0.037107527
-0.0039729741 0.02940001 0.037153512
-0.0032039676 0.029636702 0.037632763
-0.002392099 0.029502558 0.037405401
-0.0016067793 0.029725417 0.03748554
-0.00079113233 0.029271897 0.037331372
0 0.029346121 0.037233621
0.0007965361 0.029471837 0.037149638
0.0016001005 0.029601861 0.037087321
0.0024013885 0.029617125 0.03731215
0.0032095532 0.029688368 0.037445277
0.0039386717 0.029146174 0.037472636
0.0047881687 0.029527042 0.037934124
0.0055681244 0.029431514 0.038130224
0.0062914016 0.029097732 0.038746089
0.0072353375 0.029745279 0.038842529
0.0078524491 0.029054064 0.039184391
0.00880404 0.02961359 0.039231181
0.0095804194 0.029539628 0.039078265
0.010336172 0.029418336 0.039374948
0.011041983 0.029182384 0.039512813
0.011824174 0.029166296 0.039738238
0.01259474 0.029125338 0.04002437
0.013513577 0.029411905 0.04019928
0.014302578 0.029399747 0.040224135
0.014881106 0.028978998 0.040543109
0.015788568 0.029208852 0.040587038
0.016457479 0.02899651 0.040953457
0.017221538 0.028963497 0.041097879
0.018033899 0.029011056 0.041088939
0.018783251 0.028957512 0.041336298
0.019731089 0.029202012 0.041365921
0.020268202 0.028843211 0.041421324
0.020947803 0.028706249 0.041545153
0.022383077 0.029577639 0.04145962
0.022412693 0.028595505 0.04181844
0.023417465 0.028881542 0.041808665
0.02428358 0.028983628 0.041970462
0.025156962 0.029087737 0.042252719
0.025728248 0.028846826 0.042466372
0.026255587 0.028572258 0.042576641
0.02722743 0.028783284 0.042718828
0.027616082 0.028383197 0.043307453
0.028909244 0.028909244 0.042699635
0.029571183 0.028792994 0.041957289
0.030040519 0.028499981 0.041803867
0.031368829 0.029016169 0.040122896
0.031808257 0.028705012 0.039113581
0.034901537 0.030746592 0.022628397
-0.039451823 0.030595291 0.034687877
-0.038956124 0.030840266 0.03613013
-0.038376637 0.031027919 0.036509693
-0.036605369 0.030239217 0.036817074
-0.03644665 0.030777169 0.037729859
-0.034847263 0.030095365 0.037887841
-0.034635331 0.030607969 0.037669778
-0.033701744 0.030492054 0.037542492
-0.032850742 0.030447029 0.037520945
-0.032202434 0.030592313 0.03745234
-0.031546362 0.030737482 0.037390381
-0.030526582 0.030526582 0.037397325
-0.029747991 0.030551989 0.037420154
-0.028715409 0.030310711 0.037187904
-0.0279937 0.030393159 0.037287712
-0.027419699 0.030645546 0.036985844
-0.026387131 0.030385183 0.037133336
-0.025435796 0.030205008 0.037382483
-0.024596926 0.030151069 0.037419677
-0.023947781 0.030333856 0.037262142
-0.023350378 0.030597048 0.037380397
-0.022403335 0.030404525 0.037418336
-0.021512035 0.030276196 0.037404448
-0.020789551 0.030384729 0.03732124
-0.020212719 0.030723333 0.037474573
-0.019245721 0.030472394 0.037474573
-0.018446492 0.030476812 0.037561804
-0.017496241 0.030220781 0.037341118
-0.017188193 0.031102447 0.037123084
-0.016120782 0.030629488 0.037076563
-0.015094245 0.03018849 0.03713122
-0.014332007 0.030256461 0.037281871
-0.013699122 0.030621566 0.037296414
-0.012778149 0.030348103 0.037340015
-0.012043445 0.03051006 0.037519604
-0.011193996 0.030383704 0.03757593
-0.010448925 0.030543014 0.037577391
-0.0096036782 0.030411649 0.037525952
-0.0087512685 0.030231655 0.037450969
-0.0079046339 0.03003761 0.037852168
-0.0072505889 0.030613599 0.037740946
-0.0064409375 0.030594453 0.037777007
-0.0055702301 0.030238392 0.037674665
-0.0047655711 0.03018195 0.037678242
-0.0039383643 0.029931569 0.037678242
-0.0032027378 0.03042601 0.037917584
-0.0023919076 0.030297497 0.037740946
-0.0015889237 0.030189551 0.037869722
-0.00080199633 0.030475862 0.038089007
0 0.030448277 0.038024962
0.00080132863 0.030450489 0.037862539
0.0015779975 0.029981952 0.037932485
0.0023767932 0.030106047 0.038467169
0.0031323265 0.029757103 0.038585871
0.0039392742 0.029938487 0.038993835
0.004727697 0.02994208 0.038933277
0.0055111758 0.029917812 0.039123982
0.0062991651 0.029921034 0.039347887
0.0071036657 0.029993257 0.039588958
0.007982309 0.030332774 0.039834619
0.0087105529 0.030091001 0.03978768
0.0094981045 0.030077331 0.039729506
0.010233606 0.029913617 0.039784491
0.011145585 0.030252304 0.040055454
0.011902411 0.030152773 0.040258944
0.012603465 0.029933229 0.040350944
0.013463018 0.030093804 0.040757537
0.013875741 0.029293232 0.041298479
0.014858073 0.029716145 0.041477591
0.015767934 0.029959075 0.04135114
0.016291993 0.02948075 0.041614354
0.01722955 0.029760133 0.04169324
0.018121719 0.029940233 0.041624069
0.018648019 0.029526033 0.041616559
0.019659881 0.029883018 0.041818172
0.020469831 0.029917447 0.041840136
0.021201331 0.02983891 0.041903645
0.021865845 0.029675076 0.042159617
0.022530422 0.029522622 0.042547405
0.023495592 0.029761083 0.042546123
0.02427797 0.029760092 0.042848229
0.025027227 0.029719831 0.042859435
0.025784204 0.029690901 0.042857587
0.026566239 0.029691679 0.043642998
0.027193638 0.029524522 0.043642998
0.028179975 0.02974553 0.044260025
0.028824305 0.02960334 0.043889761
0.028857069 0.028857069 0.043167531
0.030229181 0.029454075 0.042525262
0.031264964 0.029701719 0.041601151
0.031815801 0.029487817 0.039464444
0.034368627 0.031095423 0.027451456
-0.039005682 0.03104534 0.035683274
-0.037732136 0.030657358 0.03655535
-0.037339225 0.03098361 0.037047267
-0.036460858 0.030912464 0.037678689
-0.03569172 0.030932821 0.038409919
-0.034770038 0.030818898 0.038778394
-0.034429971 0.031227183 0.038444668
-0.033298321 0.03091987 0.038188905
-0.032687046 0.031092556 0.03814587
-0.031716548 0.030923633 0.037834972
-0.031114873 0.031114873 0.037834972
-0.030546922 0.031350788 0.037973225
-0.029613506 0.031214233 0.038133323
-0.028834833 0.031237736 0.038044184
-0.027860111 0.031044124 0.037913889
-0.027176764 0.031173347 0.037648052
-0.026309026 0.031092487 0.037868828
-0.025271028 0.030799067 0.037920862
-0.024816189 0.031220363 0.037701309
-0.024021989 0.031228585 0.037658662
-0.022993764 0.030922648 0.037738442
-0.022282749 0.031036688 0.03830725
-0.021624641 0.031235592 0.038405836
-0.020896411 0.031344619 0.038393676
-0.02008375 0.031330649 0.038591981
-0.019363277 0.031465326 0.038814217
-0.018288819 0.031011475 0.038872272
-0.017616065 0.031228479 0.038591981
-0.016820112 0.031237351 0.038550407
-0.015806613 0.030822895 0.038300008
-0.015082592 0.030959003 0.038497388
-0.014346058 0.031083127 0.038436025
-0.013579383 0.031152701 0.038292587
-0.012832351 0.031278856 0.038596272
-0.012074238 0.031393018 0.038373441
-0.011261807 0.031372178 0.038243532
-0.010335254 0.031005764 0.038269341
-0.0094958413 0.030861486 0.038181365
-0.0086951302 0.030828191 0.038109004
-0.0078608897 0.03065747 0.038498998
-0.0071740523 0.031087561 0.038224071
-0.0063059162 0.030741341 0.038116485
-0.0055744248 0.031057509 0.038299888
-0.0047968384 0.03117945 0.038172245
-0.0039704978 0.030969882 0.03835535
-0.0031803704 0.031008611 0.038524568
-0.0024106356 0.031338263 0.038415253
-0.0015793206 0.030796751 0.03849569
-0.00079664675 0.031069223 0.03880173
0 0.031140322 0.038637102
0.00079391582 0.030962715 0.0388982
0.0015959488 0.031121003 0.038989872
0.0023785934 0.030921714 0.039215058
0.0031726027 0.030932877 0.039354175
0.0039177029 0.030558085 0.03973785
0.004704725 0.030580711 0.039702117
0.0055752737 0.03106224 0.039950788
0.0063432925 0.030923551 0.040008962
0.0072352104 0.03135258 0.040296793
0.007826915 0.030524969 0.040494561
0.0087031387 0.030856583 0.040494561
0.0094536217 0.03072427 0.040390015
0.010277692 0.030833077 0.040446103
0.011044434 0.030766638 0.040400088
0.011809519 0.030704752 0.041128486
0.012524786 0.030529166 0.041586876
0.013299013 0.0305095 0.041805297
0.014121252 0.030596048 0.041844577
0.014938618 0.030663479 0.041864485
0.0156272 0.03047304 0.041585892
0.016518481 0.030677177 0.041635364
0.017124137 0.030356426 0.041793764
0.018037982 0.030586142 0.041832954
0.018921288 0.030747093 0.042080045
0.019550728 0.030499132 0.042276978
0.020258702 0.030388052 0.042451411
0.021057336 0.030416152 0.042723745
0.0217064 0.030233914 0.042825669
0.022504013 0.030264016 0.042949736
0.023375642 0.030388333 0.042982787
0.023810785 0.029955503 0.043705225
0.024936121 0.030390896 0.043843836
0.02545874 0.030087603 0.044180691
0.025832111 0.029630952 0.04418087
0.02738188 0.030511238 0.044513434
0.027923068 0.030249991 0.044588029
0.028486567 0.03002638 0.044423074
0.029614786 0.030394122 0.043976933
0.029981755 0.029981755 0.043622762
0.030651275 0.029884994 0.042745233
0.031563237 0.030023564 0.041603535
0.033371843 0.030988138 0.0365448
-0.039078917 0.031901158 0.035891145
-0.038599245 0.032166034 0.036688328
-0.037409522 0.031837892 0.037711889
-0.036765389 0.031969901 0.0381715
-0.036375005 0.032333337 0.03924197
-0.035268504 0.032062277 0.03932339
-0.034138888 0.031757101 0.039214343
-0.033305477 0.031719502 0.03912732
