ply
format ascii 1.0
comment PCL generated
element vertex 321
property float x
property float y
property float z
element camera 1
property float view_px
property float view_py
property float view_pz
property float x_axisx
property float x_axisy
property float x_axisz
property float y_axisx
property float y_axisy
property float y_axisz
property float z_axisx
property float z_axisy
property float z_axisz
property float focal
property float scalex
property float scaley
property float centerx
property float centery
property int viewportx
property int viewporty
property float k1
property float k2
end_header
-0.0058077574 0.089605398 0.013241112
-0.0049570762 0.089227378 0.015002191
-0.0041634035 0.089929529 0.015066594
-0.003359772 0.090713844 0.015093893
-0.0024879158 0.089564972 0.015034914
-0.0016658166 0.089954101 0.010809094
-0.00085016375 0.091817684 0.0055080056
-0.0083450256 0.090960786 0.012916565
-0.0073669553 0.089222021 0.014675945
-0.0066861305 0.091098532 0.016780376
-0.0058423844 0.090974271 0.017485172
-0.0049906527 0.09066353 0.017709434
-0.0042207781 0.092012964 0.017926008
-0.0033223541 0.090534151 0.017999858
-0.0024831684 0.090221785 0.018012851
-0.0016737069 0.091217034 0.017941982
-0.00082391809 0.089807071 0.017527878
0 0.088364519 0.014587909
0.00083950808 0.091506384 0.0098229349
-0.010050107 0.092125975 0.014512539
-0.0091724824 0.091724828 0.016599864
-0.0081134299 0.089247741 0.017509133
-0.0074273366 0.090778559 0.017885149
-0.0067213783 0.092418946 0.018378913
-0.0058139772 0.091362506 0.018767536
-0.0049931207 0.091540553 0.018957078
-0.0041478393 0.091252476 0.019349754
-0.0033011916 0.090782769 0.019430667
-0.0024800007 0.090933368 0.019381672
-0.0016490072 0.090695396 0.019749969
-0.00082415802 0.090657383 0.019550264
0 0.091013342 0.019364178
0.00081281102 0.08940921 0.019103646
0.0016561799 0.091089897 0.017718047
0.0025554891 0.093701266 0.0097204745
-0.011922191 0.094525948 0.010016143
-0.010637837 0.090830766 0.016780376
-0.0098378723 0.091000319 0.018378586
-0.0089605032 0.090419628 0.018593282
-0.0082809199 0.091918215 0.019344956
-0.0074024852 0.091297321 0.019358546
-0.0065474147 0.090845376 0.019463092
-0.0057543223 0.091247112 0.01952073
-0.0049084923 0.09080711 0.019665152
-0.0041231471 0.091533877 0.019843131
-0.0033178751 0.092071034 0.019916981
-0.0024955072 0.092333771 0.019903094
-0.0016284429 0.090378582 0.019992739
-0.00082662585 0.091755472 0.0199323
0 0.090633988 0.019870281
0.00082010409 0.091031551 0.019864976
0.0016414863 0.091102496 0.019776523
0.0024572585 0.090918571 0.019628376
0.0032520725 0.090245008 0.019006044
0.0042700251 0.094794556 0.0094668865
-0.013681793 0.09577255 0.0089552402
-0.012291797 0.091778755 0.018804133
-0.011460163 0.091681302 0.020348489
-0.010679796 0.092010558 0.020348489
-0.0098160235 0.091616221 0.020346552
-0.0090418803 0.092062779 0.020729244
-0.0081499517 0.091279455 0.020787776
-0.0073829084 0.091876194 0.020477891
-0.0066629448 0.093281224 0.020296395
-0.0057945764 0.092713222 0.02019161
-0.0049338536 0.092098601 0.020445377
-0.0041060979 0.09197659 0.020253032
-0.0032746303 0.091689654 0.02044037
-0.0024725802 0.092309661 0.020584196
-0.0016387813 0.091771752 0.02063176
-0.0008246823 0.092364416 0.020477861
0 0.091371663 0.020369321
0.00082750077 0.092680082 0.020417899
0.0016071917 0.090002738 0.020564407
0.0024570795 0.091730967 0.020579427
0.0032344696 0.090565145 0.020332336
0.0040990524 0.091818772 0.019141048
0.0049408991 0.092230119 0.018459797
0.0059770443 0.09563271 0.0091457665
-0.014084523 0.093620643 0.018470645
-0.013049011 0.092158638 0.019873261
-0.012221349 0.092067502 0.020666361
-0.011517568 0.092963226 0.021378994
-0.01065226 0.092592724 0.021378994
-0.0098307505 0.092572898 0.021378994
-0.0089288848 0.091723993 0.021312296
-0.0080372943 0.090821423 0.021421731
-0.0074155889 0.093106844 0.02110669
-0.0066440566 0.093847297 0.020767719
-0.0057505551 0.09283039 0.020491481
-0.0049214875 0.092688017 0.020710051
-0.0041107582 0.092903137 0.020710051
-0.00331451 0.093634903 0.020736426
-0.0024817081 0.093477666 0.020765215
-0.0016407652 0.092703231 0.020916849
-0.00081716239 0.092339352 0.020727038
0 0.092094272 0.020685256
0.00080824323 0.091331482 0.020650923
0.0016449901 0.092941932 0.020701408
0.0024811798 0.093457773 0.020839095
0.0032621706 0.092156321 0.020780295
0.0040482692 0.091490887 0.020764709
0.0049489466 0.093205161 0.019956589
0.0056482917 0.091179565 0.019507825
0.006631854 0.093674935 0.0176512
0.0076621599 0.096202672 0.0085346401
-0.015798064 0.09478838 0.018996745
-0.014797346 0.093716525 0.020369262
-0.013961744 0.093625806 0.020998627
-0.013115464 0.093447678 0.021660954
-0.012374204 0.09404394 0.021702409
-0.011512479 0.093744472 0.021786124
-0.010558413 0.092589162 0.021728843
-0.0098348549 0.093431123 0.021656722
-0.009008145 0.093357138 0.021477342
-0.0080994396 0.092333607 0.021568865
-0.0073125828 0.092626058 0.021501541
-0.006589042 0.093893848 0.020934314
-0.0058255838 0.094873793 0.020972878
-0.0048697088 0.092524469 0.020804286
-0.0040995581 0.093469925 0.020804286
-0.0032870031 0.093679585 0.020861924
-0.002454923 0.093287073 0.020998716
-0.0016510645 0.094110668 0.020877451
-0.00082401483 0.093937688 0.020766318
0 0.093155801 0.020743132
0.00081668474 0.09310206 0.020772845
0.0016333553 0.093101248 0.020827025
0.0024637189 0.093621321 0.02130273
0.0032862995 0.093659535 0.021422535
0.0041235993 0.094018057 0.021390498
0.0049340897 0.093747705 0.021252126
0.0057816682 0.094158597 0.021025419
0.0064853844 0.092416726 0.020024151
0.0073447698 0.093033753 0.019633293
0.0083233817 0.094886556 0.017054409
0.0093756923 0.09716627 0.0085346401
-0.016500803 0.09487962 0.018982619
-0.015678637 0.094897002 0.020514429
-0.014716973 0.094025105 0.021300852
-0.013991347 0.09464734 0.02184549
-0.013166768 0.094636142 0.021930456
-0.012338798 0.094597459 0.022073299
-0.011494217 0.094416775 0.022095442
-0.010548392 0.093312703 0.02207014
-0.0098058628 0.093972854 0.022050202
-0.0089667514 0.093743309 0.02183637
-0.0081766918 0.094031952 0.021641105
-0.0073715532 0.094192073 0.021601021
-0.0066887443 0.096150696 0.021462828
-0.0057081203 0.093776256 0.021102548
-0.0049311793 0.094514273 0.020989418
-0.0041273185 0.094928324 0.020985276
-0.0033113169 0.095200352 0.021067232
-0.0024601561 0.094305985 0.021194816
-0.0016230163 0.093323432 0.021004945
-0.00082036405 0.094341867 0.020976007
0 0.094665609 0.020965785
0.00082030549 0.094335124 0.021139085
0.0016337989 0.093943432 0.02130273
0.0024573433 0.09419816 0.021980643
0.0032571713 0.093643665 0.021591604
0.0040382505 0.092879765 0.021553218
0.0049209842 0.094318859 0.021428496
0.005771284 0.09481395 0.021339595
0.0065739062 0.094499901 0.021048933
0.0072972053 0.093242064 0.020826876
0.0081192777 0.093371697 0.019882053
0.0089841494 0.0939252 0.017054409
-0.017308604 0.095609426 0.018867344
-0.016392734 0.095077865 0.020579845
-0.015603745 0.095264979 0.021520764
-0.014763005 0.095139369 0.022231847
-0.013914402 0.094945334 0.022388309
-0.013011946 0.094336614 0.022398859
-0.012444715 0.096239127 0.022452027
-0.011444778 0.094828166 0.022466063
-0.010567245 0.094292343 0.022480041
-0.0097691314 0.094434947 0.022354662
-0.0090631731 0.09557528 0.022293538
-0.0080810878 0.09374062 0.022000134
-0.0074693989 0.09627226 0.021816313
-0.0065620341 0.095149495 0.021494985
-0.0057034995 0.094515137 0.021604061
-0.0049661915 0.096013039 0.021143258
-0.004142723 0.096111178 0.021283507
-0.0033353462 0.096725047 0.021313429
-0.0024771402 0.095782757 0.021512955
-0.0016646857 0.096551768 0.021412104
-0.00082052039 0.09518037 0.021431506
0 0.0961385 0.021558791
0.00081565965 0.094616517 0.021789491
0.0016259175 0.094303221 0.021976888
0.0024729238 0.095619723 0.022081792
0.0032461006 0.094136924 0.02170825
0.004081822 0.09469828 0.021820068
0.0049233278 0.095184349 0.021941364
0.0057157953 0.094718903 0.021968544
0.006535803 0.09476915 0.021476626
0.0073292321 0.094465666 0.021651566
0.0081431456 0.094460502 0.021116495
0.0088983178 0.093836807 0.020202041
0.0098133869 0.094862744 0.0172562
0.010549744 0.094136178 0.0065154135
-0.018065734 0.096076861 0.012165457
-0.017101856 0.095281772 0.020762652
-0.016524395 0.096667714 0.021652341
-0.015511098 0.095515713 0.022390515
-0.014792059 0.096148387 0.022607535
-0.014049221 0.096691698 0.022836179
-0.013017264 0.095188744 0.022564769
-0.012267937 0.095689908 0.022774488
-0.011390433 0.095191471 0.022706509
-0.010544954 0.094904587 0.022528559
-0.0098025948 0.095575303 0.022669941
-0.0089727929 0.095437892 0.022333801
-0.0081809796 0.095717467 0.022043258
-0.0074754474 0.097180821 0.021826386
-0.0066601471 0.097404651 0.021641105
-0.0058573717 0.097901791 0.021635205
-0.0049421452 0.096371837 0.021118999
-0.0041223881 0.096463889 0.021172136
-0.0033258519 0.097281173 0.021247447
-0.0025019883 0.09757755 0.021368116
-0.0016566629 0.096914783 0.021176934
-0.0008322011 0.097367533 0.021157831
0 0.097025454 0.021421432
0.00083577109 0.09778522 0.021719158
0.001633605 0.095565893 0.021976888
0.0024614327 0.095995881 0.022081792
0.0033104024 0.096829273 0.021731675
0.0040761577 0.095382094 0.022133678
0.0048554223 0.094680741 0.022110015
0.0056849276 0.095019512 0.022111624
0.006549675 0.095789 0.02169013
0.0072721839 0.094538398 0.021715939
0.0081657683 0.095539503 0.021723837
0.0089335367 0.095020354 0.021466017
0.0097815357 0.09536998 0.020847976
0.010654457 0.095890112 0.016630381
0.011477233 0.095916882 0.0053427815
-0.01899262 0.097440392 0.010106951
-0.018012444 0.0966122 0.020952821
-0.017140619 0.096313961 0.021962047
-0.016554143 0.097669452 0.022343367
-0.015588332 0.096811742 0.022702605
-0.014751581 0.096704811 0.022869885
-0.014133122 0.098100491 0.022870332
-0.012973883 0.09568239 0.022735089
-0.012235986 0.096256427 0.022954673
-0.011357376 0.09572646 0.022766858
-0.01077265 0.097782515 0.022708744
-0.0098366654 0.096727207 0.02262789
-0.0091924611 0.098610044 0.02239415
-0.0082637398 0.097512133 0.022157848
-0.0073677828 0.096599825 0.021826386
-0.0065770596 0.097011633 0.021674156
-0.005724885 0.096505202 0.021314502
-0.0049882783 0.098102808 0.021025419
-0.0041146316 0.097105317 0.021017641
-0.0033013818 0.097390763 0.021066725
-0.0024790687 0.09751004 0.021187395
-0.0016632631 0.098132521 0.020968437
-0.00083105388 0.098064356 0.020965785
0 0.097139902 0.020970345
0.00083181419 0.098154075 0.021426082
0.0016370626 0.096586697 0.021954894
0.0024836301 0.097689457 0.022038519
0.0033502721 0.098833025 0.021746218
0.0040234034 0.094952323 0.022564143
0.0048496854 0.095377155 0.022497624
0.0057240664 0.096491404 0.022475839
0.0064858422 0.09566617 0.022137195
0.0073877801 0.096862011 0.022564143
0.0081789624 0.096511759 0.022170901
0.008914642 0.095629804 0.022003859
0.0097630061 0.096002892 0.021693379
0.010657902 0.096740954 0.021242946
0.011474395 0.096712761 0.015494019
0.012287711 0.096663333 0.0060386956
-0.019726655 0.097811334 0.0087175071
-0.018935442 0.097970322 0.020834923
-0.017970685 0.097205073 0.022072405
-0.017108144 0.09694615 0.022735864
-0.016161116 0.096158639 0.022845149
-0.015626552 0.097871557 0.023043722
-0.014818283 0.097965315 0.023202628
-0.013949792 0.097648539 0.023264617
-0.012811821 0.095287919 0.022839308
-0.012415153 0.098493546 0.023021638
-0.011568814 0.098334916 0.022749484
-0.010589142 0.096931383 0.022706509
-0.009989812 0.099065639 0.022569776
-0.0090274708 0.097660825 0.022336036
-0.0081733987 0.097263448 0.022000134
-0.0074079959 0.097950168 0.021686107
-0.0067030084 0.099707253 0.021369636
-0.0057467599 0.097694919 0.020988375
-0.0049925973 0.099019848 0.020989418
-0.0041197212 0.098049365 0.020804286
-0.0033267192 0.098969899 0.020510316
-0.0025145507 0.099743843 0.021042556
-0.0016676248 0.099223681 0.020813525
-0.00083814445 0.099739186 0.020813525
0 0.098014675 0.020664334
0.0008209619 0.097694464 0.021093696
0.0016340783 0.097227663 0.021702915
0.0024871996 0.098658919 0.0220339
0.0032816026 0.097627677 0.021731675
0.0041281949 0.098251045 0.022575468
0.0050045187 0.099256285 0.022751778
0.0056768116 0.096505798 0.022777349
0.0065436023 0.097336084 0.022653311
0.0073538311 0.097233996 0.022876799
0.0081459377 0.096936658 0.022631347
0.0090056211 0.097424448 0.022512585
0.0098622227 0.097800381 0.022130579
0.010532947 0.09641698 0.021808177
0.011392996 0.096840464 0.021242946
0.012225916 0.096992262 0.014930904
0.013123916 0.097609125 0.0060386956
0 0 0 1 0 0 0 1 0 0 0 1 0 0 0 0 0 321 1 0 0
