ply
format ascii 1.0
comment PCL generated
element vertex 1256
property float x
property float y
property float z
element camera 0
property float view_px
property float view_py
property float view_pz
property float x_axisx
property float x_axisy
property float x_axisz
property float y_axisx
property float y_axisy
property float y_axisz
property float z_axisx
property float z_axisy
property float z_axisz
property float focal
property float scalex
property float scaley
property float centerx
property float centery
property int viewportx
property int viewporty
property float k1
property float k2
end_header
-0.024172585 -0.030007346 0.029416561
-0.022511948 -0.028943932 0.030191898
-0.022433121 -0.029910825 0.030759186
-0.021222906 -0.029385561 0.031280726
-0.020350758 -0.029305089 0.032057971
-0.019909235 -0.029863851 0.032019645
-0.018559512 -0.029049668 0.032010019
-0.017824417 -0.029167227 0.031547964
-0.017352708 -0.029747497 0.030703872
-0.016509073 -0.02971633 0.029886216
-0.015741989 -0.029826924 0.028375626
-0.015326872 -0.030653743 0.026827306
-0.014287151 -0.030255143 0.024550378
-0.013679182 -0.030778158 0.023058623
-0.012693468 -0.03046432 0.020724922
-0.01204968 -0.03098489 0.019273549
-0.011074719 -0.030668451 0.017478257
-0.010233806 -0.030701417 0.015541524
-0.009687501 -0.031704549 0.013217747
-0.0088359276 -0.031809337 0.0089295506
-0.0080309417 -0.032123767 0.0088777542
-0.0071278196 -0.032075185 0.0086909831
-0.0063110897 -0.032457031 0.0078154206
-0.0053951503 -0.032370899 0.0077372193
-0.0044047195 -0.031713981 0.0076242983
-0.0035513227 -0.031961903 0.0077372193
-0.0027058169 -0.032469802 0.0077372193
-0.0017876305 -0.032177348 0.0076931417
-0.0009046942 -0.032568991 0.0077469349
0 -0.032278314 0.0088172257
0.00092236663 -0.033205196 0.0091825128
0.001790181 -0.032223254 0.010024369
0.0026225583 -0.031470697 0.011718601
0.0034801506 -0.031321354 0.012814701
0.0042720349 -0.030758651 0.014258891
0.0051091425 -0.030654855 0.015772164
0.0060666883 -0.031200109 0.017879099
0.0069393506 -0.031227076 0.018693596
0.0076522632 -0.030609053 0.019915044
0.0084728738 -0.030502345 0.020794451
0.0092080347 -0.030135386 0.022566944
0.0099183936 -0.029755179 0.025003493
0.010702273 -0.029637063 0.026696712
0.011562798 -0.029732909 0.028033733
0.012699839 -0.030479612 0.029632479
0.013146151 -0.029578837 0.030655086
0.013789975 -0.029202299 0.03123346
0.014719694 -0.029439388 0.031453192
0.015482658 -0.02933556 0.031239033
0.016429009 -0.029572215 0.0312168
0.017295396 -0.029649248 0.030835658
0.017833754 -0.029182509 0.029844999
0.018845387 -0.029497124 0.027675927
0.021230308 -0.031845462 0.0072796345
-0.027600568 -0.03116193 0.0066251457
-0.026580775 -0.031010905 0.0096195936
-0.023712277 -0.028618265 0.029359907
-0.023375409 -0.029219262 0.030389518
-0.021631302 -0.028040575 0.031374693
-0.021016371 -0.028291266 0.031740159
-0.020587116 -0.028821962 0.032231569
-0.019926701 -0.029059771 0.032128692
-0.01899319 -0.028902678 0.032265335
-0.018197948 -0.02895128 0.03195855
-0.017468618 -0.029114364 0.030726701
-0.01672261 -0.029264569 0.02978459
-0.015963335 -0.02940614 0.028403014
-0.015379391 -0.029904371 0.026657343
-0.014347037 -0.029538019 0.023944974
-0.013535549 -0.029609013 0.021674216
-0.012820089 -0.029913541 0.019459993
-0.011850056 -0.02962514 0.017355502
-0.011456785 -0.030845189 0.014607549
-0.010584326 -0.030870954 0.0098184347
-0.0099267466 -0.031585105 0.0088097751
-0.0087971855 -0.030790148 0.0083176494
-0.007981333 -0.031038519 0.0082072616
-0.0071906056 -0.031458899 0.0069488287
-0.0061704819 -0.030852409 0.0065425038
-0.0053733792 -0.031344712 0.0066117346
-0.0044585322 -0.031209728 0.0063317418
-0.0036194052 -0.031669796 0.0066013336
-0.0027397599 -0.031963866 0.0065267086
-0.0018045461 -0.031579554 0.0071973205
-0.0008975435 -0.031414021 0.0072561502
0 -0.031416245 0.0071746409
0.00089942646 -0.031479925 0.0073751211
0.0017908182 -0.031339318 0.0073316693
0.0026384427 -0.03078183 0.0084869564
0.0036094435 -0.031582631 0.0099614263
0.0043179221 -0.030225454 0.012015224
0.0052618668 -0.030694222 0.013439983
0.0059630135 -0.029815068 0.015263766
0.0068825758 -0.030111268 0.018080711
0.0077009508 -0.029948143 0.018814981
0.0084741293 -0.029659454 0.020194739
0.0092534758 -0.029442877 0.022191554
0.010101267 -0.029462028 0.024379492
0.010789867 -0.029049641 0.026839375
0.011472703 -0.028681757 0.028187335
0.012221879 -0.028517719 0.029987931
0.013323843 -0.029145908 0.03091839
0.013830148 -0.028473834 0.031632543
0.014518669 -0.028230745 0.031562984
0.015434181 -0.028431386 0.031591713
0.016172957 -0.028302675 0.031530529
0.016796013 -0.027993355 0.03092429
0.017881704 -0.028448168 0.030521005
0.019046191 -0.028983334 0.027191252
0.021041419 -0.030685402 0.0081179738
0.021863295 -0.030608611 0.0051682293
-0.029144563 -0.030966097 0.0050359666
-0.027495649 -0.030156517 0.0067431927
-0.025508583 -0.028909726 0.022415012
-0.023835069 -0.027944563 0.030079484
-0.023037584 -0.027974211 0.030665219
-0.022144934 -0.027886214 0.031740159
-0.021381838 -0.027960867 0.032346845
-0.020808289 -0.028299274 0.032762736
-0.019706793 -0.027917959 0.032876492
-0.019242782 -0.028445853 0.032810032
-0.018001635 -0.02782071 0.032513916
-0.017472347 -0.028288562 0.030946672
-0.016758949 -0.028490214 0.02989319
-0.015926385 -0.028499845 0.028304994
-0.015125934 -0.028571211 0.025951326
-0.014566809 -0.029133618 0.023173273
-0.013821099 -0.029369835 0.021172047
-0.013064167 -0.029612113 0.017977297
-0.012356683 -0.030009087 0.014778405
-0.011649484 -0.030467883 0.0095146298
-0.010582947 -0.029985016 0.008693397
-0.0099302065 -0.030693367 0.0081218183
-0.0089557711 -0.030449623 0.007068187
-0.0080420813 -0.030381197 0.0065903366
-0.0070959241 -0.030157678 0.0066013336
-0.0062096482 -0.03016115 0.0060498714
-0.0054036891 -0.030620905 0.0060272813
-0.0044859136 -0.030504214 0.0057616532
-0.0036121604 -0.030703364 0.0052612424
-0.0026712681 -0.030274373 0.0052174628
-0.0017842753 -0.030332679 0.0053401887
-0.00089925446 -0.030574653 0.0053157508
0 -0.030541694 0.0063536167
0.00087798975 -0.029851651 0.0063827932
0.0017994642 -0.030590894 0.00642097
0.0026709037 -0.030270243 0.0066236258
0.0035693897 -0.030339813 0.0079289377
0.0044309329 -0.030130347 0.0088638365
0.0053639584 -0.030395767 0.0098180771
0.0061590453 -0.029915364 0.013400078
0.006990958 -0.029711572 0.016462713
0.007640278 -0.028863274 0.018366039
0.0085129933 -0.028944178 0.01948905
0.0093022194 -0.028752316 0.022183001
0.0101078 -0.028638769 0.02480036
0.010714809 -0.028023349 0.027047783
0.011509159 -0.027950814 0.028425902
0.01242849 -0.028171245 0.030639082
0.012875021 -0.02735942 0.031045675
0.013870251 -0.027740503 0.031957179
0.014444202 -0.027283493 0.031748772
0.015485907 -0.027711622 0.031767219
0.016324472 -0.027751602 0.031659126
0.0167601 -0.027135398 0.030993849
0.017685326 -0.027331866 0.030612797
0.019101877 -0.028237557 0.027229726
0.020987684 -0.029732553 0.008209765
0.022403097 -0.030468211 0.0056757033
-0.028567107 -0.029459829 0.0052163899
-0.027565192 -0.02934359 0.0071955323
-0.024995726 -0.027495297 0.024392247
-0.024033349 -0.027348291 0.030415297
-0.023062721 -0.027181065 0.031061411
-0.022026738 -0.026921568 0.032557696
-0.021521863 -0.027316209 0.032996356
-0.020442624 -0.026984261 0.033380777
-0.019968564 -0.027456775 0.033345401
-0.018948153 -0.027186479 0.033732504
-0.018138859 -0.027208289 0.033168226
-0.017404605 -0.02735009 0.03193152
-0.016644681 -0.027463723 0.030761451
-0.015767071 -0.027384913 0.028779715
-0.015337788 -0.028119279 0.026078701
-0.014337597 -0.027831806 0.023288548
-0.013415923 -0.027670342 0.020091176
-0.013338328 -0.029344322 0.016419619
-0.012129682 -0.028591393 0.012745529
-0.011738759 -0.029798387 0.0086534321
-0.01071562 -0.029467953 0.0080055892
-0.0098507479 -0.029552244 0.007021606
-0.0089837536 -0.029646387 0.0059633851
-0.0079923552 -0.029305303 0.0058260858
-0.0071795429 -0.029615613 0.0056677461
-0.0063338564 -0.029859608 0.0051235557
-0.0017906015 -0.029544925 0.0050752759
0 -0.029174296 0.0059421062
0.00089324306 -0.029477019 0.0062913001
0.0018141797 -0.029933965 0.006477654
0.0027088309 -0.029797139 0.0066927075
0.003539992 -0.029204933 0.0071202815
0.0044051181 -0.029073779 0.0079367161
0.005252785 -0.028890317 0.0088638365
0.0062492173 -0.029460596 0.010404795
0.0070050489 -0.028895825 0.013854057
0.007540164 -0.02764727 0.018247485
0.0087061254 -0.028730214 0.018846244
0.009252701 -0.027758101 0.021553755
0.010153634 -0.027922496 0.024573237
0.010780992 -0.027367134 0.027370095
0.011522602 -0.027160419 0.029793173
0.012264377 -0.026981628 0.031124473
0.013110861 -0.027041152 0.031960338
0.013543874 -0.026291048 0.033040285
0.014736777 -0.027017426 0.032696158
0.01548912 -0.026902156 0.032782286
0.015844734 -0.026143814 0.032397479
0.017042672 -0.026781341 0.031498075
0.017692996 -0.026539493 0.030757129
0.019041644 -0.027320618 0.026484102
0.021588935 -0.029684786 0.008615762
0.022342537 -0.029492147 0.006733954
-0.028683349 -0.028683349 0.0053815544
-0.028333444 -0.029247425 0.0074878931
-0.025362596 -0.027053436 0.028266788
-0.023971368 -0.026451165 0.030554682
-0.022445975 -0.025652543 0.031254888
-0.022055725 -0.026140118 0.032243878
-0.021411065 -0.026352081 0.033062011
-0.020583227 -0.026346531 0.033427387
-0.019633297 -0.02617773 0.033398062
-0.01887241 -0.026257267 0.033608675
-0.017788684 -0.025874451 0.033248693
-0.01709199 -0.026044935 0.032172024
-0.016691739 -0.026706783 0.031045318
-0.01557068 -0.026224304 0.029570788
-0.015700463 -0.027911935 0.026918292
-0.014343583 -0.026999686 0.023069561
-0.014052195 -0.028104391 0.019157171
-0.013205266 -0.028171234 0.014802903
-0.01246209 -0.028484777 0.01011309
-0.011555536 -0.028444394 0.0083584189
-0.01073382 -0.028623519 0.007655412
-0.0098794689 -0.028740274 0.0065187812
-0.0088366978 -0.028277433 0.0055683851
-0.008044281 -0.02860189 0.0054765642
-0.0072135637 -0.028854255 0.0052523613
0 -0.028504055 0.0052298307
0.00090302672 -0.028896855 0.0060368776
0.0017699329 -0.028318927 0.0061860085
0.0026419121 -0.028180396 0.0064759851
0.0035319543 -0.028255634 0.0067124367
0.0043965862 -0.028138153 0.0068446696
0.0053048953 -0.028292775 0.0076185167
0.0061751818 -0.028229404 0.009306401
0.0071877972 -0.028751189 0.012317836
0.007789975 -0.027697692 0.01654312
0.0085146567 -0.027246902 0.018801361
0.0092599131 -0.02693793 0.021148354
0.0099661285 -0.026576344 0.025199443
0.010740519 -0.026438201 0.029000342
0.011510467 -0.026309639 0.030356616
0.012526507 -0.026723215 0.031229317
0.012839476 -0.025678951 0.032501519
0.013842889 -0.026057202 0.033564359
0.014432623 -0.025657997 0.032887369
0.01537573 -0.025895964 0.032720625
0.016422205 -0.026275527 0.032448769
0.017190138 -0.026194496 0.031415522
0.017874137 -0.025998743 0.030410558
0.019165505 -0.026665049 0.02515474
0.020993343 -0.027991125 0.0085036159
0.021972429 -0.028124709 0.0067812502
0.022995962 -0.028302722 0.0052524507
-0.028498884 -0.027608294 0.0057312548
-0.028397204 -0.028397204 0.0084510446
-0.024803728 -0.025630521 0.028731942
-0.023589183 -0.025216023 0.031010926
-0.023250144 -0.025741231 0.03182888
-0.022125531 -0.025403386 0.032677621
-0.021609247 -0.025764871 0.03319782
-0.020198917 -0.025046658 0.033830434
-0.019718684 -0.02546997 0.033863336
-0.019005915 -0.02561667 0.034072816
-0.017730722 -0.024984201 0.033721805
-0.016962735 -0.02504023 0.032762736
-0.016539561 -0.025636319 0.03193602
-0.015618718 -0.025483172 0.030369967
-0.015502384 -0.026698552 0.027248532
-0.015056787 -0.027456494 0.02309677
-0.014020924 -0.027165541 0.017725259
-0.01329715 -0.027480777 0.012985528
-0.012518113 -0.027718682 0.0088409781
-0.011595709 -0.027651308 0.0079200268
-0.010898528 -0.028154531 0.0063951313
-0.0097831348 -0.027570656 0.0060289204
-0.0088998089 -0.027589409 0.0052600503
-0.0081054782 -0.027918871 0.0052523613
0 -0.028144509 0.0052441657
0.00088308094 -0.02737551 0.0059280396
0.0017708872 -0.027448753 0.0060406029
0.002689664 -0.027793197 0.0061438084
0.0035776303 -0.027726635 0.0064755678
0.0043810336 -0.027162408 0.0064800978
0.0052949921 -0.027357459 0.007037282
0.0060755489 -0.026906004 0.0083574057
0.0070812567 -0.02743987 0.0099441707
0.0079862317 -0.027508132 0.01422736
0.0085290847 -0.026440164 0.019075871
0.0094562499 -0.026649434 0.022791922
0.0097150467 -0.025097204 0.026565045
0.010975639 -0.026172679 0.02980262
0.011664122 -0.0258277 0.031143904
0.012105218 -0.025017451 0.031906068
0.012766174 -0.024734462 0.033026606
0.013744404 -0.025063325 0.033991426
0.014679221 -0.025280882 0.03348577
0.015389116 -0.025108557 0.032948583
0.01623597 -0.025165755 0.032515645
0.016985685 -0.025074106 0.031498075
0.017792154 -0.025070764 0.030485213
0.019324193 -0.026045652 0.02243191
0.021067344 -0.027211986 0.0085036159
0.022192111 -0.027518217 0.0071666837
0.022858482 -0.027254345 0.0052743256
-0.028861135 -0.027057314 0.0061864257
-0.028836684 -0.027906466 0.0084650815
-0.024570106 -0.024570106 0.028266788
-0.024052665 -0.024882065 0.031089634
-0.022782374 -0.024409685 0.032026798
-0.022080565 -0.024533961 0.033027112
-0.02089078 -0.024104746 0.033608854
-0.020424237 -0.024509085 0.034022242
-0.019639377 -0.024549222 0.034313321
-0.018969016 -0.024742194 0.034551442
-0.017961143 -0.024492469 0.03425324
-0.016838426 -0.024054894 0.033283293
-0.016627707 -0.024941562 0.032711416
-0.015847856 -0.02502293 0.030891061
-0.014508148 -0.024180248 0.029424995
-0.015702007 -0.027709426 0.024394095
-0.014085792 -0.026410859 0.01646477
-0.013602263 -0.027204527 0.011022389
-0.012340974 -0.026444945 0.0085941255
-0.011432786 -0.026383352 0.007085979
-0.010582603 -0.026456509 0.0061327219
-0.0095449602 -0.02603171 0.0054018795
0.00088391715 -0.026517514 0.0053046942
0.0017656288 -0.026484432 0.005674988
0.0026546039 -0.026546041 0.0059582293
0.0035644453 -0.026733341 0.0058740675
0.0044171279 -0.026502769 0.0061069429
0.0052945358 -0.026472678 0.0063665211
0.0061924551 -0.026539093 0.0074837804
0.0070125647 -0.026297117 0.0091984272
0.0078783231 -0.026261078 0.013270944
0.0088309823 -0.026492948 0.018779725
0.0096786804 -0.026396401 0.022999048
0.0097796088 -0.024449022 0.027793199
0.010656168 -0.024591157 0.031383365
0.011740345 -0.025157882 0.032372713
0.012247871 -0.024495741 0.032923639
0.013114659 -0.024589986 0.034183234
0.013939096 -0.024598405 0.034907192
0.01448956 -0.024149267 0.034271538
0.015190075 -0.02398433 0.033881068
0.016205031 -0.024307547 0.033014297
0.016976142 -0.024251631 0.032370478
0.017750103 -0.024204686 0.030522197
0.019636407 -0.025612704 0.018393159
0.021116482 -0.026395602 0.0085375607
0.022208439 -0.026650125 0.0072796345
0.023205141 -0.026775163 0.0060284138
0.023635048 -0.026261166 0.0050111711
-0.028241735 -0.025594072 0.0058843493
-0.02746789 -0.025695767 0.0085062087
-0.024678292 -0.023855684 0.02710259
-0.023845963 -0.023845963 0.031171918
-0.023175536 -0.024003234 0.032127708
-0.021789698 -0.023403751 0.033092767
-0.021094989 -0.023529027 0.033906817
-0.0205524 -0.023840785 0.034402639
-0.019242296 -0.023251109 0.034598053
-0.01879932 -0.023703491 0.034981638
-0.017770715 -0.023425035 0.034941047
-0.016979247 -0.023447532 0.034055054
-0.016465535 -0.023875026 0.033768356
-0.015612987 -0.023830349 0.032580018
-0.014935115 -0.024062132 0.03051573
-0.014681236 -0.025044462 0.026394337
-0.014382 -0.026067376 0.017276376
-0.013619341 -0.026330726 0.012328684
-0.012123701 -0.025113383 0.0083584189
-0.011488613 -0.025628444 0.0064817369
-0.010721681 -0.02591073 0.0055122375
0.0017669257 -0.025620423 0.0051045418
0.0026490702 -0.025607679 0.0057673752
0.0035346926 -0.025626522 0.0057627857
0.0043753698 -0.025377147 0.0058642626
0.0053126547 -0.025677832 0.0061376691
0.0061935908 -0.025659163 0.0066344142
0.0069817458 -0.025308831 0.008877188
0.0079191662 -0.025517315 0.011890978
0.0092283897 -0.026762333 0.019141376
0.0090331277 -0.023814611 0.025226414
0.010028689 -0.024235999 0.030892551
0.011069021 -0.024692431 0.03212291
0.011285559 -0.02337723 0.033280551
0.012163511 -0.023516122 0.034378231
0.012874963 -0.02333587 0.035062939
0.013590447 -0.023183703 0.035582483
0.014860751 -0.023942323 0.035029024
0.015432931 -0.023555527 0.034625322
0.016217712 -0.023515686 0.033995301
0.016800694 -0.023200959 0.032524407
0.017989809 -0.023713842 0.03061977
0.019564588 -0.024668394 0.017205805
0.02116842 -0.025578508 0.0087100863
0.021909004 -0.025414445 0.007129848
0.023004251 -0.025658589 0.0061118007
0.023929346 -0.025701892 0.0052646101
0.024599057 -0.025477596 0.0050238073
-0.028431036 -0.024877155 0.0057968497
-0.028006654 -0.025296332 0.0098098218
-0.024868254 -0.023210371 0.02530992
-0.02398916 -0.023161946 0.030602545
-0.023369912 -0.023369912 0.031690925
-0.02226874 -0.023093507 0.032692999
-0.021408036 -0.023054808 0.03371197
-0.020414881 -0.022864666 0.034450531
-0.019690152 -0.022971844 0.034880728
-0.018840354 -0.022936082 0.034960657
-0.017697692 -0.022524334 0.034959137
-0.017256506 -0.023008674 0.034667164
-0.016353019 -0.022894226 0.034171909
-0.015463365 -0.022788117 0.033337533
-0.014795565 -0.023015324 0.032216251
-0.014090819 -0.023208408 0.029847056
-0.014930092 -0.026127661 0.02530849
-0.013897103 -0.02594126 0.014296383
-0.012758182 -0.025516365 0.008875221
-0.011347597 -0.024440978 0.0067383051
-0.010424446 -0.024323707 0.0055122375
0.0026601234 -0.024827817 0.0055422485
0.0035343459 -0.02474042 0.0057720244
0.0044102054 -0.024697153 0.0058840215
0.0052428017 -0.024466408 0.0061752498
0.0060486654 -0.024194662 0.0070414245
0.0071362355 -0.024976825 0.0094667971
0.0082024308 -0.025518674 0.014125019
0.0090050362 -0.0252141 0.023352206
0.0088608293 -0.022554837 0.029961318
0.010029736 -0.023402717 0.032775909
0.010573861 -0.022774469 0.033959746
0.011348832 -0.022697665 0.035374612
0.01211734 -0.022619035 0.035510212
0.012942395 -0.022649191 0.035924882
0.013646575 -0.02247671 0.035748363
0.014408368 -0.022413017 0.035426766
0.015325991 -0.02258567 0.034773767
0.016400404 -0.022960568 0.034169018
0.016801111 -0.02240148 0.032668382
0.017581444 -0.022376385 0.030522197
0.019834816 -0.024146734 0.016452879
0.020640269 -0.024080314 0.0085755885
0.021976618 -0.024613811 0.0072933435
0.022806304 -0.024560634 0.0065798163
0.023951596 -0.024838692 0.0058826506
0.02483616 -0.02483616 0.0052529275
0.025973741 -0.025078094 0.0050455332
0.027841188 -0.024361039 0.005017519
0.028909512 -0.024529282 0.0057109296
-0.02888415 -0.024371002 0.006059289
-0.027073128 -0.023579821 0.0096446574
-0.025079969 -0.022571972 0.024361491
-0.024019636 -0.02236311 0.029182881
-0.022699269 -0.021888582 0.031478465
-0.022331532 -0.022331532 0.03241241
-0.021490606 -0.022317167 0.033602327
-0.020131461 -0.021741979 0.034332871
-0.020001037 -0.022501169 0.03481853
-0.01874578 -0.022005916 0.034992814
-0.017893154 -0.021959782 0.035206497
-0.017166315 -0.022070976 0.034742445
-0.016299909 -0.022004878 0.034647524
-0.015282421 -0.021717126 0.034533203
-0.014380196 -0.021570295 0.033828139
-0.014294719 -0.022703378 0.032864481
-0.013209158 -0.022290455 0.031256557
-0.013897653 -0.025015775 0.017713517
-0.013113611 -0.025290538 0.010883301
-0.012204032 -0.025346836 0.0087640584
-0.010699874 -0.024074716 0.007085979
-0.0094583845 -0.023216037 0.0056361854
0.0017402865 -0.023493867 0.0052452385
0.002688502 -0.024196519 0.0057627857
0.0035113469 -0.023701591 0.0060275793
0.004286862 -0.023149056 0.0063489676
0.0052864011 -0.023788806 0.0066595078
0.0062706876 -0.024186939 0.0079016387
0.0073788106 -0.024903486 0.012112021
0.0082186125 -0.024655841 0.019435912
0.0079580685 -0.021486785 0.029544681
0.0090744039 -0.022273537 0.033335537
0.0098315068 -0.022120891 0.03458339
0.010467375 -0.021739932 0.035778552
0.011544846 -0.022265062 0.035879076
0.011895991 -0.021412784 0.035879076
0.01292418 -0.021809556 0.035986304
0.013939262 -0.022138828 0.035874337
0.014332063 -0.021498095 0.035553485
0.015685381 -0.022289753 0.034998238
0.016175956 -0.021837542 0.034619302
0.016763151 -0.021552622 0.03287524
0.017806288 -0.021853173 0.030214667
0.019676153 -0.023098093 0.014597923
0.021464352 -0.024147397 0.0087123811
0.022075994 -0.023842074 0.0074006319
0.022945937 -0.023828473 0.0066575408
0.023878643 -0.023878643 0.0064123273
0.024792809 -0.023907352 0.0059778392
0.025358753 -0.023609873 0.0054001212
0.026363088 -0.02372678 0.0052569509
0.027266802 -0.023748504 0.0053423047
0.027667385 -0.023344357 0.0055919886
0.029108506 -0.023816051 0.0058346391
0.029526822 -0.023447771 0.0051399469
-0.029353419 -0.023126937 0.0050156713
-0.02873555 -0.023347635 0.0065936446
-0.027310766 -0.022905802 0.0096049309
-0.024832876 -0.021521825 0.021118045
-0.024018299 -0.021533646 0.026911557
-0.022973226 -0.021332283 0.030458152
-0.0219795 -0.021165444 0.03152585
-0.02130311 -0.02130311 0.033175111
-0.020628193 -0.021453321 0.034115613
-0.019792954 -0.021442367 0.034444869
-0.018679 -0.021115392 0.034871131
-0.0182356 -0.021551164 0.034937918
-0.017197208 -0.021291781 0.034896076
-0.016414411 -0.021338735 0.034896076
-0.015493955 -0.021202255 0.034653157
-0.014633123 -0.021136735 0.034271538
-0.013563306 -0.02074388 0.033980727
-0.01319966 -0.021449449 0.032849908
-0.012998817 -0.022531282 0.031048894
-0.013231554 -0.024572885 0.016908973
-0.012070059 -0.024140118 0.01144889
-0.011210334 -0.024289057 0.0086098611
-0.010305645 -0.024358796 0.0072160661
-0.0093018608 -0.024184838 0.0057754815
-0.0078958543 -0.022810249 0.0055422783
-0.0069911685 -0.022721298 0.0052275062
0 -0.022543889 0.0051097274
0.00087631866 -0.022784285 0.0055719316
0.0017432509 -0.02266226 0.0058668554
0.0026029702 -0.022559077 0.0059182942
0.0035713096 -0.023213513 0.0067992806
0.0045683566 -0.023755454 0.0067291856
0.0056833443 -0.024627825 0.0079861879
0.0065059466 -0.024164945 0.010631949
0.0075012101 -0.024378931 0.01722315
0.0072186133 -0.020853773 0.030245632
0.0085177841 -0.02214624 0.033667237
0.0089788837 -0.021222817 0.034710228
0.0096798604 -0.02097303 0.036187291
0.010425616 -0.020851232 0.036589861
0.011317737 -0.021018654 0.036658525
0.012248184 -0.021230185 0.036512613
0.012591671 -0.020461466 0.036579996
0.013449624 -0.020570014 0.036384553
0.014732691 -0.021280553 0.03571564
0.015161374 -0.020747142 0.035231471
0.016392533 -0.021310294 0.034690708
0.016882027 -0.020901557 0.033027291
0.017898768 -0.021153091 0.0299775
0.020180978 -0.022813279 0.013649046
0.021093242 -0.022851011 0.0085192621
0.02214035 -0.023025963 0.007047534
0.022753945 -0.022753945 0.0066305697
0.02355965 -0.02268707 0.0063986182
0.024834268 -0.023060393 0.0060872436
0.025792347 -0.023124171 0.0057506859
0.026465707 -0.022936944 0.0056711435
0.027431127 -0.02300675 0.0058044791
0.028273609 -0.022972306 0.0059353709
0.028877137 -0.022751683 0.0059149861
0.030502576 -0.023325499 0.0054990947
0.031202074 -0.023178684 0.0053174794
0.031368744 -0.022655204 0.0055385828
-0.029670279 -0.022477485 0.005138129
-0.02776752 -0.021693377 0.0071141422
-0.02770067 -0.022339251 0.0095775723
-0.025293769 -0.021078143 0.019435823
-0.024328373 -0.020972736 0.024745941
-0.022987053 -0.020524155 0.028121501
-0.021851821 -0.020233167 0.030620694
-0.021260688 -0.02044297 0.032011658
-0.020314096 -0.020314096 0.033337235
-0.019587597 -0.020403748 0.034139097
-0.018811915 -0.020447733 0.03461948
-0.017751878 -0.020172589 0.034932911
-0.016935751 -0.020161606 0.03480649
-0.016491164 -0.020613955 0.034851402
-0.015534524 -0.020440163 0.034794807
-0.014474574 -0.020103578 0.034802616
-0.013852806 -0.020371774 0.034626603
-0.012559617 -0.019624401 0.034594446
-0.012383309 -0.020638848 0.03285104
-0.012722765 -0.022719225 0.031181812
-0.011820522 -0.022731775 0.017582089
-0.011123788 -0.023174558 0.012177795
-0.010295902 -0.02339978 0.0095852911
-0.0092382384 -0.023095598 0.0086098611
-0.008391019 -0.023308389 0.0081270039
-0.0074770884 -0.023365902 0.0068739653
-0.0065287021 -0.023316795 0.0063486099
-0.0055363802 -0.023068253 0.005911082
-0.0045721247 -0.022860624 0.0055190027
-0.0035677385 -0.022298366 0.0054809451
-0.0027468803 -0.022890668 0.0054731965
-0.0017888043 -0.022360055 0.0056789815
-0.00090737303 -0.022684326 0.0054836869
0 -0.023323392 0.0061567426
0.00091564958 -0.02289124 0.0062594116
0.0018208147 -0.022760184 0.006344825
0.0028146119 -0.0234551 0.0065192878
0.0036283489 -0.022677181 0.0077552497
0.0044762823 -0.022381412 0.0087474883
0.0054622646 -0.022759438 0.010467708
0.006287198 -0.022454279 0.016865104
0.0068710749 -0.021472109 0.032507032
0.0078248279 -0.021735635 0.034301132
0.0079612518 -0.019903129 0.035675853
0.0087889247 -0.01997483 0.03670907
0.0095470846 -0.019889759 0.037119418
0.010518202 -0.020227311 0.03732568
0.011311017 -0.020198245 0.037245244
0.012032106 -0.02005351 0.036934406
0.012695827 -0.019837229 0.03701064
0.013476562 -0.019818474 0.036792189
0.014470198 -0.0200975 0.036089569
0.015388996 -0.020248679 0.035426766
0.016559238 -0.020699048 0.034636676
0.017110595 -0.020369757 0.03283903
0.017681025 -0.020092074 0.02842471
0.020344872 -0.022113992 0.013519287
0.020956615 -0.021829808 0.0085816383
0.022049708 -0.022049708 0.0077224374
0.023013331 -0.022128204 0.006942004
0.023863386 -0.022095729 0.0066978633
0.025220657 -0.022518443 0.0066169798
0.025488377 -0.021972738 0.006477356
0.026215 -0.021845834 0.0064647496
0.027412886 -0.022107165 0.0060809553
0.028066473 -0.021926932 0.0062927604
0.029015789 -0.021981658 0.0064769387
0.029738359 -0.021866441 0.0059913397
0.030277593 -0.021626852 0.0056986511
0.031338774 -0.021763038 0.0058818161
0.032614592 -0.022036888 0.0050044358
-0.029770864 -0.021651538 0.0050203502
-0.028589116 -0.021441836 0.0069975555
-0.02718753 -0.02104841 0.0094253123
-0.025435993 -0.020348795 0.017701715
-0.024508117 -0.020282578 0.023059815
-0.022893639 -0.019623119 0.02570945
-0.022119125 -0.019661443 0.028051674
-0.021424996 -0.019776918 0.030802548
-0.020163793 -0.01935724 0.032584041
-0.019874919 -0.019874919 0.033592254
-0.018728122 -0.019542387 0.034293503
-0.018017974 -0.019655971 0.03456071
-0.017104262 -0.019547727 0.034932911
-0.016482729 -0.019779276 0.035010666
-0.015585406 -0.019686827 0.034890682
-0.014744928 -0.019659905 0.035321742
-0.013554082 -0.019135173 0.035218567
-0.012912812 -0.019369217 0.035207301
-0.011807676 -0.018892281 0.034955442
-0.011113466 -0.019051654 0.034508675
-0.011166715 -0.020615473 0.033379376
-0.010959757 -0.021919515 0.029624641
-0.010303495 -0.022480354 0.013881773
-0.0089250682 -0.021420164 0.011539102
-0.0084235147 -0.022462707 0.010298997
-0.0072859302 -0.021857789 0.0084350407
-0.0066046733 -0.022644594 0.0083093345
-0.0055127591 -0.022051036 0.0081027448
-0.0046209022 -0.022180332 0.0078071654
-0.00378106 -0.02268636 0.0078071654
-0.0028017119 -0.022413695 0.007692486
-0.0018775755 -0.022530906 0.0072145164
-0.00094646565 -0.022715176 0.0068351328
0 -0.022014068 0.0073337257
0.00089533825 -0.021488117 0.0070821643
0.0017879816 -0.02145578 0.0074510574
0.0027102327 -0.021681862 0.0085939765
0.0037148413 -0.022289047 0.0105443
0.0046568108 -0.022352692 0.011756778
0.0055788527 -0.022315411 0.019170791
0.006320959 -0.02167186 0.033499658
0.0064154742 -0.019246424 0.035556823
0.0071053044 -0.018947478 0.036860019
0.0080506932 -0.019321663 0.037107825
0.0089595905 -0.019548198 0.037166923
0.0096828714 -0.019365743 0.03731823
0.010473936 -0.019336496 0.037418604
0.011226729 -0.019245822 0.037227392
0.01201113 -0.01921781 0.036972672
0.012851507 -0.01927726 0.036986113
0.013539609 -0.019114742 0.036501944
0.014463645 -0.019284861 0.035870641
0.015401736 -0.019454824 0.035031527
0.016007347 -0.019208817 0.033891499
0.016910244 -0.019325992 0.031586468
0.017765274 -0.019380299 0.027534425
0.020002754 -0.020872438 0.013774842
0.021153739 -0.021153739 0.0089534223
0.022157848 -0.021271534 0.0077350438
0.022825746 -0.021069918 0.0072328448
0.02403426 -0.021363785 0.006865561
0.024474738 -0.020978346 0.0069104731
0.02572111 -0.021286435 0.0068667531
0.026550379 -0.021240303 0.0064654648
0.027227037 -0.021078996 0.0063674152
0.028253229 -0.021189922 0.0061441362
0.028996166 -0.021088121 0.0062334538
0.029678939 -0.020949839 0.0058903098
0.030642958 -0.021012316 0.0055566728
0.031384978 -0.02092332 0.0056439638
-0.029597003 -0.020628216 0.0050181448
-0.027966067 -0.02010061 0.0069365203
-0.027705137 -0.020555424 0.0092048049
-0.025792999 -0.019774634 0.016624033
-0.0241384 -0.019144248 0.020648628
-0.024002204 -0.019716097 0.023721069
-0.022489686 -0.019157881 0.025896966
-0.021194363 -0.018748861 0.028055131
-0.020667978 -0.019014539 0.030998409
-0.019745104 -0.018922392 0.032584041
-0.018867845 -0.018867845 0.033551723
-0.017706353 -0.018511189 0.034133255
-0.01701995 -0.018640898 0.03456071
-0.016035222 -0.018440505 0.034932911
-0.0155045 -0.018768605 0.035044044
-0.014521585 -0.01855536 0.035389423
-0.013874518 -0.018771406 0.035560817
-0.012888421 -0.018527105 0.035668373
-0.011990073 -0.018384779 0.035597116
-0.011309285 -0.018579539 0.035656095
-0.010209705 -0.018063324 0.036030978
-0.0093863774 -0.017990557 0.035224944
-0.0090894215 -0.019005155 0.033684283
-0.0089683635 -0.020627238 0.017582089
-0.0086602755 -0.022131816 0.013230324
-0.0073877857 -0.021239884 0.012163818
-0.0065596253 -0.021553056 0.011220127
-0.0055226963 -0.021170337 0.010120302
-0.0047147102 -0.021687668 0.0098062456
-0.003721959 -0.021401264 0.0098341703
-0.0028139921 -0.02157394 0.010020435
-0.0018427868 -0.02119205 0.0096211433
-0.00093071588 -0.021406464 0.0094145536
0 -0.020597259 0.0096836388
0.00092529802 -0.021281855 0.010626256
0.001806384 -0.020773416 0.010679185
0.0028432114 -0.021797955 0.012045175
0.0037653001 -0.021650476 0.016650975
0.004396663 -0.020224651 0.034407586
0.0048806584 -0.018709192 0.03546533
0.0055093868 -0.018102271 0.036051899
0.0064198212 -0.018456986 0.037188768
0.0072925752 -0.018636582 0.037303299
0.0080062291 -0.018414328 0.03732568
0.0088377371 -0.018478906 0.037259787
0.0097894324 -0.01876308 0.037155777
0.010497614 -0.018572701 0.037163943
0.011118497 -0.018266102 0.037000656
0.012104135 -0.018559674 0.036781192
0.012885501 -0.018522909 0.036764443
0.013751479 -0.018604942 0.036155939
0.014292804 -0.018263027 0.035491258
0.015231842 -0.018438546 0.034727246
0.016007254 -0.018408343 0.033459455
0.016733985 -0.018327698 0.030381143
0.017960427 -0.018776812 0.026144505
0.020032233 -0.020032233 0.013468385
0.021062028 -0.020184444 0.0090687871
0.021927165 -0.020172991 0.0076747537
0.022953847 -0.020305326 0.0072785616
0.02346871 -0.019991865 0.0070346296
0.02518395 -0.020686816 0.0069718361
0.025606884 -0.020308908 0.0068508983
0.026239183 -0.020116707 0.0068126321
0.027135042 -0.02013245 0.0065124631
0.028086461 -0.020187143 0.0065298378
0.029078459 -0.020266807 0.0066229403
0.030062726 -0.02033655 0.0061740279
0.030505199 -0.020046275 0.0060006082
0.030601578 -0.019551009 0.0060445666
0.031769741 -0.019748757 0.0054087639
-0.029300772 -0.019533848 0.0055511296
-0.029222611 -0.020090545 0.0068172216
-0.027624318 -0.019604355 0.0094474852
-0.026027916 -0.019087138 0.015799552
-0.02481976 -0.018828781 0.019391537
-0.023371231 -0.018363111 0.022613794
-0.0226798 -0.018479837 0.024199009
-0.021852877 -0.018490896 0.025538534
-0.020959502 -0.018444359 0.028072447
-0.01982371 -0.018171733 0.030926615
-0.018808967 -0.017991183 0.032465428
-0.018040508 -0.018040508 0.0331873
-0.017138518 -0.017954638 0.034105211
-0.016297722 -0.017927496 0.034530759
-0.015651103 -0.018122328 0.035051882
-0.014745861 -0.01802272 0.035426885
-0.013818549 -0.017882828 0.035730511
-0.012707234 -0.017472446 0.035664529
-0.012124993 -0.017783323 0.036403149
-0.011361979 -0.017854538 0.036735326
-0.010538638 -0.017834617 0.037228733
-0.0095242532 -0.01746113 0.03697896
-0.0086234072 -0.017246814 0.037228733
-0.0077249384 -0.016994866 0.036905915
-0.0070542023 -0.017243605 0.036592007
-0.0065390551 -0.017982401 0.034507036
-0.0062303017 -0.019580947 0.03257373
-0.0055928696 -0.020507189 0.016975552
-0.0045704795 -0.02011011 0.012345284
-0.0038868585 -0.021377722 0.012247235
-0.0028501854 -0.02090136 0.011969715
-0.0018918733 -0.020810606 0.012153804
-0.00093407324 -0.02054961 0.012106538
0 -0.02101312 0.013273388
0.00091258134 -0.020076789 0.019280374
0.0017041105 -0.018745216 0.034237802
0.002428822 -0.017811362 0.035396516
0.0031382712 -0.01726049 0.036354154
0.0039105527 -0.017206432 0.037359953
0.0047629974 -0.017464325 0.037270725
0.0055425437 -0.017419424 0.037462205
0.006492306 -0.017853841 0.037606925
0.0072163548 -0.01763998 0.037606925
0.0080609117 -0.017734004 0.037506551
0.0089942915 -0.017988583 0.037478328
0.0095753726 -0.017554849 0.037295789
0.01041444 -0.017624436 0.037092716
0.011508497 -0.018084781 0.036809325
0.012106741 -0.017756553 0.036400914
0.013014816 -0.017895371 0.036262721
0.013772015 -0.017822606 0.035772234
0.014467782 -0.017682845 0.034534097
0.015470847 -0.017913612 0.033239692
0.016508117 -0.018158929 0.032361358
0.01690997 -0.017715206 0.028193712
0.018060569 -0.018060569 0.025186628
0.019868666 -0.019004811 0.012704581
0.020792214 -0.01905953 0.0091522336
0.021943901 -0.019310631 0.0078178346
0.022884388 -0.019363713 0.0074296594
0.023722928 -0.019329792 0.0072214901
0.024789525 -0.019477483 0.0070754886
0.025518883 -0.019359151 0.0070793033
0.026352126 -0.019324891 0.0070403218
0.027812496 -0.019737899 0.0068029165
0.0280593 -0.019290769 0.0068824589
0.028593933 -0.019062623 0.007445693
0.030040095 -0.019437708 0.0068620443
0.030628322 -0.019252088 0.006557703
0.031540163 -0.019274546 0.0065373778
0.03274544 -0.019470261 0.005782485
-0.029717213 -0.018910956 0.0061309934
-0.028233962 -0.018528538 0.0071753263
-0.027526373 -0.018646898 0.009016037
-0.026005881 -0.018204117 0.015472651
-0.02474029 -0.017915381 0.018844396
-0.023721317 -0.017790988 0.020686895
-0.022774689 -0.017713645 0.022853583
-0.02211489 -0.017862028 0.024256378
-0.020962298 -0.017608332 0.025579721
-0.020234816 -0.017705465 0.026767999
-0.019089723 -0.017429747 0.030537367
-0.018010817 -0.017192144 0.03223744
-0.017268505 -0.017268505 0.033058435
-0.016122319 -0.016928434 0.033924639
-0.015624304 -0.017268969 0.034554154
-0.014552933 -0.016978424 0.035253584
-0.01358356 -0.016779691 0.035637259
-0.012892922 -0.016921962 0.035953879
-0.012122966 -0.016972153 0.036670536
-0.011131764 -0.016697647 0.037279725
-0.010415834 -0.016825579 0.037982702
-0.0095123816 -0.016646668 0.038084626
-0.0088461842 -0.016888171 0.038199306
-0.0079859002 -0.016770391 0.037894219
-0.007292382 -0.01701556 0.038042009
-0.006410379 -0.016827244 0.03753227
-0.0055739712 -0.016721914 0.03753227
-0.0046777879 -0.01637226 0.037376225
-0.0039390842 -0.016544156 0.037033498
-0.0031601242 -0.016590653 0.037033498
-0.0023935265 -0.016754687 0.036815792
-0.0015672123 -0.01645573 0.036331266
-0.00078598823 -0.016505754 0.036511362
0 -0.01596874 0.036373854
0.00078811945 -0.016550509 0.036754966
0.0015516243 -0.016292054 0.036374897
0.0023542526 -0.016479768 0.037071556
0.0032129758 -0.016868124 0.038582832
0.0040118448 -0.016849749 0.038008213
0.0047570602 -0.01664971 0.037747949
0.0057026767 -0.017108031 0.037440449
0.0063572917 -0.016687892 0.037542701
0.0072293743 -0.016868541 0.03749755
0.0081368648 -0.017087417 0.037400126
0.0088749761 -0.016943136 0.037358284
0.0096314326 -0.016855009 0.037107348
0.010610464 -0.017139981 0.036815703
0.011242521 -0.016863782 0.036473185
0.012025303 -0.016835425 0.036013663
0.012821858 -0.016828688 0.035809427
0.01367147 -0.016888287 0.034790814
0.014648193 -0.017089561 0.033174902
0.015166669 -0.016763162 0.032052696
0.015841348 -0.016633416 0.028864741
0.016983742 -0.016983742 0.027458489
0.018223496 -0.017395156 0.024702996
0.019853143 -0.018126784 0.012804151
0.021064866 -0.018431759 0.0096563697
0.022174729 -0.018626772 0.008323431
0.022958536 -0.018543433 0.0077466369
0.0240312 -0.018690933 0.0074052811
0.024726499 -0.018544875 0.00722754
0.025451835 -0.018430639 0.007242918
0.026333777 -0.018433644 0.0071684122
0.027277946 -0.01847861 0.0070331693
0.027608525 -0.018118095 0.0069980025
0.028603744 -0.018202383 0.0073719025
0.02922512 -0.018050808 0.0070292652
0.030664241 -0.018398546 0.0069220066
0.030954864 -0.018057005 0.0067719817
0.031767163 -0.018030012 0.0059805214
-0.03331263 -0.018006826 0.0050152838
-0.030532746 -0.017960439 0.0055958331
-0.029552745 -0.017910754 0.0061922371
-0.028373528 -0.017733455 0.0071753263
-0.027778327 -0.0179215 0.0089582503
-0.026428217 -0.017618811 0.014694184
-0.024216754 -0.016701208 0.017784566
-0.02396588 -0.017118486 0.019695401
-0.023243504 -0.017217409 0.021575511
-0.02198498 -0.016911522 0.023068756
-0.021083491 -0.016866792 0.024295062
-0.020145478 -0.016787898 0.025009274
-0.019464122 -0.016925324 0.026089609
-0.018490696 -0.016809724 0.028916091
-0.017164703 -0.016347336 0.031817734
-0.016145052 -0.016145052 0.032959431
-0.015513028 -0.016329503 0.034006208
-0.014586546 -0.016207274 0.034873217
-0.013625632 -0.016030155 0.035426885
-0.012922805 -0.016153505 0.036044568
-0.012060613 -0.016080817 0.036945343
-0.011136594 -0.01590942 0.037467271
-0.010543768 -0.016221182 0.038055509
-0.0097999386 -0.016333232 0.038225979
-0.0088674035 -0.016122552 0.038351387
-0.0080782417 -0.016156483 0.038340002
-0.007155776 -0.015901724 0.038373232
-0.0064209402 -0.01605235 0.03849107
-0.0057477332 -0.016422095 0.038443148
-0.0048482767 -0.016160922 0.038010299
-0.0040239273 -0.016095709 0.038030326
-0.0031744125 -0.015872063 0.038030326
-0.0023980343 -0.015986895 0.037702709
-0.0015911631 -0.015911631 0.037794977
-0.0007963198 -0.015926395 0.037891418
0 -0.015981253 0.037977666
0.00080149627 -0.016029924 0.038234323
0.0016006633 -0.016006634 0.03831315
0.002428727 -0.016191512 0.038235366
0.0031814764 -0.015907383 0.0386464
0.0040193601 -0.01607744 0.038582832
0.0047737439 -0.015912481 0.038062543
0.0055806506 -0.015944716 0.037768245
0.0064418856 -0.016104713 0.037542552
0.0071563236 -0.015902942 0.037407041
0.0080758063 -0.016151613 0.037295252
0.0088801263 -0.016145684 0.037250251
0.0096034436 -0.01600574 0.036906064
0.010349114 -0.015921714 0.036647201
0.011230322 -0.016043317 0.036016196
0.012158289 -0.016211051 0.03518343
0.012829337 -0.016036671 0.034540057
0.013708381 -0.016127506 0.033516675
0.01463035 -0.016255945 0.032005668
0.015337349 -0.016144577 0.029114753
0.016243586 -0.016243586 0.027939558
0.017357551 -0.016531 0.026705682
0.01821913 -0.016562846 0.023631245
0.020269593 -0.017625732 0.013202667
0.021228034 -0.017690029 0.010060251
0.022075742 -0.017660594 0.0083579719
0.02277817 -0.017521668 0.0079146922
0.023665128 -0.017529724 0.0074747503
0.024598664 -0.017570473 0.0073572993
0.025393417 -0.017512701 0.0074448287
0.026388135 -0.017592089 0.0074101686
0.02725506 -0.017583909 0.0072053373
0.027944217 -0.017465135 0.0074552
0.028765606 -0.017433701 0.0077084005
0.029653838 -0.017443433 0.0072387159
0.030328387 -0.017330507 0.007389307
0.031083252 -0.017268473 0.0073312223
0.032228909 -0.017421031 0.0067875385
0.032576229 -0.017145384 0.0056881905
-0.03380825 -0.016904125 0.0055353343
-0.033256058 -0.017077435 0.0055785179
-0.03138113 -0.017035471 0.0053762794
-0.030773725 -0.017197082 0.0058676302
-0.029317942 -0.016880028 0.0066659749
-0.028740266 -0.017064532 0.0071686506
-0.027693206 -0.016973255 0.0089582503
-0.026074281 -0.016513711 0.01330626
-0.024961352 -0.016353989 0.016913712
-0.02394326 -0.016247213 0.018975466
-0.022872223 -0.016095268 0.020357847
-0.022316333 -0.01630809 0.021798253
-0.021146832 -0.016071592 0.023063272
-0.020289455 -0.016062485 0.024398476
-0.019539209 -0.016141085 0.024877697
-0.018409984 -0.015899533 0.025899976
-0.017717298 -0.016029935 0.027281106
-0.016853867 -0.016011175 0.030537367
-0.015635129 -0.015635129 0.032831222
-0.014552174 -0.015360629 0.033828139
-0.013797977 -0.015421269 0.034990162
-0.013036352 -0.015480668 0.035618871
-0.012110464 -0.015339921 0.03676042
-0.011299009 -0.015334369 0.037093043
-0.010363825 -0.015147129 0.037885964
-0.0094446186 -0.01495398 0.038188338
-0.0089086639 -0.015387693 0.038347006
-0.0078515019 -0.014917854 0.038556248
-0.0072777588 -0.015364159 0.038943559
-0.0064348741 -0.015282826 0.039109468
-0.0056171366 -0.015246514 0.038780421
-0.0048192684 -0.015261017 0.038764745
-0.0040079728 -0.015230297 0.038680196
-0.0031979422 -0.015190225 0.038804203
-0.0024359657 -0.015427783 0.03847599
-0.0016138918 -0.015331972 0.038312763
-0.00080049731 -0.015209449 0.038294286
0 -0.015067158 0.03843224
0.00080859789 -0.015363361 0.038373858
0.0015816116 -0.01502531 0.038342088
0.0024070966 -0.015244945 0.038342088
0.0031777218 -0.015094179 0.038807452
0.0039970106 -0.01518864 0.038590193
0.0047885748 -0.015163821 0.037856877
0.0056265146 -0.015271968 0.037461549
0.0063978499 -0.015194893 0.037374377
0.0071544535 -0.015103848 0.037284583
0.0079087364 -0.015026599 0.03704536
0.008794141 -0.015189881 0.036859035
0.0097025046 -0.015362299 0.036047906
0.010323465 -0.015088141 0.035323799
0.011313495 -0.015354029 0.034525037
0.012116854 -0.015348015 0.033915043
0.013038299 -0.01548298 0.033464491
0.014175564 -0.015843278 0.032052696
0.014875263 -0.015701666 0.028778613
0.015798114 -0.015798114 0.027848363
0.016653126 -0.01582047 0.02692157
0.017091425 -0.01546367 0.025482446
0.018657504 -0.0161133 0.018863291
0.019709833 -0.016282035 0.012743682
0.020979632 -0.016608875 0.01071468
0.022026746 -0.016740328 0.0087639093
0.022823593 -0.01667878 0.0077575445
0.02342516 -0.016484372 0.0076645613
0.024821101 -0.016842891 0.0075036287
0.025706548 -0.01684222 0.0075594187
0.026540739 -0.016809136 0.0074591339
0.0274466 -0.016822109 0.0076421499
0.028103018 -0.016686168 0.0077504814
0.029327957 -0.016885795 0.0076244175
0.030381678 -0.016977996 0.0077390671
0.030935166 -0.016793376 0.007560581
0.031425498 -0.01658568 0.0073783696
0.032962091 -0.01692648 0.0066867769
0.032958034 -0.016479017 0.0062721372
-0.034518681 -0.015931698 0.0054062009
-0.033966508 -0.016089398 0.0061542988
-0.033089299 -0.016097495 0.0061820447
-0.032099612 -0.016049806 0.005800277
-0.031323127 -0.016109036 0.0058556497
-0.030362459 -0.016074242 0.0064235628
-0.02966588 -0.016181389 0.0067225099
-0.028294718 -0.015915778 0.0075796247
-0.027483637 -0.01595824 0.0088500977
-0.025971578 -0.015582946 0.01210922
-0.024641793 -0.015294905 0.016208082
-0.024168897 -0.015537148 0.01797989
-0.023134124 -0.015422747 0.01932323
-0.022107121 -0.01530493 0.020134091
-0.021097586 -0.01519026 0.021849811
-0.02052382 -0.015392864 0.023310155
-0.019444944 -0.015217781 0.024040431
-0.018761344 -0.015350191 0.024789274
-0.017724447 -0.015192382 0.025836319
-0.017059008 -0.015353107 0.027017415
-0.015749065 -0.014920167 0.029990494
-0.014977749 -0.014977749 0.032069117
-0.013977518 -0.014799724 0.033732861
-0.013027141 -0.014655532 0.034873247
-0.012283517 -0.014740219 0.036030978
-0.0111469 -0.014331728 0.036863148
-0.010422005 -0.014430468 0.037711084
-0.0096444422 -0.014466663 0.038041323
-0.0088453908 -0.014474275 0.038407594
-0.008030829 -0.014455492 0.03889516
-0.0072818864 -0.014563773 0.038935244
-0.006341584 -0.014268563 0.03919071
-0.0055909259 -0.014376666 0.038933843
-0.0048264023 -0.014479207 0.038993478
-0.0040151351 -0.014454487 0.039037168
-0.0031668807 -0.014250963 0.039133132
-0.0024311298 -0.014586778 0.038899869
-0.0015906874 -0.014316185 0.038608253
-0.00080320897 -0.014457761 0.038528472
0 -0.014218781 0.038518995
0.00080132071 -0.014423773 0.038532019
0.0016137126 -0.014523413 0.038435638
0.0024046332 -0.014427799 0.038294286
0.0031690735 -0.01426083 0.03872788
0.0040702582 -0.014652929 0.038008213
0.004771586 -0.014314757 0.037396491
0.0055308132 -0.01422209 0.036685646
0.0064424374 -0.014495484 0.03637445
0.0071169124 -0.014233825 0.035708427
0.0080314372 -0.014456588 0.035562992
0.0089579169 -0.014658409 0.034834325
0.0097810719 -0.014671607 0.034344524
0.010493237 -0.014529096 0.033642411
0.011548322 -0.014847841 0.032874525
0.012528219 -0.015033863 0.030777633
0.013195616 -0.014845067 0.029951304
0.013807843 -0.014620068 0.028591096
0.014828782 -0.014828782 0.027385265
0.015419588 -0.01460803 0.026726604
0.016558917 -0.014903026 0.02579692
0.017456185 -0.014962443 0.024019212
0.01907981 -0.015610754 0.015310943
0.019811407 -0.015504577 0.012743682
0.021149866 -0.0158624 0.010813534
0.022082474 -0.015899381 0.0089817941
0.022655532 -0.015684599 0.0084611475
0.024167921 -0.016111946 0.0081186593
0.024977079 -0.016056694 0.0078077018
0.025663689 -0.015929185 0.0077272654
0.026419867 -0.015851919 0.0078473985
0.027259596 -0.015828151 0.0077251196
0.02801103 -0.015756205 0.0077646077
0.029183067 -0.015918037 0.0080655813
0.029662879 -0.015703877 0.008143872
0.030422598 -0.015645908 0.0080456138
0.031256549 -0.015628275 0.0079318285
0.031594627 -0.015370358 0.0071080923
0.032966409 -0.015615665 0.006850481
-0.034933411 -0.0148467 0.005210489
-0.034437284 -0.015011124 0.0060749948
-0.033896439 -0.015164196 0.0065957904
-0.032902099 -0.015117181 0.0065274239
-0.03215114 -0.015182485 0.0062006712
-0.031781089 -0.015436528 0.0062971413
-0.030264618 -0.015132309 0.0067381561
-0.029196249 -0.015040493 0.007148385
-0.028441587 -0.015109593 0.0077805519
-0.027177824 -0.014903967 0.0088500977
-0.02594706 -0.014703334 0.011547536
-0.024746671 -0.014506669 0.014656633
-0.024178332 -0.014679701 0.016934276
-0.023018474 -0.014493113 0.019209325
-0.02233397 -0.014602981 0.019714475
-0.02107556 -0.014331381 0.020896584
-0.02031735 -0.014391456 0.022192717
-0.019514205 -0.014423543 0.023348898
-0.018505108 -0.014299401 0.023910016
-0.017653555 -0.014290972 0.024758637
-0.017239748 -0.014653787 0.025475174
-0.01604908 -0.014359702 0.026916414
-0.014947612 -0.01411719 0.028690696
-0.014154943 -0.014154943 0.030941188
-0.013201924 -0.014027044 0.032596529
-0.012228239 -0.013858671 0.034568936
-0.011279382 -0.013696392 0.035753906
-0.010383564 -0.013578507 0.03723225
-0.0095950738 -0.013593022 0.037688345
-0.0087324772 -0.013495646 0.038062513
-0.0081254942 -0.01381334 0.038223237
-0.0072382819 -0.013672311 0.038493484
-0.0064533725 -0.013713417 0.038750648
-0.0055352538 -0.013442759 0.038738251
-0.0047549293 -0.0134723 0.038801521
-0.0040076543 -0.013626025 0.038970053
-0.0031879384 -0.013548738 0.039038122
-0.0023836957 -0.013507608 0.038877934
-0.0016142542 -0.013721162 0.03868103
-0.00079811848 -0.013568015 0.038607866
0 -0.013560806 0.038704246
0.00079951965 -0.013591834 0.038625807
0.0015725851 -0.013366973 0.038408518
0.0024118403 -0.013667095 0.038122624
0.0031801409 -0.013515599 0.038553655
0.0039153672 -0.013312249 0.03777492
0.0048967362 -0.013874087 0.036663294
0.0056823543 -0.013800004 0.036142677
0.0064465506 -0.013698921 0.035487175
0.0072207414 -0.013639179 0.034664422
0.0081157489 -0.013796775 0.034103274
0.0089394674 -0.013815541 0.033509791
0.010009392 -0.014179973 0.031695247
0.010757175 -0.014067076 0.030715823
0.011526567 -0.013996546 0.029821843
0.012540543 -0.014212617 0.029288828
0.013063623 -0.013880099 0.028564543
0.01383211 -0.01383211 0.027770191
0.014935562 -0.014105809 0.026430428
0.015765812 -0.014106253 0.025894403
0.016697014 -0.014192462 0.024658114
0.017537294 -0.014196857 0.022183269
0.018954754 -0.014646856 0.014427572
0.019897494 -0.014706844 0.013003528
0.021344818 -0.015119246 0.012051761
0.022299202 -0.015163457 0.0099724531
0.022765476 -0.014885119 0.0087563097
0.023566611 -0.014838236 0.0083346367
0.024727955 -0.015013401 0.0081186593
0.024975739 -0.014640951 0.0081724823
0.026395397 -0.014957392 0.0078310966
0.026993301 -0.014802777 0.0077562928
0.028150098 -0.014954739 0.0078106523
0.028905729 -0.014890831 0.0081323981
0.029410176 -0.014705088 0.0087218285
0.030425899 -0.014778294 0.0082594752
0.030764094 -0.014527489 0.0079417527
0.031950433 -0.014679928 0.0073359609
0.032794829 -0.01467137 0.0068411529
-0.035565048 -0.014226019 0.0057467222
-0.034348562 -0.014091718 0.0060240328
-0.03401053 -0.014320222 0.006636858
-0.033206251 -0.01435946 0.0066287518
-0.032219961 -0.014319984 0.0064326227
