ply
format ascii 1.0
comment PCL generated
element vertex 1299
property float x
property float y
property float z
element camera 0
property float view_px
property float view_py
property float view_pz
property float x_axisx
property float x_axisy
property float x_axisz
property float y_axisx
property float y_axisy
property float y_axisz
property float z_axisx
property float z_axisy
property float z_axisz
property float focal
property float scalex
property float scaley
property float centerx
property float centery
property int viewportx
property int viewporty
property float k1
property float k2
end_header
-0.00078285998 0.057148784 0.037903041
0 0.056965046 0.037631273
0.0007892783 0.057617322 0.037866682
0.0015487903 0.056530848 0.037711293
0.0023586 0.057392608 0.037340075
0.0031344171 0.057203114 0.036669761
0.0038960215 0.05688192 0.036531419
0.0046322462 0.056358997 0.036079466
0.005524986 0.057617716 0.036113322
0.0062914332 0.057409331 0.03574276
0.0070958491 0.057555228 0.035390556
0.0078580389 0.057363689 0.035170943
0.0087501481 0.05806917 0.033497244
0.009703964 0.059032451 0.031108022
0.01051651 0.059054252 0.02885136
0.011458835 0.059749641 0.028308243
0.012220499 0.059473101 0.027376384
0.012971642 0.059183124 0.025987267
0.013970505 0.059990995 0.023819596
0.014874871 0.060325872 0.021774918
0.01547067 0.059439942 0.019580722
0.016880924 0.061615374 0.016217381
0.017618364 0.06124479 0.013045222
0.018476024 0.061306812 0.011628687
0.019529482 0.061984882 0.010499358
0.020654509 0.06282413 0.0097446144
0.02127694 0.062128663 0.0094586611
0.02224135 0.06244687 0.0093229115
0.023012299 0.062218439 0.009364754
0.024122048 0.062889628 0.0093642175
0.024899449 0.062677927 0.0094487071
0.025672719 0.062470287 0.0097239912
0.026788756 0.063083202 0.010139436
0.027485015 0.06270019 0.010412097
0.028291032 0.062583193 0.010448009
0.029095726 0.062470239 0.010353029
0.029997569 0.062566362 0.010043591
0.030663079 0.062177915 0.0096869171
0.03135984 0.061872117 0.0086890161
-0.037934456 0.063798867 0.0050784349
-0.036871709 0.063453645 0.0062450171
-0.036091011 0.063588925 0.0071901083
-0.035191528 0.063516416 0.0076229572
-0.034673288 0.064145587 0.0080219209
-0.033854023 0.064235844 0.0081925094
-0.032753114 0.063782379 0.0080489218
-0.032145802 0.064291604 0.0078164339
-0.031094633 0.06391675 0.0078006685
-0.030812303 0.065146014 0.0077697933
-0.029456684 0.064111605 0.0081281066
-0.028743969 0.06445618 0.0087278783
-0.027608681 0.063845083 0.0091722906
-0.026662013 0.063644804 0.0095816851
-0.025641643 0.063249387 0.010568023
-0.025249196 0.064428985 0.011925459
-0.023957293 0.063315712 0.012795448
-0.022397991 0.061387088 0.016025156
-0.021746116 0.061892796 0.017396778
-0.020908451 0.061889015 0.018409312
-0.020096619 0.061964579 0.020073473
-0.019323947 0.0621727 0.021344513
-0.01814382 0.061029214 0.02254948
-0.017147815 0.060425635 0.023414731
-0.016574012 0.061323851 0.024271369
-0.015562814 0.060613066 0.025979817
-0.014714095 0.060491286 0.030054092
-0.013507047 0.058795381 0.033682495
-0.012472215 0.057684001 0.035248816
-0.011831306 0.058367778 0.036019295
-0.010921876 0.057729919 0.036469936
-0.010322531 0.058759026 0.036751628
-0.0093249604 0.057503927 0.037425905
-0.0086420942 0.05813773 0.037809521
-0.0077748294 0.057533741 0.037869632
-0.0071369372 0.058681488 0.038073391
-0.0063351584 0.058600217 0.03807953
-0.0055380594 0.058545198 0.038431346
-0.0047395402 0.058454335 0.038434178
-0.003904483 0.057786353 0.038341701
-0.0031586853 0.058435682 0.038246572
-0.0023499981 0.05796662 0.038425893
-0.0015725647 0.058184899 0.038235337
-0.00078910758 0.058393963 0.038082004
0 0.057968192 0.037749678
0.00077855494 0.057613067 0.037903547
0.0015688473 0.058047354 0.037631273
0.0023712227 0.058490165 0.037051678
0.0030864992 0.057100236 0.036533564
0.0039107786 0.057879522 0.036148816
0.004749612 0.058578555 0.035811722
0.0055049076 0.058194738 0.035180569
0.0063265259 0.058520366 0.034126014
0.0073074163 0.060083207 0.031995535
0.0080355685 0.059463214 0.030358106
0.008978337 0.060399726 0.029180467
0.0097464034 0.060102824 0.028012842
0.010391088 0.059149273 0.027472287
0.011457105 0.06055899 0.02677989
0.012238445 0.060376331 0.025741547
0.013137477 0.060760833 0.023841739
0.013828862 0.060196225 0.022122473
0.014785255 0.060783833 0.020812541
0.01581089 0.061579257 0.01763773
0.016665038 0.061660644 0.014569074
0.018029287 0.063531771 0.013660908
0.018862987 0.063448228 0.011968434
0.019790694 0.063674413 0.011052042
0.02054337 0.063342065 0.010016203
0.021457531 0.063514292 0.0097053349
0.022387082 0.063717082 0.0095137954
0.023365565 0.064038955 0.0094909668
0.024163302 0.063860163 0.0096367002
0.025065349 0.063959859 0.0096367002
0.025559125 0.063045844 0.0096499324
0.026406255 0.063034281 0.010244489
0.026910527 0.062230598 0.010370612
0.028124716 0.063067548 0.010448128
0.028678622 0.062418178 0.010365009
0.029490909 0.06235221 0.010232121
0.029983034 0.061631795 0.009858042
0.03145428 0.06290856 0.0089374483
-0.037736692 0.06432391 0.0050784349
-0.036945 0.064438954 0.0072925389
-0.035964776 0.06422282 0.0079326034
-0.035217419 0.064422101 0.0082734823
-0.035139758 0.065887049 0.0083816648
-0.03410184 0.065580465 0.0084268749
-0.033080898 0.065291248 0.008526057
-0.032149125 0.065167144 0.0083486736
-0.031091494 0.064773954 0.0082648396
-0.030560296 0.065486349 0.0081753731
-0.029492255 0.065056451 0.0087321699
-0.028532024 0.064845517 0.0091648102
-0.027980631 0.065579608 0.0093100369
-0.026638975 0.064449131 0.0099647641
-0.025952918 0.064882301 0.010547847
-0.025029859 0.064732395 0.011216789
-0.024249582 0.064954244 0.012324184
-0.022833586 0.063426621 0.01355505
-0.022006951 0.063481592 0.015581757
-0.020878142 0.062634431 0.017396778
-0.0204437 0.063886568 0.018276781
-0.019165272 0.062495451 0.019970745
-0.018331848 0.062494937 0.021039069
-0.017328653 0.06188805 0.022325963
-0.016584532 0.062191997 0.023100853
-0.015720759 0.062055625 0.023970872
-0.014896086 0.062067032 0.025720358
-0.014042526 0.061952323 0.028176367
-0.012830712 0.060143966 0.032890141
-0.011805329 0.059026647 0.035286009
-0.011022623 0.059049767 0.035951078
-0.01008973 0.058209982 0.036390364
-0.00949689 0.059355568 0.036820114
-0.0085894428 0.058564387 0.037646651
-0.0077946996 0.05846025 0.037684858
-0.0071321093 0.05943425 0.037822157
-0.0063327882 0.059369892 0.037866712
-0.0055833864 0.059821997 0.038142413
-0.0047025322 0.058781657 0.038203806
-0.0039204047 0.058806077 0.038293719
-0.0031445597 0.058960494 0.038177371
-0.0023717741 0.05929435 0.03818047
-0.0015619087 0.058571581 0.038116902
-0.00078293926 0.058720443 0.037878275
0 0.058846477 0.037155092
0.00077742559 0.058306921 0.0377056
0.0015500427 0.058126602 0.036893785
0.0023316811 0.058292028 0.036814868
0.0031795579 0.059616711 0.035974652
0.0040540416 0.060810626 0.035430759
0.0046899482 0.058624353 0.032367796
0.0057373266 0.061471358 0.03091979
0.0064861826 0.060807962 0.029719561
0.0073866355 0.0615553 0.028681666
0.008078089 0.06058567 0.028398514
0.0089031281 0.060703151 0.027954578
0.0097635882 0.061022427 0.026871502
0.010620031 0.06126941 0.026293427
0.011460342 0.061394688 0.025463372
0.012285951 0.061429754 0.023515075
0.013246554 0.062093224 0.022034734
0.014015041 0.061831065 0.021481276
0.014983381 0.062430762 0.018458456
0.015889101 0.062720135 0.016140521
0.016505517 0.061895695 0.01443541
0.017762279 0.063436709 0.01363948
0.018667571 0.063639455 0.012106925
0.019651078 0.064079598 0.011709213
0.020812716 0.065039739 0.010639548
0.021476327 0.064428978 0.010183513
0.022036497 0.063566819 0.0098899603
0.023174265 0.064372957 0.0097692311
0.023996789 0.064277112 0.0097985566
0.024773287 0.064068846 0.010133803
0.025854301 0.064635754 0.010488391
0.026164733 0.063301772 0.010637939
0.026844962 0.062917881 0.010797977
0.028082578 0.063824043 0.010879815
0.028304363 0.062436096 0.010784864
0.029580142 0.063386023 0.010846794
0.030081404 0.062669598 0.010593206
0.030775532 0.062382832 0.010110945
0.032656875 0.064454354 0.0057528019
-0.037976511 0.065595798 0.0053462088
-0.036741354 0.06493821 0.0079326034
-0.036106236 0.065335095 0.0082252026
-0.03532372 0.065478116 0.0085205138
-0.034971286 0.066445448 0.0091451705
-0.033691093 0.065654442 0.0091097653
-0.032757718 0.065515436 0.0090843737
-0.031935938 0.065598145 0.0087941289
-0.031558629 0.066623777 0.0087000132
-0.030289538 0.065771572 0.0087000132
-0.02949921 0.065939412 0.0089315474
-0.028578224 0.065816514 0.0092384219
-0.0273507 0.064957917 0.0095055997
-0.026713938 0.065492228 0.010000736
-0.025713544 0.065140978 0.010424763
-0.025008118 0.065538518 0.011015296
-0.023836982 0.06470038 0.011787534
-0.023359032 0.065751351 0.012470543
-0.0223669 0.065380171 0.013646245
-0.021133244 0.06424506 0.015854955
-0.020335391 0.064395405 0.017328382
-0.019329894 0.063872695 0.018242449
-0.018495912 0.063894972 0.0200243
-0.017371034 0.062866598 0.020849943
-0.016821109 0.063920215 0.022442043
-0.015701106 0.062804423 0.023017198
-0.014822526 0.062584005 0.023776144
-0.013857065 0.061949231 0.025726497
-0.013106448 0.062255628 0.027563691
-0.012081915 0.061215036 0.031164497
-0.011159258 0.060578831 0.034444779
-0.01023069 0.059810191 0.035604179
-0.0094940038 0.060128693 0.036193311
-0.008684339 0.060000885 0.036715984
-0.0078791827 0.059881795 0.036956757
-0.0069628493 0.058797397 0.037311286
-0.006344758 0.060275204 0.037249058
-0.0055162772 0.059891008 0.037646025
-0.0046788272 0.059265148 0.037705421
-0.003972529 0.060382441 0.037734807
-0.0031337827 0.059541874 0.037719905
-0.002347511 0.059470285 0.03748402
-0.0015772515 0.059935559 0.037159622
-0.00078923191 0.059981626 0.036858946
0 0.059317108 0.036398113
0.00077892846 0.059198562 0.036440164
0.0015698235 0.05965329 0.035906911
0.002418855 0.061277661 0.035430759
0.003272274 0.062173206 0.032264531
0.0039982852 0.060773939 0.03080225
0.0048423475 0.061336402 0.029570401
0.0056231897 0.061051775 0.028686047
0.006476521 0.06152695 0.027968436
0.0072485213 0.061209738 0.027710825
0.0081115402 0.061647709 0.027350724
0.0089082979 0.06154824 0.026717693
0.0097785434 0.061930779 0.025483996
0.010696147 0.062531322 0.024865568
0.011514638 0.062508039 0.023528606
0.012381829 0.062734604 0.022064239
0.013165827 0.062537678 0.021481276
0.013953725 0.062381357 0.019282311
0.014958256 0.063157082 0.016599506
0.016080843 0.064323373 0.014853716
0.016864188 0.064083919 0.014262795
0.018006727 0.065167204 0.01351878
0.018813059 0.064990573 0.012314618
0.019779714 0.065359056 0.012089282
0.020575071 0.065154396 0.011072814
0.021560753 0.065544687 0.010863572
0.022059141 0.064480565 0.010400593
0.023071766 0.064942747 0.010652304
0.023768373 0.06451416 0.010659635
0.024691012 0.06470748 0.010662436
0.02554328 0.064709641 0.010917634
0.026502848 0.064974718 0.011236966
0.027203551 0.064608432 0.011750549
0.027825542 0.06408307 0.011840105
0.028707642 0.064170025 0.011023104
0.029708814 0.064510569 0.011217266
0.030469513 0.064324528 0.010909826
0.031033132 0.063743733 0.010460079
0.032859705 0.065719411 0.0076867342
-0.037830848 0.066203989 0.005373776
-0.036990888 0.066239499 0.0083092451
-0.036379937 0.066696547 0.0089776814
-0.035630018 0.066914909 0.0094159544
-0.034848049 0.067082494 0.0095552206
-0.03374311 0.066621013 0.0094032288
-0.032812968 0.066489436 0.0093180835
-0.032261107 0.067137979 0.0090062618
-0.031464744 0.067299597 0.0089741051
-0.030240174 0.066528387 0.0089500546
-0.029392378 0.066565096 0.0091595054
-0.0284962 0.066491134 0.0092522204
-0.027416479 0.065970905 0.0094347596
-0.026640613 0.06617184 0.010117531
-0.025630094 0.065783903 0.010330677
-0.02538635 0.067405134 0.010644376
-0.024043476 0.066119559 0.011308998
-0.022946641 0.065440416 0.011921048
-0.021962006 0.065041326 0.012141168
-0.021647962 0.066675723 0.013941497
-0.02020698 0.064830735 0.0157426
-0.019398006 0.064941153 0.017294049
-0.018493984 0.064728945 0.018173337
-0.017538847 0.064309105 0.019743115
-0.016842077 0.064841993 0.020553231
-0.015880253 0.064356811 0.022289842
-0.014880308 0.063654654 0.022841275
-0.014102903 0.063877858 0.023864865
-0.01293959 0.062271778 0.025725484
-0.012308812 0.06318523 0.027300298
-0.011475823 0.063117027 0.029368997
-0.010378464 0.061472442 0.033946902
-0.0094587477 0.060693633 0.034911394
-0.0086599253 0.060619481 0.035824269
-0.007873158 0.060623314 0.036578059
-0.0070981001 0.060728192 0.036751628
-0.0063265082 0.060892638 0.036560953
-0.0055225343 0.060747877 0.037114769
-0.0046989415 0.060303085 0.037258416
-0.0039712959 0.06115796 0.037238866
-0.0031419175 0.060481913 0.03698808
-0.0023920534 0.061396036 0.036470413
-0.0015670637 0.060331956 0.036479443
-0.00077934761 0.060009766 0.035916775
0 0.06022203 0.034417808
0.00079180184 0.060968742 0.033632666
0.0015987977 0.061553713 0.031309694
0.0024516885 0.062926672 0.030570686
0.003214963 0.061888039 0.029378563
0.0040305695 0.062070768 0.028714806
0.0048627458 0.06240524 0.027944297
0.0056985444 0.062683992 0.027619988
0.0065329215 0.062879369 0.027186871
0.0073276102 0.062691778 0.026282072
0.0082245255 0.063328847 0.026119322
0.0089911008 0.062937707 0.02529639
0.0098817693 0.063408025 0.023867011
0.010628201 0.062951654 0.022841215
0.011631649 0.063974068 0.021939516
0.012386 0.063581467 0.021327764
0.013303358 0.064022414 0.019012332
0.014204605 0.064338505 0.016995609
0.015103188 0.06460809 0.015819222
0.016266635 0.065922678 0.014684856
0.016893506 0.065040007 0.014024585
0.017964542 0.065869987 0.013607323
0.018766265 0.065681927 0.012651891
0.019363631 0.064826071 0.012316763
0.020449419 0.065608554 0.011668861
0.021561304 0.066408813 0.010786027
0.021983756 0.065105736 0.010910034
0.022774035 0.064948171 0.010877311
0.023934757 0.065820582 0.01076439
0.024809584 0.06587372 0.010790378
0.025493944 0.065434456 0.011177033
0.026648017 0.066190228 0.01156196
0.027152875 0.065336607 0.012046486
0.028139725 0.065659359 0.011909485
0.028672177 0.064934045 0.011773854
0.029668069 0.065269753 0.011266172
0.030107727 0.064397082 0.011275202
0.030873319 0.064249881 0.010747284
0.0330735 0.067017354 0.0079283416
-0.037370935 0.066248477 0.0053957999
-0.036344234 0.065926746 0.0089184642
-0.035740543 0.066375293 0.0092281699
-0.035391379 0.067329943 0.0096270144
-0.03474379 0.067750387 0.0097199082
-0.033132695 0.066265389 0.0096322298
-0.032417368 0.066540912 0.0094121993
-0.032191042 0.06786219 0.0092461705
-0.031467341 0.068179242 0.0092201829
-0.030443214 0.067844875 0.0091880262
-0.029451756 0.067565791 0.0091996491
-0.028547946 0.067476965 0.0093472004
-0.027514499 0.067066588 0.0095073581
-0.026757745 0.067325935 0.010180026
-0.026033614 0.0676874 0.010359108
-0.025075058 0.067443259 0.010644376
-0.023860112 0.066467457 0.011241257
-0.023300372 0.067312188 0.01164937
-0.022128828 0.066386484 0.011932343
-0.021591602 0.067365795 0.013028651
-0.020546012 0.06677454 0.013914913
-0.019431585 0.065898418 0.015459299
-0.01831709 0.064942412 0.01702708
-0.017751589 0.065934472 0.017973483
-0.016897598 0.065900631 0.019360572
-0.0157286 0.06457004 0.020341873
-0.014955169 0.064805731 0.022041351
-0.013972315 0.064108267 0.023014963
-0.013142151 0.064067982 0.023924619
-0.012449305 0.064736381 0.025289744
-0.011219257 0.062507294 0.026559949
-0.010589806 0.063538842 0.028404415
-0.0097264089 0.063221656 0.032594472
-0.0087434128 0.061998747 0.033730507
-0.0078664944 0.061358657 0.035051346
-0.0070824032 0.061380833 0.03557834
-0.0062675485 0.061108597 0.035341591
-0.0054768128 0.061027341 0.03623578
-0.004717933 0.061333127 0.035871029
-0.0039550806 0.061699256 0.036037892
-0.0031708528 0.061831627 0.036074758
-0.0023467699 0.061016019 0.035535932
-0.001561784 0.060909573 0.034945726
-0.0008027436 0.062614001 0.034104377
0 0.062987641 0.03145507
0.00081225944 0.063356236 0.030412316
0.0016033181 0.062529407 0.02946943
0.0024070956 0.062584482 0.028440207
0.0032326132 0.063035958 0.027776122
0.0040574134 0.063295648 0.027585089
0.0048655034 0.06325154 0.027095109
0.0056841569 0.063337751 0.026499033
0.0065040239 0.063414231 0.025491387
0.0073139598 0.063387655 0.024897248
0.008276931 0.064560063 0.024107486
0.0089480802 0.063450024 0.023415059
0.0099159265 0.06445352 0.022264719
0.010749222 0.064495333 0.021627069
0.011607803 0.064672045 0.020593375
0.012398169 0.064470477 0.01893279
0.013229223 0.064492457 0.016805828
0.014059737 0.064509384 0.016319871
0.01532216 0.066396028 0.015372038
0.016037559 0.065838404 0.014308572
0.016885642 0.065854006 0.013831884
0.017742803 0.065901838 0.013471395
0.018673388 0.066205651 0.012810349
0.019529162 0.066229329 0.01243943
0.020525938 0.066709302 0.011778027
0.021566212 0.067286581 0.011538506
0.022209577 0.066628732 0.011071563
0.023202019 0.067028053 0.011343926
0.023754787 0.066174053 0.011396259
0.024841344 0.066814646 0.011469036
0.025648635 0.066686451 0.011977345
0.026380353 0.066376366 0.012088925
0.026989449 0.065786779 0.012943804
0.027876671 0.065890312 0.012866765
0.028160047 0.064602464 0.012324631
0.029823372 0.066463515 0.012135327
0.030121684 0.065263651 0.011566341
0.030936213 0.065216877 0.011104345
0.032406043 0.066517666 0.0086642206
-0.037638731 0.067578629 0.007456094
-0.03635795 0.066797167 0.0091088712
-0.035818808 0.067373469 0.0093199313
-0.035262577 0.067944959 0.0096322298
-0.03470134 0.068535149 0.0099282861
-0.033718687 0.068301953 0.0099391341
-0.032680579 0.067941204 0.009611547
-0.032189187 0.068728261 0.0094668269
-0.031229498 0.068531401 0.0093488991
-0.030034682 0.067792565 0.0093055964
-0.029464291 0.068461142 0.0094022453
-0.028729346 0.068776317 0.0094920695
-0.027379446 0.067593008 0.0096493065
-0.026671216 0.067968577 0.010179758
-0.026168147 0.068909451 0.010277271
-0.024954261 0.067978844 0.010309786
-0.024096206 0.067985721 0.011018246
-0.023071848 0.067506514 0.011332154
-0.022244144 0.067587972 0.011443764
-0.021373956 0.067541696 0.012540251
-0.020708328 0.068164915 0.013422757
-0.01937848 0.066560864 0.013851017
-0.019019408 0.068296969 0.015387863
-0.017646628 0.066384934 0.016248018
-0.016694857 0.065944679 0.017395705
-0.015926685 0.066221476 0.018880278
-0.015013739 0.065893628 0.020300806
-0.014012466 0.065116756 0.022084266
-0.013230635 0.065326259 0.023020387
-0.012359144 0.065091491 0.023787051
-0.011548759 0.065168001 0.024737418
-0.01065632 0.064757638 0.026426703
-0.0098351883 0.064748324 0.028160036
-0.0089004431 0.06392137 0.030189306
-0.0079022506 0.062427782 0.033083618
-0.0070494558 0.061878558 0.033702731
-0.0063990396 0.063190512 0.034187019
-0.0055089775 0.062172744 0.034633666
-0.0047591301 0.062661879 0.034565449
-0.0039547081 0.062484384 0.034560591
-0.003138968 0.061994616 0.034145176
-0.0023846035 0.062794559 0.033635497
-0.0016233781 0.064123437 0.031826824
-0.00081307226 0.064232707 0.030541658
0 0.062890776 0.029255301
0.00081049994 0.064029492 0.028821588
0.0016190711 0.06395331 0.027840793
0.0024556678 0.064665921 0.027580142
0.0032356323 0.063903742 0.027120769
0.0040818159 0.064492695 0.026728541
0.0048937104 0.064433858 0.025621802
0.0057434379 0.064818792 0.025060177
0.0065435371 0.064617425 0.024128884
0.007336881 0.064401515 0.023090273
0.0082425252 0.065115944 0.022481173
0.0090806754 0.065215759 0.02164939
0.0099198567 0.065305725 0.021307319
0.010726273 0.065182738 0.019553512
0.011737918 0.066235393 0.017236084
0.012771624 0.067263886 0.01674673
0.013443909 0.066379294 0.01557982
0.014382311 0.066835448 0.015569925
0.01518908 0.066663183 0.014454633
0.016087905 0.066891812 0.014119059
0.016906366 0.066780142 0.013772547
0.018045576 0.067885734 0.013237804
0.018488498 0.066390522 0.01287356
0.0194348 0.066754311 0.01259625
0.020427421 0.067240261 0.012153089
0.020999288 0.066357747 0.011765718
0.022483177 0.068314269 0.011914998
0.023047673 0.067435779 0.011968046
0.023372652 0.065944262 0.011977345
0.024611639 0.067045495 0.012142897
0.02553815 0.06725046 0.012462258
0.02617936 0.066715136 0.013117105
0.026818385 0.066207886 0.013522089
0.027806528 0.066567145 0.013560444
0.028313041 0.065786183 0.013234645
0.029294141 0.066121057 0.013066143
0.029757904 0.065302067 0.012574792
0.030754197 0.065664366 0.011434019
0.032327496 0.067207158 0.010196298
-0.037722964 0.068587206 0.007363677
-0.037010666 0.068857051 0.0092518926
-0.035931766 0.068441458 0.0094980299
-0.035358097 0.0689914 0.0099162459
-0.034496874 0.068993747 0.010208189
-0.033705041 0.069138542 0.010182679
-0.032789525 0.069030575 0.0099797547
-0.031907339 0.068988837 0.0097927451
-0.030993838 0.068875194 0.0096845031
-0.030018346 0.068613358 0.0096845031
-0.029292289 0.068923026 0.009740293
-0.028532805 0.069170438 0.0097128451
-0.027856665 0.069641657 0.0099906623
-0.026664089 0.068810552 0.010152638
-0.025717426 0.0685798 0.010222107
-0.024890507 0.068663463 0.010282397
-0.02383087 0.068088196 0.010609031
-0.023136582 0.068552829 0.010976732
-0.022362325 0.068807155 0.011190921
-0.021414509 0.068526424 0.011843145
-0.020558078 0.068526924 0.012668312
-0.019750949 0.06869895 0.013413489
-0.018783109 0.068302214 0.013803393
-0.017975532 0.068478212 0.01460281
-0.017064327 0.068257309 0.015989512
-0.015996257 0.06735266 0.016855121
-0.015051735 0.066896603 0.019081503
-0.014112417 0.066411369 0.019870251
-0.013264471 0.066322349 0.02170974
-0.01243391 0.066314183 0.022304118
-0.011544084 0.065966196 0.023410946
-0.01055412 0.064948432 0.024701566
-0.0097630769 0.065087177 0.026372224
-0.0090750242 0.066000178 0.027776897
-0.0079666181 0.063732944 0.028545171
-0.0071870424 0.063884825 0.029468328
-0.0063773314 0.063773312 0.03070721
-0.0054963022 0.062814876 0.031324804
-0.0047306702 0.063075602 0.031441271
-0.0039567039 0.063307263 0.031469196
-0.0032336081 0.064672157 0.030840307
-0.0024259745 0.064692654 0.030387193
-0.0016161449 0.064645797 0.029860884
-0.00080676435 0.064541146 0.029027164
0 0.065344937 0.028074771
0.00081160746 0.064928599 0.02782011
0.0016304947 0.065219782 0.027254134
0.0024329699 0.064879194 0.025978774
0.0032082577 0.064165153 0.025601566
0.0041106557 0.065770492 0.024775118
0.004937287 0.065830491 0.024443537
0.0057662209 0.06589967 0.023216575
0.0066178865 0.066178858 0.022509843
0.0073075532 0.064956032 0.021445513
0.0082648881 0.066119105 0.021166742
0.009184164 0.066793919 0.019492596
0.01008868 0.067257866 0.017596364
0.011049779 0.06799864 0.016702205
0.011890432 0.067945324 0.016236663
0.012614059 0.06727498 0.015687019
0.013508232 0.06754116 0.01473406
0.014666921 0.0690208 0.014663875
0.015215165 0.067622952 0.013949454
0.016231162 0.068341732 0.013852566
0.016641511 0.066566043 0.013559401
0.017808754 0.067842871 0.013264894
0.018411389 0.0669505 0.012924999
0.019413184 0.067524113 0.012724757
0.020423422 0.068078071 0.012552291
0.021177283 0.0677673 0.012215793
0.021951197 0.067542143 0.012333661
0.022471301 0.066581629 0.01225242
0.023919392 0.068341121 0.012714267
0.024357794 0.06719391 0.012913316
0.025311342 0.067496911 0.013147891
0.026153984 0.067494147 0.013190418
0.02675987 0.066899672 0.013767391
0.027779562 0.06734439 0.013967305
0.028631849 0.067369051 0.013560683
0.029592998 0.067641139 0.013235718
0.030149041 0.066997871 0.013050884
0.031261791 0.067593053 0.011874527
0.032423031 0.068259016 0.010037333
-0.038002979 0.069960028 0.0082758367
-0.036351502 0.068476081 0.0094437897
-0.035580005 0.068618573 0.0097365081
-0.03512907 0.069401324 0.010136276
-0.034473222 0.069808275 0.010372579
-0.033222537 0.069000654 0.010349542
-0.032861993 0.07004793 0.010278285
-0.032059405 0.070184097 0.010090113
-0.030816089 0.069336206 0.0099720061
-0.030135237 0.069741547 0.0100528
-0.029343026 0.069905438 0.010168642
-0.028397225 0.069702275 0.010103106
-0.027662156 0.070019826 0.010103106
-0.026364939 0.068889029 0.010228753
-0.025871348 0.069852635 0.010350496
-0.024895821 0.069536597 0.010073245
-0.023729254 0.068645336 0.010435492
-0.023144763 0.069434285 0.010703892
-0.022249212 0.069314852 0.010549217
-0.021213314 0.068731129 0.011401057
-0.02059113 0.06949506 0.01214084
-0.01972908 0.069480665 0.012714624
-0.01868872 0.068808466 0.013031274
-0.017901689 0.069049366 0.013379544
-0.016999988 0.068849951 0.014467716
-0.016074745 0.068529174 0.015547752
-0.015035875 0.067661434 0.016640484
-0.014201025 0.067663699 0.018380135
-0.013259024 0.067123808 0.019420087
-0.012393866 0.066926874 0.02129817
-0.011352877 0.065684497 0.022655308
-0.010629781 0.066231713 0.023645878
-0.0098522678 0.066502802 0.024759591
-0.0090042688 0.066304162 0.026268005
-0.0081163123 0.065742128 0.027175874
-0.0073384377 0.06604594 0.027855217
-0.0063637332 0.0644328 0.028400004
-0.0055726999 0.064484097 0.028913975
-0.0048248302 0.065135203 0.029044449
-0.004074607 0.066008627 0.029129624
-0.0032509291 0.065831311 0.029068887
-0.0024093834 0.065053351 0.0288634
-0.0016203837 0.065625533 0.028413713
-0.00081593636 0.066090845 0.027834684
0 0.065665051 0.027247727
0.00080649386 0.065325998 0.026344508
0.001609268 0.065175354 0.025577426
0.0023953994 0.064675786 0.024990141
0.0032459095 0.065729663 0.024700791
0.0040802844 0.066100605 0.023263901
0.0049334667 0.066601798 0.022713423
0.005777237 0.066850886 0.021662802
0.006588398 0.066707529 0.020971596
0.0075282571 0.067754313 0.018569052
0.0084670139 0.06858281 0.017890155
0.0092783002 0.068322025 0.016810328
0.010166961 0.068626978 0.016293228
0.011061526 0.068921812 0.016173065
0.01188051 0.068737231 0.01564464
0.012559596 0.067821808 0.015048176
0.013554264 0.068618454 0.014590949
0.014349227 0.068369843 0.014495403
0.015166987 0.068251438 0.013864011
0.016105371 0.06865973 0.013845772
0.016755255 0.067858778 0.013716698
0.017846543 0.068836659 0.013517797
0.018728103 0.068953469 0.013094157
0.019428533 0.068422221 0.013016552
0.020241763 0.068315946 0.013011187
0.021061203 0.068238296 0.01304698
0.02170182 0.067609519 0.012959361
0.022883933 0.068651795 0.013121247
0.023440443 0.06780985 0.013233095
0.024169745 0.067508593 0.013341576
0.02545652 0.068732597 0.013440639
0.026485013 0.069202773 0.013375282
0.027073031 0.068528607 0.014247984
0.028011937 0.068756573 0.014269352
0.028559383 0.068038531 0.013932586
0.029632982 0.068579189 0.013453633
0.030267449 0.068101756 0.013140023
0.031046402 0.067966439 0.012163013
0.032330614 0.068915248 0.010099649
-0.03775204 0.070356078 0.0082571805
-0.036581706 0.069760464 0.0095523894
-0.035734985 0.06976831 0.009831965
-0.03547271 0.070945419 0.010431051
-0.034175929 0.070060655 0.010700405
-0.033440664 0.070311144 0.010699183
-0.032837022 0.070858844 0.010436118
-0.031900782 0.070699029 0.010346681
-0.031083895 0.070802212 0.010265231
-0.029947717 0.070163228 0.010346681
-0.029369254 0.070831731 0.010408461
-0.028399149 0.070567586 0.010299087
-0.027471488 0.070395693 0.010299414
-0.0268008 0.070892438 0.010456324
-0.025776556 0.070455924 0.010393649
-0.024819776 0.070180058 0.0098372698
-0.023772771 0.069620259 0.010210603
-0.023204306 0.070472337 0.010295987
-0.022351524 0.070493273 0.010459363
-0.02142805 0.070284002 0.011180282
-0.020791471 0.071037531 0.011752605
-0.019862121 0.070812784 0.012283355
-0.018776713 0.069985934 0.012514263
-0.017934302 0.070029177 0.012871832
-0.017021524 0.069788255 0.013231784
-0.016267568 0.070207402 0.014283746
-0.015335747 0.069862857 0.015498191
-0.014338164 0.069160558 0.016636252
-0.013347096 0.06840387 0.018606663
-0.012558834 0.068654962 0.01897195
-0.011600574 0.067946218 0.02105552
-0.010678142 0.067354441 0.022617161
-0.0097944345 0.06692864 0.023551583
-0.0090944516 0.067795008 0.02462709
-0.0080926409 0.066359654 0.025810212
-0.0073509747 0.066975556 0.026597917
-0.0064934441 0.066557802 0.027100146
-0.0056038396 0.065644979 0.027478933
-0.0048798095 0.066690736 0.027832121
-0.0040815743 0.066937827 0.027837932
-0.0032307038 0.066229433 0.027606905
-0.0024130438 0.065956533 0.027832121
-0.0016304627 0.066848971 0.027370155
-0.00081225205 0.066604666 0.026373655
0 0.066428535 0.025612622
0.00082180934 0.067388371 0.025007278
0.0016185162 0.066359162 0.024321258
0.0024745078 0.067636549 0.023367584
0.0033100259 0.067855537 0.022859305
0.0040917285 0.067104355 0.021685123
0.0049995021 0.068326533 0.020754486
0.0058216555 0.068196543 0.018512815
0.0066764317 0.068433426 0.017897248
0.0075707999 0.068978406 0.016551584
0.0083828578 0.068739444 0.016190171
0.0092678545 0.069087647 0.016089946
0.010101093 0.069024138 0.015601218
0.010892358 0.068705648 0.015189797
0.011754356 0.068846948 0.015016884
0.012802382 0.069986358 0.014628261
0.013427315 0.068814993 0.014143825
0.014388894 0.06940525 0.014013082
0.015092987 0.068756945 0.013759792
0.0160567 0.069297336 0.013751507
0.016761398 0.068721741 0.013665259
0.017767685 0.069378577 0.013419479
0.018519515 0.06902729 0.013332874
0.019328531 0.06891042 0.0132806
0.020200415 0.069018088 0.013275236
0.021161241 0.069408871 0.013317198
0.021757901 0.068621077 0.013310909
0.022671632 0.068854585 0.013536274
0.023929622 0.07007961 0.013571113
0.0244189 0.069046542 0.013642401
0.025846258 0.070646442 0.013646156
0.025999453 0.068772748 0.014500171
0.027366679 0.070127122 0.014957577
0.02762109 0.068634227 0.015433758
0.028936133 0.069787145 0.014785349
0.0293853 0.068845563 0.014092922
0.02992074 0.0681528 0.013879955
0.030993922 0.068689235 0.012698501
0.032014344 0.069083586 0.010544866
-0.037156366 0.070090421 0.0088580847
-0.036507644 0.070468247 0.0098979473
-0.035507973 0.070170514 0.010335714
-0.035202045 0.07126268 0.01119563
-0.03414255 0.070845798 0.011601985
-0.033224937 0.070709482 0.011573821
-0.032707974 0.071441106 0.011433274
-0.032402147 0.072685897 0.010859072
-0.030980863 0.071428105 0.010464758
-0.030251566 0.071739428 0.010453671
-0.029385179 0.071734406 0.010487765
-0.028243801 0.071037441 0.010334224
-0.027115146 0.070329912 0.010386199
-0.02653848 0.071054645 0.010583401
-0.025965732 0.07183852 0.010661572
-0.024762662 0.070872448 0.01013729
-0.024181355 0.071680449 0.010342419
-0.023249179 0.071469702 0.010243773
-0.022249116 0.071026027 0.010432184
-0.021658843 0.071907356 0.01074782
-0.020549497 0.071067013 0.01137507
-0.019944187 0.071972497 0.012012869
-0.018728107 0.070656046 0.012194484
-0.01787412 0.070645332 0.012457252
-0.017432943 0.072346717 0.012794852
-0.016047643 0.07010287 0.013134032
-0.015333547 0.070704691 0.013995945
-0.014319932 0.069914967 0.014703155
-0.013522822 0.070149645 0.015799284
-0.012655552 0.070027389 0.017931998
-0.011549734 0.068473428 0.018639445
-0.010690711 0.06825608 0.020851493
-0.0098748161 0.068300813 0.022450566
-0.0089488095 0.067522839 0.023202419
-0.0081160972 0.067363612 0.024241418
-0.0073822606 0.06808085 0.025017232
-0.0064792512 0.06722223 0.025785238
-0.0056432746 0.066913113 0.026333541
-0.0048935153 0.067693636 0.026336551
-0.0041022422 0.068097226 0.02639401
-0.0032923897 0.068317086 0.026186436
-0.0024435525 0.067604959 0.026359111
-0.0016374179 0.067952842 0.025851637
-0.00081620878 0.067745335 0.024774492
0 0.06817665 0.024496466
0.00082355237 0.068354845 0.023286134
0.0016371792 0.06794294 0.022580475
0.0024605677 0.068075709 0.021514595
0.0032866586 0.068198167 0.020410448
0.0041598519 0.069053546 0.018818736
0.005036789 0.069675587 0.017834604
0.0058563855 0.06944 0.017017692
0.0067839213 0.070383184 0.016457409
0.0076503251 0.070553005 0.015787661
0.0083930399 0.069662236 0.015494287
0.0093689729 0.070693165 0.015210688
0.010163419 0.07029698 0.015043825
0.011014202 0.070321441 0.01473406
0.011972427 0.070979394 0.014410675
0.012717304 0.07036908 0.01430735
0.013540958 0.070243724 0.013973773
0.014294579 0.069791183 0.013962895
0.015228332 0.070219539 0.013814509
0.01602838 0.070018716 0.013818145
0.017060835 0.070802473 0.01367709
0.01760491 0.069581315 0.013553172
0.018404147 0.069433831 0.013409168
0.019235373 0.069414601 0.013530076
0.020183306 0.069800608 0.013438344
0.02136535 0.070932962 0.013748169
0.021950124 0.070071556 0.013770044
0.022830971 0.070184097 0.013849467
0.023726048 0.070330784 0.014034331
0.024750574 0.070837848 0.014331549
0.02534231 0.070113726 0.01470226
0.026285645 0.070377693 0.015152484
0.026894202 0.069756836 0.015592188
0.027849071 0.070044637 0.015761495
0.028262448 0.068993628 0.015463144
0.029054409 0.068900459 0.01513797
0.030062357 0.069310442 0.014535397
0.030571714 0.068579793 0.013614923
0.031858597 0.069585882 0.010680556
-0.037537418 0.071662344 0.009091258
-0.036645256 0.07158608 0.010374308
-0.035136376 0.070272751 0.010662705
-0.035510831 0.072753899 0.011617184
-0.034280058 0.071988128 0.011904687
-0.033150557 0.071401209 0.01195094
-0.032603707 0.072071359 0.011872977
-0.031974874 0.07259161 0.011606753
-0.030772895 0.071803428 0.0112499
-0.030153314 0.072367951 0.011014611
-0.029588955 0.073102124 0.011047065
-0.02828473 0.071997501 0.010837317
-0.027604258 0.07246118 0.01108548
-0.026811203 0.07264971 0.010967225
-0.0258207 0.072297961 0.01094076
-0.024917787 0.072175659 0.010503888
-0.023515873 0.070547618 0.010388941
-0.023491623 0.073085047 0.010497004
-0.022077003 0.071325704 0.010659516
-0.021338331 0.071696788 0.011047512
-0.020882389 0.073088363 0.011672229
-0.019808177 0.072342902 0.011903137
-0.018741056 0.071556762 0.012074232
-0.018036664 0.072146654 0.012291461
-0.017065439 0.071674846 0.012477756
-0.016127979 0.071302645 0.012823254
-0.015349504 0.071631022 0.013673931
-0.014500297 0.071648523 0.01395157
-0.013727872 0.072071329 0.014635801
-0.012952471 0.072533838 0.015485108
-0.011690917 0.07014551 0.017367035
-0.010825713 0.069950759 0.018553644
-0.010048113 0.070336789 0.020365328
-0.0089974888 0.068708099 0.021578372
-0.0081287446 0.068281464 0.022591174
-0.007408103 0.069142297 0.023562789
-0.006553336 0.068810031 0.024228334
-0.0056383652 0.067660384 0.024939477
-0.0048520467 0.067928657 0.02508688
-0.0040581245 0.068176493 0.025376886
-0.0032740356 0.068754748 0.024862081
-0.002421207 0.067793801 0.024881005
-0.0016354058 0.068687044 0.024278522
-0.00082135032 0.068993427 0.023638815
0 0.069444776 0.022857159
0.000818128 0.068722755 0.020977467
0.0016565302 0.069574267 0.019446254
0.0025026598 0.070074476 0.018953443
0.0033489827 0.070328638 0.018084168
0.0042311661 0.07108359 0.017382205
0.0050009768 0.07001368 0.016773582
0.0059165251 0.070998304 0.015951812
0.0067819627 0.071210608 0.015586287
0.0076561673 0.071457565 0.014916092
0.0084574502 0.07104259 0.014663875
0.0093295146 0.071243569 0.014502287
0.010172659 0.071208611 0.014282912
0.0109552 0.070787445 0.014244139
0.011821169 0.070927016 0.014198244
0.012615242 0.070645355 0.014067501
0.013401585 0.070358321 0.014035761
0.014213453 0.070231177 0.014401525
0.015332334 0.071550898 0.014417082
0.016255962 0.071868464 0.014420897
0.016879477 0.070893809 0.014172673
0.017673727 0.070694908 0.014052987
0.018358266 0.070095196 0.013912618
0.019390225 0.070816472 0.014039725
0.020462055 0.071617194 0.014145762
0.021235583 0.071351558 0.014299333
0.021965519 0.070965521 0.014335543
0.022922499 0.071314439 0.01464653
0.023487533 0.070462599 0.014707208
0.024339506 0.070500642 0.015002728
0.025056541 0.070158318 0.015154123
0.025796674 0.069900662 0.015458852
0.026597179 0.069817595 0.015765548
0.027629139 0.07032872 0.016106486
0.028193822 0.069655329 0.015699327
0.029083692 0.069800861 0.015435725
0.029640844 0.069161974 0.014993459
0.03052357 0.069296755 0.013754457
0.031355102 0.069311284 0.012177736
-0.036981151 0.071440868 0.0096614361
-0.036190782 0.071539916 0.010419071
-0.035617184 0.0720824 0.011476636
-0.035364099 0.073315814 0.012025952
-0.034305636 0.072899476 0.012352675
-0.033261314 0.072492607 0.012372255
-0.032661844 0.073059388 0.012272537
-0.031870931 0.073217005 0.011907578
-0.03101627 0.073232859 0.011565775
-0.030044584 0.072965421 0.011567026
-0.029448805 0.073622018 0.011471033
-0.027854612 0.071746729 0.011169225
-0.027495252 0.073034264 0.011334032
-0.026677886 0.07314904 0.011333138
-0.025782734 0.07305108 0.010895789
-0.024758602 0.072568312 0.010462284
-0.023908911 0.072580621 0.010549217
-0.02334482 0.073492952 0.010749757
-0.022076722 0.072173901 0.010802001
-0.021364791 0.072640292 0.011324644
-0.020676099 0.073227853 0.011902511
-0.019679038 0.072726876 0.012046933
-0.018998908 0.073404871 0.012172043
-0.017945012 0.07263457 0.012269199
-0.017215297 0.073165014 0.012320608
-0.016111922 0.072079644 0.012809634
-0.015326745 0.072376296 0.013289988
-0.014503112 0.072515562 0.013457566
-0.01357314 0.072107308 0.013753206
-0.012778745 0.072412886 0.01442638
-0.011871949 0.072079688 0.015257865
-0.011027941 0.072105773 0.016070276
-0.010042322 0.071133122 0.017519951
-0.009142478 0.07064642 0.018688589
-0.0082301777 0.069956511 0.020652413
-0.0073506939 0.069423221 0.021714836
-0.0066120424 0.070252955 0.02306214
-0.0056714169 0.068867207 0.023237914
-0.0049644569 0.070329808 0.023181826
-0.0040760529 0.069292903 0.023155451
-0.0032759595 0.069614142 0.023113519
-0.0024668619 0.069894426 0.021698028
-0.0016587945 0.070498765 0.021326095
-0.0008307168 0.070610926 0.020562142
0 0.071067415 0.019531816
0.00083668117 0.0711179 0.018358886
0.0016517565 0.070199654 0.017889977
0.0025126673 0.071192242 0.017702997
0.0033961958 0.072169162 0.016773582
0.0041675996 0.070849195 0.016220629
0.0050667943 0.071779586 0.015827596
0.0059373295 0.072096147 0.015139014
0.0067761512 0.071996607 0.014744937
0.0076619592 0.072362952 0.014226317
0.0084627196 0.07193312 0.014182031
0.0092369197 0.071376197 0.014244676
0.010198284 0.072237842 0.014126718
0.010986093 0.071832143 0.01420036
0.01185359 0.07196822 0.014163047
0.012710797 0.072027847 0.01416418
0.01346634 0.071539931 0.014170498
0.014262 0.071309999 0.014470071
0.015471539 0.073060043 0.014336854
0.016113054 0.072084717 0.014369875
0.016511148 0.070172384 0.014329493
0.017796159 0.072032064 0.014322847
0.018443353 0.071258411 0.01412186
0.019502353 0.072073914 0.014321208
0.020443173 0.072402909 0.014722794
0.021090942 0.071709201 0.014951706
0.021934344 0.071708433 0.015021771
0.022663502 0.071348064 0.015112311
0.023605676 0.071660087 0.015287787
0.024322091 0.071288884 0.015477926
0.025086772 0.071079187 0.015685439
0.026063945 0.071465656 0.01597622
0.026762677 0.071088366 0.016345471
0.027660387 0.071246453 0.016457856
0.028383782 0.070959456 0.016089171
0.029239651 0.071010582 0.015861422
0.029822761 0.070414856 0.015310138
0.031167623 0.071601294 0.014389634
0.031732067 0.070979618 0.012429416
-0.036819041 0.071964487 0.0098637342
-0.036501359 0.073002718 0.011468798
-0.035312753 0.072307065 0.011800855
-0.035124902 0.073676623 0.012566835
-0.034169614 0.073464677 0.012752473
-0.033181984 0.073170528 0.012966156
-0.032525748 0.073610902 0.012625873
-0.031861372 0.074056156 0.012121767
-0.030820969 0.073627874 0.01194942
-0.030135369 0.07404691 0.012047112
-0.029318728 0.074159138 0.012091726
-0.028315004 0.073790617 0.011822045
-0.027506014 0.073922418 0.011848927
-0.026498493 0.073511943 0.011646509
-0.025359401 0.072696947 0.011268288
-0.024956401 0.074008636 0.010885775
-0.023886763 0.073366486 0.010937244
-0.023011733 0.073296629 0.011260927
-0.022209344 0.073461674 0.011292487
-0.021288464 0.073232315 0.011768252
-0.020668428 0.074061871 0.011763275
-0.019816861 0.074097827 0.011922449
-0.018639565 0.072863758 0.012200087
-0.018084647 0.074060932 0.012107044
-0.017336326 0.074546203 0.012457252
-0.016085606 0.072808526 0.012645304
-0.015350017 0.073338971 0.013072789
-0.014597982 0.07384862 0.013133198
-0.013580512 0.072995253 0.01334995
-0.012853542 0.073693641 0.014026195
-0.011792489 0.072439574 0.014541596
-0.010887534 0.072025225 0.015347093
-0.010157325 0.072794162 0.015407681
-0.0093351183 0.07298366 0.017038971
-0.0081449253 0.070046358 0.017752111
-0.007408089 0.070788413 0.018634647
-0.0066353674 0.071330205 0.019044071
-0.0056893816 0.069898114 0.019395322
-0.0049626362 0.071131118 0.020134091
-0.004108246 0.070661835 0.0201222
-0.0033205438 0.071391687 0.0198237
-0.0025126354 0.072028883 0.019335717
-0.0016767845 0.072101735 0.018703222
-0.00083762477 0.07203573 0.018512368
0 0.072451219 0.018059015
0.00084108236 0.072333083 0.017479271
0.0016779767 0.072153002 0.016896546
0.0025038726 0.071777679 0.017003179
0.0033715703 0.072488762 0.016437471
0.0042191185 0.072568834 0.015645325
0.005141099 0.073689088 0.015122592
0.0059055081 0.072553381 0.014612496
0.0068165571 0.073277988 0.014439523
0.0075550601 0.072192796 0.014074028
0.0083535099 0.071840182 0.014126718
0.0094701536 0.074039385 0.014218062
0.010250282 0.073460355 0.014155298
0.01089838 0.072096974 0.014443278
0.011757457 0.072224379 0.01441589
0.012665886 0.072617747 0.014477074
0.013478532 0.072447106 0.014507294
0.014629372 0.074007407 0.014715374
0.015091664 0.072104618 0.015006602
0.01608108 0.072788045 0.01495108
0.016882613 0.072595239 0.014940232
0.017490786 0.071628928 0.014903933
0.018382883 0.071860358 0.014978141
0.019471886 0.072807923 0.015010834
0.020217096 0.072444595 0.015302569
0.020955252 0.072086059 0.015505344
0.021666408 0.071665809 0.015652031
0.022647155 0.072135381 0.015641481
0.023468778 0.072082676 0.015747666
0.024180394 0.071707368 0.016113997
0.025518144 0.073152013 0.016204029
0.02599174 0.072106116 0.016477346
0.026806144 0.072041512 0.016621858
0.027918907 0.072758362 0.016930073
0.028296662 0.071573913 0.016520351
0.028925464 0.071074001 0.016144216
0.029668681 0.07087519 0.015701741
0.030857464 0.071722753 0.015099376
0.031264871 0.070757337 0.013087928
-0.03789242 0.074923649 0.011054963
-0.036304355 0.073452994 0.011275142
-0.035386812 0.073301256 0.011963964
-0.034936801 0.074134178 0.012828737
-0.034306318 0.074616238 0.013242424
-0.033303797 0.074293084 0.01327759
-0.032856286 0.075223595 0.01311633
-0.031640861 0.074398778 0.01259771
-0.03069834 0.074187659 0.0122419
-0.030236278 0.075158753 0.012363464
-0.029071527 0.074388906 0.012167126
-0.027912423 0.073587298 0.011996508
-0.027547022 0.074893467 0.012144357
-0.026411217 0.074121796 0.011973977
-0.025824141 0.074890003 0.011708468
-0.024824653 0.074473955 0.01151675
-0.02365811 0.073509127 0.011600256
-0.023240689 0.074886665 0.011537552
-0.022027861 0.073708609 0.011491835
-0.021424705 0.074557975 0.01178351
-0.020737736 0.075174294 0.011829734
-0.019627422 0.074242853 0.011982888
-0.018788349 0.07429938 0.01214993
-0.01802285 0.07466609 0.012107044
-0.017160762 0.074649319 0.012394547
-0.016176831 0.07407286 0.012695819
-0.015398894 0.074427992 0.012861192
-0.014399184 0.073689938 0.013093561
-0.013608756 0.073997609 0.013283491
-0.012699546 0.073657371 0.013669491
-0.011737222 0.07293845 0.014384836
-0.010874951 0.072778516 0.014920354
-0.010362202 0.07512597 0.015297443
-0.0091868192 0.072659388 0.016025394
-0.0084290151 0.073332436 0.017016798
-0.0075886883 0.073357321 0.01722613
-0.0066605373 0.072433338 0.01726076
-0.0058891149 0.073193289 0.017676711
-0.0049993945 0.072491221 0.018175572
-0.0041779168 0.072695747 0.017931104
-0.0033807924 0.073532231 0.018087894
-0.0025452995 0.073813684 0.017971426
-0.0016713905 0.072705485 0.017854363
-0.00084767881 0.073748052 0.017949492
0 0.072327949 0.01730758
0.00083087652 0.072286256 0.016912103
0.0016741313 0.072824709 0.016681463
0.0025002563 0.072507434 0.016679943
0.0033622035 0.073127925 0.01576668
0.0042011519 0.073100045 0.015463471
0.0050194119 0.072781473 0.014929146
0.0059520844 0.073975906 0.014609247
0.00677825 0.073713467 0.014439523
0.0075752856 0.073227763 0.014001697
0.0084701153 0.073690005 0.014154643
0.0092955772 0.073519565 0.014283121
0.010122068 0.073384993 0.014439523
0.010986434 0.073524594 0.014597446
0.011869774 0.073762171 0.01453647
0.012601301 0.073087543 0.01458919
0.013582083 0.073852576 0.014677256
0.014280776 0.073083974 0.015239239
0.015163176 0.073288687 0.015077233
0.015961969 0.073089018 0.015077233
0.016709665 0.072687045 0.015133321
0.017689208 0.073283859 0.01541996
0.018592011 0.073522948 0.01525721
0.019286729 0.072954148 0.01532802
0.020053949 0.072695561 0.015437782
0.020972719 0.072985061 0.015685439
0.021582602 0.072218709 0.01565969
0.022746274 0.073293544 0.01623252
0.023772955 0.073865965 0.016143203
0.024162797 0.07248839 0.016381145
0.025096798 0.072780713 0.016480654
0.025751855 0.072271332 0.016979456
0.02677718 0.072800457 0.017232239
0.027592966 0.072745092 0.017510414
0.028431548 0.072751313 0.017129749
0.02877558 0.071527869 0.016604006
0.029901341 0.072261572 0.015920281
0.030290565 0.071223751 0.015517652
0.031801205 0.07280802 0.014666587
-0.036908921 0.073817842 0.011144608
-0.035878144 0.07342504 0.011732996
-0.035087388 0.073516428 0.012325466
-0.034972198 0.075062275 0.013042778
-0.0339306 0.074647322 0.013393104
-0.033198722 0.074909933 0.013668597
-0.032837033 0.076043658 0.013288736
-0.031479653 0.074870519 0.012887478
-0.030731566 0.075121604 0.012790054
-0.029961025 0.075330578 0.012775451
-0.02913112 0.075398192 0.012702197
-0.02815848 0.075089283 0.012504846
-0.027010275 0.074278258 0.012532026
-0.026785929 0.076037474 0.01223889
-0.025741249 0.075507663 0.011950433
-0.024503404 0.074355155 0.011889666
-0.024088331 0.075706176 0.011869788
-0.023032878 0.075070113 0.011841863
-0.022178661 0.075066239 0.011761457
-0.021233762 0.074742839 0.011728734
-0.020589981 0.075496592 0.011901349
-0.01943123 0.074345566 0.012190521
-0.018690921 0.074763685 0.012280375
-0.018054686 0.075657725 0.01231581
-0.017097106 0.075227268 0.012454033
-0.016073467 0.074445531 0.012715757
-0.015340544 0.074998215 0.012993336
-0.01442304 0.074660443 0.012972832
-0.013699733 0.075348526 0.013260782
-0.012861646 0.075454988 0.013630331
-0.011889419 0.074733488 0.014193416
-0.011089037 0.075064249 0.014876217
-0.010143936 0.074388862 0.015153348
-0.0093758591 0.075006872 0.015434146
-0.0084752245 0.074581973 0.016229749
-0.0075815157 0.074130379 0.016833156
-0.0067375614 0.074113175 0.016869128
-0.0058747898 0.073854499 0.017468274
-0.005028584 0.07375256 0.017402738
-0.0041876463 0.073702574 0.017359018
-0.0033549711 0.073809363 0.017498165
-0.0025114571 0.073669411 0.017451823
-0.0016938624 0.074529946 0.017389417
-0.00084253197 0.074142814 0.017428279
0 0.073901966 0.017076731
0.00083657686 0.073618762 0.016760468
0.0016748062 0.073691472 0.016497254
0.0025496883 0.07479085 0.016345352
0.0033397265 0.073473983 0.015718818
0.0042317114 0.07447812 0.015479535
0.0050889626 0.074638113 0.014990807
0.0059123021 0.074326083 0.014483988
0.0066718296 0.073390119 0.01416263
0.0076243822 0.074549511 0.013924271
0.0083990209 0.073911384 0.014064491
0.0093522854 0.074818283 0.014227867
0.010141078 0.074367903 0.014503479
0.010890175 0.073718108 0.014569104
0.011727772 0.073717423 0.014590651
0.012662579 0.074287131 0.015017867
0.013394109 0.073667601 0.015028089
0.014276371 0.073901214 0.01543501
0.015161704 0.074123889 0.015428126
0.015906189 0.073670767 0.015459895
0.016842529 0.074107133 0.01557523
0.017739953 0.074338846 0.015664786
0.01822911 0.072916441 0.015575141
0.019172767 0.073356666 0.015707314
0.01999929 0.07333073 0.016232282
0.020609632 0.072545901 0.016472936
0.021883523 0.074067309 0.016501039
0.022447269 0.073161468 0.016736984
0.023416251 0.073593929 0.016558528
0.024446556 0.074182644 0.016904116
0.025245916 0.074054688 0.017542034
0.025710884 0.072985731 0.017629027
0.026666401 0.0733326 0.017826468
0.027631551 0.073684134 0.018178016
0.028148446 0.072854802 0.017748982
0.02889774 0.072657175 0.017502248
0.029586872 0.072323471 0.016937166
0.03094859 0.073607452 0.016007841
0.030842884 0.071425617 0.014989734
-0.037006866 0.074854799 0.011211067
-0.036327787 0.075190067 0.011823773
-0.035638567 0.075519815 0.012793839
-0.035080209 0.076149717 0.013219476
-0.033903405 0.075435072 0.01371181
-0.033350069 0.076106563 0.014053375
-0.032560881 0.076261006 0.013603389
-0.031632081 0.076087967 0.013258219
-0.030677067 0.075840525 0.012949109
-0.029717024 0.07556615 0.012978137
-0.029150153 0.076304808 0.012801439
-0.027920542 0.075300857 0.012609422
-0.027294243 0.075912111 0.012723297
-0.026306402 0.075524829 0.012529999
-0.025348432 0.075200349 0.012371868
-0.024807358 0.076132923 0.012252599
