ply
format ascii 1.0
comment PCL generated
element vertex 1244
property float x
property float y
property float z
element camera 0
property float view_px
property float view_py
property float view_pz
property float x_axisx
property float x_axisy
property float x_axisz
property float y_axisx
property float y_axisy
property float y_axisz
property float z_axisx
property float z_axisy
property float z_axisz
property float focal
property float scalex
property float scaley
property float centerx
property float centery
property int viewportx
property int viewporty
property float k1
property float k2
end_header
-0.018739754 -0.013036351 0.030975014
-0.018047946 -0.013125779 0.032817572
-0.017199224 -0.013104171 0.03369537
-0.016273988 -0.013019191 0.034332752
-0.015713086 -0.013232072 0.034978926
-0.014703739 -0.01306999 0.035681427
-0.014044637 -0.013218481 0.036374509
-0.013077628 -0.013077628 0.03688395
-0.012001181 -0.01280126 0.03737399
-0.011393065 -0.013020646 0.037544936
-0.010398881 -0.012798623 0.038660556
-0.0096391775 -0.012852237 0.038564891
-0.008878083 -0.012913576 0.038847804
-0.0079630967 -0.012740955 0.039567292
-0.0072072307 -0.012812856 0.039557606
-0.0064364937 -0.012872987 0.04009518
-0.0055174869 -0.012611398 0.040455043
-0.0048000119 -0.012800032 0.040998042
-0.0040741679 -0.013037337 0.041173607
-0.0032043504 -0.012817401 0.04155162
-0.0024098952 -0.012852775 0.042134434
-0.0015910249 -0.012728199 0.042116553
-0.00079771329 -0.012763413 0.04224959
0 -0.012796597 0.042372555
0.00078321272 -0.012531403 0.042263627
0.0015954116 -0.012763293 0.042328894
0.0023746197 -0.012664638 0.041844338
0.0031175949 -0.012470379 0.042042613
0.0039861356 -0.012755634 0.041698575
0.0047725979 -0.012726928 0.041548401
0.0055643935 -0.012718613 0.040768713
0.0064710933 -0.012942187 0.0399068
0.0071524102 -0.012715396 0.039287895
0.0080952672 -0.012952427 0.038481504
0.0087521337 -0.012730378 0.037941903
0.0096406396 -0.012854186 0.037093759
0.010475669 -0.012893131 0.036269099
0.01146467 -0.01310248 0.035858393
0.012010314 -0.012811001 0.035276711
0.012934443 -0.012934443 0.035101861
0.013737294 -0.012929218 0.033733815
0.014451756 -0.012846006 0.032924861
0.015355786 -0.012931189 0.031386554
0.01604519 -0.012836152 0.028546214
0.017227335 -0.013125587 0.026185453
0.018405292 -0.013385667 0.025528908
0.019310553 -0.013433428 0.025512099
0.020087352 -0.013391568 0.02372396
0.021358961 -0.013669735 0.023725927
0.021639138 -0.013316394 0.02277565
0.022718832 -0.013463011 0.021938235
0.024071893 -0.013755367 0.02198264
0.02437913 -0.013450554 0.020974398
0.025207881 -0.013444203 0.020392179
0.026498925 -0.013676864 0.021090537
0.026909163 -0.013454582 0.021153182
0.027712421 -0.013436327 0.021914691
0.028067401 -0.013208188 0.021915108
0.029628132 -0.013544289 0.021765858
0.029760154 -0.013226736 0.021292865
0.03104458 -0.013424683 0.019763589
0.031438302 -0.01323718 0.018807739
0.032489713 -0.013329113 0.016089886
-0.042244032 -0.013201261 0.0066619515
-0.039788928 -0.012698594 0.016896427
-0.039089948 -0.012746722 0.017815918
-0.038406208 -0.012802068 0.018558025
-0.037770905 -0.012876444 0.018703312
-0.037047427 -0.012923522 0.019108742
-0.035755035 -0.012769654 0.019347817
-0.035372436 -0.012941135 0.019004703
-0.034668691 -0.013000759 0.01869911
-0.0337511 -0.012981192 0.018589705
-0.032849722 -0.012966994 0.018561244
-0.031759202 -0.012875352 0.01854676
-0.030848838 -0.012853683 0.01838094
-0.030117497 -0.012907499 0.018375188
-0.029252928 -0.012905704 0.018556297
-0.028202051 -0.012819115 0.018957734
-0.027384056 -0.012836277 0.019546956
-0.026441209 -0.012794132 0.020237803
-0.025481915 -0.012740958 0.020646483
-0.024755111 -0.012804367 0.021718353
-0.023660634 -0.01267534 0.022496164
-0.023295531 -0.012941961 0.023370177
-0.02230205 -0.012866568 0.023828179
-0.021105597 -0.012663358 0.025220007
-0.020261541 -0.012663463 0.027544558
-0.018653417 -0.012165272 0.02950567
-0.018158104 -0.012380525 0.030945837
-0.017264776 -0.012331982 0.032869697
-0.016254868 -0.012191151 0.033309162
-0.015534201 -0.012263842 0.034091234
-0.014735837 -0.012279864 0.03442356
-0.013761389 -0.012142402 0.035623431
-0.013133443 -0.012312603 0.036355704
-0.012035222 -0.012035222 0.0368599
-0.011225362 -0.012027174 0.036936373
-0.010452138 -0.01206016 0.037900984
-0.009599911 -0.011999888 0.0387775
-0.0088293608 -0.012040038 0.0388605
-0.0079742223 -0.011961333 0.039137542
-0.0072150547 -0.012025092 0.039295435
-0.0063211229 -0.011852105 0.040155172
-0.0056306077 -0.012065588 0.040249854
-0.0048257001 -0.01206425 0.04037109
-0.0039478312 -0.011843494 0.040765643
-0.0032675399 -0.012253275 0.041158736
-0.0023801501 -0.011900751 0.041631609
-0.001590082 -0.011925615 0.041875064
-0.00079949648 -0.011992447 0.041796625
0 -0.012050067 0.041992307
0.00078450702 -0.011767605 0.041885376
0.0015872791 -0.011904594 0.041992307
0.0023744835 -0.011872418 0.041435838
0.003182482 -0.011934307 0.041674227
0.0039499635 -0.011849891 0.041440487
0.0047328486 -0.011832122 0.040925533
0.005669842 -0.012149662 0.039944232
0.0064931628 -0.012174681 0.039142996
0.0072737178 -0.012122863 0.03854689
0.0080881305 -0.012132197 0.038045615
0.0089164609 -0.012158811 0.036573946
0.0097015016 -0.012126877 0.036079645
0.010764863 -0.012420997 0.03584978
0.011260316 -0.012064625 0.035458058
0.012322927 -0.012322927 0.034683287
0.013189944 -0.012365572 0.034051836
0.013650652 -0.012044692 0.031959385
0.014557241 -0.012131034 0.030882478
0.015590864 -0.012308577 0.0286493
0.016656524 -0.012492392 0.027623057
0.017446227 -0.012461591 0.025600642
0.018547608 -0.012646097 0.025362194
0.019082954 -0.012445404 0.025432914
0.020146219 -0.012591387 0.024022937
0.02120138 -0.012720828 0.023910046
0.021634901 -0.012481674 0.023312032
0.022875318 -0.01270851 0.022490412
0.023607874 -0.012647075 0.021992773
0.024388526 -0.012614755 0.021986067
0.025583996 -0.012791998 0.02151534
0.026669087 -0.012904396 0.022222221
0.026472487 -0.012408977 0.022160739
0.027612882 -0.01255131 0.022320539
0.028332258 -0.012499525 0.02291438
0.029505629 -0.012645271 0.022340089
0.029889727 -0.012454053 0.021835774
0.030472854 -0.012353859 0.021192402
0.031309929 -0.012359181 0.019583881
0.032419506 -0.012469041 0.018092304
-0.042634062 -0.012434935 0.0072158575
-0.039579131 -0.011789529 0.017168164
-0.038856734 -0.011825962 0.018886954
-0.038030859 -0.011831822 0.01935938
-0.037049338 -0.011788426 0.019444972
-0.03652446 -0.011891684 0.020158738
-0.035567325 -0.011855775 0.020317912
-0.035052497 -0.011969144 0.019881576
-0.034307983 -0.012007794 0.019552439
-0.033439528 -0.012003933 0.019159108
-0.032045815 -0.011806353 0.019396454
-0.031571221 -0.011945866 0.019359291
-0.030864717 -0.012002946 0.019068539
-0.029676132 -0.011870453 0.018969715
-0.029191559 -0.012020053 0.019185394
-0.028318826 -0.012014048 0.02006796
-0.027265999 -0.011928875 0.020270139
-0.026125286 -0.011798515 0.020607382
-0.026016533 -0.012141049 0.021312267
-0.02486662 -0.012004575 0.022118658
-0.024067866 -0.012033933 0.02256301
-0.022839623 -0.011842767 0.023257881
-0.021700094 -0.011684665 0.023995519
-0.021428326 -0.011999862 0.024530888
-0.020469215 -0.011940375 0.025708914
-0.019822093 -0.012065621 0.027654588
-0.017970998 -0.01143609 0.028727561
-0.016946847 -0.011297898 0.030962557
-0.016274594 -0.011392216 0.031972677
-0.015741466 -0.011598974 0.033101916
-0.014566226 -0.011329287 0.033375949
-0.013739862 -0.011315181 0.034113467
-0.012974855 -0.011352998 0.03505376
-0.012025347 -0.011223658 0.035970539
-0.011362796 -0.011362796 0.036344677
-0.010415077 -0.011216237 0.036923498
-0.0095678875 -0.011162536 0.03779465
-0.0089970063 -0.011450735 0.038312614
-0.0079688504 -0.011156391 0.038335592
-0.0070835659 -0.011018881 0.038480341
-0.0064645056 -0.011312885 0.039753437
-0.0056857094 -0.011371419 0.039944172
-0.0048707384 -0.011365056 0.040399462
-0.0039661643 -0.01110526 0.040527016
-0.0032047068 -0.011216474 0.040632337
-0.0023715911 -0.011067425 0.041188359
-0.0016326385 -0.011428469 0.041438699
-0.0007815921 -0.01094229 0.04154703
0 -0.011052378 0.041781485
0.00078969693 -0.011055757 0.04188484
0.0016055822 -0.011239075 0.041889846
0.0023834736 -0.011122877 0.041360825
0.0032030009 -0.011210503 0.041214168
0.0040121689 -0.011234073 0.040981919
0.004759965 -0.011106584 0.040435433
0.0056409263 -0.011281853 0.039062351
0.0065078852 -0.011388799 0.03851217
0.0072573787 -0.011289256 0.038200021
0.0082368962 -0.011531655 0.036850125
0.0088810846 -0.011303199 0.036294758
0.0098887673 -0.011536895 0.035619795
0.010519593 -0.011328792 0.034989238
0.011169253 -0.011169253 0.034457773
0.012056404 -0.011252644 0.033480227
0.012997264 -0.011372606 0.031483829
0.013848539 -0.011404679 0.028801113
0.015232461 -0.01184747 0.027873874
0.01581664 -0.011654366 0.02711001
0.016755408 -0.011728785 0.02593562
0.01749892 -0.011665947 0.025482327
0.018312346 -0.011653312 0.025356531
0.019119658 -0.011638052 0.024884164
0.020343663 -0.011867137 0.024022937
0.021020833 -0.011771666 0.023849875
0.021877171 -0.011780015 0.023381889
0.02247683 -0.011654652 0.023175985
0.023352979 -0.011676489 0.02280888
0.02428144 -0.011722074 0.022555798
0.025637342 -0.011964092 0.02220121
0.025901156 -0.011697295 0.022745997
0.026504021 -0.011595509 0.02266261
0.027631396 -0.011722411 0.023652881
0.028931435 -0.011912944 0.024092227
0.028985595 -0.011594239 0.023968697
0.029437939 -0.011448087 0.023090512
0.030522736 -0.011549142 0.022307783
0.031411864 -0.011572791 0.020907134
0.031689141 -0.011375589 0.018990278
-0.042588234 -0.011534314 0.00997594
-0.039423116 -0.010904266 0.018645853
-0.038898956 -0.010993183 0.019726068
-0.038505491 -0.011123808 0.020349175
-0.037374943 -0.011042597 0.020439714
-0.036824539 -0.011133 0.020903081
-0.035654295 -0.011035853 0.021101594
-0.034980848 -0.011091487 0.020749748
-0.034369059 -0.011169944 0.020301908
-0.03328383 -0.011094609 0.020052254
-0.032564923 -0.011140632 0.020196021
-0.031863503 -0.011195284 0.020423621
-0.030670635 -0.011075508 0.020066053
-0.029935727 -0.011118985 0.02038759
-0.028987536 -0.01108347 0.020600557
-0.02814281 -0.011086562 0.020680308
-0.027161365 -0.011034304 0.020607382
-0.026656767 -0.011178643 0.021204561
-0.025214687 -0.010926364 0.022075295
-0.024438597 -0.010955232 0.022414774
-0.023897959 -0.011095481 0.022684842
-0.02265274 -0.010906874 0.023210049
-0.021686103 -0.010843052 0.023799598
-0.021249169 -0.011049568 0.024241716
-0.020253388 -0.010970585 0.024649411
-0.01938015 -0.010953997 0.025559843
-0.018556196 -0.010965025 0.027654588
-0.017826296 -0.011035326 0.0286102
-0.016910201 -0.010991631 0.030263484
-0.015563513 -0.010648719 0.031058401
-0.014598137 -0.010543099 0.031688184
-0.013928372 -0.010651108 0.032252342
-0.012938923 -0.010512875 0.03349638
-0.012151511 -0.010531309 0.034542322
-0.0113791 -0.010566308 0.035624415
-0.010536316 -0.010536316 0.036520898
-0.0096483715 -0.010452403 0.036516517
-0.0088282228 -0.010433353 0.037032664
-0.0079938918 -0.01039206 0.037461072
-0.0071938327 -0.010391092 0.037822664
-0.0064406772 -0.010466101 0.038654387
-0.0055305017 -0.010270932 0.038771003
-0.0048780954 -0.010569207 0.039081782
-0.0040591247 -0.010553725 0.03955844
-0.0032317904 -0.010503318 0.039809644
-0.0023776412 -0.010303112 0.040092885
-0.0016018171 -0.010411811 0.040142477
-0.00081395794 -0.010581453 0.040759444
0 -0.010386589 0.040762424
0.00078360812 -0.010186906 0.040841937
0.0015640327 -0.010166212 0.040841937
0.0024100014 -0.010443339 0.04065457
0.0031908385 -0.010370225 0.04039827
0.0039558341 -0.010285169 0.03954649
0.0048488458 -0.010505833 0.038696587
0.0054976582 -0.010209937 0.038086951
0.0064089932 -0.010414614 0.037383735
0.0072415392 -0.010460001 0.036540031
0.0080767497 -0.010499774 0.035966158
0.0088905431 -0.010507006 0.034845859
0.0095745418 -0.010372421 0.034524441
0.010505433 -0.010505433 0.033878505
0.011328792 -0.010519593 0.031846911
0.01217983 -0.010555852 0.030328512
0.013528385 -0.010991813 0.02911219
0.014170586 -0.01083633 0.028184146
0.01511539 -0.010916671 0.026748866
0.0158145 -0.010820447 0.025950223
0.016710555 -0.010861862 0.025760472
0.017460773 -0.010809049 0.025137514
0.018399565 -0.010872469 0.025216132
0.019270997 -0.010892303 0.025067538
0.019770121 -0.010708815 0.024274379
0.020995226 -0.010917517 0.023809075
0.022027642 -0.011013821 0.023782313
0.022619905 -0.010891065 0.023477435
0.023596659 -0.010955592 0.023214728
0.024285238 -0.010886486 0.023330212
0.024912037 -0.010795216 0.023183346
0.025799727 -0.01081924 0.023950309
0.026486803 -0.010760264 0.024179548
0.027914315 -0.010996548 0.024618447
0.02799651 -0.010704548 0.025462121
0.028964644 -0.010758297 0.025451422
0.029838094 -0.010774869 0.024790019
0.031304415 -0.010998848 0.024537086
0.031430624 -0.010752582 0.022275001
0.031715441 -0.010571814 0.020091742
-0.040680218 -0.010170055 0.015692353
-0.039528571 -0.010092401 0.019738525
-0.038935374 -0.010157054 0.020597965
-0.037674461 -0.010046522 0.021106273
-0.037796333 -0.010308091 0.021587938
-0.036467783 -0.010177056 0.022192001
-0.035791978 -0.010226279 0.022192001
-0.035110328 -0.010276193 0.021897346
-0.034175221 -0.010252567 0.0211142
-0.033437811 -0.010288557 0.020671785
-0.032742672 -0.010339791 0.020693302
-0.03173798 -0.010293398 0.020788431
-0.030707974 -0.010235991 0.020766586
-0.0300698 -0.010309646 0.020920455
-0.029109541 -0.010273956 0.02104193
-0.028094882 -0.010216321 0.021443397
-0.027095426 -0.010160785 0.021453977
-0.026319759 -0.010188293 0.022027463
-0.025468264 -0.010187306 0.02254799
-0.024789542 -0.010257741 0.022685796
-0.023567848 -0.010100506 0.023227185
-0.023056759 -0.010247448 0.023713082
-0.022124231 -0.010211184 0.024026185
-0.020840222 -0.010003306 0.024563551
-0.020351334 -0.010175667 0.024939567
-0.019219317 -0.010027469 0.025060624
-0.018441161 -0.010058816 0.026324809
-0.017859636 -0.010205505 0.02745536
-0.017151354 -0.010290812 0.028460026
-0.016344348 -0.010322746 0.029076725
-0.015329181 -0.010219455 0.029970199
-0.013987428 -0.0098734787 0.030479103
-0.012988652 -0.0097414888 0.032033324
-0.01232421 -0.0098593682 0.033180833
-0.011151451 -0.0095583862 0.03329286
-0.010444484 -0.0096410625 0.035639793
-0.0097909477 -0.0097909477 0.035968572
-0.0088516967 -0.0096563958 0.036176145
-0.0079463813 -0.0095356582 0.036834866
-0.0072514275 -0.00966857 0.037119597
-0.0063826819 -0.0095740221 0.038057625
-0.0056115557 -0.0096198097 0.038144737
-0.0048389859 -0.0096779717 0.038454294
-0.0040122103 -0.0096293055 0.038314462
-0.0032315552 -0.0096946657 0.038826436
-0.0023833117 -0.009533247 0.03908664
-0.0016012109 -0.0096072648 0.039231151
-0.00080628111 -0.0096753724 0.039529711
0 -0.0095700836 0.039574832
0.00079390861 -0.0095269028 0.039489597
0.0015786603 -0.0094719613 0.039499819
0.0024195141 -0.0096780565 0.039090514
0.0031413566 -0.0094240699 0.038490623
0.0040033739 -0.0096080974 0.038187861
0.004730023 -0.009460046 0.037516207
0.0056008911 -0.0096015269 0.036573946
0.006383169 -0.0095747532 0.036120683
0.007227846 -0.0096371286 0.035652936
0.0081303874 -0.0097564654 0.034845352
0.0088483458 -0.0096527403 0.034005225
0.0098187272 -0.0098187272 0.031908274
0.010640878 -0.0098223491 0.030961812
0.011854972 -0.010161404 0.029775411
0.012755421 -0.010204337 0.028839022
0.01361811 -0.010213582 0.028527319
0.014055751 -0.0099217063 0.027254909
0.015090263 -0.010060175 0.026354522
0.015798381 -0.0099779237 0.0261724
0.016620548 -0.0099723293 0.02595821
0.01767686 -0.010101063 0.025255769
0.01813055 -0.0098893913 0.025455773
0.019252904 -0.010044993 0.025367826
0.020063685 -0.010031843 0.02473262
0.021270592 -0.010209884 0.024087876
0.021294039 -0.009828018 0.023904234
0.022372099 -0.0099431546 0.023599476
0.023804478 -0.01020192 0.023483425
0.024029743 -0.0099433418 0.023829281
0.024799103 -0.0099196406 0.024385601
0.025907217 -0.0100286 0.024797708
0.026414981 -0.0099056177 0.025308251
0.027411351 -0.0099677639 0.025828868
0.028134955 -0.0099299839 0.025885344
0.028909508 -0.0099118315 0.025990099
0.02980544 -0.0099351471 0.025732577
0.030440075 -0.0098724561 0.025576234
0.031585231 -0.0099742832 0.024730772
0.03163036 -0.0097324187 0.023122549
0.034160666 -0.010248201 0.012776703
-0.041534238 -0.0095182629 0.015804797
-0.039858572 -0.0093286019 0.019951224
-0.038244549 -0.0091454359 0.021676213
-0.038508467 -0.0094131799 0.022108167
-0.037127223 -0.0092818057 0.022262216
-0.036160264 -0.0092503 0.02348277
-0.035537373 -0.0093074068 0.023528099
-0.034657881 -0.009298455 0.022812814
-0.033614818 -0.009244075 0.022550583
-0.033698078 -0.0095045855 0.022344828
-0.032180078 -0.0093152849 0.021573007
-0.031077763 -0.0092393346 0.021591187
-0.030681752 -0.0093749799 0.021573007
-0.029938055 -0.0094091026 0.022360563
-0.029006304 -0.0093843918 0.022475958
-0.028155018 -0.0093850056 0.022530973
-0.027004035 -0.0092826374 0.02250126
-0.026688997 -0.0094702886 0.022685796
-0.025470084 -0.0093390299 0.023141533
-0.024481026 -0.0092859054 0.023411602
-0.023797669 -0.0093490835 0.023460776
-0.022702094 -0.0092490008 0.024094999
-0.021739947 -0.0091976691 0.024319112
-0.021311656 -0.0093771275 0.024635196
-0.02035279 -0.0093283616 0.024886549
-0.019415237 -0.0092855478 0.025011927
-0.018651355 -0.0093256775 0.02572459
-0.01771903 -0.0092813969 0.026581734
-0.016952908 -0.0093240989 0.027148634
-0.015652599 -0.0090620304 0.027878791
-0.015013525 -0.0091749327 0.028266519
-0.014247244 -0.0092188045 0.028653264
-0.013884141 -0.0095453467 0.029835939
-0.012590966 -0.0092333751 0.030445218
-0.011352662 -0.0089199487 0.031668305
-0.010472161 -0.0088610584 0.03306216
-0.0095693953 -0.0087719457 0.03420794
-0.008993079 -0.008993079 0.035186946
-0.0080962395 -0.0089058634 0.035382539
-0.0072113634 -0.0088138888 0.035868317
-0.0064991699 -0.0089363586 0.037032604
-0.0055646054 -0.0087443795 0.03704223
-0.0048470129 -0.0088861901 0.037372231
-0.0040088422 -0.0088194525 0.037521392
-0.0031676684 -0.0087110875 0.038142532
-0.0024323047 -0.0089184502 0.038188338
-0.0016138819 -0.0088763498 0.03820613
-0.00079835422 -0.008781896 0.0382514
0 -0.0087262737 0.038398266
0.0007899428 -0.0086893709 0.03834635
0.0015877945 -0.0087328693 0.038144797
0.0024226133 -0.0088829156 0.038006544
0.0031837593 -0.0087553374 0.037493199
0.0040198127 -0.0088435886 0.036789984
0.0048126392 -0.0088231722 0.036115497
0.0056806412 -0.0089267222 0.035867482
0.006416291 -0.0088224001 0.035010576
0.0073084366 -0.0089325337 0.034246564
0.0081096441 -0.008920609 0.032078803
0.0090869106 -0.0090869106 0.030842543
0.010159395 -0.0093127778 0.029745489
0.010972681 -0.0092845764 0.029251695
0.011697199 -0.0091906562 0.0289419
0.01262477 -0.009258165 0.027972519
0.0131874 -0.0090663377 0.027184695
0.014075391 -0.0091076056 0.026520401
0.015129705 -0.0092459312 0.026039898
0.015974188 -0.0092482138 0.026043385
0.016484158 -0.0090662874 0.025974989
0.017426314 -0.0091280686 0.025495052
0.018409008 -0.0092045041 0.025394827
0.019163311 -0.0091650607 0.025399446
0.019927859 -0.0091336025 0.025052279
0.021262988 -0.0093557145 0.0248276
0.021611849 -0.0091434745 0.024757415
0.022421313 -0.0091346093 0.024722219
0.023418009 -0.0091999322 0.024622411
0.023939785 -0.0090806074 0.024805635
0.024735231 -0.0090695843 0.02508384
0.026001379 -0.0092262952 0.025979996
0.026807664 -0.0092151342 0.026072979
0.027046459 -0.0090154856 0.02632305
0.028110119 -0.0090944497 0.026508957
0.028654419 -0.0090056751 0.026636392
0.029418552 -0.0089890026 0.026362002
0.030188479 -0.0089749526 0.026107579
0.031066362 -0.0089928936 0.025725633
0.031310845 -0.0088312635 0.024520427
0.034432385 -0.0094689056 0.015208155
-0.041563068 -0.0086589716 0.017506868
-0.039471332 -0.0083981557 0.02159369
-0.03859802 -0.0083908737 0.02278766
-0.037854027 -0.0084120054 0.023546636
-0.037004326 -0.0084100738 0.023925602
-0.036762014 -0.0085493056 0.024645656
-0.035883415 -0.0085436702 0.024472594
-0.034692448 -0.0084615722 0.024096012
-0.034063417 -0.0085158544 0.024178326
-0.033234145 -0.0085215755 0.023759425
-0.032332055 -0.0085084355 0.023027956
-0.031551406 -0.0085274065 0.023119211
-0.030567912 -0.0084910868 0.023051292
-0.029468173 -0.0084194783 0.023200631
-0.02864887 -0.0084261382 0.02331847
-0.02797843 -0.0084783118 0.023231298
-0.027112737 -0.0084727304 0.023210198
-0.026270602 -0.0084743872 0.023625791
-0.025345918 -0.008448639 0.023693264
-0.024665989 -0.008505513 0.023752272
-0.02356256 -0.0084151998 0.0238581
-0.022692082 -0.0084044747 0.024243087
-0.022002319 -0.00846243 0.024370253
-0.021224832 -0.0084899319 0.024662018
-0.020359961 -0.0084833167 0.024829507
-0.019440301 -0.0084523046 0.024649441
-0.018482519 -0.0084011452 0.025508583
-0.017532276 -0.0083487025 0.026164442
-0.016968628 -0.0084843142 0.026487589
-0.01572882 -0.0082783261 0.027135462
-0.015159194 -0.008421775 0.027606726
-0.014168457 -0.0083343862 0.028012007
-0.01343969 -0.008399806 0.028194159
-0.012511385 -0.0083409231 0.02835986
-0.011672378 -0.008337413 0.028951585
-0.011088244 -0.0085294181 0.030207247
-0.0099984761 -0.0083320634 0.031468064
-0.0089152474 -0.0081047704 0.032406211
-0.008130895 -0.008130895 0.034091055
-0.0072858795 -0.0080954218 0.034852535
-0.0064030606 -0.0080038253 0.035354614
-0.0056456039 -0.0080651483 0.035344243
-0.0048612268 -0.0081020445 0.035903692
-0.0040279999 -0.0080559999 0.03617397
-0.0032427271 -0.0081068175 0.036951989
-0.002412532 -0.008041773 0.036907941
-0.001585948 -0.0079297395 0.036940038
-0.00080480694 -0.0080480697 0.036949635
0 -0.0078749787 0.037332296
0.000796395 -0.0079639498 0.037219346
0.0016169135 -0.0080845673 0.037230641
0.0023845537 -0.0079485122 0.036518455
0.0032444336 -0.0081110839 0.036043555
0.0040237331 -0.0080474662 0.035248011
0.0048341653 -0.0080569414 0.034630924
0.0055598509 -0.0079426439 0.033925653
0.0065644416 -0.0082055517 0.032042295
0.0076615815 -0.0085128685 0.03123185
0.0084770201 -0.0084770201 0.030793607
0.0092322845 -0.0083929859 0.029768944
0.0099823903 -0.0083186589 0.029132485
0.010783317 -0.008294859 0.028719693
0.01188986 -0.0084927566 0.028255075
0.012250065 -0.008166709 0.027407885
0.013209702 -0.0082560629 0.026829004
0.014040077 -0.008258868 0.026344597
0.014968472 -0.0083158175 0.026075184
0.015844507 -0.0083392141 0.026073664
0.016509589 -0.0082547944 0.026038408
0.017527161 -0.008346267 0.025939733
0.018324515 -0.0083293244 0.025618851
0.019240145 -0.00836528 0.025666714
0.020546885 -0.0085612023 0.0253039
0.021048402 -0.008419361 0.025347233
0.021347564 -0.0082106013 0.025315136
0.022869429 -0.0084701581 0.025441617
0.023467213 -0.0083811469 0.025520563
0.023953689 -0.0082598925 0.025850058
0.025032261 -0.0083440868 0.026458889
0.025972929 -0.0083783632 0.026453704
0.026350534 -0.0082345409 0.026854932
0.027026167 -0.0081897471 0.026916891
0.027934352 -0.0082159853 0.027411401
0.028849691 -0.0082427692 0.027432799
0.029263103 -0.0081286402 0.0274252
0.030462187 -0.0082330229 0.027285755
0.031052239 -0.0081716413 0.026289254
0.032552712 -0.0083468491 0.025760204
0.033932403 -0.0084831007 0.017490804
-0.040324952 -0.0075609288 0.018798381
-0.039539088 -0.0075713145 0.023166209
-0.038547348 -0.0075418716 0.02393201
-0.037659973 -0.007531994 0.024720639
-0.036683891 -0.0075035226 0.025180519
-0.035763364 -0.0074853548 0.025816888
-0.035073239 -0.0075156935 0.025656819
-0.034572653 -0.0075891186 0.025058985
-0.033614125 -0.0075631775 0.025039971
-0.032956883 -0.0076054339 0.024745673
-0.032038774 -0.0075881309 0.024465978
-0.031131027 -0.0075724116 0.024333537
-0.030576268 -0.0076440671 0.024333537
-0.029882252 -0.0076840073 0.0243074
-0.028514255 -0.0075478908 0.02430445
-0.027709421 -0.0075571146 0.024578482
-0.026657373 -0.0074973861 0.024264336
-0.026000837 -0.0075486293 0.024282426
-0.025440419 -0.0076321252 0.024419904
-0.024540491 -0.0076160138 0.024419904
-0.023102513 -0.0074258074 0.024471223
-0.023056347 -0.0076854485 0.02475512
-0.021897648 -0.0075799548 0.024832189
-0.021166766 -0.0076200352 0.025109589
-0.020365546 -0.0076370793 0.025297761
-0.019526837 -0.0076409355 0.024912447
-0.018456832 -0.0075505218 0.025474638
-0.017501352 -0.0075005791 0.026036173
-0.016906314 -0.0076078405 0.026289612
-0.015903292 -0.0075331377 0.026749045
-0.015335481 -0.0076677403 0.027215064
-0.014140307 -0.0074860444 0.027441978
-0.013402479 -0.0075388937 0.02791518
-0.012416181 -0.0074497084 0.027897507
-0.011582661 -0.0074459962 0.027964473
-0.010722175 -0.0074230442 0.02861014
-0.0099778641 -0.0074833981 0.028986454
-0.0092375241 -0.0075579742 0.029682696
-0.0083727045 -0.0075354339 0.030681968
-0.0073916246 -0.0073916246 0.031543493
-0.0065531288 -0.0073722694 0.032533765
-0.005604553 -0.0072058532 0.0336487
-0.0048205545 -0.0072308313 0.034281313
-0.0040693837 -0.0073248907 0.034827471
-0.0031875707 -0.0071720337 0.035435826
-0.0024134067 -0.00724022 0.035395205
-0.0016099382 -0.007244722 0.03524062
-0.00079735665 -0.0071762092 0.035448104
0 -0.0072760843 0.035537392
0.00078650576 -0.0070785517 0.036234349
0.0015942106 -0.0071739475 0.035358429
0.0024095662 -0.0072286986 0.034626096
0.0032190245 -0.0072428049 0.033947378
0.0040446967 -0.007280454 0.033587635
0.0049299048 -0.0073948572 0.031663299
0.005915585 -0.007605752 0.031072736
0.0067003793 -0.0075379265 0.030851245
0.0075002285 -0.0075002285 0.029888958
0.0083337016 -0.0075003318 0.029746294
0.0090223551 -0.0073819272 0.029307634
0.0099581229 -0.0074685919 0.028758258
0.010895637 -0.0075431331 0.028297573
0.011648336 -0.0074882158 0.027446508
0.012426232 -0.0074557387 0.027160823
0.013207562 -0.0074292533 0.026785702
0.014034696 -0.0074301329 0.026268125
0.014983609 -0.0074918047 0.026127994
0.015902136 -0.0075325901 0.026189119
0.016628681 -0.0074829063 0.026207983
0.017634306 -0.0075575593 0.026174694
0.0182948 -0.0074842358 0.026162207
0.019217487 -0.0075198859 0.025984615
0.019937644 -0.0074766162 0.02603209
0.021108966 -0.0075992271 0.026001036
0.021802749 -0.0075471057 0.025810331
0.022690138 -0.0075633791 0.025976509
0.023327272 -0.0074980515 0.026254177
0.024182558 -0.0075049312 0.026499629
0.024873253 -0.0074619758 0.02671057
0.025836919 -0.0075010401 0.027030319
0.02629764 -0.0073962109 0.027404636
0.027208202 -0.0074204183 0.027572244
0.028161105 -0.0074544097 0.027676404
0.028802505 -0.0074063581 0.028148979
0.029170839 -0.0072927098 0.027672559
0.029913725 -0.0072763111 0.027412355
0.031480696 -0.0074559543 0.026816994
0.031648356 -0.0073034666 0.02576986
0.033174962 -0.007464366 0.022782058
-0.040260244 -0.0067100404 0.019750118
-0.039051697 -0.0066470974 0.023307443
-0.037872378 -0.0065865004 0.024522603
-0.037926387 -0.0067424686 0.025703549
-0.03667248 -0.0066677243 0.025906295
-0.035905987 -0.006680184 0.026277423
-0.034843352 -0.0066368291 0.026049197
-0.034624204 -0.006755942 0.025871336
-0.03339266 -0.0066785319 0.025543362
-0.033084035 -0.0067864684 0.02556771
-0.031941291 -0.0067244824 0.02539441
-0.031229245 -0.0067522689 0.025028288
-0.030416127 -0.0067591397 0.024965286
-0.029560737 -0.0067567402 0.024908304
-0.028697504 -0.0067523536 0.024771422
-0.027967518 -0.0067800046 0.024910599
-0.027022423 -0.0067556058 0.024643213
-0.026379054 -0.0068074977 0.02471897
-0.025633261 -0.0068355361 0.025056452
-0.024381327 -0.0067258831 0.025022328
-0.023648633 -0.0067567523 0.024871498
-0.022757029 -0.0067428234 0.025125802
-0.02184503 -0.0067215478 0.02537781
-0.021204393 -0.0067854053 0.025526345
-0.020054076 -0.0066846926 0.02568537
-0.019400485 -0.0067479941 0.025368184
-0.018706892 -0.0068025067 0.025917202
-0.017558532 -0.0066889646 0.026122928
-0.016902339 -0.0067609353 0.026289612
-0.015775707 -0.0066424031 0.026773751
-0.015073197 -0.0066991993 0.026986867
-0.014146232 -0.0066570505 0.027218729
-0.013296954 -0.0066484772 0.027451783
-0.012487203 -0.0066598416 0.027410954
-0.011634453 -0.0066482592 0.027625889
-0.010822549 -0.0066600302 0.027647197
-0.010083691 -0.006722461 0.028697133
-0.0091575729 -0.006660053 0.028930366
-0.0083378004 -0.0066702408 0.029530674
-0.0075324406 -0.0066955034 0.030256093
-0.0068299514 -0.0068299514 0.030798763
-0.0058117891 -0.006642045 0.031398773
-0.0050336709 -0.0067115617 0.031471401
-0.0041598189 -0.0066557103 0.031448096
-0.0033128301 -0.0066256602 0.031906754
-0.002422679 -0.0064604776 0.032407045
-0.0016435531 -0.0065742126 0.032395393
-0.00082532014 -0.0066025611 0.032681525
0 -0.0064943112 0.03282851
0.00081178627 -0.0064942902 0.032843947
0.0016611104 -0.0066444417 0.032543689
0.0025205226 -0.0067213932 0.031783938
0.0033530642 -0.0067061284 0.031130373
0.0041089179 -0.0065742689 0.030797631
0.0049444311 -0.0065925745 0.030634493
0.0059013916 -0.0067444476 0.030295312
0.006636858 -0.006636858 0.03029862
0.0074841701 -0.0066525959 0.02948755
0.0082366336 -0.006589307 0.0288122
0.0090328883 -0.0065693734 0.028708458
0.010044205 -0.0066961367 0.028220773
0.010862154 -0.0066844025 0.028135657
0.011628483 -0.0066448473 0.027347386
0.012455219 -0.0066427835 0.02723369
0.013055244 -0.0065276218 0.027154714
0.014267379 -0.0067140609 0.026894242
0.015038118 -0.0066836085 0.026642442
0.015824301 -0.0066628638 0.026657999
0.016733071 -0.0066932281 0.02692306
0.01748438 -0.0066607161 0.026723355
0.01812971 -0.006592622 0.026723355
0.018951133 -0.0065916986 0.026887685
0.019894883 -0.0066316277 0.02667883
0.020720676 -0.0066306163 0.027009517
0.021897227 -0.006737608 0.026900381
0.022040997 -0.0065306653 0.026922286
0.023287635 -0.0066536102 0.026766211
0.024508284 -0.006760906 0.027330875
0.024440508 -0.006517469 0.02769345
0.025806252 -0.0066596777 0.027791232
0.026332084 -0.006583021 0.02816543
0.026904877 -0.0065223947 0.028119147
0.027788768 -0.0065385336 0.028839797
0.028687116 -0.0065570548 0.028922409
0.029126473 -0.0064725499 0.028774112
0.030557672 -0.0066070636 0.028327048
0.030825077 -0.0064894897 0.027862012
0.031394456 -0.0064398879 0.026374936
0.032846712 -0.0065693427 0.024612635
-0.039945398 -0.0058253706 0.020429194
-0.03954868 -0.0058902293 0.024823457
-0.038253039 -0.0058211149 0.025860369
-0.037772741 -0.0058757593 0.026480407
-0.037135474 -0.0059079165 0.026766479
-0.035983235 -0.0058577363 0.026964247
-0.03544851 -0.005908085 0.026766479
-0.034098648 -0.0058217202 0.02664271
-0.033712089 -0.0058996156 0.026226163
-0.033099767 -0.005940984 0.026137888
-0.031981982 -0.0058914181 0.025902212
-0.03118128 -0.0058991606 0.025767446
-0.030115876 -0.0058558648 0.025690407
-0.029426066 -0.0058852131 0.025567412
-0.028996259 -0.0059698178 0.025533199
-0.028131232 -0.005967231 0.025776625
-0.027155925 -0.0059403582 0.025688708
-0.025909206 -0.005850466 0.0255436
-0.024945034 -0.0058205076 0.025714755
-0.024382465 -0.0058854222 0.025753617
-0.023498179 -0.0058745448 0.025866359
-0.022671046 -0.0058776783 0.026023
-0.021755885 -0.005857354 0.026116282
-0.021053264 -0.0058949138 0.026058227
-0.02023028 -0.0059004985 0.02629599
-0.01954698 -0.0059490809 0.025948942
-0.018514918 -0.0058911103 0.026454777
-0.017434055 -0.0058113518 0.026438624
-0.016825188 -0.005888816 0.02680859
-0.015808843 -0.0058243102 0.027101219
-0.015218612 -0.0059183491 0.027104437
-0.01425355 -0.0058691087 0.027218729
-0.013352157 -0.0058415686 0.027451783
-0.01250241 -0.0058344575 0.027296782
-0.011632438 -0.0058162189 0.027387291
-0.010819095 -0.0058256667 0.027489126
-0.0097763008 -0.005702842 0.027957916
-0.0092163244 -0.0058649336 0.028710037
-0.0082315337 -0.0057620741 0.028985769
-0.007464224 -0.0058055078 0.029722482
-0.006689345 -0.005853177 0.030219883
-0.0059123361 -0.0059123361 0.030502707
-0.0050507314 -0.0058925198 0.03053236
-0.0041548316 -0.0058167642 0.030844152
-0.0033215203 -0.0058126603 0.031087399
-0.0025131421 -0.0058639981 0.030990511
-0.0016675286 -0.0058363504 0.031179607
-0.00082755362 -0.0057928753 0.031098992
0 -0.0058940365 0.031021148
0.00084267318 -0.0058987122 0.031071454
0.0016628953 -0.0058201337 0.030955076
0.0024670528 -0.0057564569 0.030733436
0.0032832355 -0.0057456624 0.030513555
0.0041630613 -0.0058282861 0.030413926
0.0050123269 -0.0058477148 0.03035444
0.0057698181 -0.0057698181 0.030090362
0.0066191261 -0.0057917354 0.029773653
0.0074252761 -0.0057752146 0.029091656
0.0083028413 -0.0058119893 0.028802752
0.0091070523 -0.0057953973 0.028802752
0.010059301 -0.0058679255 0.028395534
0.010685223 -0.0057535814 0.028185457
0.011707503 -0.0058537517 0.027688205
0.012291309 -0.005735944 0.02766189
0.013214727 -0.0057814429 0.027318805
0.014065091 -0.0057915077 0.02723369
0.014804216 -0.0057571954 0.027210325
0.01576256 -0.0058072587 0.027098
0.016826406 -0.005889242 0.027404696
0.017343281 -0.0057810936 0.027600467
0.018213589 -0.005795233 0.027415901
0.019173203 -0.0058353222 0.027337611
0.019800875 -0.0057752556 0.027323574
0.02124189 -0.0059477291 0.02741158
0.021507546 -0.0057904935 0.027263224
0.022112647 -0.0057329084 0.027670801
0.023508396 -0.005877099 0.027698934
0.023774093 -0.0057385736 0.027822495
0.024605794 -0.0057413517 0.028192282
0.025602067 -0.0057811118 0.028754264
0.026284695 -0.005749777 0.029136211
0.027076559 -0.0057435129 0.029347211
0.027554605 -0.0056730066 0.02974394
0.028305821 -0.0056611644 0.029831618
0.029051317 -0.0056488672 0.029958516
0.029943641 -0.0056650131 0.029453903
0.031061754 -0.005721902 0.028821349
0.031102471 -0.0055824947 0.027676404
0.032324098 -0.0056567173 0.025586724
-0.040272426 -0.0050340532 0.022554994
-0.039154679 -0.0049984693 0.026005059
-0.039566875 -0.0051608966 0.026607305
-0.037752446 -0.0050336593 0.027448684
-0.037232958 -0.0050772219 0.027953178
-0.036542505 -0.0050989538 0.028440982
-0.035261475 -0.0050373534 0.027953178
-0.034413345 -0.0050360989 0.027716517
-0.033652775 -0.0050479164 0.027040213
-0.03253549 -0.0050054602 0.026806653
-0.031872563 -0.0050325096 0.026765198
-0.030856827 -0.0050038095 0.026561975
-0.030128019 -0.0050213365 0.026493281
-0.029314585 -0.0050253575 0.026638836
-0.028458335 -0.0050220592 0.02639237
-0.027574934 -0.0050136242 0.026383102
-0.02676806 -0.0050190114 0.026512712
-0.025838647 -0.0050010285 0.026450962
-0.025381962 -0.0050763926 0.026574761
-0.024200046 -0.0050069061 0.02658543
-0.022969507 -0.004922037 0.026434481
-0.022910113 -0.0050911359 0.026666373
-0.021932352 -0.0050613121 0.026730478
-0.020844184 -0.0050026039 0.026728123
-0.020171214 -0.0050428035 0.026810765
-0.019217379 -0.0050132293 0.02720654
-0.018265219 -0.0049814237 0.027274936
-0.017604813 -0.0050299461 0.027236253
-0.016767412 -0.0050302241 0.027427375
-0.016101073 -0.0050845495 0.027447045
-0.015280623 -0.005093541 0.027394503
-0.014307976 -0.0050498736 0.027342796
-0.013409233 -0.005028462 0.02740714
-0.012598875 -0.0050395499 0.027179658
-0.011594525 -0.0049690818 0.027115673
-0.010887661 -0.0050250744 0.027207613
-0.0099741472 -0.0049870736 0.027609974
-0.0091536799 -0.0049929162 0.028019786
-0.0082148015 -0.0049288813 0.028641522
-0.0075144474 -0.0050096316 0.028779775
-0.0067266789 -0.0050450088 0.029078186
-0.0057427427 -0.0049223509 0.029648066
-0.0049836347 -0.0049836347 0.029682696
-0.0040955604 -0.0049146726 0.030079871
-0.003341652 -0.0050124777 0.030238897
-0.0025284251 -0.0050568501 0.030171365
-0.0016518667 -0.0049556 0.030411869
-0.00083703734 -0.005022224 0.030458242
0 -0.0049282261 0.030631095
0.00082825788 -0.004969547 0.030873716
0.0016535737 -0.0049607214 0.030803621
0.0024779441 -0.0049558883 0.030398816
0.0033479924 -0.0050219884 0.03029418
0.0041626212 -0.0049951454 0.030191541
0.0048856079 -0.0048856079 0.029662132
0.0057990691 -0.0049706306 0.02946341
0.0066184197 -0.0049638147 0.029408634
0.0074189948 -0.0049459967 0.028780818
0.0084067928 -0.0050440761 0.028645784
0.0091476468 -0.0049896254 0.02887097
0.0099887727 -0.0049943863 0.028624892
0.010807652 -0.0049881469 0.028243482
0.011684946 -0.0050078342 0.02813518
0.012492864 -0.0049971454 0.028084755
0.013337104 -0.0050014136 0.02813518
0.014107081 -0.0049789697 0.028111011
0.014901293 -0.0049670981 0.028377891
0.015993463 -0.005050567 0.028084755
0.016355779 -0.0049067335 0.028373212
0.017457776 -0.0049879355 0.028451324
0.018119238 -0.0049416102 0.028051049
0.018728791 -0.0048857713 0.027944386
0.019905381 -0.0049763452 0.028146625
0.020497339 -0.0049193609 0.028141886
0.02149418 -0.0049601952 0.028132021
0.022369757 -0.0049710572 0.028173447
0.023274336 -0.0049873576 0.028431714
0.023730965 -0.0049098548 0.028556436
0.024871258 -0.0049742516 0.029151559
0.02561629 -0.0049579917 0.029634088
0.026097111 -0.0048932084 0.029942036
0.026975391 -0.0049046166 0.03016153
0.027677579 -0.0048842784 0.030340761
0.028432386 -0.0048741233 0.030947894
0.029308254 -0.0048847091 0.031579286
0.02979435 -0.0048315157 0.030681849
0.030571736 -0.0048271162 0.029388428
0.031607799 -0.0048627383 0.029626131
0.031941988 -0.0047912984 0.027132809
0.03585314 -0.0052468008 0.0069826245
-0.03963162 -0.0041282941 0.025044918
-0.039355226 -0.0041867262 0.02688247
-0.038219649 -0.0041543092 0.02766338
-0.03747835 -0.0041642608 0.028457075
-0.03673023 -0.0041738898 0.028748214
-0.035759121 -0.0041580372 0.029161781
-0.035066571 -0.0041745915 0.028878957
-0.034282714 -0.0041808183 0.028614253
-0.033044811 -0.0041306014 0.028320491
-0.032394603 -0.0041531539 0.027956307
-0.031908248 -0.0041984534 0.027801752
-0.031028602 -0.004193054 0.027679384
-0.030317053 -0.0042107017 0.027452528
-0.029487781 -0.0042125401 0.02740255
-0.028358096 -0.0041703079 0.027197152
-0.027904732 -0.0042279898 0.027231336
-0.026739802 -0.0041780942 0.027316719
-0.026178727 -0.0042223749 0.027205229
-0.025461262 -0.0042435434 0.027279496
-0.02434372 -0.0041971928 0.027641803
-0.023673639 -0.0042274352 0.027517557
-0.022446075 -0.0041566803 0.027517557
-0.021532878 -0.0041409382 0.027487725
-0.020761225 -0.0041522449 0.027507395
-0.020084264 -0.0041842218 0.027741551
-0.019159237 -0.0041650515 0.02766031
-0.018555142 -0.0042170775 0.027809918
-0.017735837 -0.0042228182 0.027836442
-0.016845932 -0.0042114831 0.028063565
-0.015825069 -0.0041644913 0.028049827
-0.014907287 -0.004140913 0.028013259
-0.014188341 -0.0041730413 0.027877659
-0.013258607 -0.0041433144 0.027697146
-0.012590167 -0.0041967221 0.02733916
-0.01170838 -0.0041815643 0.027341813
-0.010846048 -0.0041715568 0.027524829
-0.0098874616 -0.0041197757 0.027704775
-0.0092190271 -0.0041904668 0.028049439
-0.0084918048 -0.0042459024 0.028421938
-0.007443388 -0.0041352157 0.028489619
-0.0066883843 -0.00418024 0.02878049
-0.0057979883 -0.0041414201 0.029173374
-0.0049402779 -0.0041168984 0.029242903
-0.0041447789 -0.0041447789 0.029578239
-0.0033315243 -0.0041644052 0.029796988
-0.0025491801 -0.0042486335 0.029720873
-0.0016294864 -0.0040737158 0.029715866
-0.00083182263 -0.0041591129 0.029933095
0 -0.0041140076 0.03016606
0.00083871232 -0.0041935616 0.030538023
0.0016578984 -0.0041447459 0.030525684
0.0025264998 -0.004210833 0.030290306
0.0033049425 -0.0041311779 0.029637724
0.0040707053 -0.0040707053 0.029752553
0.0049084546 -0.004090379 0.029498756
0.0057335519 -0.0040953942 0.029191554
0.0066113323 -0.0041320827 0.029394358
0.0075355526 -0.0041864184 0.028792441
0.0082010655 -0.0041005327 0.028708458
0.008939459 -0.0040633902 0.028811127
0.010139768 -0.0042249034 0.028708458
0.010740685 -0.0041310326 0.028560877
0.011652931 -0.0041617607 0.028792441
0.012498775 -0.004166258 0.02863133
0.013240087 -0.0041375267 0.028906912
0.013911843 -0.0040917182 0.028764993
0.015083801 -0.0041899448 0.028782904
0.015631825 -0.0041136383 0.029124737
0.016866637 -0.0042166593 0.028911531
0.0175466 -0.0041777613 0.028911531
0.017818507 -0.0040496606 0.028864682
0.018812034 -0.0040895725 0.02921164
0.02026977 -0.0042228689 0.029166073
0.020679075 -0.004135815 0.029155999
0.02159141 -0.0041521941 0.029017717
0.022046955 -0.0040827692 0.029175073
0.023077585 -0.0041209972 0.029280692
0.023892257 -0.0041193543 0.029600859
0.024799148 -0.0041331914 0.029953569
0.025588898 -0.0041272412 0.030418068
0.026331384 -0.0041142786 0.030675709
0.026683548 -0.0040429621 0.031043559
0.027911933 -0.0041046957 0.031624943
0.028709719 -0.0041013882 0.032383919
0.028539743 -0.0039638532 0.032652587
0.029948117 -0.0040470427 0.032237172
0.031308554 -0.0041195466 0.031312555
0.031135548 -0.0039917366 0.031021893
0.032253698 -0.0040317122 0.027525038
0.035421658 -0.0043197144 0.011192203
-0.044132423 -0.0036026468 0.0059351623
-0.04010056 -0.0033417132 0.026465654
-0.038414247 -0.0032692978 0.027947932
-0.037942071 -0.0032993106 0.028510034
-0.037291259 -0.0033147784 0.028704345
-0.036464583 -0.0033149621 0.029303908
-0.035754904 -0.0033260374 0.029679239
-0.034891814 -0.00332303 0.029234976
-0.034010116 -0.00331806 0.029050946
-0.033395194 -0.0033395193 0.028683394
-0.032887775 -0.0033731053 0.02864635
-0.031671558 -0.0033338482 0.028526723
-0.031112581 -0.0033635222 0.028461605
-0.030331017 -0.0033701132 0.028245211
-0.029322783 -0.0033511752 0.028329134
-0.028821584 -0.0033907746 0.02792573
-0.02777316 -0.0033664438 0.028231293
-0.027055627 -0.0033819533 0.028240979
-0.025943898 -0.0033475996 0.028195739
-0.024690399 -0.0032920532 0.028502017
-0.023878817 -0.0032936297 0.028673381
-0.023255346 -0.0033221925 0.028528988
-0.022624098 -0.003351718 0.028738201
-0.021826144 -0.0033578684 0.028698534
-0.020967187 -0.0033547499 0.028461546
-0.020301014 -0.0033835024 0.028686732
-0.019208778 -0.0033406569 0.028841853
-0.018311897 -0.0033294361 0.028659105
-0.017448636 -0.0033235494 0.028515667
-0.016645446 -0.0033290896 0.028783649
-0.015701696 -0.0033056203 0.028629512
-0.014924151 -0.0033164781 0.028515786
-0.014215663 -0.003344862 0.028157294
-0.013254104 -0.003313526 0.027840585
-0.012553963 -0.0033477235 0.027534068
-0.011693354 -0.0033409582 0.027900606
-0.010876457 -0.0033466022 0.02798894
-0.01008374 -0.0033612465 0.028362423
-0.0091482177 -0.0033266246 0.028539091
-0.0082396958 -0.0032958784 0.028601825
-0.0074342713 -0.0033041209 0.028626651
-0.0066076159 -0.0033038079 0.028750837
-0.0057943109 -0.0033110348 0.028982788
-0.0049700458 -0.003313364 0.028862774
-0.0041372743 -0.0033098198 0.029345244
-0.0033147905 -0.0033147905 0.029653043
-0.0024940125 -0.0033253499 0.029525757
-0.0016627008 -0.0033254016 0.029471397
-0.00082940713 -0.0033176285 0.029530972
0 -0.0033381255 0.029865921
0.00083440682 -0.0033376273 0.030545115
0.001660262 -0.003320524 0.030450135
0.002467856 -0.0032904746 0.030221045
0.0032716242 -0.0032716242 0.029621184
0.0041351407 -0.0033081127 0.029808372
0.0049155424 -0.0032770284 0.029641032
0.0058002854 -0.0033144488 0.029364198
0.0066129807 -0.0033064904 0.029662132
0.0075840428 -0.003370686 0.029431731
0.0082451813 -0.0032980726 0.029230863
0.0091817398 -0.0033388147 0.029264897
0.0097692618 -0.0032564208 0.029046923
0.010626113 -0.0032695734 0.028938591
0.01162084 -0.0033202402 0.029262781
0.01231908 -0.0032850879 0.029089332
0.01304745 -0.0032618626 0.029432386
0.013971262 -0.0032873556 0.029510647
0.014525062 -0.0032277917 0.029701054
0.015611435 -0.003286618 0.02983886
0.016539488 -0.0033078976 0.029763311
0.017246608 -0.0032850681 0.029812247
0.018019915 -0.0032763481 0.029789329
0.019238178 -0.0033457698 0.029763401
0.019899316 -0.0033165528 0.029789329
0.020711601 -0.0033138562 0.030125529
0.021593597 -0.0033220919 0.029789329
0.021958875 -0.0032531666 0.030353129
0.023032248 -0.003290321 0.030283004
0.023494357 -0.0032406009 0.030376107
0.02457366 -0.003276488 0.030897617
0.025523655 -0.0032933748 0.031366497
0.025637789 -0.0032047236 0.031696528
0.026981076 -0.0032704335 0.032255054
0.027357059 -0.0032184776 0.032368451
0.028040852 -0.0032046689 0.032797724
0.028901257 -0.0032112508 0.032930106
0.029699599 -0.0032107674 0.032620013
0.030324521 -0.0031920546 0.032103837
0.031500887 -0.0032308602 0.031950742
0.032118693 -0.0032118694 0.030781239
0.034044933 -0.0033214565 0.024420828
-0.043445364 -0.0026599204 0.008333385
-0.039526056 -0.0024703785 0.026963979
-0.038773697 -0.0024749169 0.028369546
-0.038126796 -0.00248653 0.02899614
-0.037346601 -0.0024897733 0.029423892
-0.036265358 -0.0024726382 0.029903829
-0.03575046 -0.0024942183 0.030386329
-0.03513198 -0.002509427 0.030094922
-0.034160066 -0.0024995168 0.030005753
-0.033422608 -0.0025066957 0.029302418
-0.032905057 -0.0025311583 0.029174358
-0.031992868 -0.0025257526 0.028878957
-0.031016661 -0.0025148643 0.028874487
-0.030454105 -0.0025378421 0.028845966
-0.029595543 -0.0025367609 0.028874487
-0.028574333 -0.0025212646 0.028845966
-0.027334597 -0.0024849633 0.02891022
-0.026515517 -0.0024858299 0.028731614
-0.02536591 -0.0024547654 0.028738618
-0.024705529 -0.0024705529 0.029214472
-0.024318477 -0.0025157046 0.029343545
-0.023141747 -0.0024794729 0.029204667
-0.022379849 -0.0024866497 0.029161334
-0.02193103 -0.0025305033 0.029033482
-0.020607078 -0.0024728493 0.029151529
-0.020281006 -0.0025351257 0.02895844
-0.019119589 -0.0024938593 0.029024303
-0.018250685 -0.0024887298 0.028911948
-0.017657442 -0.0025224916 0.028823256
-0.016727414 -0.0025091122 0.028939307
-0.015714768 -0.002481279 0.028777093
-0.01494202 -0.0024903368 0.028633773
-0.014022312 -0.0024745257 0.028831512
-0.013480549 -0.0025276027 0.028446138
-0.012483861 -0.0024967722 0.02818951
-0.011547727 -0.0024745127 0.028502554
-0.010821238 -0.0024972088 0.028568655
-0.0098184766 -0.0024546192 0.028658092
-0.009052542 -0.0024688751 0.02869463
-0.0082051326 -0.0024615398 0.028807998
-0.007398224 -0.0024660747 0.028859794
-0.0066023967 -0.0024758987 0.028749704
-0.0059011253 -0.0025290537 0.029026687
-0.0050202697 -0.0025101348 0.028871328
-0.0041071852 -0.0024643112 0.029320747
-0.0032755977 -0.0024566981 0.029432654
-0.0024891282 -0.0024891282 0.02922824
-0.0016551766 -0.0024827649 0.029348344
-0.00083131547 -0.0024939463 0.029393226
0 -0.0025009052 0.029692292
0.00082473032 -0.0024741909 0.030063272
0.0016684687 -0.0025027031 0.030221045
0.0024523619 -0.0024523619 0.030115128
0.0032948647 -0.0024711485 0.029612899
0.0041580945 -0.0024948567 0.029796362
0.0049697887 -0.0024848944 0.029477388
0.0058614379 -0.0025120447 0.029354274
0.006525341 -0.0024470028 0.029677302
0.0074871019 -0.0024957007 0.029378474
0.0082130563 -0.002463917 0.029622972
0.0090384623 -0.0024650351 0.029610217
0.009865284 -0.002466321 0.029423565
0.010743598 -0.002479292 0.029647827
0.011557111 -0.0024765239 0.030130565
0.012434507 -0.0024869014 0.029999763
0.013360647 -0.0025051213 0.030270398
0.013978817 -0.00246685 0.030078292
0.014679975 -0.0024466626 0.030135393
0.015758742 -0.0024882222 0.030241549
0.016214654 -0.002432198 0.030276209
0.017280228 -0.0024686039 0.030629814
0.018002894 -0.0024549402 0.030835479
0.01867016 -0.0024352381 0.030920863
0.019705471 -0.0024631838 0.030809015
0.020617729 -0.0024741273 0.030960917
0.021208063 -0.0024470843 0.030799508
0.022286221 -0.0024762468 0.030957878
0.023029342 -0.0024674295 0.030935466
0.023704739 -0.0024522142 0.031387985
0.024849631 -0.002484963 0.031619251
0.025401717 -0.0024582306 0.032519877
0.025830893 -0.0024216461 0.032760203
0.026739016 -0.0024308197 0.032853723
0.02726057 -0.0024053443 0.032769799
0.028313585 -0.0024268788 0.033161491
0.029111763 -0.0024259803 0.033311635
0.029671039 -0.0024057599 0.033096313
0.030832633 -0.0024341552 0.032572687
0.031338263 -0.0024106356 0.032537013
0.032044157 -0.0024033117 0.031865716
0.033888992 -0.0024796822 0.025804222
-0.042749114 -0.0017448619 0.013996154
-0.039497606 -0.0016457337 0.027566463
-0.038654752 -0.0016448831 0.028622091
-0.037745636 -0.0016411146 0.029395431
-0.037551675 -0.0016689632 0.030002475
-0.036151249 -0.0016432386 0.030890584
-0.035305236 -0.0016421039 0.031864673
-0.034722466 -0.0016534508 0.031583607
-0.033603523 -0.0016391961 0.03095907
-0.032840669 -0.0016420336 0.030618101
-0.032155294 -0.0016489894 0.030660272
-0.031222934 -0.0016433123 0.030400395
-0.03050719 -0.0016490372 0.030490607
-0.029824933 -0.0016569408 0.030445367
-0.029075131 -0.0016614361 0.030614942
-0.028068678 -0.0016510987 0.030490607
-0.027561627 -0.0016704017 0.030490607
-0.026352549 -0.0016470343 0.030300856
-0.025745103 -0.0016609743 0.030258834
-0.024813537 -0.0016542358 0.030281365
-0.024290636 -0.0016752162 0.030321002
