ply
format ascii 1.0
comment PCL generated
element vertex 1256
property float x
property float y
property float z
element camera 0
property float view_px
property float view_py
property float view_pz
property float x_axisx
property float x_axisy
property float x_axisz
property float y_axisx
property float y_axisy
property float y_axisz
property float z_axisx
property float z_axisy
property float z_axisz
property float focal
property float scalex
property float scaley
property float centerx
property float centery
property int viewportx
property int viewporty
property float k1
property float k2
end_header
0.016350221 -0.010627643 0.027687103
0.017255006 -0.01068167 0.026631147
0.018398225 -0.010871679 0.022334188
0.019966494 -0.011285409 0.0054434538
-0.025169237 -0.010067695 0.024419576
-0.024442257 -0.010114037 0.026228458
-0.02294137 -0.0098320153 0.027682185
-0.0226545 -0.010068666 0.028144389
-0.021779504 -0.010052078 0.028431237
-0.020423539 -0.0098032989 0.028924584
-0.020233063 -0.010116532 0.028721392
-0.018945016 -0.0098843556 0.028181106
-0.018300584 -0.0099821361 0.0278835
-0.017716484 -0.010123705 0.027391702
-0.016887169 -0.010132302 0.026322514
-0.015946439 -0.010071435 0.025304526
-0.015123141 -0.010082095 0.024012417
-0.014379763 -0.01015042 0.022593766
-0.01364734 -0.010235505 0.02212742
-0.012935396 -0.010348317 0.021118581
-0.011913812 -0.010211838 0.019336581
-0.011116022 -0.010260944 0.018720955
-0.010246391 -0.010246391 0.0178155
-0.0093791261 -0.010231773 0.017127275
-0.0085483622 -0.010258035 0.016180068
-0.0078184679 -0.010424624 0.015572101
-0.0069549931 -0.010432489 0.014931619
-0.0060632951 -0.01039422 0.014587969
-0.0052006119 -0.010401224 0.014316767
-0.0043346016 -0.010403044 0.013938308
-0.0034760672 -0.010428201 0.014664412
-0.0026231972 -0.010492789 0.015205473
-0.001748216 -0.010489295 0.01510945
-0.00087844353 -0.010541322 0.015648723
0 -0.01047553 0.015907735
0.00085766026 -0.010291923 0.016471326
0.0016804425 -0.010082655 0.016926199
0.0025615802 -0.010246321 0.01785931
0.003352958 -0.010058873 0.018619627
0.0042879796 -0.010291151 0.019414127
0.0050342418 -0.010068484 0.020476788
0.0058738971 -0.010069538 0.021466553
0.0068589579 -0.010288437 0.022055626
0.0074812048 -0.0099749397 0.023004144
0.0083814161 -0.0100577 0.024024695
0.0092162732 -0.010054116 0.025065005
0.010146969 -0.010146969 0.025639206
0.010842815 -0.010008752 0.026799828
0.011679304 -0.010010832 0.027382106
0.012466729 -0.0099733826 0.027985543
0.013274148 -0.0099556111 0.028750926
0.013914965 -0.0098223286 0.028508306
0.014808601 -0.0098724011 0.028311104
0.015582074 -0.0098413099 0.028466016
0.016284533 -0.0097707203 0.028494835
0.017487694 -0.0099929674 0.027285427
0.017833328 -0.0097272703 0.025392652
0.020232553 -0.010556114 0.0058045685
-0.028797062 -0.010218312 0.0051941276
-0.025358854 -0.0092982464 0.025337815
-0.024040274 -0.0091187246 0.026990324
-0.02345887 -0.0092159845 0.027798682
-0.022398327 -0.0091252439 0.028580666
-0.021303469 -0.0090130065 0.028892785
-0.020884296 -0.0091890898 0.029271573
-0.019978967 -0.0091570262 0.028949827
-0.019037345 -0.0091048172 0.028363407
-0.01853219 -0.0092660952 0.027850956
-0.017450599 -0.0091407895 0.027345598
-0.01678854 -0.0092336973 0.026240259
-0.015946425 -0.0092321401 0.025177628
-0.014988317 -0.0091595268 0.023662239
-0.014444979 -0.0093467506 0.022381991
-0.013601546 -0.0093510626 0.021518588
-0.012835824 -0.0094129369 0.019929916
-0.011917224 -0.009363533 0.018546969
-0.011040791 -0.0093422076 0.017867684
-0.010411625 -0.0095439889 0.016718626
-0.0095701423 -0.0095701423 0.015226603
-0.0085684741 -0.0094253216 0.01459536
-0.0077049546 -0.0094171669 0.013588637
-0.0069847433 -0.0096040219 0.0134435
-0.0060125384 -0.009448274 0.012688935
-0.0051582013 -0.0094567025 0.01246199
-0.0043035247 -0.0094677545 0.012284189
-0.0034431601 -0.0094686905 0.012426764
-0.0025959576 -0.0095185107 0.01277259
-0.0017157934 -0.0094368635 0.013247699
-0.00085845328 -0.009442986 0.013320535
0 -0.0093498183 0.015223622
0.00086198846 -0.0094818734 0.015564382
0.0017245703 -0.0094851367 0.016082853
0.0026272254 -0.0096331602 0.01651147
0.0034012268 -0.0093533732 0.017593056
0.0042605563 -0.0093732243 0.018655747
0.0051037162 -0.0093568126 0.019269168
0.0059690243 -0.0093798954 0.021196723
0.0067517073 -0.0092835966 0.021474659
0.0077011152 -0.009412474 0.022763014
0.0084094377 -0.009250381 0.024024695
0.0091680083 -0.0091680083 0.025182337
0.010059234 -0.0092209643 0.025828183
0.010828544 -0.0091626141 0.026824504
0.011636649 -0.0091430815 0.027521312
0.012414632 -0.0091040637 0.028203845
0.013075336 -0.0089892931 0.028967232
0.013925279 -0.0090104742 0.029187173
0.014928035 -0.0091226883 0.028980076
0.015675735 -0.0090754256 0.02899006
0.016183428 -0.0089008855 0.028783768
0.017372625 -0.0090999464 0.028195143
0.017889502 -0.0089447508 0.026273876
0.020387959 -0.009750763 0.0067019761
-0.02811693 -0.0090699764 0.0061528087
-0.025045028 -0.008348342 0.026342362
-0.024225209 -0.0083535202 0.027463764
-0.023019424 -0.0082212221 0.028016597
-0.022076298 -0.0081764059 0.0288499
-0.021586375 -0.008302452 0.029137701
-0.020555615 -0.0082222456 0.029344946
-0.019949608 -0.0083123371 0.02913335
-0.018939212 -0.0082344394 0.028446704
-0.01837004 -0.0083500184 0.027694762
-0.017257433 -0.0082178246 0.027191073
-0.016967412 -0.008483706 0.026004195
-0.015960194 -0.0084001021 0.02484265
-0.015379512 -0.0085441731 0.02324447
-0.014386911 -0.0084628882 0.021951675
-0.013530321 -0.0084564509 0.020512611
-0.012674024 -0.0084493496 0.01896289
-0.012088578 -0.0086346986 0.017596424
-0.011249815 -0.0086537041 0.01662603
-0.010304828 -0.0085873567 0.014648467
-0.0095037427 -0.0086397659 0.013508946
-0.0086531295 -0.0086531295 0.012629211
-0.0079566585 -0.0088407323 0.012053698
-0.0071124532 -0.0088905664 0.010324985
-0.0062505659 -0.0089293793 0.0074059069
-0.0053132297 -0.0088553829 0.0070582032
-0.0044577103 -0.0089154206 0.006872654
-0.0036077166 -0.009019291 0.0069068968
-0.0026928633 -0.0089762118 0.0083148777
-0.001778934 -0.0088946698 0.0085777342
-0.00087911281 -0.0087911272 0.010321558
0 -0.008555254 0.010734111
0.00085954578 -0.0085954573 0.012875348
0.0017196849 -0.0085984245 0.014773905
0.0025723556 -0.0085745184 0.01575017
0.0034714243 -0.0086785611 0.016372025
0.0042995401 -0.0085990801 0.018027723
0.0050736978 -0.0084561622 0.018739253
0.0059988541 -0.008569791 0.019790798
0.0067584882 -0.00844811 0.021237761
0.0077641457 -0.0086268289 0.022060275
0.0083301608 -0.0083301608 0.023622572
0.0091283927 -0.0082985386 0.024812132
0.010039421 -0.0083661834 0.025722325
0.010782524 -0.008294249 0.026827008
0.011712464 -0.0083660455 0.027587026
0.012273821 -0.0081825471 0.028317004
0.012944631 -0.0080903945 0.029084295
0.013926191 -0.008191877 0.029838204
0.014790901 -0.0082171671 0.029568791
0.015569172 -0.0081943003 0.029591084
0.016279461 -0.0081397304 0.02946651
0.017161559 -0.0081721712 0.028783768
0.018106254 -0.0082301153 0.026821554
0.020602044 -0.0089574102 0.0070640147
-0.026988115 -0.0078352587 0.0088881552
-0.025183279 -0.0075549833 0.026633263
-0.02386694 -0.0074069807 0.028069109
-0.022664914 -0.0072851507 0.028797418
-0.022222113 -0.0074073705 0.029402643
-0.02125076 -0.0073560323 0.030182898
-0.020669386 -0.0074409787 0.0303666
-0.020044254 -0.0075165951 0.029607475
-0.019339267 -0.0075675393 0.028717279
-0.018304173 -0.007488071 0.027859539
-0.017404193 -0.0074589392 0.027134001
-0.016639641 -0.0074878382 0.02580592
-0.015904451 -0.0075336862 0.024340928
-0.015321231 -0.0076606153 0.022546649
-0.014513046 -0.0076833772 0.021084428
-0.013780617 -0.0077515966 0.01936084
-0.01297723 -0.0077863378 0.017976254
-0.011986093 -0.0077053448 0.015745759
-0.011159394 -0.0077257343 0.014535725
-0.010439979 -0.0078299837 0.012334973
-0.0097543318 -0.007980817 0.0074092448
-0.0088163558 -0.0079347203 0.0064045489
-0.0080103362 -0.0080103362 0.0058681369
-0.0072060036 -0.0081067542 0.0057582259
-0.0062769623 -0.0080703795 0.0057560205
-0.0053464598 -0.0080196895 0.0054756105
-0.0027253921 -0.0081761759 0.0056431592
-0.0017817218 -0.0080177477 0.0057631433
-0.00090232975 -0.0081209671 0.0060808361
0 -0.0082131643 0.0080614984
0.00088062801 -0.007925652 0.0095133781
0.0017224692 -0.0077511114 0.010481358
0.0025891499 -0.0077674496 0.014427572
0.0034292047 -0.00771571 0.015654713
0.004303453 -0.007746215 0.016464651
0.0051273936 -0.0076910905 0.01776737
0.0059262514 -0.0076194657 0.01885432
0.0067988713 -0.0076487297 0.020151079
0.0075517874 -0.0075517874 0.02176401
0.0084549747 -0.0076094777 0.023334801
0.009045816 -0.0074011218 0.024672568
0.0099676279 -0.0074757203 0.025842726
0.010821182 -0.0074915877 0.026765198
0.01161166 -0.007464638 0.027506769
0.012314753 -0.0073888516 0.028684139
0.013034086 -0.0073316731 0.029967517
0.013827619 -0.0073205042 0.030062079
0.014699699 -0.0073498497 0.029808223
0.015664963 -0.0074202451 0.029835492
0.016280424 -0.0073261904 0.029854357
0.017268682 -0.0074008633 0.029543728
0.018263999 -0.0074716364 0.027014226
0.020432491 -0.0079953214 0.007065922
-0.026868951 -0.0069339229 0.015423298
-0.025201024 -0.0067202733 0.027231127
-0.023735953 -0.0065478492 0.028532773
-0.02289599 -0.0065417117 0.029687524
-0.02217895 -0.0065715401 0.030422688
-0.021667877 -0.0066670394 0.030928403
-0.020792169 -0.0066534942 0.030897915
-0.019724006 -0.0065746685 0.030462325
-0.018983331 -0.0066028973 0.029303133
-0.018333264 -0.0066666417 0.028701812
-0.017406393 -0.006631007 0.02742967
-0.016960789 -0.0067843157 0.025806218
-0.015865954 -0.0066804015 0.024373114
-0.015495247 -0.006886777 0.022390574
-0.014391633 -0.0067725331 0.019531727
-0.013706301 -0.0068531507 0.017669588
-0.012830795 -0.0068430905 0.015798479
-0.012190587 -0.0069660498 0.013924569
-0.011685944 -0.0071913502 0.010822982
-0.010811266 -0.0072075115 0.0059995651
-0.009837972 -0.0071548889 0.0056134462
-0.0088814246 -0.00710514 0.0052084625
0 -0.0071385726 0.0056615174
0.00090201187 -0.007216095 0.006601423
0.001762918 -0.0070516719 0.0079574883
0.0026741461 -0.0071310564 0.0091187358
0.0034796176 -0.0069592353 0.014233947
0.0042204726 -0.0067527564 0.015501618
0.0051068189 -0.0068090921 0.01637435
0.0060635293 -0.0069297478 0.018050969
0.0068177609 -0.0068177609 0.019116312
0.0076772533 -0.0068242252 0.02165699
0.0083542559 -0.0066834046 0.023254603
0.00917299 -0.0066712657 0.024633259
0.0099016139 -0.0066010761 0.025759637
0.010763933 -0.0066239587 0.026883572
0.011646395 -0.0066550826 0.027986169
0.012547514 -0.0066920076 0.029012591
0.012868114 -0.0064340569 0.030357033
0.013971242 -0.0065747024 0.030671
0.014744327 -0.0065530348 0.030388206
0.015547778 -0.0065464331 0.030130416
0.016308077 -0.006523231 0.030187607
0.017380822 -0.0066212658 0.029927105
0.018127032 -0.0065916479 0.027120262
0.020198397 -0.0070255292 0.007507205
-0.026007192 -0.0058725914 0.024204701
-0.024731642 -0.0057707164 0.028174013
-0.023878133 -0.0057636872 0.029686898
-0.023101406 -0.0057753515 0.031483501
-0.022245675 -0.0057673971 0.031621248
-0.021284515 -0.005730446 0.03216207
-0.020770323 -0.0058156899 0.03210026
-0.019678187 -0.0057394714 0.031372666
-0.0192194 -0.0058493828 0.029887497
-0.01838769 -0.0058506289 0.028991729
-0.017326659 -0.0057755532 0.027480513
-0.016981067 -0.0059433738 0.025831819
-0.015875952 -0.0058490345 0.02362895
-0.015494877 -0.0060257856 0.021170676
-0.014681208 -0.0060452032 0.018683761
-0.013717662 -0.0060014771 0.016095698
-0.013333101 -0.006222114 0.01410979
-0.012684194 -0.0063420972 0.0073483586
-0.011772836 -0.0063392189 0.0060344338
-0.010687457 -0.0062343506 0.0053571463
0.00089425052 -0.0062597534 0.0052284598
0.0017978729 -0.0062925555 0.0062587261
0.0026647609 -0.0062177754 0.0073310137
0.0035285514 -0.0061749648 0.0089997947
0.0043779509 -0.0061291312 0.012211859
0.0051162019 -0.0059689027 0.015331596
0.0059532989 -0.0059532989 0.016705006
0.0068566035 -0.0059995279 0.01839447
0.0075898431 -0.0059032119 0.021062523
0.0085192043 -0.0059634433 0.022997528
0.0091311866 -0.0058107553 0.024727672
0.0099744732 -0.0058184424 0.026130557
0.010747802 -0.0057872781 0.026887506
0.011703238 -0.0058516189 0.028216541
0.012418335 -0.0057952232 0.029948026
0.01301979 -0.0056961584 0.030426472
0.013859027 -0.0057066581 0.030787587
0.014565227 -0.005664255 0.030544221
0.015337922 -0.0056508132 0.030460954
0.01645254 -0.0057583894 0.03059265
0.017054332 -0.0056847772 0.029935241
0.018031454 -0.0057372809 0.027120262
0.020347731 -0.0061927876 0.0071088672
-0.02595548 -0.005023641 0.026309073
-0.025099251 -0.0050198501 0.029278874
-0.023813847 -0.0049270028 0.030782282
-0.022714064 -0.0048672995 0.03218925
-0.022483084 -0.0049962406 0.032225043
-0.02137712 -0.0049331817 0.032450229
-0.020494295 -0.0049186307 0.032440841
-0.020079195 -0.0050197989 0.031871229
-0.018900987 -0.0049306923 0.030700684
-0.018178165 -0.0049576815 0.029687524
-0.017416861 -0.004976246 0.02848503
-0.016827088 -0.0050481264 0.027375758
-0.016191328 -0.0051130508 0.023538709
-0.015548127 -0.0051827091 0.020647258
-0.014693195 -0.0051858332 0.017374396
-0.01430695 -0.0053651063 0.014418334
-0.013604153 -0.0054416615 0.0087697804
-0.012511542 -0.0053620897 0.0060099065
-0.011732121 -0.0054148249 0.0050070584
0.0017756317 -0.005326895 0.0055718422
0.0026557241 -0.0053114481 0.0067555904
0.0035640548 -0.0053460822 0.0072257519
0.0043799574 -0.0052559492 0.0087848604
0.0052817385 -0.0052817385 0.011985034
0.0060380301 -0.0051754545 0.015128911
0.0068305489 -0.0051229117 0.017614305
0.007550105 -0.0050334036 0.019152373
0.0084799323 -0.0050879596 0.022417009
0.0090873102 -0.0049567148 0.02479589
0.0099931611 -0.0049965805 0.026307076
0.010810028 -0.0049892436 0.027185917
0.011790723 -0.0050531668 0.028827429
0.012411527 -0.004964611 0.030341357
0.013055408 -0.0048957779 0.031503022
0.013933113 -0.004917569 0.031341136
0.014671065 -0.0048903548 0.031183422
0.015486652 -0.0048905215 0.031169504
0.016282707 -0.0048848125 0.031082124
0.017195666 -0.0049130474 0.030453622
0.018146023 -0.0049489154 0.027202278
0.020261757 -0.0052856756 0.0073674023
0.021539818 -0.0053849546 0.0052930117
-0.029067794 -0.0045418427 0.0053538084
-0.025798069 -0.0041609788 0.026746094
-0.02502715 -0.0041711917 0.029997587
-0.023816427 -0.0041062804 0.032162696
-0.023012869 -0.0041094408 0.032834172
-0.021920484 -0.0040593487 0.032901764
-0.021211751 -0.0040791831 0.032994509
-0.020507168 -0.0041014333 0.033000022
-0.019678198 -0.0040996242 0.032591552
-0.018764433 -0.0040792241 0.031606287
-0.018331472 -0.0041662436 0.030292779
-0.017483948 -0.0041628443 0.02890256
-0.016844714 -0.0042111785 0.02754584
-0.015985912 -0.0042068185 0.02328828
-0.015368856 -0.0042691268 0.019605398
-0.015258083 -0.0044876714 0.015592515
-0.014210941 -0.004440919 0.010185927
-0.013656712 -0.0045522372 0.0072988272
-0.012643344 -0.0045154798 0.0055838823
0.0017695958 -0.0044239894 0.005231142
0.002677581 -0.0044626351 0.0059307814
0.0035354006 -0.0044192504 0.0067580342
0.0043932158 -0.0043932158 0.0072565973
0.0052427808 -0.0043689841 0.0088360906
0.0062477621 -0.0044626873 0.013675481
0.0068117641 -0.0042573526 0.016297311
0.0077259163 -0.0042921756 0.018820465
0.0084034251 -0.0042017126 0.02239725
0.0091754487 -0.0041706585 0.024774641
0.010101738 -0.0042090579 0.026658833
0.010729594 -0.0041267672 0.027971894
0.011617955 -0.0041492693 0.03033632
0.012414695 -0.0041382313 0.031148136
0.013114342 -0.0040982319 0.031738579
0.0137068 -0.0040314114 0.031523615
0.014640869 -0.0040669078 0.031311005
0.015325183 -0.0040329429 0.03155759
0.016379477 -0.0040948694 0.031262636
0.017265301 -0.0041107857 0.030413866
0.018052893 -0.00410293 0.026675612
0.020293253 -0.0044115763 0.0078188479
0.021355052 -0.0044489689 0.0056601167
-0.028944133 -0.0036180166 0.0057432055
-0.025555693 -0.0032975085 0.027786613
-0.02436207 -0.0032482762 0.031632245
-0.023607226 -0.0032561689 0.032523543
-0.02303395 -0.0032905643 0.033077627
-0.022009792 -0.0032607098 0.033188701
-0.02134365 -0.0032836385 0.03333348
-0.020527519 -0.0032844031 0.033376515
-0.019754706 -0.0032924511 0.032977164
-0.01881396 -0.003271993 0.032173008
-0.018222159 -0.00331312 0.030645251
-0.017077824 -0.0032529188 0.029292285
-0.01671974 -0.0033439482 0.027941763
-0.016081249 -0.0033855261 0.024890244
-0.015647773 -0.0034772831 0.01901716
-0.015142525 -0.003562947 0.013599753
-0.01427665 -0.0035691625 0.0090868771
-0.013527316 -0.0036072843 0.0066311657
-0.012562656 -0.0035893302 0.0050796866
0.0017707429 -0.0035414859 0.0050674081
0.0026575362 -0.0035433816 0.0056442916
0.0035628146 -0.0035628146 0.0058665276
0.0044735121 -0.0035788096 0.0068708956
0.0052721919 -0.0035147946 0.007648021
0.0061877673 -0.003535867 0.0094797015
0.0070119053 -0.0035059527 0.014851242
0.0077047381 -0.0034243281 0.018470824
0.0084499856 -0.0033799943 0.02239725
0.0092481142 -0.0033629506 0.025283694
0.0098072924 -0.0032690975 0.026946127
0.010583333 -0.0032564101 0.028440148
0.011753069 -0.00335802 0.030881643
0.01217102 -0.0032456052 0.031737924
0.01292073 -0.0032301825 0.032254577
0.013724789 -0.0032293622 0.032079995
0.014315651 -0.0031812559 0.031934857
0.015542005 -0.0032720012 0.031449586
0.016300773 -0.0032601547 0.031095445
0.017109789 -0.0032590074 0.030556709
0.018392259 -0.0033440473 0.024227589
0.020366622 -0.0035420211 0.0081884563
0.021383403 -0.0035639005 0.0062434673
-0.028627735 -0.00268385 0.0061858594
-0.025339527 -0.0024522122 0.028167605
-0.024665399 -0.0024665399 0.031509906
-0.023974573 -0.0024801281 0.032571882
-0.022608677 -0.0024223581 0.033314884
-0.022118682 -0.0024576313 0.033385277
-0.021543443 -0.0024857819 0.033458829
-0.020100459 -0.0024120549 0.033586681
-0.019911436 -0.0024889295 0.033224821
-0.018891374 -0.0024640921 0.032789975
-0.018182375 -0.0024794149 0.031572968
-0.017408097 -0.0024868711 0.030036837
-0.016481386 -0.0024722079 0.028814703
-0.016802534 -0.0026530316 0.02507475
-0.015927702 -0.002654617 0.018535405
-0.01505897 -0.0026574652 0.012259513
-0.014243819 -0.002670716 0.0080702603
-0.013366752 -0.0026733505 0.0067118108
0.0026830197 -0.0026830197 0.0052434206
0.0035636241 -0.0026727181 0.005544275
0.0044656838 -0.0026794104 0.0062602162
0.0053282748 -0.0026641374 0.0066928566
0.0061674188 -0.0026431794 0.0080585778
0.0070271776 -0.0026351914 0.011755317
0.0078234095 -0.0026078031 0.017763674
0.0085452599 -0.0025635781 0.022249669
0.0090954518 -0.0024805777 0.025586247
0.0099632852 -0.0024908213 0.027084321
0.010688141 -0.002466494 0.028971821
0.011789157 -0.0025262479 0.031461447
0.012193222 -0.0024386442 0.032024205
0.01312962 -0.0024618036 0.032951623
0.013700235 -0.0024176885 0.032207459
0.014568141 -0.0024280234 0.031776696
0.015515729 -0.0024498519 0.031548232
0.01599055 -0.0023985826 0.031134635
0.017207343 -0.0024581919 0.030728668
0.018633753 -0.0025409665 0.021192282
0.020084249 -0.0026196844 0.0079957843
0.021407241 -0.0026759051 0.0061556101
0.022344494 -0.0026813392 0.0053293109
-0.02787547 -0.0017422169 0.01392889
-0.025415301 -0.0016396968 0.029247522
-0.0244177 -0.0016278467 0.03207311
-0.023839144 -0.0016440789 0.032629043
-0.022866201 -0.0016333 0.033324748
-0.021976121 -0.0016278608 0.033288419
-0.021091327 -0.0016224098 0.033400625
-0.020389838 -0.001631187 0.033700228
-0.019791963 -0.0016493303 0.03347078
-0.018555643 -0.0016135342 0.03330192
-0.018193373 -0.0016539431 0.032597154
-0.017421156 -0.0016591578 0.031129748
-0.016406128 -0.001640613 0.029567063
-0.017508699 -0.0018430209 0.02733767
-0.016024435 -0.001780493 0.017977923
-0.015133771 -0.0017804437 0.011581957
-0.014202124 -0.0017752656 0.0085553527
-0.013326747 -0.0017768997 0.0073027015
-0.012513644 -0.0017876636 0.0058757365
-0.011419559 -0.0017568553 0.0051754117
0.0017725166 -0.0017725166 0.0052045584
0.0026589164 -0.0017726109 0.0054185987
0.003523926 -0.001761963 0.0056569576
0.0044175875 -0.001767035 0.0063013732
0.0052859243 -0.0017619748 0.007021606
0.0061329477 -0.0017522707 0.0084329247
0.007005828 -0.001751457 0.010899752
0.0079584951 -0.0017685546 0.01760003
0.0088203037 -0.0017640608 0.022294432
0.0088937823 -0.0016170514 0.026133567
0.009989039 -0.0016648399 0.028054655
0.010733467 -0.0016513026 0.030799568
0.011631513 -0.0016616447 0.032337129
0.012309486 -0.0016412649 0.032614619
0.013005048 -0.001625631 0.03306818
0.013815404 -0.0016253417 0.032708764
0.01447517 -0.0016083522 0.032647431
0.015264855 -0.0016068269 0.032367885
0.016255099 -0.00162551 0.031587064
0.017294563 -0.0016471012 0.030747712
0.018776022 -0.0017069111 0.019544154
0.020406587 -0.0017744858 0.0079470575
0.020998558 -0.0017498799 0.0061919689
0.021999482 -0.0017599586 0.0055808127
-0.029878095 -0.00090539682 0.0053859949
-0.027642332 -0.00086382288 0.016862154
-0.02561719 -0.00082636089 0.029411614
-0.0245365 -0.00081788329 0.031899899
-0.023701802 -0.00081730349 0.032871932
-0.023101445 -0.00082505163 0.033229202
-0.021810424 -0.00080779346 0.033342749
-0.021498101 -0.00082685007 0.034041524
-0.020426543 -0.00081706169 0.034398675
-0.019816982 -0.00082570763 0.034074843
-0.018891847 -0.0008213846 0.033943683
-0.017999327 -0.00081815122 0.03349191
-0.017476304 -0.00083220494 0.032473296
-0.016513465 -0.00082567328 0.030563593
-0.015888743 -0.00083624962 0.028828204
-0.016537724 -0.00091876247 0.020188272
-0.015205373 -0.0008944337 0.012496293
-0.013898112 -0.00086863199 0.0089371502
-0.013322301 -0.00088815344 0.0075000525
-0.01242077 -0.00088719785 0.0061938465
-0.011390353 -0.00087618094 0.0052638352
-0.010724166 -0.00089368055 0.0052072704
-0.0097151995 -0.00088319997 0.0051491857
-0.0017668016 -0.00088340079 0.0050296187
0.00088572613 -0.00088572613 0.0051623881
0.0017624113 -0.00088120566 0.0055171251
0.0026399174 -0.00087997247 0.0057740808
0.0035802973 -0.00089507434 0.0059630275
0.0043883626 -0.00087767252 0.0063504279
0.0052402476 -0.00087337464 0.007021606
0.0061654388 -0.00088077696 0.0083754063
0.007031742 -0.00087896775 0.010312289
0.0080046561 -0.00088940625 0.017614305
0.0086186212 -0.00086186215 0.02300477
0.0090755643 -0.00082505133 0.026622713
0.0098055573 -0.00081712985 0.02909264
0.010886474 -0.00083742104 0.031919807
0.011294634 -0.00080675958 0.033030093
0.012106696 -0.00080711307 0.03345269
0.013038314 -0.00081489462 0.033546805
0.013757538 -0.00080926693 0.03331846
0.014510391 -0.00080613291 0.032748073
0.015533474 -0.00081755128 0.032550871
0.016060373 -0.00080301869 0.031506568
0.017178362 -0.00081801723 0.03074801
0.018548494 -0.0008431134 0.016813129
0.020028746 -0.00087081501 0.0079206526
0.02123102 -0.00088462583 0.0063505173
0.022380043 -0.00089520169 0.0059610605
0.022993112 -0.00088435045 0.0054850578
-0.029850109 0 0.0058436394
-0.026885809 0 0.017896533
-0.025496656 0 0.029716909
-0.024968898 0 0.031555235
-0.023929387 0 0.032676876
-0.02284264 0 0.033130169
-0.022235926 0 0.033707947
-0.021235554 0 0.034489185
-0.020274464 0 0.034668177
-0.019668045 0 0.034586668
-0.018828899 0 0.034472823
-0.017917674 0 0.034083188
-0.017039035 0 0.033256412
-0.016645059 0 0.032515109
-0.015575183 0 0.029861122
-0.016755968 0 0.024935722
-0.015277915 0 0.013651848
-0.014031706 0 0.0096704066
-0.01321632 0 0.0073783398
-0.012303929 0 0.005870074
-0.011470406 0 0.0050624311
-0.010659837 0 0.0052485466
-0.0098513355 0 0.0051754117
0.0017926606 0 0.0053414404
0.0026613276 0 0.0056305528
0.003519824 0 0.0058523715
0.004410326 0 0.0063013732
0.0052519701 0 0.007021606
0.0061069913 0 0.0083754063
0.0070663919 0 0.011066526
0.0084139667 0 0.021128058
0.008062724 0 0.025460482
0.0090454211 0 0.028881252
0.0099847764 0 0.030871093
0.010655166 0 0.033518553
0.011318556 0 0.033960491
0.012162488 0 0.034090132
0.012970116 0 0.034411043
0.013617767 0 0.033868581
0.014717666 0 0.033369333
0.015422428 0 0.032978743
0.016048243 0 0.031963557
0.017170744 0 0.030605793
0.019072272 0 0.012978971
0.020062409 0 0.0084352195
0.021209173 0 0.0069419742
0.021909993 0 0.006528616
0.023145059 0 0.006118089
0.023929451 0 0.0057933033
0.024944328 0 0.0052404106
0.025559014 0 0.0053253472
0.02675291 0 0.0051950514
0.027292673 0 0.0052582324
0.027969178 0 0.0050060451
-0.029645469 0.00089834759 0.0057474971
-0.026753465 0.00083604577 0.017441332
-0.025664303 0.00082788069 0.028864413
-0.024759043 0.00082530139 0.031119257
-0.02349722 0.00081024889 0.032432795
-0.023016287 0.00082201028 0.033130169
-0.02186463 0.0008098011 0.034049153
-0.021401599 0.0008231384 0.034585238
-0.020213544 0.00080854178 0.034984052
-0.019473698 0.00081140408 0.035042971
-0.018891847 0.0008213846 0.035052031
-0.018023435 0.0008192471 0.034691393
-0.01718092 0.000818139 0.034325421
-0.016610904 0.00083054526 0.033733189
-0.015797323 0.000831438 0.031918496
-0.014923752 0.00082909741 0.029245913
-0.015880615 0.0009341538 0.017782271
-0.014062857 0.00087892858 0.010913849
-0.013121223 0.00087474822 0.0079134703
-0.011969463 0.00085496163 0.0066182315
-0.011394314 0.00087648566 0.0054169595
-0.010604952 0.00088374602 0.0052883923
-0.0098566692 0.0008960609 0.0052334368
-0.008838064 0.00088380644 0.0050783753
0.0017688747 0.00088443735 0.0053067803
0.0026441247 0.00088137487 0.0055816174
0.0035283491 0.00088208728 0.0060135424
0.0043590968 0.00087181939 0.006804347
0.0052014715 0.0008669119 0.007509619
0.006226039 0.00088943413 0.008908689
0.0074326363 0.00092907954 0.012832195
0.0080364766 0.0008929419 0.022504717
0.0080779381 0.00080779381 0.027129441
0.0089260479 0.00081145897 0.031620175
0.010002297 0.00083352486 0.034059167
0.010484004 0.0008064619 0.034874588
0.011376535 0.00081260962 0.034959763
0.012018039 0.00080120255 0.034958571
0.012850173 0.0008031358 0.034929633
0.01370472 0.00080615998 0.034621924
0.014640869 0.00081338163 0.034089088
0.015295084 0.00080500438 0.033497512
0.016087169 0.00080435851 0.032493353
0.017118262 0.00081515533 0.031197339
0.019109717 0.00086862355 0.011562794
0.020231763 0.00087964186 0.0092943907
0.021029431 0.00087622635 0.0074732006
0.022011859 0.0008804744 0.0066502094
0.023070632 0.00088733196 0.0062513649
0.023870243 0.00088408304 0.0059425533
0.024588291 0.00087815325 0.0054895282
0.025648881 0.0008844441 0.0050993562
0.026491975 0.00088306586 0.0051445663
0.027300125 0.0008806492 0.0051942468
-0.030301696 0.0017824526 0.0051743686
-0.029392516 0.0017813647 0.0073281825
-0.027134432 0.001695902 0.017416298
-0.025554761 0.0016486943 0.025660694
-0.024448711 0.001629914 0.030409813
-0.024213038 0.0016698646 0.031642973
-0.022770826 0.0016264875 0.033084065
-0.021820076 0.0016163018 0.034084201
-0.021227378 0.0016328752 0.034611881
-0.020234656 0.0016187725 0.035331219
-0.019524643 0.0016270536 0.035456687
-0.018618649 0.0016190128 0.035329044
-0.018066129 0.0016423754 0.035252213
-0.017118102 0.0016302954 0.03501758
-0.016264843 0.0016264843 0.034611881
-0.015572675 0.0016392289 0.033367187
-0.014808487 0.0016453875 0.031992525
-0.014703982 0.0017298802 0.028542638
-0.014674911 0.0018343639 0.015104383
-0.014030512 0.001870735 0.010094106
-0.012345579 0.0017636542 0.0073987246
-0.011308643 0.0017397912 0.0061918795
-0.010469548 0.0017449248 0.0061582029
-0.0095354216 0.0017337132 0.0056141913
-0.0086447513 0.0017289503 0.0051654279
0.0017500781 0.0017500781 0.0050840974
0.0026078818 0.001738588 0.0058579743
0.0034571008 0.0017285504 0.0062500834
0.0043493011 0.0017397205 0.0069428086
0.0054059094 0.0018019698 0.0082238317
0.0063821748 0.0018234785 0.010399729
0.007317957 0.0018294893 0.01735571
0.0072935498 0.0016207889 0.02642101
0.0082796263 0.0016559253 0.030904263
0.0092913713 0.0016893402 0.034373313
0.0097220894 0.0016203483 0.035081148
0.010426071 0.001604011 0.035502464
0.011338037 0.0016197196 0.035624862
0.012030723 0.0016040964 0.035394341
0.012744771 0.0015930964 0.035356522
0.013734625 0.0016158381 0.03502664
0.014544245 0.0016160273 0.03490898
0.015203523 0.0016003707 0.033824265
0.0163635 0.0016363499 0.032479823
0.016937803 0.0016131242 0.030909151
0.019386798 0.0017624362 0.011040449
0.02017417 0.0017542755 0.0091143847
0.020940129 0.0017450107 0.0075955689
0.022045124 0.0017636099 0.0067642033
0.022810968 0.0017546898 0.0062036514
0.023778034 0.0017613359 0.0060156286
0.024898032 0.0017784309 0.0059067309
0.025772097 0.0017773859 0.0057051778
0.026765347 0.0017843564 0.0055091977
0.027296102 0.0017610388 0.005358845
0.028423956 0.0017764972 0.0053306222
-0.031224031 0.0026763456 0.0050289631
-0.030255781 0.0026696278 0.0058719218
-0.029496338 0.0026814854 0.008069396
-0.027213754 0.0025512893 0.017299592
-0.025667436 0.0024839453 0.023637533
-0.024851456 0.0024851456 0.029392928
-0.023822902 0.0024644381 0.031405687
-0.023025937 0.0024670647 0.032834709
-0.021714613 0.0024127346 0.033932567
-0.021103652 0.0024350367 0.034569532
-0.020136971 0.0024164366 0.035042971
-0.019528722 0.0024410903 0.035252035
-0.018702362 0.0024394384 0.035618365
-0.017876992 0.0024377715 0.035715222
-0.017053902 0.0024362716 0.035317332
-0.016182987 0.0024274483 0.035501242
-0.015381495 0.0024286569 0.034691393
-0.014694229 0.0024490382 0.034366012
-0.014122767 0.002492253 0.032482535
-0.013745693 0.0025773176 0.028313279
-0.013896854 0.0027793706 0.014971197
-0.013037261 0.0027936988 0.010715574
-0.011649132 0.0026882612 0.0082231164
-0.010343592 0.0025858979 0.0079077482
-0.0096130455 0.0026217399 0.0073572695
-0.0086799702 0.0026039912 0.0056426525
0.00088332605 0.002649978 0.0053414404
0.0017459047 0.002618857 0.0062991977
0.0026266812 0.0026266812 0.0068712831
0.0035585025 0.0026688767 0.0073112249
0.004528787 0.0027172721 0.0082701743
0.0056637158 0.0028318579 0.010111928
0.0066061197 0.0028311941 0.014417738
0.0065526515 0.0024572443 0.02588293
0.0075112409 0.0025037471 0.0307706
0.0084306654 0.0025291995 0.035027653
0.0086355163 0.0023551409 0.035656333
0.009618816 0.002404704 0.035727978
0.010427494 0.0024063447 0.035873115
0.011420613 0.0024472743 0.035953641
0.012102738 0.0024205477 0.035601139
0.01292686 0.0024237861 0.035624743
0.013855577 0.002445102 0.035380185
0.014621864 0.0024369773 0.035203576
0.015382651 0.0024288397 0.034173936
0.015945487 0.0023918229 0.033007115
0.016876163 0.0024108803 0.030926228
0.019311491 0.0026333851 0.010975957
0.020004442 0.002609275 0.009160161
0.021158915 0.0026448644 0.007771939
0.022300374 0.0026760448 0.0072243214
0.022880219 0.0026400252 0.0065624714
0.024239223 0.0026932468 0.0063334703
0.024803976 0.0026575688 0.0059913099
0.025411919 0.0026288191 0.0055954754
0.026613532 0.0026613532 0.0055251718
0.027222183 0.0026344045 0.0057262182
0.027939221 0.0026193019 0.0055757463
0.029205566 0.0026550514 0.0050670505
-0.034752741 0.0035643838 0.0050289631
-0.032298576 0.0035887307 0.0050289631
-0.030796042 0.0035195479 0.0054366589
-0.03052159 0.0035907752 0.0066317916
-0.029537808 0.0035803404 0.0080300868
-0.027522404 0.0034403005 0.016920537
-0.025742257 0.0033215815 0.022371948
-0.024880102 0.0033173468 0.026762813
-0.023628389 0.0032590881 0.030310869
-0.022614997 0.0032307138 0.031655133
-0.0221182 0.0032767702 0.033229202
-0.020851662 0.0032079483 0.034385502
-0.020270413 0.0032432659 0.035195291
-0.019613016 0.0032688361 0.035322189
-0.018587152 0.0032325478 0.035763919
-0.018001163 0.0032729388 0.03619507
-0.017088054 0.0032548672 0.035808384
-0.016150968 0.0032301936 0.03619507
-0.015514233 0.0032661543 0.035721183
-0.01441323 0.0032029403 0.035597354
-0.013904983 0.0032717609 0.034779102
-0.013325264 0.0033313159 0.032824457
-0.012978034 0.0034608091 0.028176993
-0.013317644 0.0038050411 0.014839292
-0.012319098 0.0037904917 0.012067169
-0.011131752 0.003710584 0.0098017752
-0.010124385 0.0036815947 0.0087109506
-0.0088937273 0.0035574909 0.0079431534
-0.0077952594 0.0034645598 0.0067582428
-0.0069597233 0.0034798617 0.005818218
-0.0060840691 0.0034766109 0.0053030252
-0.0052089095 0.0034726064 0.0051972568
-0.0043494427 0.0034795541 0.0051828623
-0.0034981868 0.0034981868 0.005266875
-0.0025977239 0.003463632 0.0053511858
-0.0017486711 0.0034973421 0.0052933395
-0.00086690509 0.0034676204 0.0055131614
0 0.0034578757 0.0057804286
0.00087196578 0.0034878631 0.0064816177
0.0017333062 0.0034666124 0.0070077181
0.0027125927 0.0036167905 0.0077171922
0.0036940209 0.0036940209 0.0087430179
0.0046823267 0.0037458616 0.010611445
0.0057093157 0.0038062106 0.014594346
0.0057554771 0.0032888441 0.02588293
0.0066583352 0.0033291676 0.031441599
0.0075686811 0.0033638584 0.035273939
0.0079032322 0.003161293 0.036044419
0.0088579152 0.0032210601 0.036328018
0.0097209942 0.0032403315 0.036152869
0.01041459 0.0032044894 0.036316961
0.011267659 0.0032193311 0.03609395
0.012082367 0.0032219645 0.035928488
0.012950947 0.0032377366 0.035845965
0.013727897 0.0032300933 0.035558462
0.014538219 0.0032307156 0.035450846
0.015417032 0.0032456908 0.03455773
0.016045008 0.0032090019 0.033143997
0.017180115 0.003272403 0.030776024
0.018980244 0.0034509536 0.010903239
0.020432426 0.0035534655 0.0092290938
0.02094665 0.0034911083 0.0078490078
0.021910422 0.0035056674 0.0073072016
0.022974638 0.0035345599 0.0069125891
0.023747582 0.0035181602 0.0064781606
0.024628017 0.0035182883 0.0063377023
0.02567061 0.0035407736 0.0060301721
0.026299216 0.0035065622 0.0057395101
0.026918186 0.0034733142 0.0062864423
0.027683834 0.0034604792 0.0058673918
0.028471 0.0034510305 0.0054439902
-0.034806207 0.0044623343 0.0052656233
-0.033286169 0.0044981306 0.0051093102
-0.032382935 0.0044976296 0.0053273737
-0.03097163 0.0044245184 0.0058185756
-0.030628147 0.0045041391 0.0070997179
-0.029282324 0.0044367155 0.0085620582
-0.027554696 0.0043054214 0.016920537
-0.026246568 0.004233317 0.021813482
-0.024804622 0.0041341032 0.023909867
-0.023827007 0.0041081044 0.028632432
-0.02299073 0.0041054874 0.030414045
-0.021882707 0.0040523531 0.032686681
-0.021498077 0.0041342457 0.034024388
-0.020242462 0.0040484918 0.034932554
-0.019358309 0.0040329811 0.035292447
-0.018518029 0.0040256581 0.035901189
-0.017688593 0.0040201345 0.036380947
-0.017031314 0.0040550744 0.036368787
-0.016117631 0.0040294076 0.036500633
-0.015362212 0.0040426869 0.036394924
-0.014422692 0.0040063034 0.036482781
-0.01371612 0.0040341527 0.035976946
-0.012548011 0.0039212531 0.035385787
-0.012645002 0.0042150007 0.034632534
-0.012656993 0.0045203548 0.028714955
-0.011772133 0.0045277434 0.016246289
-0.011249182 0.0046871593 0.013285249
-0.010009458 0.0045497539 0.01124686
-0.0093853585 0.0046926793 0.0096586943
-0.0084862746 0.004714597 0.0083220601
-0.0074198879 0.00463743 0.0080182552
-0.0063915704 0.0045654075 0.0075350404
-0.005474688 0.0045622401 0.0068700314
-0.0044621076 0.0044621076 0.0070919394
-0.0035663722 0.004457965 0.0073222816
-0.0027225763 0.0045376271 0.0070351362
-0.0018006905 0.004501726 0.0070630312
-0.00090510934 0.0045255465 0.0071029067
0 0.0047261547 0.0069136024
0.00091870583 0.0045935288 0.0075868666
0.0019093391 0.0047733476 0.0080731213
0.002775254 0.0046254229 0.0099719763
0.0037280589 0.0046600737 0.012114465
0.0045413631 0.0045413631 0.016945422
0.0048506609 0.004042217 0.026514977
0.0059528914 0.004252065 0.034709275
0.0065713432 0.0041070892 0.03561461
0.0072047478 0.0040026377 0.035996735
0.007988953 0.0039944765 0.036716431
0.008896552 0.0040438869 0.036784202
0.0097009754 0.0040420727 0.036653131
0.010459453 0.0040228665 0.036657035
0.011287817 0.0040313629 0.03643012
0.012130465 0.0040434883 0.036059141
0.012922316 0.0040382235 0.035981059
0.013631203 0.0040091774 0.03561458
0.014291128 0.0039697578 0.035391957
0.015260383 0.0040158904 0.034533143
0.016008019 0.0040020049 0.033279449
0.017120816 0.0040763845 0.030739844
0.019191325 0.0043616649 0.010606974
0.019954449 0.0043379231 0.0091219842
0.021083366 0.0043923678 0.0077904761
0.021981312 0.0043962621 0.0073114336
0.022910718 0.0044059069 0.0070485175
0.023679575 0.0043851063 0.0067897141
0.024760162 0.0044214576 0.0064655542
0.025523519 0.0044006067 0.0063334703
0.026322193 0.0043870318 0.0061786771
0.02696831 0.0043497272 0.006534934
0.027928108 0.0043637669 0.0064669847
0.028486246 0.0043160981 0.0058389604
0.02954166 0.0043443618 0.0056519508
-0.034367211 0.0052872631 0.0053463578
-0.03397603 0.005364636 0.0051341653
-0.033383865 0.0054135998 0.0051876307
-0.032467082 0.0054111807 0.0055817366
-0.03129369 0.0053646327 0.0065924823
-0.030492846 0.0053810901 0.007103622
-0.028936436 0.0052611702 0.0085858107
-0.027925212 0.005235977 0.014119655
-0.026332354 0.0050965846 0.020291269
-0.025369193 0.0050738384 0.022574335
-0.024499837 0.0050689317 0.025029749
-0.022816241 0.0048891944 0.028392315
-0.022103684 0.0049119298 0.030748665
-0.021139845 0.004878426 0.033008873
-0.020433445 0.0049040262 0.03420943
-0.019607414 0.0049018534 0.035065532
-0.018703591 0.0048791976 0.035766035
-0.017846022 0.0048670969 0.036388963
-0.017254481 0.0049298513 0.036452144
-0.016113425 0.0048340275 0.036618054
-0.0153154 0.0048364419 0.036618054
-0.014595417 0.0048651393 0.037014872
-0.01369701 0.0048342384 0.03677392
-0.012680142 0.0047550532 0.036625177
-0.012169347 0.0048677386 0.036488891
-0.011264398 0.004827599 0.035232246
-0.011166507 0.0051537724 0.033639252
-0.011049152 0.0055245762 0.019138306
-0.01021895 0.0055739731 0.014559388
-0.0089986147 0.0053991689 0.013187885
-0.0081348913 0.0054232609 0.011220098
-0.007300158 0.0054751183 0.0096745193
-0.0065692915 0.005630821 0.0086921155
-0.0056350734 0.0056350734 0.0084119439
-0.0047856728 0.0057428074 0.0081769526
-0.0038320599 0.0057480899 0.0082213283
-0.0027398586 0.0054797172 0.0082213283
-0.0018850082 0.0056550242 0.0085740387
-0.00092568563 0.0055541135 0.0084835291
0 0.0055731535 0.0092205405
0.0009333677 0.0056002061 0.010389596
0.0018479397 0.0055438192 0.011979431
0.0027511986 0.0055023972 0.013570905
0.0034630955 0.005194643 0.019666851
0.0042830249 0.0051396298 0.030570626
0.0050703227 0.0050703227 0.035181284
0.0055622417 0.0047676358 0.03578189
0.0063424087 0.0047568064 0.036358058
0.0072286376 0.0048190919 0.036651939
0.0081117963 0.0048670778 0.037042499
0.0088868598 0.0048473785 0.037101567
0.0096889408 0.0048444704 0.036771804
0.010475731 0.0048349523 0.036698192
0.011357379 0.004867448 0.036475182
0.011924424 0.00476977 0.036106259
0.012946241 0.0048548402 0.035981059
0.013557213 0.0047848988 0.035591424
0.014496748 0.0048322496 0.035322666
0.015337386 0.004843385 0.03436321
0.01605984 0.0048179524 0.032448381
0.017468005 0.0049908585 0.025292426
0.019226829 0.0052436804 0.010606974
0.020144161 0.0052549983 0.0092452765
0.020943886 0.0052359714 0.0082770884
0.022155501 0.0053173201 0.0076099932
0.022561928 0.0052065989 0.0072266757
0.023857791 0.0053017307 0.0071024895
0.024922801 0.0053406004 0.0070387125
0.025448583 0.0052652238 0.0069052279
0.026483621 0.0052967239 0.0067600608
0.027376303 0.0052986392 0.0068801641
0.028269438 0.0053005195 0.0077613592
0.029227184 0.0053140335 0.0064311922
0.030001257 0.0052943393 0.0061706901
0.030930184 0.005302317 0.005644083
-0.035299052 0.0061773341 0.005302608
-0.035243787 0.0063258079 0.0057922304
-0.033937756 0.0062516918 0.0053650141
-0.032722149 0.0061906767 0.0055293143
-0.032332435 0.0062868623 0.0057216883
-0.031271171 0.0062542344 0.0069278479
-0.030000046 0.0061764796 0.0078092813
-0.029167855 0.0061871209 0.0087119937
-0.027795734 0.0060803164 0.011486083
-0.026336944 0.0059470516 0.018516183
-0.025479428 0.0059451996 0.021764964
-0.024133826 0.0058254059 0.023114711
-0.023891548 0.0059728869 0.025054157
-0.022467393 0.0058248797 0.028285563
-0.021319315 0.0057398155 0.03103286
-0.020132944 0.0056372243 0.032803595
-0.019809639 0.0057778112 0.03451848
-0.018558642 0.0056482819 0.035071701
-0.017910924 0.00569893 0.036180645
-0.016902186 0.005634062 0.036247283
-0.01630762 0.0057076672 0.036788911
-0.015465197 0.0056977039 0.037006587
-0.014428192 0.0056109633 0.037290603
-0.013630182 0.0056124283 0.037082016
-0.013050006 0.0057093776 0.037242174
-0.011825245 0.0055184471 0.037364364
-0.011250292 0.005625146 0.036661655
-0.010099829 0.0054383697 0.036654025
-0.0095869023 0.0055923597 0.036536187
-0.0093584433 0.0059553734 0.03456521
-0.0092664175 0.0064864922 0.017453969
-0.008423103 0.0065513025 0.014296174
-0.007472971 0.0065388493 0.01329872
-0.0064785648 0.0064785648 0.01267603
-0.0056611793 0.0066047092 0.011486799
-0.004630941 0.0064833174 0.011090547
-0.0038055684 0.0066597448 0.011090547
-0.0028421679 0.006631725 0.011090547
-0.0018484744 0.00646966 0.010928005
-0.00092003919 0.0064402744 0.011394918
0 0.006541864 0.012205899
0.00092308747 0.0064616124 0.013502479
0.00184884 0.0064709401 0.017012805
0.0026932925 0.0062843491 0.030696094
0.0034251576 0.0059940261 0.035453916
0.0038908683 0.0054472159 0.035951823
0.0047361809 0.0055255443 0.036515772
0.0056004189 0.0056004189 0.036798567
0.0064543057 0.0056475177 0.037620455
0.0072799083 0.0056621511 0.037615061
0.0081035448 0.0056724814 0.037735879
0.0088194618 0.005612385 0.037305832
0.0097631374 0.0056951637 0.036939383
0.010491148 0.0056490796 0.036757261
0.011213613 0.0056068064 0.036382437
0.012007101 0.0056033139 0.035846382
0.012912575 0.0056492519 0.035666317
0.013747194 0.0056606089 0.035208344
0.014374473 0.0055900733 0.034828037
0.015278912 0.0056290724 0.033442259
0.016099377 0.0056347819 0.030804336
0.017812502 0.0059374999 0.018708974
0.019187214 0.0061050225 0.010796726
0.019979553 0.0060807336 0.0093080997
0.021151898 0.0061693038 0.0088130236
0.022396475 0.0062710126 0.0080710351
0.022909008 0.0061678099 0.0074630082
0.023720508 0.0061497614 0.0073133111
0.024409223 0.0061023058 0.0073072016
0.025193626 0.0060812198 0.0071381927
0.026008347 0.0060686143 0.0069504678
0.027220683 0.0061466061 0.0079932511
0.028052434 0.00613647 0.0081671178
0.028167322 0.0059748869 0.0074372888
0.029520871 0.006077826 0.0070408285
0.030206196 0.0060412395 0.0061461031
0.030793522 0.0059876293 0.0051746368
-0.036056414 0.0070353975 0.0052425861
-0.035620127 0.0071240258 0.0053752363
-0.034579571 0.0070932456 0.0062067807
-0.033710171 0.0070968783 0.0057194531
-0.03306203 0.0071485471 0.0059050918
-0.032038026 0.0071195615 0.0063885152
-0.030672427 0.0070108403 0.0070389211
-0.030242356 0.0071158484 0.0078077614
-0.029202586 0.007079415 0.008859992
-0.028035572 0.0070088929 0.011040717
-0.026497761 0.0068381317 0.01773569
-0.025199201 0.0067197871 0.021271199
-0.024275528 0.0066966973 0.022370279
-0.023352342 0.0066720978 0.0235416
-0.022788232 0.0067520686 0.025342017
-0.021560321 0.0066339448 0.02834323
-0.02057617 0.0065843742 0.0305143
-0.019658282 0.006552761 0.032879442
-0.018812548 0.0065434948 0.034340322
-0.017975707 0.0065366207 0.035129696
-0.017054813 0.0064970716 0.035945922
-0.016185084 0.0064740344 0.03681457
-0.015489928 0.0065220753 0.036967695
-0.014369416 0.0063864077 0.037400305
-0.013828352 0.0065074596 0.037414283
-0.012965578 0.0064827888 0.037593693
-0.012125335 0.0064668451 0.037744582
-0.011179822 0.0063884701 0.037402332
-0.010361543 0.006376334 0.037570387
-0.0095513538 0.0063675693 0.037709862
-0.0087975971 0.0063982531 0.037443191
-0.0078563401 0.0062850723 0.037432969
-0.0072927321 0.0064824289 0.037299484
-0.0067485208 0.0067485208 0.036893934
-0.0062572416 0.0071511334 0.023626089
-0.0054879193 0.0073172264 0.014688939
-0.004562146 0.0072994335 0.015022486
-0.0036307997 0.0072615994 0.015022486
-0.0027590049 0.0073573464 0.015022486
-0.0018065673 0.0072262692 0.014771789
-0.00089676905 0.0071741524 0.016411364
0 0.0068703331 0.025124758
0.00083690311 0.0066952249 0.03643465
0.0015877113 0.0063508451 0.037130684
0.0023374546 0.0062332125 0.037685752
0.0031238529 0.0062477058 0.038079679
0.0039848671 0.0063757878 0.038130194
0.0047915517 0.006388736 0.038216949
0.0056193573 0.0064221225 0.038186729
0.0064013423 0.0064013423 0.03805998
0.0071577933 0.0063624834 0.038099974
0.0080044353 0.0064035482 0.038158923
0.0088217296 0.0064158039 0.03752172
0.0095908409 0.0063938941 0.03680566
0.010347284 0.00636756 0.036647588
0.011235265 0.0064201513 0.03613466
0.011909676 0.0063518267 0.035679191
0.012950959 0.0064754793 0.035425812
0.013705133 0.006449474 0.034818232
0.014370513 0.0063868952 0.033800751
0.015452905 0.0065064859 0.031904906
0.016122978 0.0064491918 0.02864337
0.017830847 0.0067927032 0.018359542
0.019269345 0.007007035 0.0108881
0.020178799 0.0070187123 0.0096537173
0.020994635 0.0069982121 0.0090544522
0.021875206 0.0070000659 0.0082190931
0.022616906 0.0069590481 0.0077860057
0.023413941 0.0069374638 0.0076393187
0.024707779 0.007059366 0.0076530874
0.0253247 0.006986124 0.0074854791
0.02602355 0.0069396133 0.0077190101
0.027407838 0.0070729903 0.0084862411
0.027528023 0.0068820058 0.0084601343
0.028723396 0.0069632479 0.0077629685
0.029736357 0.0069967899 0.0074953437
0.030098513 0.0068796603 0.0069344342
0.030820508 0.0068490021 0.0060114563
-0.03696771 0.0079216519 0.0052629113
-0.036792964 0.0080765029 0.0056951344
-0.035683766 0.0080288472 0.0059767663
-0.03476942 0.0080237119 0.0066167414
-0.033971295 0.0080458326 0.0063041747
-0.032842435 0.0079886997 0.0065136254
-0.032045081 0.0080112703 0.0066952407
-0.031280827 0.0080436403 0.007551223
-0.0301912 0.007991788 0.0080762208
-0.02913088 0.0079447851 0.0089700818
-0.028335493 0.0079693571 0.010598868
-0.026424766 0.0076717054 0.017115772
-0.025445892 0.0076337671 0.01954636
-0.024998927 0.0077582872 0.021481752
-0.023436246 0.0075330785 0.022378534
-0.022915119 0.0076383725 0.023630112
-0.021946678 0.0075969268 0.025365919
-0.021166766 0.0076200352 0.027178347
-0.020172771 0.0075647887 0.029685438
-0.018947331 0.0074141724 0.033208936
-0.017701577 0.0072415546 0.034584135
-0.016981043 0.0072775888 0.034809172
-0.016058804 0.007226462 0.036387235
-0.01534449 0.0072684423 0.03724429
-0.014442098 0.0072210492 0.037420601
-0.013609151 0.0072048446 0.037751108
-0.012843068 0.007224225 0.037878007
-0.011999507 0.0071997037 0.038464636
-0.01136943 0.0073089194 0.037909329
-0.010402973 0.0072020576 0.038374454
-0.009704398 0.007278298 0.038642794
-0.0088541079 0.0072442698 0.038460135
-0.0079912124 0.0071920911 0.038552314
-0.0071036606 0.0071036606 0.038516492
-0.0063600456 0.0071550505 0.038203329
-0.0054765558 0.0070412862 0.038481563
-0.0046665864 0.0069998796 0.038500965
-0.0039456445 0.0071021598 0.038340062
-0.0031324653 0.0070480467 0.038313448
-0.0023777459 0.0071332376 0.038340062
-0.0015679981 0.0070559913 0.037814468
-0.0007865667 0.0070791002 0.037545443
0 0.0070154797 0.03754124
0.00079601549 0.0071641393 0.037828386
0.0016054272 0.0072244224 0.037954211
0.0023954848 0.0071864543 0.038140327
0.0032334104 0.007275173 0.038186729
0.0039718552 0.0071493397 0.038151264
0.0047408277 0.0071112416 0.038207412
0.0055938861 0.007192139 0.038140327
0.006418556 0.007220875 0.037963897
0.0071524768 0.0071524768 0.037824869
0.0080661699 0.0072595528 0.037689298
0.0087776929 0.0071817487 0.03723529
0.0095837517 0.0071878131 0.036626756
0.01039822 0.0071987677 0.036405981
0.011254286 0.0072348979 0.036038995
0.012028746 0.0072172475 0.035558462
0.012872305 0.0072406707 0.035020351
0.013526321 0.0071609933 0.034105301
0.014432233 0.0072161164 0.0321033
0.015347961 0.0072700866 0.030351222
0.016131865 0.0072593396 0.027699351
0.018238991 0.0078167105 0.015236259
0.018896056 0.0077302046 0.010959774
0.020113342 0.0078704376 0.010063946
0.021181921 0.0079432195 0.0090858042
0.021988126 0.007915725 0.0088838637
0.02264734 0.0078394637 0.0085867643
0.023686947 0.0078956485 0.0081054866
0.024575366 0.0078992248 0.0081054866
0.025298676 0.0078513129 0.0083584785
0.026576577 0.0079729725 0.0083500743
0.027302764 0.0079266084 0.0087168813
0.028469663 0.0080070924 0.0090558529
0.028970489 0.0079010427 0.0083192289
0.030218048 0.0079988949 0.0081635118
0.030388117 0.007814087 0.007700175
0.031172974 0.0077932435 0.0069344342
0.0321417 0.0078182509 0.0052684247
-0.036980819 0.0088049565 0.0055525303
-0.03592312 0.0087617356 0.0058249533
-0.03531047 0.0088276174 0.0062248409
-0.034580454 0.0088667823 0.0068950057
-0.033877056 0.0089150146 0.0065851212
-0.033047117 0.0089316526 0.0066362321
-0.031769998 0.0088249994 0.0069660544
-0.03100056 0.0088573024 0.0075958669
