ply
format ascii 1.0
comment PCL generated
element vertex 238
property float x
property float y
property float z
element camera 1
property float view_px
property float view_py
property float view_pz
property float x_axisx
property float x_axisy
property float x_axisz
property float y_axisx
property float y_axisy
property float y_axisz
property float z_axisx
property float z_axisy
property float z_axisz
property float focal
property float scalex
property float scaley
property float centerx
property float centery
property int viewportx
property int viewporty
property float k1
property float k2
end_header
-0.0068845577 0.094662666 0.0063538849
-0.005813566 0.091356039 0.010356367
-0.0049447981 0.090654634 0.015213609
-0.0041337302 0.090942062 0.015276551
-0.0033131847 0.091112584 0.015357465
-0.0024870555 0.091192037 0.015572816
-0.0016510062 0.090805337 0.012467355
-0.00083150715 0.091465786 0.0051068366
-0.0094534643 0.095394053 0.0055105984
-0.0082879681 0.091996446 0.017082244
-0.0074051288 0.091329925 0.018642396
-0.0065582236 0.090995349 0.018974334
-0.0057769399 0.091605768 0.019414037
-0.0049782861 0.092098296 0.01951924
-0.0041387165 0.091879509 0.019575387
-0.0033552418 0.093107961 0.019649237
-0.0025164825 0.093109854 0.019584894
-0.0016447768 0.09128511 0.019288599
-0.00082756596 0.091859825 0.018877745
0 0.090633988 0.01650241
0.00083508663 0.092694618 0.011436939
-0.010880453 0.093739279 0.011592567
-0.0098315189 0.091760844 0.018931687
-0.0089857075 0.091490842 0.020219266
-0.0082051288 0.09189745 0.020925611
-0.0073628318 0.091626361 0.021464914
-0.0066699903 0.093379863 0.021576643
-0.0057575898 0.092121437 0.021708012
-0.0049049677 0.091559395 0.021944642
-0.0040881904 0.091575466 0.021930903
-0.0032854339 0.091992147 0.022102028
-0.0024470389 0.091356121 0.021871418
-0.0016435961 0.092041381 0.021263897
-0.00082926225 0.092877366 0.021010131
0 0.092969708 0.019856393
0.00082779431 0.092712969 0.019218564
0.0016013201 0.089673921 0.018417686
-0.013797671 0.097446047 0.0071938038
-0.012354171 0.093068086 0.019163698
-0.011489653 0.092737913 0.021593451
-0.010673609 0.092778295 0.021712601
-0.009811746 0.092393942 0.021712601
-0.0088308072 0.090716474 0.022035092
-0.0080003366 0.090403803 0.022268057
-0.0073548704 0.092344493 0.022745728
-0.0065741246 0.092859507 0.022745728
-0.0057172887 0.092293374 0.022782296
-0.0049017733 0.092316732 0.022918046
-0.0040811272 0.092233479 0.023009509
-0.0032781307 0.092607185 0.022963434
-0.0024586476 0.092609063 0.022866786
-0.0016273865 0.091947339 0.022919625
-0.00081528467 0.092127167 0.022708684
0 0.092153952 0.022443295
0.00080583739 0.091059625 0.02193749
0.0016556695 0.093545325 0.021423429
0.0024864608 0.093656696 0.019379944
0.0032635788 0.092196099 0.017570704
-0.01524869 0.096575044 0.012580216
-0.013968715 0.093672559 0.02093479
-0.013080775 0.09320052 0.022133619
-0.012297727 0.093462728 0.022406638
-0.011452583 0.093256742 0.022816092
-0.010498218 0.092061296 0.022647619
-0.009787024 0.092976727 0.022712499
-0.0089681651 0.092942804 0.023138136
-0.0080466783 0.091732129 0.023371786
-0.0072904225 0.092345349 0.023371309
-0.0065454212 0.093272246 0.023149401
-0.0057964437 0.094399221 0.02313301
-0.0048471931 0.092096671 0.022956163
-0.0040769838 0.092955224 0.023135841
-0.0032780902 0.093425572 0.023024172
-0.0024369797 0.092605226 0.023050308
-0.0016371082 0.093315162 0.02309531
-0.00081967539 0.093442991 0.022970021
0 0.09225332 0.022666872
0.0008096479 0.092299856 0.022565722
0.0016300714 0.092914067 0.022223622
0.0024519325 0.093173437 0.021879584
0.0032799668 0.093479045 0.021504104
0.004116856 0.093864314 0.018657506
0.005086422 0.096642017 0.011222571
-0.015620798 0.094546929 0.012737513
-0.014711704 0.093991444 0.021392733
-0.013971439 0.094512671 0.022339046
-0.013083381 0.094036795 0.022634685
-0.012230749 0.093769073 0.022916764
-0.011436 0.093938567 0.023216009
-0.010504228 0.092922017 0.023310691
-0.0097341649 0.093285747 0.023239732
-0.0089164879 0.093217827 0.023237705
-0.0081321672 0.093519919 0.023601502
-0.007325151 0.093599156 0.023536295
-0.0066390592 0.095436469 0.023401469
-0.005676128 0.093250677 0.023499399
-0.004905866 0.094029099 0.023358345
-0.0041290768 0.094968766 0.023411483
-0.0032763917 0.09419626 0.023465335
-0.0024315007 0.093207523 0.023379117
-0.0016206722 0.093188651 0.02352491
-0.00081948505 0.094240777 0.023376167
0 0.094092779 0.023147613
0.00081737537 0.093998164 0.022867858
0.0016304001 0.093748003 0.022782534
0.0024292152 0.093119912 0.022905886
0.0032409979 0.093178689 0.022018731
0.0040370785 0.092852809 0.021381795
0.0049079754 0.094069526 0.01845485
0.0057934327 0.095177814 0.005100131
-0.017243506 0.095249847 0.006834209
-0.016342428 0.094786085 0.019117951
-0.0155126 0.094708502 0.022738397
-0.01465769 0.094460681 0.023021251
-0.013812938 0.094252989 0.023335069
-0.012915506 0.093637422 0.023170739
-0.012377996 0.095723175 0.023465782
-0.011405446 0.09450227 0.023610413
-0.010508652 0.093769513 0.023596823
-0.009668679 0.093463905 0.023703367
-0.0090251788 0.095174618 0.023877203
-0.0080067338 0.092878118 0.024152249
-0.0073571606 0.094825633 0.023850203
-0.0064941137 0.094164655 0.023671031
-0.0056461156 0.093564205 0.023723066
-0.0048864372 0.094471127 0.023810446
-0.0040616193 0.094229579 0.023959696
-0.0032674165 0.094755083 0.023804843
-0.0024602744 0.095130615 0.02385059
-0.0016314224 0.0946225 0.023840994
-0.00081208732 0.094202131 0.023644626
0 0.09496326 0.023677796
0.00080904213 0.093848892 0.023343265
0.0016126825 0.093535587 0.023248613
0.0024530715 0.094852097 0.023291886
0.0032135411 0.093192697 0.022777677
0.0040528355 0.094025791 0.022545904
0.0048952205 0.094640933 0.021224678
0.0057067778 0.094569467 0.018186003
-0.017938448 0.095399931 0.0091143847
-0.017123951 0.095404863 0.019300759
-0.016323306 0.095491342 0.022514194
-0.015361142 0.094592303 0.023426741
-0.01473207 0.09575846 0.023847699
-0.013928939 0.095863879 0.023956746
-0.012967672 0.094826102 0.023886442
-0.012188104 0.095067218 0.023992717
-0.011322467 0.094623476 0.024014294
-0.010444576 0.094001189 0.024249911
-0.0097478395 0.095041446 0.024405479
-0.008852452 0.094157904 0.024174839
-0.0080744978 0.094471633 0.024381727
-0.0073111523 0.095044985 0.024275005
-0.0065875915 0.096343525 0.024227709
-0.005757018 0.09622445 0.024286926
-0.0048547201 0.09466704 0.024105161
-0.0040349015 0.0944167 0.024158299
-0.0032656924 0.095521502 0.024087548
-0.0024566925 0.095811009 0.024259955
-0.0016256459 0.095100284 0.024180233
-0.00081558054 0.095422924 0.024071664
0 0.09500552 0.024134964
0.00082090613 0.096046023 0.023850203
0.0016021198 0.093724005 0.023914278
0.002427724 0.094681241 0.023957551
0.003272715 0.095726915 0.023505807
0.004061528 0.095039755 0.023386389
0.0048041614 0.093681149 0.022510946
0.0056419191 0.09430065 0.020582438
0.006524866 0.095426165 0.015064836
-0.018820705 0.096558392 0.013070971
-0.017842842 0.095702522 0.022164285
-0.01702532 0.095666081 0.023238361
-0.016499233 0.097345471 0.023950368
-0.015557249 0.096618704 0.024254918
-0.014600131 0.095711969 0.024497807
-0.014040736 0.097459227 0.024252176
-0.01292526 0.095323794 0.024167627
-0.012191275 0.0959047 0.024607122
-0.011227264 0.094629802 0.024725467
-0.010606227 0.09627191 0.024730682
-0.0097160041 0.09554071 0.024894089
-0.0090426188 0.097002648 0.024888307
-0.0081333583 0.095973633 0.025095195
-0.0073288418 0.096089266 0.024867237
-0.0064937943 0.095783465 0.024857163
-0.0056925481 0.095960096 0.024796277
-0.0049114381 0.096591622 0.024480224
-0.0040552747 0.095704488 0.024440825
-0.0032503861 0.095886387 0.024416268
-0.0024457336 0.096198864 0.024439812
-0.0016426771 0.09691795 0.024275005
-0.00082128716 0.096911885 0.02426818
0 0.096084028 0.024128169
0.00082023442 0.096787661 0.024133176
0.0016123827 0.095130585 0.02407518
0.0024271363 0.095467366 0.024084896
0.0032964691 0.097245842 0.023697942
0.0039871461 0.094096646 0.023642659
0.0048124939 0.094645716 0.023239076
0.0056446563 0.09515278 0.022664398
0.0064348537 0.094914094 0.020608008
0.0073314728 0.096123762 0.013741195
-0.019533407 0.096853144 0.0091077089
-0.01878646 0.097199507 0.022046387
-0.017887227 0.096753642 0.023409188
-0.016962277 0.096119568 0.024291188
-0.016044363 0.095463961 0.024532259
-0.015568869 0.097510286 0.024887204
-0.014763629 0.097603999 0.024981499
-0.013928944 0.097502604 0.025205851
-0.012781919 0.095065527 0.024780542
-0.012226793 0.096999221 0.024862677
-0.011405263 0.096944734 0.024909765
-0.010409923 0.095290832 0.025033057
-0.0099105947 0.098280065 0.0251697
-0.008922074 0.096520625 0.025121957
-0.0080489479 0.095782489 0.025285721
-0.0072933552 0.096434362 0.025099725
-0.006603905 0.098233089 0.024935961
-0.005668222 0.096359774 0.024902433
-0.0048923176 0.097030967 0.024497509
-0.0040522232 0.096442908 0.024832845
-0.0032773947 0.097502492 0.02448979
-0.0024712447 0.098026045 0.024493963
-0.0016427279 0.097742312 0.024339437
-0.00082137104 0.097743154 0.024321616
0 0.096129909 0.024227768
0.00081389019 0.096852936 0.024267554
0.0016089476 0.095732383 0.024184495
0.002442491 0.09688548 0.024227768
0.0032336807 0.096202001 0.024010628
0.0040425807 0.096213423 0.024047017
0.0049350942 0.097879373 0.023508728
0.0056187264 0.095518351 0.023409694
0.0064912457 0.096557282 0.022613466
0.0072639063 0.096044987 0.020342797
0.0081003644 0.096394338 0.0054308176
0 0 0 1 0 0 0 1 0 0 0 1 0 0 0 0 0 238 1 0 0
