ply
format ascii 1.0
comment PCL generated
element vertex 1278
property float x
property float y
property float z
element camera 0
property float view_px
property float view_py
property float view_pz
property float x_axisx
property float x_axisy
property float x_axisz
property float y_axisx
property float y_axisy
property float y_axisz
property float z_axisx
property float z_axisy
property float z_axisz
property float focal
property float scalex
property float scaley
property float centerx
property float centery
property int viewportx
property int viewporty
property float k1
property float k2
end_header
0.013392468 -0.006696234 0.023020744
0.014389562 -0.0067715589 0.024106532
0.014960286 -0.0066490164 0.024270505
0.015823144 -0.0066623767 0.024258733
0.01661982 -0.0066479282 0.024315923
0.017522736 -0.0066753272 0.02412653
0.018317193 -0.0066607976 0.023538411
0.019081319 -0.0066369805 0.022111475
0.020752193 -0.006917398 0.011067927
-0.02408227 -0.0060205674 0.019572049
-0.022979807 -0.0059577278 0.021653771
-0.021774868 -0.0058624647 0.023491949
-0.021143014 -0.0059200437 0.024154305
-0.020202531 -0.0058924048 0.024631858
-0.019581979 -0.0059597325 0.024385095
-0.018449295 -0.0058702305 0.024532408
-0.017428942 -0.005809647 0.024120122
-0.017188095 -0.006015833 0.023597896
-0.015932648 -0.0058699227 0.022926629
-0.01535784 -0.0059724934 0.021239489
-0.01440059 -0.0059296545 0.019143969
-0.013676725 -0.0059835673 0.0170331
-0.013026047 -0.0060788216 0.015177757
-0.01241891 -0.006209455 0.011217386
0.0080413064 -0.0062543498 0.0090643167
0.0087483665 -0.0061238566 0.01052177
0.009426822 -0.0059988871 0.013113409
0.010321093 -0.0060206377 0.016331166
0.010964057 -0.0059037232 0.017450839
0.01202738 -0.00601369 0.019294649
0.012539877 -0.0058519426 0.02116549
0.01347984 -0.0058974302 0.022706836
0.014157249 -0.0058294553 0.024068773
0.014742825 -0.005733321 0.024286062
0.015685039 -0.0057786983 0.024343252
0.016820317 -0.0058871112 0.024474949
0.017417435 -0.0058058114 0.024258226
0.018129218 -0.005768388 0.023588568
0.019317394 -0.005879207 0.02269423
0.020574974 -0.0060010343 0.012984455
-0.02332202 -0.0049975752 0.020010084
-0.023121985 -0.0051382184 0.022475332
-0.021815294 -0.0050342986 0.023917258
-0.020897426 -0.0050153821 0.02452606
-0.02053199 -0.0051329974 0.02512002
-0.019399377 -0.0050607068 0.025303841
-0.018231736 -0.0049722921 0.025303841
-0.017638056 -0.0050394442 0.024833888
-0.016856316 -0.0050568948 0.024495125
-0.016062889 -0.0050724908 0.023411602
-0.015522911 -0.0051743039 0.022413492
-0.014610351 -0.0051565943 0.019455045
-0.013785475 -0.0051695532 0.016793519
-0.013161831 -0.0052647321 0.014161527
-0.01263438 -0.0054147341 0.005132854
0.0089583872 -0.0053750328 0.009340167
0.0095934644 -0.0052327989 0.010737985
0.01039903 -0.0051995148 0.015635639
0.011157001 -0.0051493854 0.017412335
0.011970714 -0.0051303059 0.018805057
0.012583339 -0.0050333352 0.021545827
0.013514503 -0.0050679385 0.023419261
0.014217884 -0.0050180769 0.024385333
0.015004347 -0.0050014495 0.024978608
0.015927508 -0.0050297393 0.024978608
0.016533585 -0.004960076 0.025165319
0.017315853 -0.0049473867 0.024778068
0.018305399 -0.0049923812 0.023952812
0.019089982 -0.0049799951 0.022828579
0.02060502 -0.0051512551 0.014938056
-0.024111316 -0.0043055918 0.020790815
-0.022676023 -0.0041992632 0.023313701
-0.021626212 -0.0041588866 0.024211019
-0.020965081 -0.0041930159 0.024794161
-0.02026685 -0.0042222603 0.025352478
-0.019247439 -0.0041842256 0.025934517
-0.018628806 -0.0042338194 0.025934517
-0.01748139 -0.0041622352 0.025124341
-0.017007912 -0.0042519779 0.024741143
-0.016004426 -0.0042116907 0.023455501
-0.015182474 -0.0042173541 0.022666782
-0.014657454 -0.0043110154 0.019747347
-0.013676777 -0.0042739925 0.016463965
-0.013553439 -0.0045178127 0.011795461
0.0096313385 -0.0043778811 0.010461688
0.010562471 -0.0044010296 0.014659315
0.011122527 -0.0042778947 0.01725632
0.011959182 -0.0042711361 0.018805057
0.012663282 -0.0042210934 0.021719873
0.013529588 -0.0042279963 0.02371937
0.014062001 -0.0041358825 0.024408728
0.014883166 -0.0041342126 0.025135458
0.015762582 -0.0041480479 0.025465906
0.016795998 -0.0041989996 0.025168568
0.017607974 -0.0041923746 0.024949372
0.018031461 -0.0040980596 0.024209887
0.019054238 -0.0041422253 0.022823304
0.020867186 -0.0043473304 0.015380174
-0.023902513 -0.0034146449 0.020858258
-0.022817913 -0.0033804313 0.023303539
-0.021669531 -0.0033337742 0.024222821
-0.020983923 -0.0033574277 0.025128961
-0.020109659 -0.0033516099 0.026408315
-0.019231176 -0.0033445524 0.026450902
-0.018295826 -0.0033265138 0.026424199
-0.017393652 -0.0033130767 0.026124716
-0.016833009 -0.0033666019 0.025156975
-0.016046533 -0.0033782176 0.023962796
-0.015057911 -0.0033462027 0.023087502
-0.014674434 -0.0034528077 0.01984337
-0.013861393 -0.0034653482 0.01602143
-0.013501725 -0.00360046 0.0053035617
0.010002364 -0.0036372235 0.008515358
0.010420157 -0.0034733857 0.012640744
0.011016681 -0.003389748 0.017259926
0.01196549 -0.0034187115 0.019794673
0.012450687 -0.0033201831 0.021534503
0.013398372 -0.0033495929 0.023885101
0.014007508 -0.0032958842 0.024745047
0.014697197 -0.003266044 0.025810272
0.015899573 -0.0033472783 0.025654584
0.0166966 -0.0033393202 0.025424421
0.017389817 -0.0033123461 0.025048584
0.018096259 -0.003290229 0.024700314
0.019407585 -0.003375232 0.022892535
0.0206399 -0.0034399834 0.015716076
-0.023504507 -0.00251834 0.020786285
-0.022590095 -0.0025100105 0.02331531
-0.022149341 -0.0025556933 0.024064243
-0.020517318 -0.0024620779 0.02548033
-0.020454835 -0.0025568544 0.0261693
-0.019485012 -0.0025415232 0.026247561
-0.018297564 -0.0024951224 0.026400983
-0.017496329 -0.0024994754 0.02616328
-0.016862607 -0.0025293911 0.026056916
-0.015802715 -0.0024951654 0.024493933
-0.015268752 -0.0025447921 0.023375839
-0.014081343 -0.002484943 0.021086216
-0.01440661 -0.0027012394 0.015847504
0.010498639 -0.0026246598 0.010274231
0.011095354 -0.0025604663 0.016881585
0.011938452 -0.0025582397 0.020535231
0.012602678 -0.0025205354 0.022253245
0.013636516 -0.0025568469 0.023952574
0.014012991 -0.0024728808 0.025088012
0.014791809 -0.0024653017 0.025757313
0.01595315 -0.0025189184 0.025708467
0.016298695 -0.0024448042 0.025559396
0.017418327 -0.0024883323 0.025192827
0.018248007 -0.0024883645 0.024843484
0.01882977 -0.0024560569 0.023239702
0.020538097 -0.0025672622 0.016109556
-0.023717765 -0.0016941261 0.020733148
-0.022664363 -0.0016788417 0.023581535
-0.021440949 -0.0016493038 0.025257528
-0.020821916 -0.0016657533 0.026372194
-0.020196596 -0.0016830497 0.026495904
-0.019079283 -0.001659068 0.026628017
-0.018587163 -0.0016897422 0.026844293
-0.017372565 -0.0016545299 0.026687503
-0.016737418 -0.001673742 0.026425749
-0.016063334 -0.0016908773 0.0251773
-0.014964181 -0.0016626868 0.024239808
-0.014089848 -0.0016576292 0.022640795
-0.014664188 -0.0018330235 0.016332597
0.01068384 -0.0017806401 0.010199845
0.011147024 -0.0017149268 0.017019629
0.011946316 -0.0017066166 0.020960838
0.01261567 -0.0016820894 0.022716641
0.013490507 -0.0016863134 0.024183899
0.013984214 -0.0016452016 0.025707781
0.01491484 -0.0016572046 0.025978088
0.015793703 -0.0016624951 0.025909156
0.016642416 -0.0016642415 0.025823414
0.017601455 -0.0016763291 0.025473922
0.018007193 -0.0016370176 0.024909735
0.019213693 -0.0016707559 0.023116976
0.020364584 -0.0016970488 0.016542584
-0.023898518 -0.00085351849 0.020869136
-0.022408331 -0.00082993816 0.023833752
-0.02197429 -0.00084516499 0.025901198
-0.020890575 -0.00083562301 0.026462913
-0.020147121 -0.00083946332 0.026647836
-0.019264279 -0.00083757727 0.027093887
-0.018370349 -0.0008350159 0.027203679
-0.017614407 -0.00083878124 0.027098149
-0.016632829 -0.00083164143 0.026936144
-0.015805421 -0.00083186431 0.026184231
-0.015162778 -0.00084237661 0.024767756
-0.014266041 -0.00083917886 0.023305774
-0.014291941 -0.00089324632 0.016491085
0.010686866 -0.00089057221 0.0091585219
0.011339648 -0.00087228062 0.01713863
0.011640153 -0.00083143951 0.021256417
0.012475033 -0.00083166891 0.023360401
0.0133912 -0.00083695003 0.025218874
0.014036126 -0.00082565454 0.025999546
0.014701173 -0.00081673189 0.026192307
0.015645724 -0.00082345918 0.026129127
0.016411155 -0.00082055776 0.02606681
0.017380401 -0.00082763814 0.025658637
0.018032812 -0.00081967324 0.02479586
0.019170471 -0.00083349872 0.023529828
0.020499166 -0.000854132 0.018265605
-0.023622684 0 0.020916671
-0.02289461 0 0.023729473
-0.021673774 0 0.026004374
-0.020790227 0 0.02663973
-0.020094594 0 0.027069181
-0.019096324 0 0.027116627
-0.018366387 0 0.027606726
-0.017606787 0 0.027613908
-0.016513515 0 0.02751103
-0.015909623 0 0.026729167
-0.015065241 0 0.02582261
-0.014400719 0 0.02411136
-0.013543316 0 0.019967914
0.010926791 0 0.0087676942
0.011339683 0 0.017758191
0.011730621 0 0.022440165
0.012603031 0 0.024102032
0.013136812 0 0.025787681
0.013958497 0 0.026100397
0.015200104 0 0.026659995
0.015833246 0 0.026549459
0.01648063 0 0.026056021
0.017450785 0 0.02579686
0.018310132 0 0.025018871
0.018971711 0 0.023683339
0.020394055 0 0.018921643
-0.023787813 0.00084956479 0.021849871
-0.022589017 0.00083663018 0.024100482
-0.021986946 0.00084565178 0.026125908
-0.020666927 0.00082667707 0.027119279
-0.020077001 0.00083654176 0.027506262
-0.019202674 0.00083489885 0.027835906
-0.018527063 0.00084213924 0.027995467
-0.017622078 0.00083914661 0.028163761
-0.016782641 0.00083913206 0.027966231
-0.015928088 0.00083832041 0.027423143
-0.01513756 0.00084097561 0.02679795
-0.014237043 0.00083747308 0.025753081
-0.013163092 0.00082269323 0.023196876
-0.01374365 0.00091624336 0.0056548119
0.011148364 0.00092903036 0.01614213
0.010940347 0.0008415652 0.02136597
0.011655509 0.00083253637 0.024025053
0.012666057 0.00084440381 0.025600046
0.013186487 0.00082415546 0.026189744
0.013967775 0.00082163379 0.026851445
0.014918271 0.00082879286 0.02714473
0.01561448 0.0008218147 0.027048707
0.016312497 0.0008156249 0.026749849
0.017555585 0.00083598029 0.026100397
0.018007362 0.00081851648 0.025419921
0.018998256 0.00082601112 0.024193555
0.020015649 0.0008339854 0.019517958
-0.023656452 0.0016897465 0.021849871
-0.02249025 0.0016659443 0.024316132
-0.02184278 0.0016802138 0.026099145
-0.020783883 0.0016627106 0.027407527
-0.01993658 0.0016613817 0.027867496
-0.019038681 0.0016555374 0.027892113
-0.018382233 0.0016711121 0.028242677
-0.017526012 0.0016691439 0.02828446
-0.016663121 0.0016663122 0.028300673
-0.015632849 0.0016455631 0.0278669
-0.014885237 0.0016539153 0.02760914
-0.014190306 0.0016694478 0.026485175
-0.013165893 0.0016457366 0.024795055
-0.013399865 0.0017866486 0.01932317
0.010184436 0.0018517157 0.0061452985
0.011001986 0.0018336643 0.018326014
0.010857058 0.0016703167 0.023158103
0.011744978 0.0016778541 0.02588585
0.012478573 0.0016638098 0.026109308
0.013020645 0.0016275806 0.027154267
0.014067065 0.0016549488 0.027527511
0.014856729 0.0016507477 0.027658999
0.015644422 0.0016467813 0.027463466
0.016734982 0.0016734982 0.027282506
0.017226791 0.0016406468 0.026422054
0.018336691 0.0016669719 0.025554538
0.019150689 0.0016652773 0.024308443
0.02009288 0.0016744068 0.019269079
-0.023591368 0.0025276465 0.022825271
-0.022627875 0.0025142082 0.024713784
-0.021594066 0.0024916229 0.026312619
-0.020532532 0.0024639037 0.027147681
-0.020038521 0.0025048151 0.027618289
-0.019085985 0.0024894762 0.027896225
-0.018320333 0.0024982272 0.028242677
-0.01749377 0.0024991101 0.028297961
-0.016533758 0.0024800638 0.02854988
-0.016020268 0.0025295159 0.027977943
-0.014817026 0.0024695045 0.027890801
-0.014502841 0.0025593247 0.027337611
-0.013259268 0.0024861128 0.026178956
-0.013311001 0.0026622002 0.024101466
-0.012972424 0.0027798051 0.0071738362
0.010276801 0.0028027638 0.017310739
0.0099135526 0.0024783881 0.02261287
0.010812524 0.0024951978 0.025988966
0.01166375 0.0024993748 0.026664764
0.012342197 0.0024684393 0.026884109
0.01329826 0.0024934239 0.027579546
0.014074094 0.0024836636 0.027561992
0.014955176 0.0024925293 0.027692884
0.015749484 0.0024867605 0.027483284
0.01639613 0.0024594194 0.027176261
0.017101213 0.0024430302 0.026409447
0.0184824 0.0025203275 0.025161535
0.018944576 0.0024710316 0.024291605
0.020333594 0.0025416992 0.019230455
-0.02356701 0.0033667157 0.022160947
-0.022816271 0.0033801883 0.024316132
-0.021685351 0.0033362077 0.026176244
-0.020842437 0.00333479 0.027343601
-0.019943139 0.0033238565 0.027688444
-0.019096771 0.0033211776 0.027908117
-0.018340025 0.00333455 0.028346002
-0.017535584 0.0033401111 0.0283885
-0.016448144 0.0032896288 0.028492004
-0.016019918 0.0033726145 0.028314561
-0.014743245 0.0032762769 0.028288424
-0.014058253 0.0033078243 0.027781367
-0.013610874 0.0034027186 0.027315646
-0.012107957 0.0032287887 0.026319355
-0.013212713 0.0037750609 0.022815645
-0.012406244 0.0038173059 0.0060732365
0.0094599854 0.0037839941 0.010518402
0.0096718352 0.0035170312 0.022758245
0.0099616051 0.0033205352 0.026147634
0.010965978 0.003374147 0.026824951
0.011520175 0.0032914786 0.027422071
0.012411388 0.0033097034 0.02759549
0.013057198 0.0032642996 0.027944863
0.014099677 0.003317571 0.028028101
0.014800258 0.0032889463 0.028161377
0.015677394 0.0033005043 0.027509928
0.016415259 0.003283052 0.027050674
0.017465258 0.0033267157 0.026499212
0.017864548 0.0032480997 0.025490046
0.019172374 0.003334326 0.024568141
0.020032242 0.0033387069 0.019230455
-0.023637876 0.0042210491 0.021740407
-0.022597183 0.0041846633 0.024208874
-0.022152986 0.0042601894 0.025951087
-0.020887494 0.0041774986 0.027094573
-0.020049209 0.0041769184 0.027506083
-0.019047236 0.004140703 0.02797547
-0.018146645 0.0041242372 0.028300852
-0.017476276 0.0041610175 0.028404802
-0.016531715 0.0041329288 0.028658956
-0.015774153 0.0041510928 0.028611183
-0.014829444 0.00411929 0.028758794
-0.013999867 0.0041176076 0.028345376
-0.012757583 0.0039867447 0.027973294
-0.012629465 0.0042098216 0.02741906
-0.011965154 0.0042732693 0.02602613
-0.012069209 0.0046420032 0.022449762
-0.011439325 0.0047663855 0.006264627
0.0084347064 0.0046859481 0.0076346397
0.0089026205 0.0044513103 0.022686064
0.0091660628 0.0041663921 0.025607675
0.010150737 0.0042294739 0.027108699
0.010687607 0.004110618 0.027952641
0.011553974 0.0041264193 0.027968854
0.012481411 0.0041604699 0.028236002
0.013210843 0.0041283886 0.028278679
0.014004008 0.0041188258 0.028055161
0.014614556 0.0040595988 0.028127193
0.015661912 0.0041215555 0.027485639
0.016335635 0.0040839086 0.02697286
0.017358642 0.0041330098 0.026252747
0.018281918 0.0041549811 0.025104851
0.018996837 0.0041297469 0.023466885
0.020187974 0.0042058276 0.018323302
-0.023270931 0.004986628 0.014002383
-0.022790216 0.0050644926 0.023458123
-0.021574853 0.0049788123 0.024985671
-0.020867001 0.00500808 0.02672568
-0.020013468 0.0050033671 0.02719909
-0.01922578 0.0050154207 0.027849764
-0.018204952 0.0049649868 0.02824688
-0.017515313 0.0050043748 0.028562695
-0.016505575 0.0049516726 0.028779536
-0.015722701 0.0049650637 0.028995097
-0.014945146 0.0049817152 0.029626071
-0.014099834 0.0049764118 0.029486328
-0.013114868 0.0049180752 0.029321074
-0.012477328 0.0049909311 0.029194236
-0.011703713 0.0050158771 0.027636439
-0.010635749 0.0049088076 0.026726693
-0.011207843 0.0056039216 0.023123264
-0.010373814 0.005658444 0.0060364902
0.0075444719 0.0056583541 0.0082851052
0.0077015134 0.0051343422 0.022495449
0.0083196349 0.004991781 0.025927573
0.0092931241 0.0050689769 0.026975214
0.0098827342 0.0049413671 0.028145015
0.010780717 0.0049757157 0.028340727
0.011716508 0.0050213607 0.028668106
0.012175744 0.0048702979 0.028405964
0.013239631 0.0049648616 0.028370589
0.013917579 0.0049120868 0.028166562
0.014862922 0.0049543073 0.028057903
0.015666002 0.0049471585 0.027336776
0.016506793 0.0049520377 0.026974052
0.017379783 0.0049656518 0.02609393
0.018028166 0.0049167727 0.024847955
0.019157181 0.0049975254 0.023280948
0.020223796 0.0050559491 0.016209066
-0.02403459 0.0060086474 0.012212753
-0.022687469 0.0058819363 0.020320654
-0.021888757 0.0058931271 0.023936778
-0.020927006 0.0058595613 0.025851697
-0.020236123 0.0059022028 0.026973248
-0.019103207 0.0058140196 0.027738124
-0.018346174 0.0058374191 0.028204679
-0.017317709 0.0057725697 0.028405607
-0.016708279 0.0058478978 0.029283017
-0.015907193 0.0058605443 0.029571146
-0.01484149 0.005771691 0.029833555
-0.013810359 0.0056866184 0.029663831
-0.013410637 0.0058671539 0.029667974
-0.012084779 0.0056395638 0.02981922
-0.01157614 0.0057880701 0.029040307
-0.010803252 0.0058171363 0.028926224
-0.0098238327 0.0057305689 0.027162582
-0.01022658 0.0065078242 0.024601817
-0.0094961887 0.0066473326 0.0060787499
0.0064777113 0.0064777113 0.016873091
0.0065342779 0.0057174931 0.022380024
0.0075766779 0.005892972 0.026380718
0.008418642 0.0058930493 0.02767086
0.0090078376 0.0057322606 0.028425604
0.009963504 0.0058120443 0.02868405
0.010764438 0.0057962355 0.028954923
0.011512165 0.0057560825 0.028741956
0.012285826 0.0057333857 0.028334171
0.01308412 0.0057243025 0.028314352
0.014059913 0.0057893759 0.028019965
0.01462333 0.0056868508 0.02766633
0.015599415 0.005747153 0.027188361
0.016551182 0.0057929135 0.026506245
0.017382914 0.0057943044 0.025474906
0.018288588 0.0058190962 0.024145633
0.018992614 0.0057803607 0.021103263
0.020388022 0.0059465067 0.012457848
0.022431461 0.0062808092 0.0059736073
-0.023715042 0.0067757261 0.010680974
-0.022620721 0.0067024357 0.014899075
-0.02166155 0.0066650924 0.022407204
-0.020933634 0.0066987625 0.024492472
-0.02000734 0.0066691139 0.025889754
-0.019301096 0.0067134243 0.026714712
-0.018409597 0.0066943993 0.027884722
-0.017526569 0.006676788 0.027968943
-0.016554061 0.0066216248 0.028786719
-0.015937688 0.0067106052 0.029530525
-0.014784889 0.0065710624 0.029685169
-0.01417626 0.0066711809 0.029753536
-0.013338863 0.0066694315 0.029833436
-0.012528324 0.0066817733 0.030082613
-0.011521009 0.0065834336 0.029726535
-0.01056353 0.0065006339 0.029797286
-0.0098723657 0.006581577 0.029191256
-0.0092078475 0.0066966168 0.028106302
-0.0082153026 0.0065722424 0.026470095
-0.0083711464 0.0074410192 0.023052424
-0.0076330449 0.0076330449 0.0065042377
-0.0067556025 0.0077206884 0.0051209927
0.0036527452 0.0073054903 0.0051813424
0.0047718436 0.0076349499 0.0086483657
0.0050581759 0.0067442344 0.021391273
0.0058024023 0.0066313166 0.025981486
0.0067914301 0.0067914301 0.027600259
0.0073415521 0.0065258243 0.029097617
0.0081598433 0.0065278746 0.02932027
0.0089712171 0.0065245214 0.029343367
0.0098109413 0.0065406277 0.029244393
0.010599967 0.0065230569 0.029338151
0.011556833 0.006603905 0.029047757
0.012203008 0.0065082707 0.028372258
0.013272588 0.0066362941 0.028317362
0.014066503 0.0066195307 0.027845532
0.014584278 0.0064819013 0.027475834
0.01575488 0.0066336342 0.027076036
0.016742812 0.0066971253 0.026151925
0.017327128 0.0066008107 0.024826318
0.018317193 0.0066607976 0.02195102
0.019165309 0.0066661946 0.016924292
0.020493686 0.0068312287 0.010511309
0.022153571 0.0070891422 0.005915612
-0.024403391 0.007843947 0.0087915063
-0.022791956 0.0075973179 0.012464672
-0.022068463 0.0076390835 0.017744333
-0.021078546 0.0075882762 0.022937596
-0.020213662 0.0075801229 0.024711102
-0.019491844 0.0076272427 0.026488334
-0.018142141 0.007421785 0.027560323
-0.017419534 0.0074655144 0.027803838
-0.016469164 0.0074111237 0.028305203
-0.015751734 0.0074613472 0.029530525
-0.014807125 0.0074035623 0.029699177
-0.013936335 0.0073780594 0.029833436
-0.013149087 0.0073963613 0.030104905
-0.012269979 0.0073619876 0.030249834
-0.011639807 0.0074827326 0.029618472
-0.010686532 0.0073983679 0.030105948
-0.0098374756 0.007378106 0.029891312
-0.0090196738 0.007379733 0.029343396
-0.0082544778 0.0074290303 0.028592765
-0.0076049925 0.0076049925 0.027962863
-0.0067242705 0.0075648041 0.027461857
-0.0061980309 0.007968897 0.023243874
-0.0054825079 0.0082237618 0.0076937079
-0.0047929245 0.0086272638 0.0062804222
-0.0038266452 0.0086099515 0.0059824288
-0.0028857738 0.0086573213 0.0057319105
-0.0018762089 0.0084429402 0.0052063167
0 0.0085379602 0.0051436722
0.00093634543 0.0084271086 0.0052933097
0.0018824268 0.0084709199 0.0085775554
0.0026754669 0.0080264006 0.012182891
0.0035594089 0.0080086701 0.022081137
0.0041218055 0.00741925 0.025535911
0.0050227977 0.0075341966 0.028479517
0.005723163 0.0073583522 0.029155254
0.0065048584 0.0073179654 0.029609919
0.0073460988 0.0073460988 0.029819459
0.0082404613 0.0074164155 0.029948503
0.0090250364 0.007384121 0.029875278
0.0098096905 0.0073572672 0.029517353
0.010653265 0.0073753367 0.029564828
0.011525515 0.0074092592 0.029189944
0.012308357 0.0073850141 0.028472722
0.013131545 0.0073864935 0.028317362
0.01380277 0.0073073478 0.027497649
0.01480822 0.0074041099 0.027086377
0.015698515 0.0074361381 0.02632007
0.016483776 0.0074176998 0.025286198
0.017425926 0.0074682538 0.023092836
0.018213114 0.0074508195 0.018034518
0.019270679 0.0075407 0.01472342
0.020856246 0.0078210924 0.00946033
0.022086995 0.0079513174 0.0057182908
-0.024725448 0.0088305175 0.0055157244
-0.023544328 0.0087201213 0.011523247
-0.021839421 0.0083997771 0.013215989
-0.020992128 0.0083968509 0.01810509
-0.020027004 0.0083445851 0.022880763
-0.01930313 0.0083926646 0.025244147
-0.018400839 0.0083640181 0.026444554
-0.017314957 0.0082452176 0.027035326
-0.016557077 0.0082785385 0.027757704
-0.015825998 0.0083294725 0.028693914
-0.014911473 0.0082841516 0.029248089
-0.013969675 0.0082174549 0.029243559
-0.013274995 0.0082968716 0.029513508
-0.01211849 0.0080789933 0.029639482
-0.011709904 0.0083642174 0.029757917
-0.010780941 0.0082930308 0.030202746
-0.0097286822 0.0081072347 0.030176997
-0.0090647172 0.0082406523 0.029799193
-0.0081680669 0.0081680669 0.029811442
-0.0073100128 0.0081222365 0.029742271
-0.0065800436 0.0082250535 0.029753894
-0.0058610523 0.0083729317 0.029478818
-0.0050020204 0.0083367005 0.028040797
-0.0042151217 0.0084302435 0.027491748
-0.0032978288 0.0082445722 0.023957372
-0.0025697956 0.0085659847 0.023987263
-0.001777593 0.0088879652 0.021648437
-0.00086777488 0.008677749 0.021395087
0 0.0087241037 0.022245288
0.00086021633 0.0086021628 0.025592059
0.0016634838 0.0083174184 0.027667493
0.0025370629 0.0084568765 0.028807104
0.0032483349 0.0081208367 0.029695481
0.004092304 0.0081846081 0.029358566
0.0048502558 0.0080837589 0.029704303
0.0056609623 0.0080870893 0.029812217
0.0065780929 0.0082226163 0.029971749
0.0073796683 0.0081996312 0.029936284
0.0082472851 0.0082472851 0.029878289
0.0089836149 0.0081669223 0.029727221
0.010016754 0.0083472952 0.029420584
0.010561552 0.0081242705 0.029358566
0.011530802 0.0082362872 0.029128611
0.01232773 0.0082184868 0.028363287
0.013089835 0.0081811463 0.028028101
0.014031794 0.0082539963 0.027239382
0.014972855 0.0083182529 0.026688606
0.015644368 0.0082338778 0.025408298
0.016620392 0.008310196 0.023209214
0.017592356 0.0083773118 0.018268436
0.018518673 0.0084175784 0.016129434
0.019657252 0.0085466309 0.013088971
0.020856475 0.008690198 0.0081086755
0.022294059 0.0089176232 0.0054306686
-0.023546075 0.0095928451 0.010290027
-0.022514846 0.0095255123 0.012257099
-0.021702513 0.0095491046 0.013480216
-0.020579126 0.0094320998 0.018055677
-0.019454425 0.0093042897 0.022746712
-0.018446498 0.0092232488 0.025073826
-0.017569475 0.0092030587 0.025818616
-0.016741056 0.0092075812 0.026857197
-0.015636403 0.0090526547 0.027610242
-0.01494557 0.0091334041 0.0288091
-0.013940807 0.0090205222 0.028894931
-0.013126983 0.0090248007 0.029343396
-0.012444783 0.0091261733 0.029532701
-0.011525784 0.009055973 0.030008078
-0.010662232 0.0090218876 0.030239791
-0.0098793823 0.0090561006 0.030537516
-0.0091029955 0.0091029955 0.030403614
-0.0081352368 0.008948761 0.030534625
-0.0072662067 0.0088809198 0.030403614
-0.006496245 0.0089323362 0.030716985
-0.0056896 0.0089408001 0.03061077
-0.0048492067 0.0088902125 0.030544788
-0.0040356591 0.0088784499 0.030278534
-0.0032666505 0.008983288 0.030140609
-0.0024381559 0.0089399051 0.029793829
-0.0016299732 0.0089648524 0.029540181
-0.00081657898 0.0089823687 0.029995918
0 0.0089783734 0.029984355
0.00082041899 0.0090246089 0.030197591
0.0016168075 0.0088924412 0.030274034
0.0024288304 0.0089057116 0.030170411
0.0032271552 0.0088746771 0.030986845
0.0040969118 0.0090132058 0.030241489
0.0049621998 0.0090973666 0.030763447
0.0057228752 0.0089930892 0.030559927
0.0066927164 0.009202485 0.030567646
0.0073830234 0.0090236953 0.030274063
0.0082138414 0.009035225 0.030257553
0.0090929428 0.0090929428 0.029903919
0.0098866932 0.0090628015 0.029620349
0.010623426 0.0089890528 0.029476285
0.011401273 0.0089581432 0.028903455
0.012242866 0.0089781014 0.028189272
0.013302387 0.0091453912 0.027781397
0.01406711 0.0091022467 0.026708454
0.014809662 0.0090503497 0.025567174
0.015882801 0.0091953054 0.0231089
0.016671658 0.0091694118 0.018370241
0.017872419 0.009361743 0.01641947
0.018905753 0.0094528766 0.013789982
0.019811323 0.0094749806 0.011468947
0.020913521 0.0095853629 0.0075501502
-0.023649473 0.010510876 0.0084694028
-0.022416776 0.010346204 0.010997564
-0.021846954 0.010486537 0.012237042
-0.020776231 0.010388115 0.01419276
-0.019748328 0.010303475 0.017258376
-0.018745076 0.010224587 0.020846903
-0.017519647 0.010011227 0.023663044
-0.016618112 0.009970868 0.025325328
-0.015710469 0.009922401 0.026339889
-0.015162596 0.010108397 0.026950926
-0.014055751 0.0099217063 0.028379798
-0.01306368 0.0097977603 0.028647572
-0.012100383 0.0096803056 0.029190332
-0.01149511 0.0098529514 0.029984951
-0.010730362 0.0099049499 0.030301988
-0.0098508932 0.0098508932 0.030506253
-0.0088617494 0.009667363 0.030463547
-0.0082559017 0.0099070817 0.030607343
-0.0073528802 0.00980384 0.030628502
-0.0066044889 0.0099067334 0.031022727
-0.0058210017 0.0099788606 0.031186759
-0.0049099219 0.0098198438 0.031407475
-0.0040950933 0.0098282248 0.030743331
-0.0033227291 0.0099681877 0.030743331
-0.0024635785 0.0098543139 0.030361474
-0.0016148631 0.0096891783 0.030590236
-0.00082029909 0.0098435888 0.030872971
0 0.0098231407 0.030910313
0.00081091316 0.0097309574 0.031032979
0.0016368042 0.0098208245 0.031080663
0.0024143946 0.0096575785 0.030956328
0.0032634907 0.0097904718 0.031062216
0.0040798578 0.0097916583 0.030957997
0.0048824982 0.0097649964 0.030952036
0.0057058278 0.0097814184 0.030880511
0.0065572029 0.0098358039 0.030842632
0.0073309443 0.0097745927 0.030279368
0.00824067 0.0098888036 0.030072391
0.0089649558 0.0097799525 0.029745132
0.0099049909 0.0099049909 0.029377401
0.010657508 0.0098376991 0.029108375
0.011630698 0.0099691693 0.028667569
0.012404606 0.0099236844 0.027383596
0.013191326 0.0098934937 0.026366919
0.014014343 0.0098924777 0.024829865
0.015070536 0.010047024 0.022959381
0.016300393 0.010294985 0.017953902
0.016997956 0.010198774 0.016457587
0.018147221 0.01036984 0.014463186
0.019160116 0.010450972 0.012213707
0.019791711 0.01032611 0.010014594
0.021065338 0.010532669 0.0069024265
-0.023698529 0.011410403 0.0060881376
-0.022603197 0.011301599 0.0092901587
-0.021834608 0.011353997 0.011389911
-0.020933757 0.011339119 0.012307435
-0.019826556 0.011206314 0.01422739
-0.019130513 0.011304394 0.016003489
-0.018287674 0.01132094 0.017936826
-0.017001502 0.011050977 0.020785272
-0.015952138 0.010914621 0.024980843
-0.014838133 0.01071643 0.025843799
-0.014111586 0.010791213 0.027163118
-0.013255576 0.010770155 0.028454006
-0.012209062 0.010581187 0.028919011
-0.011579483 0.010752376 0.029542953
-0.010689933 0.010689933 0.030234188
-0.0098428167 0.010663051 0.030425519
-0.009061425 0.010708957 0.030599982
-0.0082662245 0.010746092 0.030776858
-0.0073863044 0.010669107 0.030784816
-0.0066541811 0.010813044 0.031099737
-0.0057395059 0.010659083 0.031263143
-0.0049058823 0.010629412 0.031348109
-0.0040682657 0.010577491 0.030910313
-0.0032768864 0.01064988 0.030959189
-0.0024568045 0.010646153 0.030959189
-0.0016448426 0.010691477 0.030869067
-0.00081621285 0.010610767 0.030944824
0 0.01063536 0.030944824
0.00083425205 0.010845277 0.031169415
0.0016154682 0.010500543 0.031183422
0.0024769153 0.0107333 0.031047076
0.0032919997 0.010698999 0.031154275
0.0041185403 0.010708204 0.030999124
0.0049003982 0.010617529 0.030925393
0.0057608327 0.01069869 0.030724049
0.0065206192 0.010596006 0.03072235
0.0074131736 0.010707918 0.029976636
0.0081858039 0.010641545 0.029601872
0.0089669377 0.01059729 0.029277325
0.0098260036 0.010644837 0.028631717
0.010641631 0.010641631 0.028327912
0.011553901 0.010728623 0.027532339
0.012428304 0.010771196 0.025532901
0.013426082 0.010908691 0.023204803
0.014520451 0.011103875 0.018359452
0.015337851 0.011077337 0.017152518
0.016189246 0.011076853 0.016036749
0.017057501 0.011087376 0.014551103
0.018154755 0.011238657 0.012974471
0.018806539 0.011112955 0.011149466
0.020063052 0.011339986 0.0081582069
0.021014057 0.011382615 0.0059925318
-0.02277996 0.012266132 0.007804215
-0.021981783 0.012309798 0.0097615123
-0.020888206 0.012184787 0.011297137
-0.020103347 0.01223682 0.012162626
-0.019134261 0.012176348 0.014173478
-0.017988374 0.011992249 0.014950216
-0.017441934 0.012209353 0.015692592
-0.016371772 0.01206341 0.01774475
-0.015113021 0.011754572 0.021595865
-0.014087629 0.011601577 0.025139183
-0.013054742 0.0114229 0.027672052
-0.012445527 0.011615825 0.02829805
-0.011539287 0.011539287 0.02886501
-0.010679533 0.011501036 0.029517472
-0.0099216588 0.011575269 0.030104548
-0.0090264892 0.01148826 0.03023839
-0.0080596209 0.011283469 0.030395746
-0.0073917136 0.011498221 0.030061066
-0.0065546767 0.011470684 0.03074339
-0.0056822975 0.011364595 0.030965626
-0.0049873614 0.011637176 0.031007946
-0.0041154511 0.011523264 0.030844927
-0.0032451681 0.011358088 0.030913413
-0.0024331978 0.011354923 0.030869067
-0.0016444603 0.011511222 0.030933589
-0.00081809406 0.011453317 0.031276256
0 0.011523309 0.03121689
0.00080304238 0.011242593 0.031269342
0.0016311759 0.011418231 0.031285316
0.0024501991 0.011434263 0.03112486
0.0032283496 0.011299224 0.03112486
0.0040727975 0.011403834 0.030912369
0.0049197269 0.011479364 0.03062138
0.0057774079 0.011554816 0.030353278
0.0064849774 0.01134871 0.030108809
0.0073999385 0.011511017 0.029371291
0.0081424713 0.01139946 0.028927267
0.0090298401 0.011492523 0.02834788
0.0098580681 0.011501079 0.028137028
0.010729415 0.011554755 0.025924057
0.011730272 0.011730272 0.023582906
0.012801765 0.011948314 0.019570112
0.013812697 0.01208611 0.017375171
0.014376398 0.011839387 0.016373783
0.015394636 0.011973606 0.015657663
0.016138153 0.011891271 0.01434356
0.017176574 0.012023603 0.012892216
0.018022878 0.012015252 0.0117535
0.018974965 0.012074978 0.0093040168
0.020199897 0.012295589 0.0071065426
0.020988937 0.012243547 0.0054343641
-0.021984365 0.013190618 0.0084694028
-0.021201629 0.013251019 0.0097004175
-0.020027377 0.013061333 0.010991752
-0.019167332 0.013068636 0.012117893
-0.018219316 0.013013797 0.013502479
-0.01713364 0.012850231 0.014691323
-0.016291656 0.012861833 0.015274167
-0.015540068 0.012950057 0.017237574
-0.01448894 0.012784359 0.018959433
-0.013374059 0.01253818 0.023926735
-0.012364028 0.012364028 0.026207954
-0.011582576 0.012409902 0.027909279
-0.010705485 0.012352482 0.028613806
-0.0097716646 0.012214581 0.028919786
-0.0089747515 0.012238298 0.029288173
-0.0081551364 0.012232704 0.02953285
-0.0073055169 0.012175862 0.029559344
-0.0066281627 0.012427805 0.030402929
-0.0057427678 0.012305931 0.030527323
-0.0049141645 0.012285411 0.030683577
-0.0041205622 0.012361687 0.030642867
-0.0032799696 0.012299886 0.030862302
-0.00245016 0.012250801 0.030837655
-0.0016506484 0.012379863 0.031051308
-0.00081966521 0.012294978 0.031165987
0 0.012273995 0.031126171
0.00081168301 0.012175245 0.031315774
0.0016441897 0.012331422 0.031301886
0.0024419343 0.012209672 0.030996501
0.0032514546 0.012192955 0.030968338
0.004036786 0.012110359 0.030731142
0.0048721256 0.012180314 0.030501306
0.0056860484 0.012184389 0.029648632
0.0065521337 0.012285251 0.029286623
0.0073389602 0.0122316 0.028850794
0.0083153397 0.01247301 0.028007984
0.0090853032 0.012389051 0.026101589
0.010000425 0.012500532 0.023661494
0.01111084 0.012820201 0.020215541
0.011994351 0.01285109 0.018241823
0.012793303 0.012793303 0.016731501
0.013604931 0.012754623 0.015914202
0.014380273 0.012688477 0.014864564
0.015561982 0.012968319 0.014320523
0.016380699 0.012932131 0.01240164
0.017154332 0.01286575 0.011855453
0.018373933 0.013124237 0.0098752379
0.019060254 0.012995628 0.0074847937
0.020150501 0.013141631 0.0058422685
-0.021894075 0.014012207 0.005315125
-0.020853655 0.013902437 0.0084401965
-0.020099595 0.013982327 0.0096285045
-0.019296648 0.014033926 0.011113435
-0.01825461 0.013908274 0.011941552
-0.017444761 0.01395581 0.012853473
-0.016306274 0.013731598 0.014114827
-0.015539664 0.013813036 0.015027583
-0.014678985 0.013815515 0.016451955
-0.013856871 0.013856871 0.017405748
-0.012844122 0.013700397 0.019383967
-0.011713588 0.013386957 0.024446666
-0.010561165 0.012998357 0.027348101
-0.009841607 0.013122143 0.028119653
-0.0090234615 0.013125035 0.028680444
-0.0082091643 0.013134664 0.029289484
-0.0073771738 0.013114976 0.029118359
-0.0065480899 0.01309618 0.030142814
-0.0057643857 0.013175739 0.030268639
-0.0048775021 0.013006672 0.030487865
-0.0041037151 0.013131889 0.030529112
-0.0032647871 0.013059149 0.030674577
-0.0024517509 0.013076006 0.030857444
-0.0016398877 0.013119102 0.03080067
-0.00081599131 0.013055861 0.030914664
0 0.012990587 0.030758649
0.00081270124 0.01300322 0.03123045
0.0016178323 0.012942659 0.031093836
0.0024563202 0.013100374 0.030533344
0.0032584509 0.013033804 0.030420214
0.0040571098 0.012982751 0.030114084
0.0048727505 0.012994001 0.029435396
0.0057528722 0.013149423 0.029098421
0.0065846383 0.013169277 0.028271407
0.0073788185 0.0131179 0.027730197
0.0082384003 0.013181441 0.024915516
0.0093879094 0.013655142 0.02114138
0.010290315 0.013720421 0.01840657
0.011139057 0.013709608 0.017004132
0.011977849 0.013688969 0.016279608
0.0129528 0.013816319 0.015369833
0.013860767 0.013860767 0.014800698
0.014704854 0.013839863 0.013638854
0.015630597 0.013893864 0.012235761
0.016427686 0.01383384 0.011465758
0.017226916 0.013781533 0.0092779994
0.01829933 0.013942347 0.0076241791
0.01900756 0.013823681 0.0060284436
0.020327633 0.014140963 0.0052879155
-0.021101087 0.014946603 0.0055367351
-0.020277986 0.014988077 0.0080587566
-0.01923177 0.014860913 0.0095320344
-0.018182471 0.014719143 0.010594636
-0.017455138 0.014836868 0.011270314
-0.016398249 0.014672117 0.012665808
-0.015531494 0.014668634 0.013820559
-0.014664024 0.014664024 0.014614969
-0.013694745 0.014550666 0.016016394
-0.013016304 0.014751812 0.016890645
-0.012016679 0.014591683 0.01808086
-0.011059548 0.014462486 0.021450728
-0.0099414345 0.014083699 0.026093036
-0.0091002369 0.014064004 0.027472943
-0.0080907792 0.013754326 0.028125882
-0.0073857335 0.01395083 0.027997285
-0.00653231 0.013881159 0.028926194
-0.0056866184 0.013810359 0.029299498
-0.0049672741 0.014073945 0.029953331
-0.0041002468 0.013940839 0.030006081
-0.003260552 0.013857346 0.030161768
-0.0024633775 0.013959141 0.030217618
-0.0016466636 0.013996641 0.029969752
-0.00082017167 0.013942918 0.030100644
0 0.013879787 0.029930651
0.00081255665 0.013813463 0.030057549
0.0016305809 0.013859937 0.029989183
0.0024489397 0.013877325 0.029849976
0.00327103 0.013901877 0.029831737
0.0041389284 0.014072357 0.029096037
0.0049588685 0.014050127 0.028520614
0.0056751063 0.013782401 0.027815849
0.0066049127 0.014035439 0.026113421
0.0075671696 0.014293544 0.021730989
0.0084634982 0.014387948 0.018095553
0.0094659887 0.014629255 0.017616361
0.01038425 0.014711022 0.016391963
0.011101501 0.014517347 0.015568167
0.012015826 0.014590646 0.014743119
0.012759703 0.014460998 0.013708919
0.013734677 0.014593095 0.012786925
0.01475094 0.01475094 0.011805505
0.015454812 0.014596213 0.011425406
0.016528899 0.014789014 0.0090993345
0.017205676 0.014624825 0.0078465343
0.018172249 0.014710869 0.0064427555
0.019281285 0.014899175 0.0056066513
-0.02026459 0.015859243 0.0051908791
-0.019320667 0.015807819 0.0079888999
-0.018465361 0.015827451 0.0091579556
-0.017555445 0.015799901 0.010214746
-0.016505133 0.01563644 0.01114133
-0.015594427 0.015594427 0.012517422
-0.01467898 0.015542448 0.013147026
-0.013802323 0.015527612 0.014139801
-0.012973798 0.015568556 0.015164346
-0.011816788 0.015193013 0.016293257
-0.011274412 0.015610724 0.017077446
-0.010295441 0.015443161 0.018464655
-0.0092827706 0.015189988 0.022746116
-0.008338348 0.015009027 0.026122957
-0.0073772543 0.014754509 0.027053654
-0.0065403674 0.014715826 0.028134793
-0.0057721171 0.014842587 0.028465003
-0.0049097231 0.014729169 0.02856341
-0.0041010175 0.014763662 0.028835475
-0.0032558108 0.014651148 0.029468894
-0.0024614641 0.014768785 0.029277205
-0.0016305246 0.014674721 0.02940765
-0.00082014309 0.014762575 0.029622078
0 0.014786742 0.02940765
0.00081009226 0.01458166 0.029528707
0.0016475804 0.014828223 0.029231161
0.0024572613 0.014743567 0.028638989
0.0032930884 0.014818897 0.028571904
0.0041110674 0.014799842 0.028293431
0.0050025457 0.015007637 0.026488602
0.0059017227 0.015175858 0.024448305
0.0067971293 0.01529354 0.01944229
0.0077587226 0.015517445 0.017946273
0.0085983705 0.015477066 0.016449034
0.009440843 0.015448652 0.015790701
0.010206303 0.015309454 0.015016735
0.011148569 0.01543648 0.01426658
0.01209463 0.015550237 0.013217539
0.013097974 0.01571757 0.012235761
0.013689357 0.015400526 0.011505663
0.014751403 0.015619132 0.010890603
0.015602095 0.015602095 0.009031415
0.016373342 0.015511585 0.0076751113
0.017846253 0.016061628 0.0068476796
0.018668473 0.016001547 0.0056219995
-0.018422361 0.01666785 0.007869035
-0.01750111 0.016626056 0.0085585415
-0.016636165 0.016636165 0.010007143
-0.015686821 0.016558312 0.01078862
-0.014651428 0.016375126 0.012249559
-0.013847472 0.016443875 0.013000757
-0.012997865 0.016463961 0.013724506
-0.012026766 0.016322041 0.014255285
-0.011133039 0.016271366 0.015964031
-0.010259188 0.016243715 0.016386896
-0.0093687642 0.016182411 0.017022043
-0.0085255317 0.01619851 0.017970055
-0.0074887485 0.015809581 0.023532778
-0.0066808881 0.01586711 0.026181787
-0.0057620727 0.015639912 0.027222604
-0.0049530049 0.015684515 0.028011203
-0.0041145519 0.015635297 0.028270155
-0.0033046457 0.015697068 0.028491437
-0.0024613631 0.015588633 0.028581649
-0.001661886 0.015787916 0.028696686
-0.00081968296 0.015573976 0.028907835
0 0.0157777 0.028739244
0.00082199747 0.015617952 0.028764933
0.0016327727 0.015511341 0.028897613
0.0024505828 0.015520358 0.028086811
0.003275899 0.015560521 0.02735725
0.0041654054 0.015828541 0.024236917
0.0050987997 0.0161462 0.020286769
0.0059952498 0.016272821 0.018258423
0.0067247329 0.01597124 0.017001808
0.0078170141 0.016502587 0.015450507
0.0085060475 0.01616149 0.014894366
0.009443773 0.016311971 0.014295429
0.010503193 0.016630057 0.013450891
0.011243041 0.016432136 0.012260526
0.012116245 0.016443476 0.011538088
0.012908394 0.016350634 0.011042923
0.013821182 0.016412653 0.0093265176
0.014862464 0.016610989 0.0079595745
0.015888341 0.016771026 0.0069619715
0.016889313 0.016889313 0.0060004592
0.017477995 0.016604096 0.0054419935
-0.017686326 0.017686326 0.0069699287
-0.016674599 0.017552208 0.0085099339
-0.015564458 0.017293843 0.0094201267
-0.014831697 0.017449055 0.010369897
-0.013616019 0.017020022 0.012133569
-0.013138692 0.017518256 0.012663543
-0.012102845 0.017289778 0.013388634
-0.011175998 0.017193843 0.013826489
-0.010561815 0.017603027 0.014946729
-0.0093910629 0.017074659 0.015954345
-0.0085074482 0.017014896 0.016177565
-0.0076571563 0.017015902 0.016555935
-0.0067950319 0.016987579 0.01780206
-0.0057835369 0.016524391 0.024458349
-0.0049436348 0.016478783 0.026169062
-0.0041192276 0.016476911 0.027122289
-0.0032372575 0.016186288 0.027875155
-0.0024490061 0.016326707 0.028170139
-0.0016492605 0.016492603 0.028086811
-0.00082317641 0.016463527 0.028331757
0 0.016445309 0.02810514
0.00081416336 0.016283266 0.027473211
0.0016356192 0.016356193 0.026689529
0.0024890159 0.01659344 0.024478018
0.0033656275 0.016828137 0.021040142
0.0042200084 0.016880034 0.019252151
0.0051087756 0.017029252 0.017467082
0.0059348489 0.016956711 0.016706347
0.0068705324 0.01717633 0.015223861
0.0076352386 0.016967198 0.014557183
0.0086133815 0.017226763 0.013628662
0.0095805731 0.017419223 0.012842625
0.010241872 0.017069785 0.011647165
0.011134061 0.017129324 0.010961503
0.012245141 0.017493058 0.0097029805
0.013068403 0.017424537 0.0083230436
0.014069723 0.017587153 0.0077426434
0.015289919 0.017988138 0.0070212781
0.016021108 0.017801231 0.0054913759
-0.016756836 0.018520713 0.0064581335
-0.015725622 0.018346559 0.0082688332
-0.014754307 0.018225908 0.0085028708
-0.014045537 0.018434767 0.010140598
-0.013088641 0.018324098 0.011622727
-0.012063813 0.018095721 0.012360573
-0.011198307 0.018089574 0.013105094
-0.010269049 0.017970836 0.01339063
-0.0094949855 0.018126791 0.014360726
-0.008728548 0.018329952 0.015097857
-0.0077032973 0.017974362 0.015277505
-0.0068579661 0.018002162 0.015919536
-0.0059745773 0.017923733 0.016687721
-0.0050405404 0.017641893 0.01963681
-0.0041135256 0.017276809 0.023237377
-0.0033235494 0.017448636 0.024625957
-0.0024497891 0.017148525 0.025222242
-0.001635532 0.017173085 0.025426
-0.00082368014 0.017297283 0.025440812
0 0.017177137 0.024917603
0.0008212445 0.017246135 0.023963541
0.0016668299 0.017501714 0.021135777
0.0025409414 0.01778659 0.019430816
0.0033642233 0.017662171 0.017754912
0.0042785294 0.017969824 0.017344952
0.0051347902 0.017971765 0.015986681
0.0059490069 0.017847022 0.014957488
0.0068453029 0.017968921 0.014060229
0.0078035612 0.01820831 0.013606101
0.0086640222 0.018194448 0.01202926
0.0094715506 0.018082052 0.011155576
0.01044726 0.018282706 0.009360373
0.011318566 0.018283838 0.0083310306
0.012310032 0.018465048 0.0075039268
0.013340556 0.018676778 0.0057217777
0.014237314 0.018686475 0.0051097572
-0.016043199 0.019608356 0.0057158172
-0.014920889 0.019309387 0.007055521
-0.01394827 0.019178871 0.0081129968
-0.013016618 0.019091038 0.0095388293
-0.012119274 0.019044572 0.011115611
-0.011182569 0.018924348 0.012037128
-0.01028155 0.018849507 0.012391835
-0.0096403267 0.019280653 0.012856841
-0.0085460022 0.018801205 0.013259351
-0.0077384217 0.018916143 0.013742268
-0.0069885296 0.019218456 0.01467824
-0.0059784651 0.018789461 0.015195698
-0.0051523652 0.018892007 0.015719473
-0.0042761303 0.018814974 0.016778797
-0.0033291925 0.018310558 0.017707646
-0.0024578627 0.018024325 0.019405127
-0.0016712338 0.018383572 0.019277304
-0.0008194297 0.018027453 0.019936025
0 0.018571323 0.019317508
0.00084573135 0.018606089 0.019246221
0.0017008228 0.01870905 0.01768288
0.0025822441 0.018936457 0.017079383
0.0034000576 0.018700317 0.016099095
0.0042575621 0.018733272 0.015260816
0.0051125525 0.018746026 0.014341295
0.0060632625 0.019055968 0.013479531
0.006852665 0.018844828 0.012613416
0.0079000266 0.019311178 0.011401504
0.0085989544 0.0189177 0.010018885
0.0095439237 0.019087847 0.0090524256
0.010483105 0.019219026 0.0063332021
0.01162715 0.019676715 0.005428493
-0.014088408 0.020252088 0.0061326027
-0.013169006 0.020192476 0.0078010261
-0.012259816 0.020141127 0.0082881749
-0.011265636 0.01993151 0.0099069774
-0.010403508 0.01994006 0.011129588
-0.0095673539 0.020004468 0.011974424
-0.0085545424 0.019675449 0.012479216
-0.0077104983 0.019704608 0.012669981
-0.0069135418 0.019876434 0.01299274
-0.0060257721 0.019798966 0.013987243
-0.0051392266 0.019700369 0.01475364
-0.0042810095 0.019692644 0.015285999
-0.0034025025 0.01956439 0.015831769
-0.0025185128 0.019308599 0.016058832
-0.0016656426 0.01915489 0.016024172
-0.00084543019 0.019444896 0.017208606
0 0.019740382 0.016660511
0.00084494322 0.019433694 0.016649604
0.001712881 0.019698132 0.016199201
0.0025712901 0.019713225 0.015070528
0.003438052 0.019768801 0.014718592
0.004299575 0.019778045 0.014138788
0.0052082511 0.019964963 0.013186485
0.0060943672 0.02002435 0.011890948
0.006914515 0.019879231 0.010616809
0.0077395285 0.019778797 0.0091781914
0.0086354809 0.019861607 0.0072672963
-0.013439876 0.021503802 0.0051681697
-0.012272501 0.021038573 0.0061495304
-0.011351773 0.020957118 0.0073280632
-0.010591805 0.02118361 0.0087108612
-0.0095010344 0.020729529 0.0099525154
-0.0086117052 0.020668091 0.011135101
-0.0076765106 0.020470696 0.011967063
-0.0068336627 0.020500988 0.011996299
-0.0060223341 0.020648003 0.013097107
-0.0051822932 0.020729173 0.013100863
-0.0043120305 0.020697746 0.013968199
-0.003444609 0.020667654 0.01496169
-0.0025975727 0.020780582 0.015229672
-0.0017193254 0.020631906 0.015220016
-0.00086027948 0.020646708 0.015451074
0 0.020423271 0.015070528
0.00085687096 0.020564903 0.015209615
0.0016992399 0.020390879 0.015112817
0.0025592281 0.020473825 0.014710307
0.0033835024 0.020301014 0.013549
0.0042925552 0.020604264 0.0124107
0.0051852143 0.020740857 0.01111725
0.0061019957 0.020921128 0.0096023381
0.0068813725 0.020644117 0.0080086887
0.0079952478 0.02132066 0.0053385198
0.030961292 0.021230601 0.0053856969
0.031465728 0.020977153 0.0050782859
-0.011715356 0.022529533 0.0054829717
-0.010625228 0.022135893 0.0066143572
-0.0095705185 0.02175118 0.0074388087
-0.0086596711 0.021649178 0.0088294446
-0.0077717137 0.021588095 0.010713309
-0.0069723204 0.021788502 0.010987937
-0.0060192859 0.021497451 0.012083024
-0.0051847887 0.021603286 0.01235944
-0.0043110689 0.021555346 0.013121068
-0.0034146302 0.021341439 0.013612419
-0.0025665055 0.021387547 0.013633996
-0.0017186982 0.021483727 0.013751239
-0.00085418427 0.021354608 0.013958544
0 0.021391187 0.013970435
0.00085747056 0.021436764 0.013845354
0.0017118822 0.021398528 0.013613343
0.0025931599 0.021609668 0.013419271
0.0034908191 0.021817621 0.012024373
0.0042788172 0.021394087 0.011137605
0.0052176476 0.0217402 0.0088295341
0.0061947708 0.022124182 0.0061254799
0.030733803 0.021952718 0.0054218471
0.0319192 0.022166112 0.0053096414
0.032219972 0.02177025 0.0052027404
-0.0098025063 0.02316956 0.005794704
-0.0086309249 0.022440406 0.0067803264
-0.0078186588 0.022587238 0.0079499185
-0.0069225463 0.022498276 0.0096824467
-0.006070287 0.022546779 0.010274112
-0.0052164551 0.022604639 0.011366159
-0.0042632315 0.022168804 0.012266785
-0.0034447538 0.0223909 0.012441278
-0.0026175734 0.022685636 0.012695372
-0.0017029705 0.022138616 0.012860268
-0.0008536228 0.022194192 0.012814432
0 0.022437893 0.012860268
0.00085350103 0.022191027 0.012512088
0.0017069862 0.02219082 0.011402756
0.002596034 0.022498962 0.011238307
0.003451325 0.022433612 0.0090245903
0.0044205096 0.02298665 0.0065285265
0.030272823 0.022488384 0.0052027404
0.031373106 0.022658356 0.0051569343
-0.032580812 0.024435611 0.0050928593
-0.0080292141 0.024087643 0.0060940385
-0.0070440294 0.023773599 0.0065909028
-0.0061067562 0.023554631 0.0081112087
-0.0051732571 0.023279658 0.0095999241
-0.0043324861 0.023395427 0.010698378
-0.0034665726 0.023399366 0.010892868
-0.0026030887 0.023427799 0.011314124
-0.0017224004 0.023252407 0.011469334
-0.00086595363 0.023380749 0.011513829
0 0.022966884 0.011164844
0.00086875213 0.023456309 0.010244936
0.0017277541 0.023324681 0.0088403821
0.0026342974 0.023708677 0.0065241158
0.030984845 0.023902595 0.0054095387
0.031540301 0.023655228 0.0053637326
0.031972043 0.023330949 0.0051749647
-0.032403629 0.024521664 0.0053502619
-0.032027856 0.024910556 0.0054004192
-0.0061891535 0.024756614 0.0058675408
-0.0052592233 0.024543041 0.006474942
-0.0043895259 0.024581347 0.0066148043
-0.0034467597 0.024127318 0.0068212152
-0.0025906002 0.024178935 0.0073466003
-0.0017410838 0.024375172 0.0072017908
-0.00086033106 0.024089269 0.0070679486
0 0.024160879 0.0065836906
0.0008844792 0.024765419 0.0064368546
0.0017707668 0.024790734 0.0056387782
0.030644489 0.024515592 0.0056816041
0.031253602 0.024308359 0.005680263
0.032607567 0.024675995 0.0054962635
-0.033309579 0.025420468 0.00569278
