ply
format ascii 1.0
comment PCL generated
element vertex 1300
property float x
property float y
property float z
element camera 0
property float view_px
property float view_py
property float view_pz
property float x_axisx
property float x_axisy
property float x_axisz
property float y_axisx
property float y_axisy
property float y_axisz
property float z_axisx
property float z_axisy
property float z_axisz
property float focal
property float scalex
property float scaley
property float centerx
property float centery
property int viewportx
property int viewporty
property float k1
property float k2
end_header
0.015221263 0.069697358 0.029957026
0.016049085 0.069813527 0.030000389
0.016797002 0.069587573 0.03039825
0.017580209 0.069521733 0.030482948
0.018550616 0.070169717 0.030849934
0.019184582 0.069544107 0.0309847
0.020065777 0.069828898 0.031329274
0.020563768 0.068809532 0.031393707
0.021566423 0.069491804 0.031891823
0.022561254 0.070101038 0.032114983
0.02292355 0.068770647 0.032607079
0.023873871 0.069234222 0.032985866
0.024620999 0.069097638 0.033294559
0.025465598 0.069234595 0.033581495
0.026250456 0.069205746 0.033878088
0.026971918 0.069016375 0.03341195
0.02751435 0.068392813 0.033161402
0.028548794 0.06899292 0.032690227
0.028878789 0.067904182 0.031426519
0.030928733 0.070810519 0.028345644
-0.039183911 0.070371106 0.026984811
-0.038579721 0.070729487 0.028110683
-0.037400018 0.070025571 0.0294815
-0.037245858 0.071252942 0.029865503
-0.036192872 0.07077717 0.031201303
-0.035322309 0.070644617 0.031705976
-0.034222782 0.070037313 0.031038105
-0.033477578 0.070143498 0.030787736
-0.032843985 0.070494406 0.03019923
-0.032150146 0.070730314 0.030472368
-0.031725943 0.071586743 0.030708998
-0.030924002 0.071613476 0.030479103
-0.029842578 0.070976935 0.030501693
-0.029151205 0.0712585 0.030517429
-0.028501084 0.07165987 0.030462265
-0.027405893 0.070932895 0.030143231
-0.026753986 0.071343966 0.030500412
-0.02546569 0.070030645 0.030689687
-0.025340877 0.071935393 0.030198157
-0.024365721 0.071472786 0.030099213
-0.023354378 0.070868447 0.029985547
-0.022962101 0.072166599 0.029943377
-0.022023706 0.071780957 0.029915452
-0.020954842 0.070924073 0.029595017
-0.02009101 0.070720352 0.029094994
-0.019300163 0.070767261 0.029181838
-0.018549172 0.070970736 0.029160678
-0.017716279 0.070865117 0.029092401
-0.017034302 0.071381837 0.029002547
-0.016306015 0.071746469 0.028953373
-0.015258548 0.070671163 0.028939158
-0.014707645 0.071904048 0.028659225
-0.013815125 0.071513593 0.028525651
-0.012987563 0.071431592 0.028481573
-0.012160896 0.071343921 0.028692007
-0.011374481 0.071496733 0.029270053
-0.010491678 0.071020588 0.029270053
-0.0096753472 0.070952542 0.02929914
-0.0089921281 0.071937025 0.029483497
-0.0081233792 0.071485743 0.030009508
-0.0072841276 0.071222581 0.030154347
-0.0064803478 0.071283825 0.029930085
-0.0056317956 0.070799716 0.030179024
-0.0047613452 0.069833063 0.030231267
-0.0040221056 0.070789061 0.030369848
-0.003223011 0.070906244 0.030385673
-0.0024183807 0.070939168 0.030642152
-0.0016287139 0.071663409 0.030629575
-0.00080638431 0.070961818 0.030915529
0 0.070338406 0.03071472
0.00080078654 0.070469208 0.030611694
0.0015907205 0.0699917 0.030627191
0.0024248119 0.071127817 0.030782312
0.0031972863 0.070340298 0.03044644
0.0040563452 0.071391679 0.03057459
0.0048277974 0.070807695 0.030364364
0.0056338795 0.070825912 0.030364364
0.0063617444 0.069979183 0.03039971
0.0072439406 0.070829645 0.030373007
0.0080132429 0.070516534 0.030546814
0.00885134 0.07081072 0.030328691
0.0096874908 0.071041599 0.030127972
0.010388765 0.070323952 0.030358791
0.011281158 0.070910133 0.030592263
0.012050205 0.070694536 0.030702889
0.012713359 0.069923475 0.030901998
0.013727125 0.071058057 0.031075954
0.014433498 0.070563763 0.030881852
0.015199775 0.070398949 0.031009346
0.015976492 0.070296563 0.031105071
0.01680075 0.070403144 0.031356245
0.01745332 0.069813281 0.031356603
0.018376864 0.070311479 0.031726211
0.019077584 0.069951139 0.031937331
0.019639259 0.06913019 0.032090276
0.020821951 0.070474297 0.032228589
0.021442911 0.069888003 0.032649457
0.022291685 0.070059583 0.032700479
0.023261352 0.070586167 0.03316161
0.023979077 0.070338622 0.033500761
0.024586137 0.069792897 0.033803582
0.02522631 0.069372348 0.03428784
0.026086017 0.069562711 0.03439945
0.026941797 0.069731712 0.033994108
0.027564477 0.069304973 0.033660442
0.028019328 0.06849169 0.033026695
0.029239099 0.069541641 0.032614142
0.030018181 0.069515787 0.028565168
-0.039062191 0.070949696 0.027775019
-0.038054574 0.070559524 0.029387683
-0.037397239 0.070816047 0.030703694
-0.036921736 0.071435526 0.031817138
-0.03621928 0.071633682 0.032297432
-0.034788329 0.070367299 0.032420158
-0.034589287 0.07159178 0.032148629
-0.033890337 0.07181523 0.031925231
-0.033008955 0.071653582 0.031817138
-0.032173641 0.071586348 0.032051951
-0.031610005 0.07213565 0.032020688
-0.030790728 0.072115123 0.031491041
-0.029787496 0.071650997 0.031492084
-0.029278968 0.072384112 0.031518847
-0.028114624 0.071491472 0.031448364
-0.027502464 0.071991742 0.031076401
-0.026692986 0.071990177 0.031365216
-0.025754265 0.071629047 0.031235129
-0.024981698 0.071721643 0.030898333
-0.024011023 0.071232706 0.03096956
-0.023565955 0.072323099 0.030861706
-0.022408016 0.071225479 0.030594617
-0.021644929 0.071348093 0.030594617
-0.021073569 0.072136447 0.030448556
-0.020135412 0.071682066 0.030056566
-0.01930286 0.071581431 0.030056566
-0.018665172 0.072226092 0.030154496
-0.017767113 0.071876049 0.030036062
-0.01703658 0.072202645 0.02989924
-0.016325975 0.072650589 0.029505879
-0.015368006 0.071986973 0.029254198
-0.014607859 0.072227746 0.029523373
-0.013762362 0.072050013 0.029133558
-0.012792312 0.071157232 0.029089481
-0.012187505 0.072312526 0.029517233
-0.011338511 0.07208053 0.029855043
-0.010369374 0.070990331 0.029844075
-0.0097744847 0.072494097 0.030278653
-0.0088080633 0.071265236 0.030399978
-0.0080828033 0.07193695 0.030496389
-0.0072529763 0.071723878 0.030532777
-0.006435039 0.071589805 0.030348569
-0.0056254948 0.071524143 0.030496389
-0.0048148977 0.071420982 0.030546814
-0.0040080822 0.071343869 0.030688494
-0.0032434529 0.072166823 0.030854344
-0.0024469246 0.072592095 0.031119287
-0.001584287 0.070500769 0.031069666
-0.00080060249 0.07125362 0.031196147
0 0.071079016 0.030940026
0.00080357847 0.071518481 0.030867338
0.0016059522 0.071464866 0.030990452
0.0024376397 0.072316647 0.031232536
0.0031791739 0.070736617 0.031030864
0.003988442 0.070994265 0.030997753
0.0048048995 0.071272671 0.030644774
0.0055884193 0.07105276 0.030826956
0.0063641043 0.070800662 0.030868232
0.0071903169 0.071104243 0.030730277
0.0079923589 0.071131997 0.030812711
0.0087799206 0.071037538 0.030815274
0.0097395033 0.072234645 0.030809015
0.01046682 0.071657456 0.030989081
0.011225251 0.071360514 0.030875802
0.011928766 0.070777342 0.031430393
0.012846552 0.071458943 0.031250328
0.013511642 0.070737414 0.031562299
0.014415199 0.071275152 0.031578094
0.015194037 0.071172066 0.031886637
0.015914585 0.070819907 0.032175004
0.016663343 0.070620827 0.032572508
0.017414071 0.070447832 0.03289941
0.01852439 0.071681328 0.03299734
0.01896774 0.070338704 0.033191472
0.020037387 0.071333088 0.033294052
0.020668931 0.070751347 0.033343345
0.021409204 0.07057108 0.03347075
0.022324882 0.07096123 0.033457607
0.02308386 0.070843562 0.034000903
0.023962941 0.071090057 0.034384042
0.024639484 0.070739157 0.034465551
0.025063081 0.069706686 0.035051167
0.026086062 0.070353314 0.034671575
0.026651395 0.069763944 0.034394115
0.027726479 0.070504472 0.034174174
0.027902212 0.06898047 0.033474624
0.029050538 0.069878317 0.032821417
0.030286258 0.070933603 0.028523088
-0.043278415 0.077901147 0.0058798492
-0.03942373 0.072410941 0.027998269
-0.038664192 0.072495364 0.03021273
-0.037752576 0.072292171 0.032066077
-0.036478091 0.071370177 0.032376021
-0.036099102 0.072198205 0.032613069
-0.03482727 0.071237601 0.032955825
-0.034810208 0.072858579 0.032709032
-0.033961952 0.07277561 0.032576293
-0.033069212 0.072590955 0.032486558
-0.032118771 0.072267242 0.032578379
-0.031330023 0.072300062 0.032586783
-0.030938786 0.073276073 0.032120734
-0.029876985 0.072673745 0.03214249
-0.029240029 0.073100075 0.032085806
-0.028323812 0.072832666 0.032149851
-0.027375039 0.072463341 0.031868368
-0.026567323 0.072456345 0.031832904
-0.025509097 0.071744338 0.031702369
-0.024883879 0.072243519 0.031577617
-0.024240371 0.072721116 0.031481951
-0.023608536 0.07326787 0.031174272
-0.02232302 0.071752563 0.031098008
-0.021736024 0.072453417 0.031106293
-0.020688839 0.071615219 0.031085253
-0.020022301 0.072080284 0.030829728
-0.01955059 0.073314711 0.030785233
-0.018532313 0.072517753 0.030829549
-0.017745916 0.072596937 0.030686408
-0.017028777 0.072980478 0.030543596
-0.016311361 0.073401123 0.030258715
-0.015165639 0.071837239 0.030274808
-0.014472793 0.072363973 0.030509531
-0.013660065 0.072317995 0.030399233
-0.012924368 0.072699569 0.030555934
-0.012163189 0.072979137 0.0306665
-0.011254237 0.072348669 0.030641109
-0.010409461 0.072065502 0.030641109
-0.0096058799 0.072044104 0.030754894
-0.0088871047 0.072712682 0.031042695
-0.00796967 0.07172703 0.031114995
-0.0072748084 0.072748087 0.031125367
-0.0063707083 0.071670473 0.031081021
-0.0056354068 0.072455235 0.031153321
-0.0048523056 0.072784588 0.031195581
-0.0040416387 0.072749496 0.031507581
-0.003231494 0.072708622 0.031499654
-0.0024058248 0.07217475 0.031526327
-0.0015835623 0.071260311 0.031576067
-0.00079975964 0.071978368 0.031855136
0 0.071100533 0.031586975
0.00079886738 0.071898066 0.031585515
0.00160474 0.0722133 0.031643838
0.0023981512 0.071944535 0.031949997
0.0032167418 0.072376691 0.031652451
0.0039738268 0.071528889 0.031790435
0.004730606 0.070959091 0.031443715
0.0055816965 0.071764678 0.031503499
0.0064435089 0.072489478 0.031629503
0.0072196759 0.072196767 0.031487852
0.0079887006 0.071898311 0.031579852
0.0088249613 0.072204232 0.031651109
0.0095887547 0.071915664 0.031786531
0.010427239 0.072188586 0.031918079
0.011204297 0.072027624 0.031918079
0.011961659 0.07176996 0.032432437
0.012771243 0.071838245 0.032738924
0.013465051 0.071285568 0.033197433
0.014354048 0.071770251 0.033250839
0.015066282 0.071366601 0.033360124
0.015440295 0.069481336 0.033360124
0.016517254 0.070788227 0.033635825
0.017463632 0.071442135 0.033643603
0.018203087 0.071229473 0.03365919
0.018789489 0.070460588 0.034181595
0.019928781 0.071743615 0.034213126
0.020406362 0.070637412 0.034104586
0.021159047 0.070530161 0.034257174
0.022180105 0.071293198 0.034566432
0.022799728 0.070757776 0.034579724
0.023825655 0.071476966 0.034528345
0.024459098 0.071010284 0.035288841
0.025304129 0.071167864 0.035555899
0.025962675 0.070807301 0.035570353
0.026518373 0.070195697 0.035091013
0.027458724 0.070608154 0.034353346
0.027910935 0.069777347 0.033605367
0.028640604 0.069666333 0.033058345
0.029896615 0.07080777 0.031227529
-0.043653857 0.079450019 0.0088802874
-0.039015189 0.072456785 0.028908044
-0.038303521 0.072617099 0.031733334
-0.037962966 0.073502772 0.032787114
-0.037437174 0.0740605 0.033167988
-0.036566619 0.073945828 0.033055902
-0.035950657 0.074352495 0.033554435
-0.03457047 0.07316076 0.033162922
-0.033710357 0.073039107 0.033063501
-0.033757456 0.074925087 0.033111483
-0.03222001 0.073300526 0.033042282
-0.03154185 0.073597655 0.033047646
-0.030357607 0.072698481 0.032739878
-0.029810648 0.073318079 0.032689929
-0.028623128 0.072352916 0.032586545
-0.02808683 0.073025763 0.032628775
-0.027231479 0.072884254 0.032477468
-0.026517922 0.073125184 0.032483071
-0.025580814 0.072745442 0.032342434
-0.024706999 0.072526999 0.032313913
-0.02399436 0.072782896 0.032218248
-0.023456585 0.07360515 0.032187402
-0.022262899 0.072354428 0.032049537
-0.021740401 0.073273204 0.032233804
-0.020818148 0.072863527 0.032050103
-0.020186642 0.073479377 0.032239377
-0.019454638 0.073765501 0.032020062
-0.018589279 0.073548883 0.032085896
-0.017822603 0.073720768 0.031396836
-0.016832599 0.072941266 0.031542361
-0.016032994 0.072950125 0.031396836
-0.015229721 0.072942346 0.031379789
-0.014458605 0.07309629 0.03182891
-0.013666869 0.073157944 0.031867623
-0.012807158 0.072840713 0.031834364
-0.011948103 0.072485156 0.031880826
-0.011262333 0.073205166 0.031764686
-0.01035597 0.072491795 0.031549066
-0.0095614921 0.072507985 0.031720906
-0.0087966826 0.072772555 0.032099158
-0.0080509763 0.073263891 0.031846255
-0.0071853003 0.072651371 0.031809479
-0.0064233993 0.073066168 0.031852931
-0.0056727412 0.073745638 0.031774908
-0.0047933375 0.072698958 0.031888843
-0.004013306 0.073042177 0.032052428
-0.0032414086 0.073742047 0.032124996
-0.0023647554 0.071730912 0.032365173
-0.0016038767 0.072976395 0.032415032
-0.00080753438 0.073485628 0.032311559
0 0.073112525 0.032259434
0.00080925861 0.073642537 0.032344192
0.0015861589 0.072170235 0.032235384
0.0024089899 0.073072694 0.032606184
0.0031467588 0.071588762 0.032181412
0.0039042116 0.071056657 0.032340437
0.0048254407 0.073185854 0.032160729
0.0056219734 0.073085658 0.032273561
0.0063525406 0.072260149 0.032439232
0.0072425432 0.073230162 0.032355845
0.0080373054 0.073139481 0.032385707
0.0087469947 0.072361507 0.032417983
0.0096007166 0.072805442 0.032692015
0.010290303 0.072032131 0.032754153
0.01113006 0.072345391 0.032781482
0.011906213 0.072231032 0.033030242
0.012367991 0.070342951 0.033235312
0.013423485 0.071855128 0.033526033
0.014347411 0.072534136 0.033774227
0.014815575 0.070958808 0.034258604
0.015803766 0.071907133 0.034414381
0.017002184 0.073676132 0.034421384
0.017059803 0.070565559 0.034684926
0.018104577 0.071631156 0.034528583
0.019028706 0.072150514 0.035066962
0.020021955 0.072879918 0.03511551
0.020549707 0.071923979 0.035188049
0.02126305 0.071664356 0.035305262
0.022259578 0.072343633 0.035305858
0.022711851 0.071268216 0.035471946
0.023554962 0.071450055 0.035762995
0.024434987 0.071728513 0.03608191
0.025351297 0.072092757 0.036215723
0.026187401 0.072213747 0.036438018
0.026578747 0.071137235 0.03593272
0.027680432 0.071969129 0.035520107
0.02788111 0.070477255 0.03451249
0.028833466 0.070914738 0.033491433
0.030074142 0.072019659 0.032599062
-0.043084849 0.079276122 0.010260671
-0.03890755 0.073050916 0.028787076
-0.037549231 0.071969368 0.032713205
-0.037809413 0.074009918 0.033341676
-0.03677056 0.07354112 0.033837259
-0.036842044 0.07532151 0.034184635
-0.035419192 0.074058317 0.034918517
-0.035360031 0.075654022 0.034646481
-0.033647541 0.073704138 0.034605622
-0.032369554 0.072634123 0.034647226
-0.03160413 0.072689503 0.033862054
-0.031019604 0.073174454 0.033712178
-0.030253563 0.073245473 0.033443809
-0.029735457 0.073936813 0.033942938
-0.028639661 0.07319025 0.033417135
-0.027959775 0.07349427 0.033510953
-0.02724296 0.073716246 0.033080935
-0.026304228 0.073333003 0.033464462
-0.025584063 0.073554181 0.033196032
-0.024881016 0.073840432 0.033066422
-0.023931609 0.073390275 0.03293857
-0.02325825 0.073784798 0.032907695
-0.022360422 0.073469959 0.032742769
-0.021549331 0.073427349 0.032919914
-0.020757541 0.073449761 0.032589793
-0.020196475 0.074323028 0.032542586
-0.019308848 0.074017256 0.032395363
-0.018437292 0.07374917 0.032313019
-0.017631492 0.073731691 0.032025665
-0.016733745 0.073309742 0.032139033
-0.016277149 0.074874893 0.032030433
-0.015324099 0.074200898 0.03214103
-0.014422983 0.073717475 0.032182306
-0.013687718 0.074074708 0.032223821
-0.01264345 0.072699837 0.032156765
-0.012026242 0.073760957 0.032134414
-0.011051684 0.072625354 0.032152206
-0.010249973 0.072538272 0.032152206
-0.0095356321 0.07310652 0.032255471
-0.0089441556 0.074805669 0.032532126
-0.0080192778 0.073777363 0.032642931
-0.0072808503 0.07442648 0.032679319
-0.0065553719 0.075386778 0.032542795
-0.0055565336 0.073028728 0.032656461
-0.004797508 0.073561788 0.032631963
-0.0040007276 0.07361339 0.032979608
-0.003163351 0.072757073 0.032929748
-0.0023960937 0.073480211 0.033061177
-0.001600153 0.073607042 0.033054322
-0.0008015692 0.073744372 0.033039272
0 0.07379926 0.032998472
0.00079740956 0.07336168 0.033075005
0.0015693717 0.072191097 0.03331396
0.0023830801 0.073081128 0.033425361
0.0031585973 0.072647735 0.033058017
0.0040105316 0.073793784 0.033200741
0.0047764741 0.073239274 0.032955825
0.0055390648 0.072799139 0.033151329
0.0063101156 0.07256633 0.033200741
0.0072931484 0.074552186 0.033124924
0.0079444265 0.073088728 0.033053219
0.0087598888 0.073264524 0.033124924
0.0095434729 0.073166624 0.033269882
0.010349577 0.073243164 0.033287823
0.011059167 0.072674528 0.03364116
0.011844525 0.072646424 0.033758134
0.012645351 0.072710767 0.03445968
0.013444466 0.072758287 0.034736246
0.013953865 0.071319751 0.035117567
0.014932734 0.072305866 0.035414338
0.015880669 0.07305108 0.035621822
0.016332446 0.071551666 0.035947859
0.017204607 0.071946539 0.036085576
0.018033367 0.072133467 0.036177069
0.018893115 0.072423607 0.036209792
0.01992956 0.073340781 0.03630349
0.020547837 0.072707735 0.036369413
0.021216324 0.072292663 0.036369413
0.02212636 0.072700895 0.036310285
0.022740828 0.072143316 0.036316961
0.023348432 0.07160186 0.036263078
0.024642218 0.07313174 0.036637694
0.024740424 0.071128719 0.036984354
0.025944566 0.072330311 0.037106067
0.026534202 0.071798429 0.036776304
0.026981639 0.070923164 0.036175817
0.027979026 0.071501955 0.035164267
0.029293112 0.072836928 0.033655137
0.029358659 0.071078859 0.032813311
-0.043052711 0.080078043 0.010517776
-0.038990535 0.074002445 0.031718284
-0.037019242 0.07172478 0.033188581
-0.037347987 0.073901333 0.034000844
-0.036196772 0.07318043 0.034817129
-0.035416666 0.073194444 0.03532052
-0.034859523 0.073680356 0.0354563
-0.033534944 0.072529063 0.035383582
-0.033242159 0.073607638 0.035497189
-0.032778423 0.074351057 0.035612255
-0.031842317 0.074033394 0.034997761
-0.030963538 0.073836133 0.034826934
-0.030165194 0.073825344 0.034751922
-0.029250909 0.073522553 0.034644693
-0.028869009 0.074578278 0.034670711
-0.028116455 0.074709438 0.034483552
-0.027111396 0.07415764 0.034152448
-0.026442271 0.074519128 0.034214854
-0.025482951 0.074059829 0.033876628
-0.02493537 0.074806109 0.033880532
-0.024080258 0.074648798 0.033750802
-0.023322867 0.074794024 0.033603638
-0.02240628 0.074420862 0.033595353
-0.021574363 0.074311689 0.033531994
-0.020857157 0.074604444 0.033394098
-0.019952755 0.074224249 0.033198357
-0.019221449 0.074483119 0.033130288
-0.018245814 0.073776551 0.03298071
-0.017495286 0.073957346 0.032508075
-0.016796833 0.074385978 0.032711655
-0.0159835 0.074323274 0.032493562
-0.015207495 0.074436687 0.032512724
-0.014412949 0.074466906 0.032761097
-0.013545042 0.074099347 0.03275153
-0.012782754 0.07429976 0.032567888
-0.012084644 0.074924797 0.032660842
-0.011053937 0.073429734 0.033054858
-0.010218117 0.073098846 0.033168077
-0.009682144 0.075036615 0.033224255
-0.0087779425 0.07421352 0.033262432
-0.0079762889 0.074179485 0.033377886
-0.007169445 0.074084267 0.033498257
-0.0063845618 0.074220531 0.033324122
-0.0055372743 0.073566645 0.033483893
-0.0047503375 0.073630236 0.033421606
-0.0039833891 0.07409104 0.033637226
-0.0032134026 0.074711606 0.033546597
-0.0023933537 0.074193969 0.033753812
-0.0015889411 0.073885761 0.033983767
-0.00079144869 0.073604725 0.034021705
0 0.073908731 0.033981651
0.00079554669 0.073985837 0.034467995
0.0015782509 0.073388666 0.034087896
0.0023903248 0.074100077 0.034288526
0.0031611405 0.073496521 0.033872634
0.0039572585 0.073605016 0.033825725
0.0047264649 0.073260203 0.033638954
0.0055580582 0.073842779 0.033935547
0.006388362 0.074264713 0.033976555
0.0071689109 0.074078746 0.034002364
0.0078842593 0.073323615 0.033839822
0.008652553 0.073153406 0.033820957
0.0095154438 0.073744692 0.034094483
0.010321526 0.073838606 0.034673989
0.010901035 0.072414018 0.034790844
0.01181667 0.073263355 0.035223097
0.012680203 0.073703684 0.035867453
0.013331179 0.07292939 0.035999298
0.014199344 0.073363282 0.036363006
0.014907652 0.072969034 0.036901504
0.015577742 0.072436504 0.036873519
0.016440593 0.07280834 0.037037641
0.017162576 0.072550893 0.036992788
0.017989406 0.072739772 0.037097156
0.018968161 0.073501632 0.03721118
0.019589655 0.072873518 0.037224829
0.020233013 0.072371937 0.037165552
0.02114873 0.072845623 0.037165552
0.022142481 0.073544674 0.036961079
0.022530835 0.072254054 0.037228078
0.023508059 0.072874986 0.03725028
0.024314832 0.072944492 0.037393332
0.025191152 0.073211789 0.037815779
0.025893303 0.072972037 0.038302869
0.02622593 0.071735635 0.037901133
0.027037363 0.071842141 0.036930323
0.027584665 0.071260385 0.035929739
0.028964199 0.072801903 0.034840643
0.029614611 0.072477862 0.033183575
0.033354748 0.079538248 0.0078744888
-0.042118836 0.079183415 0.016417444
-0.039211836 0.075222708 0.03248468
-0.038244192 0.074894883 0.033574045
-0.036875762 0.073751524 0.034606129
-0.036478177 0.074542359 0.035265833
-0.035577841 0.074318156 0.035802752
-0.035323463 0.075463764 0.036100537
-0.033869427 0.074040145 0.036098242
-0.03314209 0.074175149 0.036120325
-0.032494057 0.074498564 0.03589043
-0.031664152 0.074410759 0.035778821
-0.031312972 0.075472295 0.035710156
-0.030321568 0.075005986 0.035452515
-0.029547639 0.075066969 0.035268962
-0.028923389 0.075522184 0.035190225
-0.028206563 0.075754769 0.035066605
-0.027162854 0.0750973 0.034778893
-0.026640547 0.075885199 0.034799665
-0.025378022 0.074547939 0.03437826
-0.024673924 0.074817702 0.034623742
-0.023988843 0.075165041 0.03423053
-0.02291679 0.074282013 0.034032524
-0.02191139 0.073559672 0.034217834
-0.021747973 0.075715162 0.034186274
-0.020554541 0.074312575 0.034033686
-0.019940261 0.074975379 0.033608913
-0.018990401 0.074379072 0.033527613
-0.018156677 0.074205555 0.033387572
-0.017571686 0.075079024 0.033355027
-0.01683984 0.075378321 0.033329397
-0.015972296 0.075069793 0.033109993
-0.015033477 0.074376151 0.03316009
-0.014216045 0.074239351 0.033722579
-0.013443787 0.074336231 0.033629447
-0.012810798 0.075263441 0.033607125
-0.012012113 0.075275913 0.033571035
-0.011011277 0.073932864 0.033665389
-0.010472383 0.075723387 0.033697903
-0.0094631864 0.074128293 0.033749908
-0.0088390084 0.075533345 0.034116805
-0.007844883 0.073741905 0.033894002
-0.0070239389 0.073361143 0.034348279
-0.0064190095 0.07542336 0.034054995
-0.0055948631 0.075131021 0.034358501
-0.0047224225 0.073984616 0.034139842
-0.0040096729 0.075381853 0.034717351
-0.0032059245 0.075339228 0.034706742
-0.0023480447 0.073572062 0.035077125
-0.0015954213 0.074984804 0.035232902
-0.00079457177 0.074689746 0.035212398
0 0.074500263 0.03521806
0.00079166325 0.074416347 0.034943104
0.0015596879 0.073305331 0.034673959
0.0024076984 0.075441219 0.034713358
0.0031425324 0.073849514 0.034588903
0.003948241 0.074226931 0.034865618
0.0047295443 0.074096195 0.034749597
0.005547917 0.074500605 0.03505528
0.0063202553 0.074262999 0.03514111
0.0072327717 0.075542286 0.035027593
0.0079457629 0.074690171 0.034995377
0.0085635642 0.07317955 0.035295755
0.0094147706 0.073749036 0.035256952
0.01021632 0.073871851 0.035498053
0.011032041 0.074072279 0.035999238
0.012115329 0.075922728 0.036690891
0.012406517 0.072888285 0.036762863
0.01324214 0.073221244 0.037507713
0.01400256 0.073124483 0.037721545
0.014745065 0.072949268 0.038142264
0.01558692 0.073258527 0.038002163
0.016335651 0.073121488 0.038112402
0.016888378 0.072159439 0.038120508
0.018008098 0.07359831 0.038195819
0.018798407 0.073627099 0.038231164
0.019617354 0.073761247 0.038294822
0.020432863 0.073872663 0.037858397
0.020989936 0.073076069 0.037884444
0.022083841 0.074138612 0.037522405
0.022423975 0.072684608 0.037727475
0.023477348 0.073562354 0.0381203
0.024367495 0.073888533 0.039139271
0.024908373 0.073168345 0.039245069
0.025435828 0.072453573 0.039491475
0.026127024 0.072233535 0.038997501
0.027272968 0.073247403 0.038484365
0.027622718 0.072125986 0.036823094
0.028617987 0.072705157 0.03599602
0.029160365 0.072133534 0.033354461
0.033276517 0.080204941 0.008651942
-0.042307634 0.080384508 0.017681926
-0.039002594 0.075617276 0.032346308
-0.038293805 0.075789824 0.034000456
-0.037653241 0.076107614 0.035240144
-0.036482435 0.07534416 0.035865515
-0.035942979 0.075879619 0.036400914
-0.034888651 0.075327769 0.036588669
-0.033934418 0.074971385 0.036618829
-0.033292301 0.075304016 0.036508262
-0.032589823 0.075512998 0.036380529
-0.031762339 0.075435556 0.036163807
-0.031148205 0.075873829 0.036086261
-0.030073542 0.075183854 0.035870701
-0.029445985 0.075604558 0.035773933
-0.028700963 0.075738654 0.035666674
-0.028091598 0.076248623 0.035691381
-0.027123643 0.07578665 0.035468042
-0.026221791 0.07548698 0.035409451
-0.025449086 0.075551972 0.035180777
-0.024566676 0.075284973 0.035191417
-0.023380859 0.074039385 0.03482756
-0.022948656 0.075176634 0.034886599
-0.022159386 0.07518363 0.03535974
-0.021309106 0.074976481 0.035330504
-0.020546172 0.075072557 0.035210162
-0.019982446 0.075933293 0.034428895
-0.019018194 0.075280353 0.034622639
-0.018425837 0.07610672 0.034473509
-0.017508453 0.075604685 0.03426519
-0.016594047 0.075068302 0.034196764
-0.015983531 0.075921781 0.034085721
-0.014957529 0.074787647 0.035186052
-0.014285988 0.075398274 0.035596579
-0.013525965 0.075586267 0.035492629
-0.01254281 0.074472934 0.035575867
-0.011990288 0.075938493 0.035490483
-0.011359569 0.077082783 0.035586327
-0.010199049 0.07453151 0.035517454
-0.0095190955 0.075359501 0.035598904
-0.008708165 0.075206883 0.035592288
-0.0078410916 0.074490376 0.035676807
-0.007217519 0.076184921 0.035838991
-0.0063556316 0.075473122 0.035653442
-0.0056070983 0.076096334 0.035787046
-0.0047728131 0.07556954 0.035833567
-0.0039857784 0.075729795 0.035966575
-0.0031554871 0.07494282 0.035787046
-0.0024143606 0.076454759 0.035771877
-0.0015761385 0.074866585 0.035720348
-0.00078439806 0.074517816 0.035776317
0 0.074985825 0.035654217
0.00079691573 0.075706996 0.035536975
0.0015984447 0.075926118 0.03550157
0.0023428162 0.074189179 0.035415441
0.0031680637 0.075241506 0.035361946
0.0039362456 0.074788667 0.03544873
0.0047802869 0.075687878 0.035499513
0.0055522895 0.075352505 0.035820156
0.0063167214 0.075011067 0.035902739
0.0070557776 0.074477658 0.035773069
0.0079235304 0.075273536 0.035733789
0.0085176798 0.073561788 0.036072314
0.009461456 0.074903198 0.036167383
0.01023682 0.074807532 0.036953092
0.011110546 0.075392991 0.03709662
0.011783084 0.0746262 0.037441045
0.012506766 0.074258924 0.038165838
0.013373805 0.074735969 0.038788497
0.014056619 0.074187711 0.038960069
0.014888844 0.074444219 0.038943321
0.015286688 0.072611772 0.038943321
0.016218293 0.073368467 0.038935393
0.016863322 0.07281889 0.038935393
0.017886344 0.073878378 0.039036602
0.018631576 0.073749989 0.039109945
0.019504277 0.074116252 0.039166719
0.020199809 0.073806994 0.039210856
0.021048576 0.074059799 0.039400607
0.021968801 0.074537002 0.038937539
0.022627732 0.074125327 0.039338499
0.023336485 0.073898867 0.039401621
0.024671206 0.07560531 0.039639384
0.024888851 0.073888771 0.039764434
0.025851013 0.074419588 0.040466607
0.026140656 0.073040068 0.039883733
0.027017836 0.073334128 0.039418638
0.027820148 0.073414281 0.038331747
0.028521221 0.073230162 0.03744489
0.029418062 0.07354515 0.035054386
0.032790493 0.079874285 0.013661712
-0.041463021 0.079608999 0.022327006
-0.038646236 0.07571508 0.032328963
-0.037707109 0.075414218 0.034903258
-0.037236333 0.076057188 0.036470354
-0.036413305 0.075992979 0.036578804
-0.035445511 0.07561709 0.03691864
-0.035284225 0.076983765 0.037514746
-0.034181722 0.076312676 0.037475795
-0.033134967 0.075737067 0.037302643
-0.032726418 0.076627709 0.037299871
-0.03132204 0.075172894 0.037046283
-0.030460879 0.074980624 0.036857635
-0.029888442 0.075507641 0.036857635
-0.029141078 0.075609282 0.036534905
-0.028389316 0.075704843 0.036335528
-0.027835993 0.076350152 0.036355734
-0.026724704 0.075457983 0.036156476
-0.025974987 0.075563602 0.036086977
-0.025355356 0.076066069 0.036025226
-0.024364103 0.075450122 0.035741359
-0.023710122 0.075872391 0.035644054
-0.023084989 0.076419272 0.035644084
-0.02229766 0.076449119 0.035879046
-0.02141853 0.076154776 0.035811663
-0.020696165 0.076416612 0.036003917
-0.019916464 0.076479211 0.035616428
-0.019116879 0.076467514 0.036088705
-0.018136343 0.075699516 0.0359523
-0.017570239 0.076670133 0.036008239
-0.016534962 0.075588398 0.035941184
-0.015800416 0.075842001 0.035856217
-0.015026752 0.075924642 0.035878539
-0.014189442 0.075677022 0.036204159
-0.013617037 0.076896206 0.036102831
-0.012748082 0.076488487 0.036086053
-0.011878651 0.076023363 0.036052465
-0.011083542 0.076001428 0.036273569
-0.010201772 0.075336158 0.036026537
-0.0094155809 0.075324647 0.036186576
-0.0087071657 0.075989805 0.036247194
-0.0079700351 0.076512337 0.036454678
-0.0070475284 0.075173639 0.036602646
-0.0063800253 0.076560304 0.036798567
-0.0055533065 0.076159626 0.036388993
-0.0047064465 0.075303145 0.036164463
-0.0039562569 0.075960129 0.036470085
-0.0031840622 0.076417491 0.036210984
-0.0023466519 0.07509286 0.036388993
-0.001570624 0.075389944 0.036706597
-0.00079800736 0.07660871 0.036600858
0 0.075886048 0.036533684
0.0007914853 0.075982586 0.036410213
0.0015582915 0.074797988 0.036321968
0.0023598142 0.075514056 0.036302239
0.0031432712 0.075438507 0.036208749
0.0039103092 0.075077936 0.036339074
0.0047213868 0.075542189 0.036249429
0.0055246721 0.075766928 0.036676854
0.0062662065 0.075194478 0.036405891
0.0070128501 0.07480374 0.036563993
0.0078437803 0.075300291 0.036991984
0.008713685 0.076046705 0.037281573
0.0093693538 0.07495483 0.037471801
0.010227195 0.075523898 0.037919104
0.010986478 0.075335845 0.038334996
0.011649343 0.074555792 0.038851827
0.012352785 0.074116707 0.038916409
0.013312892 0.075178683 0.039087445
0.014000718 0.074670501 0.039232284
0.014641884 0.073980041 0.039328337
0.015306505 0.073471226 0.039421439
0.016313618 0.074576534 0.039356142
0.01685904 0.07356672 0.039192528
0.017639365 0.07362517 0.039501876
0.01858842 0.07435368 0.039740652
0.019696007 0.075632662 0.03959474
0.020082295 0.074150011 0.039755553
0.021222046 0.075456157 0.039943904
0.022012768 0.075472347 0.039925605
0.022663048 0.075022496 0.039973527
0.023422725 0.074952722 0.040118337
0.024389762 0.075529583 0.040730983
0.024651673 0.073955014 0.040801644
0.02556541 0.074372105 0.041021794
0.025925092 0.073200256 0.040563375
0.026959268 0.073945425 0.040253252
0.027536638 0.073431037 0.039212435
0.028734671 0.074554816 0.038196683
0.02934102 0.074124679 0.035844058
0.032157496 0.079156913 0.020037055
-0.041510329 0.08053004 0.022843748
-0.038243931 0.075707369 0.0338718
-0.037434466 0.075648822 0.036443353
-0.03686396 0.076080941 0.036826551
-0.036089402 0.076101556 0.037152231
-0.035947766 0.077487402 0.037944853
-0.034748424 0.076604478 0.038214862
-0.034099098 0.076921217 0.03791225
-0.03293306 0.076059684 0.037878335
-0.032611251 0.077153444 0.037702292
-0.031535562 0.076473735 0.037730634
-0.031055678 0.077241041 0.037655324
-0.030003849 0.076588772 0.037604094
-0.02916828 0.076468192 0.037506014
-0.028607033 0.077080064 0.037332684
-0.027663184 0.076666541 0.037202716
-0.026757769 0.076338336 0.037042558
-0.026065543 0.076616898 0.036970794
-0.025133036 0.076184511 0.036801875
-0.024504172 0.076674335 0.03663674
-0.023948455 0.077433333 0.036583781
-0.02300676 0.076953642 0.036519021
-0.022205556 0.076926388 0.036701381
-0.021280255 0.076451279 0.036712021
-0.020633677 0.076979488 0.036684424
-0.019742496 0.076600879 0.036489487
-0.018937072 0.076537326 0.036570311
-0.01797363 0.075801827 0.036579579
-0.017286872 0.076219395 0.036514848
-0.016501952 0.076223299 0.036446095
-0.016107501 0.078121379 0.036509097
-0.015320754 0.078216478 0.036661148
-0.014260229 0.076846793 0.037154973
-0.013388861 0.076395266 0.036935717
-0.012667878 0.076799005 0.036953658
-0.011759968 0.076047786 0.036855727
-0.011015047 0.07631854 0.03731519
-0.010180565 0.075962678 0.037144631
-0.0094606876 0.076473884 0.03758201
-0.0086337887 0.076134317 0.037519455
-0.0079104025 0.076730907 0.037598342
-0.0071533527 0.077097245 0.037713796
-0.0063304165 0.076756299 0.037707001
-0.0054825395 0.075972326 0.037633061
-0.0047005657 0.07599248 0.037671387
-0.0039492627 0.076615691 0.037590176
-0.0031613903 0.07666371 0.037233502
-0.002373758 0.076751508 0.037311554
-0.0015741142 0.076344542 0.037395597
-0.00079127139 0.076753326 0.03716886
0 0.076535128 0.036842316
0.00078149384 0.075804904 0.036720276
0.001569018 0.076097369 0.036562145
0.0023600697 0.076308921 0.036564469
0.0031557018 0.07652577 0.036664635
0.0039145988 0.075943217 0.036970079
0.004758514 0.076929308 0.037300974
0.0054676086 0.075765431 0.03746593
0.006256002 0.075854026 0.037429631
0.0070978999 0.076499589 0.037580788
0.0077966605 0.07562761 0.03767997
0.0086161951 0.075979181 0.038048238
0.0094379419 0.076290026 0.038228124
0.010102028 0.075376675 0.03883788
0.010883215 0.075405136 0.039228618
0.011671139 0.075473368 0.039346486
0.012447131 0.075460725 0.039467961
0.013127164 0.07490205 0.039581329
0.013918161 0.07500343 0.039694458
0.014730283 0.075201966 0.039899558
0.015316745 0.074286215 0.039951265
0.016180065 0.074736491 0.040050387
0.016918458 0.074595019 0.040200651
0.017681055 0.074567921 0.040720224
0.018717004 0.075647891 0.040884107
0.019551739 0.075860746 0.041003376
0.02021236 0.075407654 0.040798247
0.020780537 0.074656002 0.040832072
0.021745354 0.07533212 0.04080075
0.022319352 0.074654378 0.04075253
0.023191366 0.074985415 0.041094273
0.023980275 0.075035043 0.041155338
0.024790844 0.075147241 0.041338474
0.025823835 0.075906426 0.041623354
0.025870262 0.073806331 0.041036695
0.027109345 0.07513161 0.040730894
0.027187413 0.073254973 0.04020983
0.028759921 0.075397626 0.039624214
0.028972404 0.073955871 0.036595762
0.031798825 0.079089381 0.023633182
-0.041375104 0.081095196 0.023384929
-0.038830269 0.077660538 0.035002351
-0.037890427 0.077359617 0.037128985
-0.036848567 0.076833181 0.037851602
-0.036399215 0.077546149 0.038241208
-0.035421319 0.077139758 0.038757682
-0.034542106 0.076934688 0.038947463
-0.033651643 0.076694444 0.038733661
-0.033253334 0.077591114 0.038582772
-0.032020032 0.076535679 0.038374037
-0.031755738 0.077801563 0.038213998
-0.030831028 0.077472836 0.03813985
-0.030188434 0.077854373 0.03812775
-0.029518301 0.078183606 0.038058609
-0.028461145 0.077477559 0.038067341
-0.02777132 0.077759691 0.037882805
-0.026959222 0.077705987 0.037890136
-0.026227932 0.07788901 0.03813383
-0.025339739 0.077602945 0.038094074
-0.024416929 0.077188998 0.037856787
-0.023628196 0.077185437 0.037765265
-0.022580702 0.076307192 0.037676126
-0.021835482 0.076424181 0.037676126
-0.020998409 0.076216444 0.037661344
-0.020535799 0.077404164 0.03757152
-0.019735618 0.077363618 0.037480563
-0.019039733 0.077745579 0.03759414
-0.01812109 0.077211596 0.037427455
-0.017087005 0.076114833 0.037268281
-0.016480066 0.076906972 0.037385643
-0.016007163 0.078435093 0.03734532
-0.015033196 0.077539638 0.037568957
-0.014104007 0.076788485 0.037728727
-0.013450586 0.077538669 0.037718058
-0.012473125 0.076397888 0.037568718
-0.011748775 0.07675866 0.037696749
-0.011062584 0.077438086 0.038199693
-0.010110846 0.076220222 0.038202882
-0.0094644874 0.077293307 0.038464576
-0.0088059623 0.078453116 0.038410455
-0.0077548795 0.075997822 0.038629144
-0.0070943539 0.077249631 0.038580358
-0.0063376725 0.077636488 0.038486153
-0.0054611489 0.076456085 0.038419724
-0.0046992847 0.07675498 0.038480848
-0.0039153094 0.076740064 0.038243026
-0.0031460698 0.077078708 0.037945181
-0.0023558701 0.076958425 0.038049936
-0.0015805528 0.077447079 0.038086772
-0.00078359101 0.07679192 0.037808418
0 0.077093951 0.037466347
0.0007922377 0.077639289 0.037339121
0.0015497566 0.075938076 0.037341624
0.0023590683 0.07706289 0.03769365
0.0031249872 0.076562181 0.037747949
0.0039570592 0.077558361 0.038010001
0.0046609119 0.076128229 0.038300455
0.0054694386 0.076572143 0.038478881
0.0062040882 0.07600008 0.038378447
0.0070916894 0.077220619 0.038413137
0.007838361 0.07681594 0.038663059
0.0086242687 0.076834396 0.039071292
0.0093508242 0.076365061 0.039106995
0.010066213 0.075883754 0.039324015
0.010892709 0.076248959 0.039419293
0.011586313 0.075697243 0.039723486
0.012527096 0.076728456 0.040017396
0.013208152 0.076141104 0.040356278
0.0139581 0.075994104 0.040482044
0.014766793 0.076165557 0.040644139
0.015371845 0.075322039 0.040888101
0.016198114 0.075591192 0.040918529
0.016884036 0.075210713 0.041082382
0.017660037 0.075247109 0.041289806
0.018398359 0.075126633 0.04151243
0.019296687 0.07564301 0.041596115
0.020085527 0.075706981 0.041574985
0.020819699 0.075567789 0.041605026
0.021708088 0.075978309 0.041341305
0.022244904 0.075172424 0.041393608
0.023309229 0.076143481 0.041523904
0.024118515 0.076245621 0.042175353
0.024512149 0.075068459 0.042182028
0.025335681 0.075239293 0.042809606
0.026284939 0.075762466 0.041849136
0.026404025 0.073931269 0.041234612
0.027416155 0.074632861 0.040613502
0.028069122 0.074345239 0.039942682
0.028841596 0.074380949 0.03834644
0.031587545 0.079373829 0.025727451
-0.040822614 0.080828778 0.027171969
-0.038122617 0.077023253 0.035206586
-0.037753031 0.07786563 0.037386209
-0.037253115 0.078469336 0.038175255
-0.036077999 0.077646129 0.038810968
-0.035141524 0.077311352 0.039190114
-0.034403168 0.077407129 0.039680839
-0.033794336 0.077805571 0.03919813
-0.033085849 0.077988073 0.039283037
-0.032781631 0.079155646 0.038849622
-0.031440567 0.077815413 0.038887918
-0.030742055 0.078037523 0.038823754
-0.029810471 0.077664122 0.038657933
-0.029003989 0.077605262 0.03878203
-0.028105116 0.077289075 0.038600385
-0.027773898 0.078560457 0.038595349
-0.026596708 0.077443354 0.038574606
-0.025969433 0.0779083 0.038796991
-0.024830366 0.07681895 0.038724691
-0.024256462 0.077464186 0.038651049
-0.023784572 0.078489095 0.038442165
-0.022836488 0.077959046 0.038281679
-0.021776572 0.076995738 0.038421899
-0.021195184 0.07771568 0.038439482
-0.02059458 0.078417823 0.03827545
-0.019634111 0.077751085 0.038320512
-0.019183302 0.079131126 0.038377523
-0.018064393 0.077755436 0.038192719
-0.017203249 0.077414624 0.0381127
-0.016640598 0.078448534 0.0381127
-0.015722396 0.077825867 0.038075328
-0.014924508 0.077764541 0.038075328
-0.014106482 0.07758566 0.038349092
-0.013175367 0.076727137 0.038310945
-0.012521731 0.077478215 0.038309395
-0.0118023 0.077895187 0.038400292
-0.011071079 0.078288354 0.03838113
-0.010128058 0.077129059 0.038538426
-0.0094419597 0.07789617 0.039057076
-0.0084858425 0.076372586 0.038845032
-0.0077651758 0.076875247 0.038994581
-0.0070460346 0.077506386 0.039085358
-0.0062823929 0.077744611 0.038936973
-0.0054641943 0.077279329 0.038997412
-0.0046855505 0.077311583 0.038825542
-0.0039225076 0.077665657 0.038781703
-0.0031437711 0.077808335 0.038615912
-0.0023610729 0.077915415 0.038632989
-0.0015614054 0.077289566 0.038584858
-0.00078727963 0.077940688 0.038439631
0 0.077946782 0.038323641
0.00078118307 0.077337131 0.038443834
0.0015605768 0.077248551 0.038509369
0.0023406532 0.077241555 0.038444638
0.0030997361 0.076718464 0.038417876
0.0038659857 0.07654652 0.038600206
0.0046457793 0.076655366 0.03871426
0.0054695802 0.077355497 0.03887257
0.0062648761 0.077527843 0.038804024
0.0069523007 0.076475315 0.039165646
0.0077799684 0.077021688 0.039611191
0.0084871445 0.076384299 0.03962326
0.0092616268 0.076408423 0.039891392
0.010152668 0.077316478 0.039895117
0.010905445 0.077117078 0.040136606
0.01161775 0.076677151 0.04060775
0.012373158 0.076558918 0.04114297
0.013209549 0.076926202 0.041061312
0.013785033 0.075817689 0.041406155
0.014745885 0.076833822 0.041494608
0.015200957 0.07524474 0.041234404
0.016101841 0.075908683 0.04151246
0.016554389 0.074494757 0.042132735
0.017572347 0.075637497 0.042340547
0.018621715 0.076814577 0.042538553
0.019291442 0.076394111 0.042598188
0.019883469 0.07571014 0.042362154
0.020833187 0.076388352 0.042353183
0.021546734 0.076183103 0.042038947
0.02249917 0.076807514 0.042420149
0.023221394 0.0766306 0.042718053
0.023985667 0.076599389 0.043049067
0.02437149 0.075399294 0.043116063
0.025570292 0.07671088 0.043633282
0.025860639 0.075300097 0.042906314
0.026787207 0.075769529 0.042458773
0.0276275 0.075975627 0.041466057
0.028133672 0.075276576 0.040644079
0.028354663 0.073871359 0.039669037
0.031528015 0.080032654 0.026493281
-0.040895954 0.081791908 0.02771765
-0.038204227 0.077967815 0.037029833
-0.037514053 0.078154281 0.038013935
-0.036836561 0.07837566 0.039096773
-0.035472993 0.0771152 0.039387912
-0.035168823 0.07815294 0.039794475
-0.03402609 0.077332027 0.039863706
-0.033326965 0.077504575 0.039585114
-0.032490764 0.077358969 0.039643049
-0.032284763 0.078743324 0.039531976
-0.031346969 0.078367427 0.03961575
-0.030809199 0.078997947 0.039628536
-0.029761827 0.0783206 0.03946951
-0.028939184 0.078214012 0.03979075
-0.028230928 0.078419253 0.03959927
-0.027460679 0.078459091 0.03957963
-0.026749615 0.078675337 0.039716572
-0.025954325 0.078649476 0.039870471
-0.025068814 0.078340046 0.040002078
-0.024253312 0.07823649 0.039675802
-0.023574255 0.078580856 0.039464355
-0.022552805 0.077768289 0.039359599
-0.021889474 0.0781767 0.039434612
-0.021198764 0.078513943 0.039634883
-0.020361535 0.078313597 0.039574265
-0.019762894 0.079051577 0.039606541
-0.018742662 0.078094423 0.038937807
-0.018087812 0.078642659 0.038883209
-0.017286774 0.078576244 0.03879112
-0.016370343 0.077954017 0.038883209
-0.015561954 0.077809773 0.038650453
-0.0148967 0.078403689 0.038708359
-0.013940801 0.077448897 0.038555384
-0.013322402 0.078367077 0.038807452
-0.012586288 0.078664303 0.038760245
-0.011824662 0.078831084 0.038855404
-0.010896583 0.077832744 0.038977236
-0.010151342 0.078087248 0.039188802
-0.0093271639 0.077726372 0.039604753
-0.0085602356 0.077820331 0.039733708
-0.0078203613 0.078203619 0.039672941
-0.0070110392 0.07790044 0.03983593
-0.0063421181 0.07927648 0.03955856
-0.0053678411 0.076683447 0.039719969
-0.0046270895 0.077118166 0.039357871
-0.0038850165 0.077700332 0.03918761
-0.0031215823 0.078039557 0.03918761
-0.0023618203 0.078727342 0.039428353
-0.0015700744 0.07850372 0.039509147
-0.00078232295 0.078232296 0.039136022
0 0.078309432 0.038996965
0.00079403567 0.079403564 0.03897807
0.0015361197 0.076805986 0.038823217
0.0023552543 0.078508474 0.038775742
0.0031215823 0.078039557 0.038784385
0.0038297104 0.076594211 0.039193839
0.0046806782 0.078011312 0.039412498
0.0055077816 0.078682594 0.039851815
0.0062044309 0.077555388 0.039997995
0.0069924104 0.077693455 0.040055811
0.00778133 0.077813305 0.040341973
0.0084021706 0.076383367 0.040912539
0.0093945721 0.078288108 0.040895671
0.010060643 0.077389561 0.040816754
0.010784844 0.077034608 0.041297764
0.011617166 0.077447772 0.041843295
0.012349846 0.07718654 0.041937113
0.012973742 0.076316133 0.041810811
0.014049306 0.078051701 0.042273283
0.014544157 0.076548196 0.042277932
0.015465054 0.07732527 0.042607069
0.01621154 0.077197812 0.042914003
0.016753953 0.076154336 0.043008327
0.01780933 0.077431865 0.043036401
0.018552739 0.077303082 0.043024451
0.019461757 0.077847026 0.043130875
0.019819684 0.076229557 0.042981595
0.020668039 0.076548293 0.043241799
0.021479646 0.076713018 0.043148875
0.022580184 0.077862702 0.043337435
0.023043264 0.076810881 0.04387489
0.023646206 0.076278083 0.04403463
0.024702679 0.077195875 0.044035822
0.025537904 0.077387594 0.044692904
0.025707293 0.075609684 0.044382393
0.026627224 0.076077789 0.043686152
0.027187146 0.075519852 0.04253754
0.02830263 0.076493599 0.040918052
0.028964953 0.07622356 0.039724916
0.030963082 0.079392523 0.031756401
-0.04057283 0.081957109 0.029708534
-0.037983481 0.078292489 0.037793368
-0.037461184 0.078824572 0.039296567
-0.036966924 0.079439566 0.039689779
-0.035949614 0.078932852 0.039992958
-0.035301689 0.079232685 0.040349752
-0.034184698 0.078469418 0.040600389
-0.033787899 0.079362281 0.040048152
-0.033032525 0.079435356 0.040225387
-0.032000557 0.078830637 0.040459484
-0.031582832 0.079746649 0.040682852
-0.030403227 0.078736566 0.040412426
-0.029578852 0.078617476 0.040400386
-0.028837256 0.07871791 0.040548533
-0.028400961 0.07968048 0.04027006
-0.027357979 0.078947313 0.040206909
-0.026775993 0.079540454 0.040351838
-0.025826296 0.079044126 0.040477008
-0.024895655 0.078576915 0.040531188
-0.024363343 0.079377338 0.040228754
-0.023280911 0.078379072 0.039964408
-0.022674659 0.078970365 0.039786518
-0.022036806 0.079489909 0.040015191
-0.021044534 0.078722142 0.040026605
-0.020269783 0.078740314 0.040025681
-0.01958013 0.079103716 0.040018827
-0.018762792 0.078960083 0.039873958
-0.017971264 0.078917287 0.039753258
-0.017242823 0.079160228 0.039703935
-0.016380537 0.078782581 0.039775729
-0.015732298 0.079448111 0.039541423
-0.014960858 0.079528771 0.039616108
-0.013964476 0.078356229 0.039954156
-0.013359735 0.079372548 0.040348083
-0.012414399 0.078365892 0.040170997
-0.011734384 0.079011515 0.040566921
-0.010891808 0.078576624 0.040632308
-0.0099848025 0.077574238 0.040637881
-0.0092862034 0.078158885 0.040567458
-0.0085473824 0.078480512 0.040450066
-0.0077318191 0.078091376 0.04044947
-0.0069893464 0.078436002 0.040635645
-0.0062220469 0.078553349 0.040408373
-0.0054585999 0.078759804 0.040547639
-0.0046644364 0.078518011 0.040265501
-0.0039072554 0.078926563 0.040209413
-0.0031530808 0.079615295 0.03986448
-0.0023549274 0.079282559 0.040152878
-0.0015486918 0.078208931 0.04012832
-0.00077092368 0.077863291 0.039449573
0 0.079027891 0.040228516
0.00077104196 0.077875242 0.040430576
0.0015543672 0.078495547 0.040234149
0.0023203432 0.07811822 0.040608078
0.0031247048 0.078898795 0.040324837
0.0038803576 0.07838323 0.040341973
0.0047254418 0.079544939 0.040546596
0.0053468794 0.077147827 0.040814131
0.0062423809 0.078810059 0.041014194
0.0069430661 0.077916637 0.040988147
0.0077796918 0.078574888 0.041511089
0.0086019905 0.078981914 0.041588008
0.0092798211 0.078105167 0.041724652
0.01001937 0.077842802 0.041756094
0.010677562 0.077030987 0.042294085
0.011644875 0.07840883 0.04337579
0.011998505 0.075740568 0.043102801
0.013279401 0.078895263 0.043212771
0.013721015 0.076990142 0.043068141
0.014567004 0.077435121 0.043101937
0.015101636 0.076263264 0.043098807
0.016086677 0.077369258 0.043369263
0.016686937 0.076608211 0.043370068
0.017749967 0.077945501 0.043375969
0.01851349 0.077910937 0.043448716
0.019050499 0.076964013 0.043748379
0.019792685 0.076886967 0.043640792
0.020740302 0.077584095 0.044168532
0.021471972 0.077452466 0.04433015
0.022257356 0.077516995 0.044689685
0.022944814 0.077247545 0.044779927
0.023811417 0.077579133 0.044964403
0.024352437 0.07686238 0.04515776
0.025186474 0.077085875 0.04562971
0.025630109 0.0761365 0.045131326
0.026718823 0.077102892 0.044705391
0.027453203 0.077021487 0.044345349
0.028172756 0.076904006 0.043370247
0.028670592 0.076203413 0.040151507
0.030726885 0.079574756 0.03224209
-0.040414095 0.08244475 0.030867368
-0.038360789 0.079853073 0.03914389
-0.036884196 0.078378916 0.040023357
-0.036862411 0.079999276 0.040111214
-0.035701554 0.079164319 0.040808469
-0.035246544 0.079892166 0.040924311
-0.034606609 0.08022441 0.041155934
-0.034104075 0.080898039 0.040815443
-0.032768633 0.079580963 0.040873379
-0.032041945 0.079714097 0.041063398
-0.031406578 0.080086775 0.041302294
-0.03057339 0.079961173 0.041112274
-0.030006295 0.080543213 0.041223764
-0.028759245 0.079282239 0.041223764
-0.027968843 0.079245061 0.041077316
-0.027304705 0.079573713 0.041387588
-0.026826216 0.080478646 0.041433781
-0.02565163 0.079286858 0.041518509
-0.025050564 0.079848677 0.041207194
-0.023908725 0.078667417 0.041146725
-0.023281258 0.07915628 0.040916681
-0.022527894 0.079236038 0.040927231
-0.021424573 0.078046665 0.041017443
-0.02088082 0.078883097 0.040920824
-0.020194894 0.079226121 0.040689915
-0.019345868 0.078931138 0.040689915
-0.018852159 0.080121674 0.040642232
