ply
format ascii 1.0
comment PCL generated
element vertex 1254
property float x
property float y
property float z
element camera 0
property float view_px
property float view_py
property float view_pz
property float x_axisx
property float x_axisy
property float x_axisz
property float y_axisx
property float y_axisy
property float y_axisz
property float z_axisx
property float z_axisy
property float z_axisz
property float focal
property float scalex
property float scaley
property float centerx
property float centery
property int viewportx
property int viewporty
property float k1
property float k2
end_header
0.012698929 -0.030477427 0.022680193
0.013395675 -0.030140268 0.02348879
0.014069508 -0.02979425 0.024068385
0.014981784 -0.029963568 0.024932474
0.015887214 -0.030102089 0.024790049
0.016721366 -0.030098457 0.024767816
0.017546294 -0.030079359 0.024671495
0.018069884 -0.029568901 0.023983926
0.019074086 -0.029855089 0.023029417
0.021313241 -0.03196986 0.0053965747
-0.0242543 -0.030317875 0.019745588
-0.022325126 -0.028939977 0.023142576
-0.021575861 -0.029044429 0.024283141
-0.020906918 -0.029269684 0.025641143
-0.020351632 -0.029679464 0.026291847
-0.019260993 -0.029310206 0.026579559
-0.018376751 -0.029235739 0.026845574
-0.017492821 -0.029154701 0.026151985
-0.017006539 -0.029761445 0.025222898
-0.016199665 -0.029841488 0.024345398
-0.015416528 -0.029976582 0.023416668
-0.014392433 -0.029631477 0.021391541
-0.013631689 -0.029819321 0.019372016
-0.012796416 -0.029858302 0.017703205
-0.011963092 -0.029907729 0.015480638
-0.011414166 -0.030730447 0.0115152
-0.010811648 -0.031533975 0.0073232949
0.0063656215 -0.031828105 0.0070309937
0.0070156991 -0.030693682 0.0093950331
0.0078151803 -0.030392369 0.010708511
0.0086654127 -0.030328942 0.012087643
0.0095126312 -0.030267464 0.014776438
0.010454637 -0.030492691 0.016698003
0.011046373 -0.029740237 0.019199878
0.011791414 -0.029478533 0.020675212
0.012462256 -0.029078595 0.022554785
0.013695785 -0.029959528 0.023545146
0.014173709 -0.029181166 0.024391353
0.014854 -0.028882779 0.025115818
0.015678583 -0.028881596 0.025036573
0.016584286 -0.029022504 0.024975389
0.017282633 -0.028804388 0.024693727
0.018205954 -0.028964017 0.024271071
0.019254019 -0.029299594 0.02349776
0.020968657 -0.030579291 0.0078597367
-0.023823325 -0.028928323 0.019946486
-0.022881463 -0.028813694 0.023246586
-0.021838985 -0.028558673 0.02468273
-0.021296434 -0.02896315 0.026185691
-0.019958604 -0.028274691 0.026341617
-0.019693404 -0.029111989 0.0266473
-0.018624911 -0.028783955 0.027057081
-0.017459607 -0.028267933 0.026548684
-0.01718129 -0.029208196 0.025423855
-0.016039386 -0.02870206 0.024581015
-0.015407804 -0.029103633 0.023480833
-0.014543074 -0.029086148 0.020532161
-0.013830814 -0.029390479 0.018973291
-0.013292756 -0.030130247 0.0167647
-0.012146715 -0.029499166 0.013885796
-0.011897363 -0.03111618 0.0074926317
0.0073646582 -0.031299796 0.0067219734
0.0078802668 -0.029769897 0.0092606246
0.0087662693 -0.029805316 0.010569066
0.0094919521 -0.029338762 0.013195813
0.010346102 -0.029313955 0.016237259
0.010954794 -0.028651001 0.018772781
0.011829637 -0.028729118 0.020675212
0.012511365 -0.028359095 0.022242725
0.013293665 -0.028249038 0.023571789
0.014236588 -0.028473176 0.02447933
0.01471624 -0.027797343 0.025136232
0.015766105 -0.02821303 0.02515468
0.016715258 -0.028415939 0.025127858
0.017146166 -0.027760459 0.024859607
0.017964264 -0.027762957 0.024480462
0.01929161 -0.028518032 0.02361533
0.020850863 -0.029538723 0.0088810325
-0.023867294 -0.028129309 0.020035475
-0.022517858 -0.027521824 0.023544818
-0.022027982 -0.027958592 0.024893582
-0.020753464 -0.02739457 0.026335567
-0.020242266 -0.027833115 0.026481211
-0.019352818 -0.027767086 0.027040124
-0.01837514 -0.02756271 0.027078092
-0.017423719 -0.027380129 0.026587337
-0.017099883 -0.028214809 0.026129037
-0.01597121 -0.027739467 0.02478224
-0.015158578 -0.027790725 0.023565143
-0.014649308 -0.028436892 0.020735413
-0.013524736 -0.027894767 0.018891245
-0.012913849 -0.028410466 0.016092181
-0.01246298 -0.029377025 0.0099182129
0.0080366442 -0.029467698 0.007075876
0.0088610388 -0.029241428 0.0097720325
0.0096135335 -0.0288406 0.011635929
0.010466334 -0.02878242 0.015432447
0.011121304 -0.028231001 0.017984897
0.011946877 -0.028160496 0.020681769
0.012506676 -0.027514687 0.0224078
0.013553881 -0.02795488 0.024031848
0.013859713 -0.026904149 0.025354564
0.015046024 -0.027584378 0.025473565
0.01590547 -0.027625287 0.02562809
0.016224679 -0.02677072 0.02542913
0.0172504 -0.02710777 0.025196433
0.018249657 -0.027374486 0.024735659
0.019157464 -0.027486794 0.023838133
0.021287574 -0.029270412 0.010990441
-0.023327107 -0.026659552 0.021598876
-0.022892434 -0.027131774 0.023575574
-0.021854205 -0.026897484 0.024893582
-0.02085015 -0.02668819 0.026407272
-0.020160424 -0.026880564 0.026486278
-0.01915713 -0.026653398 0.026934981
-0.018313412 -0.02663769 0.027002007
-0.017575089 -0.026781088 0.026715398
-0.016818007 -0.026908813 0.026375413
-0.016080551 -0.027083034 0.024769902
-0.015346342 -0.027282387 0.023575842
-0.014594446 -0.027471898 0.020516425
-0.013732497 -0.027464993 0.018527657
-0.013446704 -0.0286863 0.014314324
0.0091040535 -0.029132972 0.0085823238
0.0095847286 -0.027882848 0.010518789
0.01028691 -0.027431762 0.014327168
0.011038253 -0.027171085 0.017938644
0.011801311 -0.026974427 0.020782501
0.012523773 -0.026717383 0.022629261
0.013463327 -0.026926653 0.024138987
0.014156726 -0.026647955 0.02546823
0.014757234 -0.026235083 0.025977373
0.015729871 -0.026492413 0.026021808
0.016892068 -0.027027311 0.025842816
0.017448897 -0.026588794 0.025329709
0.018105123 -0.026334725 0.024721295
0.018882181 -0.026270861 0.023615867
0.020571059 -0.027428078 0.012674272
-0.023807114 -0.026357878 0.021923423
-0.022705279 -0.026069025 0.023970842
-0.022008309 -0.026240677 0.025480777
-0.020825393 -0.025823489 0.026421607
-0.020228438 -0.0261284 0.026465297
-0.019332569 -0.02605694 0.027330399
-0.018127352 -0.025543088 0.027160496
-0.017368156 -0.025638709 0.026860863
-0.016722929 -0.02592054 0.026328385
-0.016026001 -0.026147688 0.025259644
-0.015064019 -0.02594359 0.023850858
-0.014254487 -0.025993478 0.020693272
-0.013901378 -0.02693392 0.01826781
-0.013545014 -0.027993029 0.012393594
0.0097724395 -0.027540512 0.0092819631
0.0102634 -0.026513785 0.014499217
0.011338993 -0.027039139 0.018061727
0.011845297 -0.026228875 0.021408617
0.012330299 -0.025482619 0.022963315
0.013432912 -0.026026268 0.024757236
0.014081017 -0.02567715 0.025890946
0.014949235 -0.025745908 0.026421189
0.015693713 -0.025605533 0.026385546
0.016719284 -0.025914893 0.02612257
0.01719477 -0.025382757 0.02550295
0.018179433 -0.025616476 0.024968803
0.019056171 -0.025684403 0.024037153
0.020697409 -0.026734155 0.013231307
-0.023614589 -0.025301347 0.022333175
-0.022743965 -0.025271071 0.024496317
-0.021428747 -0.024725476 0.025800496
-0.020782292 -0.024938751 0.026563197
-0.020037059 -0.025046324 0.027000457
-0.019302713 -0.025177451 0.027793467
-0.018101392 -0.024683716 0.027725995
-0.017423721 -0.02489103 0.027194291
-0.016723659 -0.025085488 0.026894659
-0.015933251 -0.025157765 0.025843531
-0.015065775 -0.025109626 0.024666458
-0.01412809 -0.024931923 0.021488637
-0.014322985 -0.026855595 0.018593222
-0.013708902 -0.027417803 0.0056923628
0.0099434471 -0.027118493 0.0087041259
0.010330254 -0.025825636 0.012899548
0.01117918 -0.025798107 0.017938644
0.011816062 -0.025320133 0.021810651
0.012596039 -0.025192078 0.023116022
0.013657094 -0.025607051 0.025476962
0.014059927 -0.024811637 0.026878834
0.01496737 -0.024945619 0.026664168
0.015559356 -0.024567405 0.026538581
0.016557261 -0.024835892 0.026387691
0.017325535 -0.024750764 0.02612108
0.018097384 -0.024678251 0.025106043
0.019197995 -0.025040863 0.023794323
0.020574585 -0.025718231 0.013393462
-0.023798963 -0.024648925 0.02266562
-0.02242209 -0.024082985 0.024496317
-0.021508398 -0.023990138 0.025718749
-0.020905968 -0.024250921 0.02663061
-0.019689588 -0.023791587 0.02706793
-0.019221054 -0.024235243 0.027972251
-0.018228943 -0.024029063 0.02794981
-0.017374618 -0.02399352 0.027686268
-0.016650187 -0.024142772 0.027158976
-0.016066592 -0.024522694 0.026377857
-0.015110089 -0.024344034 0.025461227
-0.013996393 -0.023876201 0.023329288
-0.014331442 -0.02597574 0.018375069
-0.01362481 -0.0263413 0.0054003298
0.0097586941 -0.025727466 0.005074501
0.010522537 -0.025429465 0.014601141
0.011356651 -0.02533407 0.019877493
0.011773128 -0.024387194 0.022892416
0.012651218 -0.024459021 0.024303496
0.013241514 -0.024000244 0.025911212
0.013982967 -0.023853296 0.027076781
0.015122118 -0.024363413 0.027598739
0.015685704 -0.023941336 0.02750501
0.016661121 -0.024158625 0.027061611
0.017194787 -0.023745183 0.026357263
0.01828639 -0.024104787 0.02542913
0.019186145 -0.024191225 0.02385658
0.0207051 -0.025018664 0.015595078
-0.024052916 -0.024052916 0.023202479
-0.022819314 -0.023664473 0.02455312
-0.021954086 -0.023642862 0.025836557
-0.020817077 -0.023315126 0.026530951
-0.020168126 -0.023529479 0.027229488
-0.019438149 -0.023663834 0.027831614
-0.018305654 -0.023298105 0.027861923
-0.017663427 -0.023551235 0.027710557
-0.016693227 -0.023370517 0.027552307
-0.0158778 -0.023398863 0.026566803
-0.015061354 -0.023428774 0.026050001
-0.014452414 -0.023803975 0.024506032
-0.013430568 -0.023503494 0.020624965
-0.013601691 -0.025389824 0.0052781403
0.0098132612 -0.024979211 0.0050733387
0.01092203 -0.025484735 0.0158512
0.011124723 -0.023960942 0.021535158
0.01177266 -0.023545319 0.023313105
0.012683546 -0.023675952 0.025521785
0.013336239 -0.023338418 0.026975721
0.013873862 -0.022851067 0.028021753
0.014757283 -0.022955775 0.027953118
0.015745044 -0.02320322 0.027609915
0.016688365 -0.023363713 0.027473301
0.017088125 -0.022784166 0.026729137
0.017862042 -0.022733508 0.025896579
0.018925553 -0.023039803 0.024261147
0.0204552 -0.0238644 0.015441746
-0.023370493 -0.022535834 0.02315858
-0.022790423 -0.022790423 0.024568468
-0.021953091 -0.022797441 0.025800854
-0.020548908 -0.022192821 0.026495039
-0.020352291 -0.022896329 0.027545154
-0.019192806 -0.022530684 0.027890474
-0.018232603 -0.022376377 0.028033972
-0.01755289 -0.022568002 0.027835131
-0.01659278 -0.022400254 0.027773887
-0.015581466 -0.022142084 0.027205497
-0.015077054 -0.022615582 0.0264377
-0.014461081 -0.022967599 0.025906086
-0.013123567 -0.02214602 0.023568034
-0.013808285 -0.024854915 0.0074637234
0.0098550767 -0.024189735 0.0055716932
0.011560942 -0.026012121 0.018526435
0.010925845 -0.022692142 0.023242801
0.011766159 -0.022691878 0.025548756
0.012274437 -0.022093987 0.026291788
0.013133294 -0.022162434 0.02739048
0.014181056 -0.022522854 0.028266907
0.014699635 -0.022049455 0.02842173
0.015799688 -0.022452189 0.027974457
0.016479764 -0.022247683 0.027879447
0.017227553 -0.022149712 0.02742058
0.018058868 -0.022163158 0.026206017
0.018641006 -0.021882921 0.024216712
0.020738523 -0.023330839 0.015500516
0.022107873 -0.023876503 0.0051080585
-0.023573181 -0.021889381 0.023014188
-0.022535175 -0.021700539 0.024512172
-0.021726204 -0.021726204 0.02565524
-0.021110989 -0.021955429 0.026476651
-0.020193828 -0.021876646 0.027545154
-0.019018518 -0.021499192 0.027983904
-0.018537676 -0.021908164 0.027934134
-0.017611923 -0.021805238 0.027939826
-0.016855612 -0.021912295 0.027949542
-0.015835777 -0.02167001 0.027745456
-0.014969026 -0.021621926 0.027108818
-0.014347712 -0.021943558 0.026498258
-0.013506086 -0.021947389 0.025994033
-0.013344492 -0.023130452 0.021312624
0.01026617 -0.024265492 0.010645211
0.010643978 -0.023061952 0.022420406
0.010806684 -0.021613369 0.024059415
0.011748516 -0.021818671 0.026787132
0.012454311 -0.021587472 0.027439207
0.012882533 -0.020934116 0.028936297
0.013827875 -0.021148514 0.029095113
0.015002945 -0.021670921 0.028774172
0.015581721 -0.021322355 0.028256178
0.016618602 -0.021604184 0.028043121
0.017058119 -0.021119576 0.027584106
0.018281044 -0.021604871 0.026146233
0.018827103 -0.021282811 0.024724215
0.020368753 -0.02206615 0.015385419
-0.023724789 -0.021182848 0.0220716
-0.022348564 -0.020693114 0.024167717
-0.021814903 -0.020975869 0.025343776
-0.020830374 -0.020830374 0.02654773
-0.019906888 -0.020736344 0.027550489
-0.019263279 -0.020938346 0.027745456
-0.018270571 -0.020762013 0.02784732
-0.017259916 -0.020547519 0.028029472
-0.017053997 -0.021317499 0.028508723
-0.015753971 -0.020728908 0.02788642
-0.014801777 -0.020558026 0.027479857
-0.014257992 -0.020967634 0.027099758
-0.013149215 -0.020545648 0.026244909
-0.01351263 -0.022521051 0.023952276
-0.013628737 -0.024337031 0.0079964995
0.0092303297 -0.023075826 0.0055199862
0.0099245124 -0.022555711 0.020038933
0.0098478254 -0.020516304 0.024044067
0.011057476 -0.021264376 0.026766151
0.011528144 -0.020585971 0.028547585
0.012105083 -0.02017514 0.02878812
0.013024679 -0.020351062 0.029415369
0.013913791 -0.020461457 0.02966544
0.014801777 -0.020558026 0.029470384
0.015740111 -0.020710673 0.028651774
0.016853418 -0.021066774 0.028242737
0.017272679 -0.020562712 0.027609915
0.017984487 -0.020436918 0.026260614
0.019284239 -0.020961128 0.023413301
0.020402594 -0.021252703 0.015732586
0.022379216 -0.022379216 0.0054298639
-0.023315266 -0.019984514 0.02079922
-0.022848779 -0.020310024 0.024024189
-0.02204404 -0.020348346 0.024947196
-0.020572325 -0.019749431 0.02638188
-0.020273002 -0.020273002 0.027488559
-0.019115264 -0.019946361 0.027861774
-0.01833619 -0.020003116 0.027939826
-0.017542081 -0.020048091 0.028127819
-0.016801272 -0.020161524 0.028668493
-0.015899608 -0.020083714 0.028055161
-0.015100637 -0.020134183 0.027993083
-0.013820801 -0.019511718 0.02780202
-0.013314695 -0.019972043 0.026998341
-0.012353263 -0.019765221 0.026063353
-0.012828602 -0.021991888 0.022960365
-0.01253092 -0.023134006 0.0068533719
0.0085270228 -0.022738727 0.0051216483
0.0098511623 -0.02364279 0.019687593
0.0092835203 -0.020254953 0.023884773
0.010068347 -0.020136693 0.026988596
0.010699326 -0.019752603 0.028241783
0.011489876 -0.01969693 0.029255629
0.012304909 -0.019687854 0.029127479
0.013187221 -0.019780831 0.029789865
0.013924181 -0.019657666 0.029801875
0.014753684 -0.01967158 0.029432833
0.015707852 -0.019841498 0.029000133
0.016325891 -0.019591069 0.028312236
0.017233184 -0.019695066 0.027733862
0.018210508 -0.01986601 0.026419282
0.018835738 -0.019654684 0.023668855
0.020529641 -0.020529641 0.015400648
0.022176072 -0.021289028 0.0055497587
-0.023867875 -0.019605756 0.01708281
-0.022699594 -0.019336691 0.023393601
-0.021740846 -0.019232288 0.024395734
-0.021070492 -0.019384852 0.025800854
-0.020217622 -0.019375222 0.02679342
-0.019324932 -0.019324932 0.027422756
-0.018189095 -0.019015873 0.027664393
-0.017356979 -0.019010024 0.028055489
-0.016308818 -0.018755142 0.028711349
-0.015931971 -0.01928607 0.028304398
-0.014991188 -0.019155409 0.028374523
-0.014064764 -0.019028798 0.028364062
-0.013114209 -0.018851677 0.02780202
-0.012368755 -0.018965425 0.026877284
-0.011730891 -0.019272178 0.02616632
-0.011771849 -0.02082712 0.023521185
-0.011406036 -0.02186157 0.0069822371
0.0075192493 -0.021617843 0.005000174
0.0086827325 -0.022189207 0.019635767
0.0084243109 -0.019375915 0.02399224
0.0092453854 -0.019331262 0.027021736
0.010003373 -0.019173132 0.028634548
0.0107175 -0.018961731 0.029590607
0.01147452 -0.018850997 0.029589385
0.012300319 -0.018860489 0.029699564
0.013148272 -0.018900642 0.02979511
0.014004794 -0.018947663 0.029502809
0.014639807 -0.018706422 0.029306829
0.015557645 -0.018832939 0.029006422
0.016392721 -0.01885163 0.028312236
0.017060803 -0.018685641 0.027509391
0.018218515 -0.019046631 0.026271194
0.019091496 -0.019091496 0.022829473
0.020599719 -0.019741399 0.015400648
-0.023553194 -0.01850608 0.01334402
-0.022596154 -0.018411681 0.021465838
-0.02174546 -0.018400004 0.024031729
-0.020828856 -0.018329391 0.025336921
-0.020395476 -0.018695854 0.02646476
-0.019203208 -0.018368285 0.027074397
-0.018448424 -0.018448424 0.027451813
-0.017391326 -0.018219482 0.028055489
-0.016657704 -0.018323475 0.02881065
-0.015948065 -0.01846618 0.028819531
-0.015060069 -0.018406752 0.028699875
-0.01407914 -0.018220063 0.028939456
-0.013080032 -0.017985042 0.02892831
-0.012314817 -0.018061731 0.028678119
-0.011671201 -0.018340459 0.02822578
-0.010991921 -0.018601712 0.027552366
-0.010793472 -0.019788031 0.02365151
-0.010167198 -0.020334397 0.0078127384
0.0065042973 -0.020442076 0.0054639876
0.0074092736 -0.020375501 0.020038933
0.0074289069 -0.01815955 0.024657398
0.0084589664 -0.018609727 0.027755588
0.0091636665 -0.018327333 0.028957099
0.0098032188 -0.017972568 0.029848516
0.010718211 -0.018138511 0.029936075
0.011655015 -0.018315023 0.02979511
0.012490951 -0.018320061 0.029622406
0.01322993 -0.018191153 0.029636174
0.014054322 -0.018187946 0.029480964
0.0147798 -0.018064199 0.028964043
0.015722744 -0.018205281 0.028415948
0.016826751 -0.018509425 0.027974457
0.017342808 -0.018168654 0.027144104
0.018128779 -0.018128779 0.025057435
0.019036843 -0.018209154 0.021124095
0.020170854 -0.018489951 0.011965066
0.022273552 -0.019600723 0.0050241351
-0.023626069 -0.017719552 0.011469096
-0.022751722 -0.017695785 0.016890138
-0.021950584 -0.017729318 0.022803128
-0.021009397 -0.017647892 0.02492398
-0.019988282 -0.017489748 0.025745958
-0.019088324 -0.017428471 0.026526898
-0.018396046 -0.017559864 0.027106494
-0.017587747 -0.017587747 0.027673483
-0.016366798 -0.017185139 0.028430641
-0.016161678 -0.017862909 0.02873525
-0.014861708 -0.01733866 0.028898686
-0.013978635 -0.017267726 0.029036552
-0.013161607 -0.017274609 0.029364854
-0.012436034 -0.017410448 0.02926147
-0.011358388 -0.017037582 0.029161006
-0.010499699 -0.016961053 0.029045314
-0.0098972889 -0.017320257 0.028651297
-0.0095733237 -0.018276347 0.026249468
-0.008876469 -0.018640585 0.010462463
-0.0086379936 -0.02015532 0.0061129034
0.0055205571 -0.01932195 0.007137835
0.006242217 -0.018726651 0.023130029
0.0067303623 -0.0176672 0.027157813
0.007550437 -0.017617688 0.028016657
0.0082026068 -0.017225476 0.029021323
0.0089586703 -0.017102916 0.030035257
0.0099111656 -0.01734454 0.030070752
0.010797973 -0.017442878 0.029817015
0.011525373 -0.017288059 0.029637933
0.012302775 -0.017223885 0.029547453
0.013144084 -0.017251611 0.029563367
0.013858664 -0.017119527 0.029084146
0.014881416 -0.017361654 0.028596818
0.015528386 -0.017162954 0.02774635
0.016417883 -0.017238779 0.027384371
0.01735151 -0.01735151 0.026364774
0.018057631 -0.017236831 0.022462338
0.019054769 -0.017397832 0.017085344
0.020809578 -0.018208381 0.011923194
-0.024338406 -0.017384576 0.0081883073
-0.023056479 -0.017078873 0.014362514
-0.021826973 -0.016789978 0.018512338
-0.020800857 -0.016640685 0.022978008
-0.019897453 -0.016581211 0.025024086
-0.01942357 -0.01689006 0.026061207
-0.018303407 -0.016639462 0.026678026
-0.017340951 -0.01651519 0.027544677
-0.016396863 -0.016396863 0.028337777
-0.015640166 -0.016463332 0.02896592
-0.0150202 -0.016689112 0.029196411
-0.013888359 -0.016339246 0.029645205
-0.013181786 -0.016477231 0.030186862
-0.012311649 -0.016415531 0.029945731
-0.011378583 -0.016255118 0.02997908
-0.010677494 -0.016426913 0.030111372
-0.0098788301 -0.016464716 0.029897779
-0.0089028943 -0.016187079 0.029479951
-0.0085488474 -0.017097695 0.028547466
-0.0079464782 -0.017658841 0.024157822
-0.0071925051 -0.017981261 0.010297775
-0.0066521969 -0.019006277 0.00746122
-0.0057485146 -0.019161714 0.0056201518
0.002841797 -0.018945314 0.0056867003
0.0037909285 -0.018954642 0.0071149468
0.0044708946 -0.017883578 0.021802872
0.0051080449 -0.017026816 0.026527733
0.0058244551 -0.0166413 0.027518064
0.0065524569 -0.016381143 0.028644174
0.0072390651 -0.016086811 0.029730648
0.0082420101 -0.01648402 0.030033588
0.0090595912 -0.016471984 0.030333549
0.0098817516 -0.016469587 0.030139148
0.010529526 -0.016199268 0.029951602
0.011539625 -0.016485177 0.029770136
0.012283349 -0.016377799 0.029502779
0.013146736 -0.01643342 0.02919513
0.014023861 -0.016498659 0.028638899
0.015056338 -0.016729264 0.027789861
0.015524586 -0.016341669 0.027426392
0.01658055 -0.01658055 0.026916295
0.017666619 -0.01682535 0.02370131
0.018275315 -0.016613923 0.018098146
0.01944175 -0.016905868 0.015716642
0.020842865 -0.017369054 0.011405945
-0.024812596 -0.016837118 0.0072678924
-0.023024814 -0.016202645 0.011718094
-0.022412729 -0.016378533 0.015071034
-0.021268409 -0.01616399 0.018824816
-0.02007496 -0.015892677 0.023275882
-0.019298658 -0.015942369 0.025122762
-0.018415337 -0.015904155 0.026069045
-0.017543586 -0.015872767 0.026802987
-0.01676262 -0.015924489 0.027513951
-0.015761126 -0.015761126 0.028304398
-0.014841312 -0.015665831 0.028711468
-0.014012115 -0.015660599 0.029461324
-0.013226231 -0.015706148 0.030133724
-0.012404439 -0.015712289 0.030195445
-0.01157 -0.015702143 0.03025943
-0.010592531 -0.015481392 0.030359894
-0.0096732825 -0.015316032 0.030381024
-0.0090720765 -0.015669951 0.030359894
-0.0079714507 -0.015145757 0.030039251
-0.0074147652 -0.015653394 0.02936548
-0.0066492232 -0.015791906 0.028703779
-0.005891663 -0.015991658 0.02739045
-0.005224498 -0.016544243 0.024012476
-0.0044909273 -0.017065523 0.012124002
-0.0036332831 -0.017258095 0.007371068
-0.002868271 -0.018165717 0.0066907108
-0.0019302386 -0.018337267 0.0064851642
-0.0009438718 -0.017933564 0.0066248477
0 -0.017361948 0.0066832304
0.0009527033 -0.018101363 0.007003814
0.0018103751 -0.017198564 0.019182891
0.0026559553 -0.016821051 0.026185244
0.0033304689 -0.015819728 0.027418375
0.0041331267 -0.015705882 0.028373033
0.0048192684 -0.015261017 0.028924406
0.0056589125 -0.015359906 0.028976321
0.0065571507 -0.015573232 0.029742867
0.0072865277 -0.01538267 0.029915869
0.0080840932 -0.015359778 0.030052722
0.0091356998 -0.015779845 0.030106395
0.0099070603 -0.015686179 0.030099481
0.010628143 -0.015533441 0.0299806
0.011500974 -0.015608465 0.029470265
0.012346008 -0.015638277 0.028885275
0.01312204 -0.015582423 0.028576165
0.014103151 -0.015762346 0.027666926
0.014923452 -0.015752533 0.026962757
0.015818922 -0.015818922 0.026456833
0.016544845 -0.015717603 0.024691075
0.017271522 -0.015626615 0.019552171
0.018258799 -0.015768964 0.015929937
0.018975591 -0.015675487 0.013769805
0.020960663 -0.016593859 0.0093612075
-0.02481034 -0.015949503 0.0066054761
-0.023518104 -0.015678735 0.010850787
-0.022519615 -0.015590501 0.012376398
-0.021448681 -0.015443049 0.01527825
-0.020262603 -0.015196951 0.018846422
-0.01937221 -0.015160859 0.022729158
-0.018430836 -0.015079776 0.025072336
-0.017609477 -0.015093837 0.026294917
-0.016781585 -0.015103428 0.02683422
-0.015679702 -0.014854454 0.027402967
-0.014956936 -0.014956936 0.028291076
-0.014118223 -0.014948707 0.029042333
-0.013141081 -0.014783715 0.030023694
-0.012570221 -0.015084264 0.030237705
-0.011417072 -0.014679092 0.03035289
-0.010637283 -0.014728545 0.030418754
-0.0099366968 -0.014905045 0.0309605
-0.0090724528 -0.014845831 0.031080544
-0.0081836749 -0.014730615 0.030899704
-0.007457823 -0.014915646 0.030133724
-0.0064409757 -0.014492194 0.030220509
-0.0056437911 -0.014512605 0.029390037
-0.0048220167 -0.01446605 0.029214114
-0.004061731 -0.014622231 0.028629988
-0.0032543489 -0.01464457 0.028725952
-0.0024727937 -0.014836762 0.028452873
-0.0016662198 -0.014995977 0.028160304
-0.00082416338 -0.01483494 0.028081477
0 -0.014821828 0.028865039
0.00081392983 -0.014650737 0.029009104
0.0016374687 -0.014737218 0.029009104
0.0024075569 -0.01444534 0.029021293
0.0032348572 -0.014556857 0.030060828
0.0041311672 -0.014872203 0.030341834
0.0049166665 -0.014749999 0.0302715
0.0057171206 -0.014701166 0.029928803
0.0065861652 -0.014818871 0.030035257
0.0072753099 -0.01455062 0.030099481
0.0081818476 -0.014727326 0.030095279
0.0090717832 -0.014844735 0.030031055
0.0099374279 -0.014906142 0.0294469
0.01065707 -0.014755943 0.029132932
0.01154747 -0.014846746 0.028660417
0.012425955 -0.014911146 0.028132945
0.013195616 -0.014845067 0.027653039
0.014066493 -0.014893933 0.02684918
0.014844116 -0.014844116 0.025701374
0.015686639 -0.014861026 0.024012983
0.016702496 -0.015032246 0.020178288
0.01759287 -0.015079602 0.016431749
0.01887642 -0.015444344 0.014561236
0.019625377 -0.01535899 0.012564749
0.02129288 -0.01596966 0.0082812011
-0.023574816 -0.014843402 0.010019302
-0.022737024 -0.014866517 0.011756331
-0.021586297 -0.014678681 0.013284415
-0.020822328 -0.014749149 0.01554063
-0.019798175 -0.014633434 0.018299818
-0.018483697 -0.014282856 0.020944923
-0.017690605 -0.014320966 0.024293274
-0.016818702 -0.014295897 0.026019424
-0.01583056 -0.014164185 0.026779771
-0.014877502 -0.014050975 0.02688691
-0.014053539 -0.014053539 0.028366327
-0.013370418 -0.014206069 0.029419303
-0.01246475 -0.014126717 0.029899418
-0.011463492 -0.013919955 0.030110568
-0.010689102 -0.013978057 0.030478001
-0.0098712863 -0.013984322 0.030740321
-0.008953535 -0.013837282 0.03084445
-0.0083191609 -0.014142575 0.03054598
-0.0074060149 -0.01398914 0.030477911
-0.006614171 -0.014055114 0.030558348
-0.0056661521 -0.013760655 0.030461341
-0.0048740762 -0.013809883 0.029906869
-0.0040901955 -0.013906665 0.029626042
-0.0032505614 -0.013814886 0.02969411
-0.002419516 -0.01371059 0.02973631
-0.0016353325 -0.013900327 0.029847652
-0.00080427143 -0.013672614 0.030115724
0 -0.013650908 0.030226111
0.00081773492 -0.013901494 0.030439049
0.0016019484 -0.013616562 0.030288219
0.0024613671 -0.013947748 0.030363172
0.0032834571 -0.013954693 0.031015396
0.0040530367 -0.013780326 0.031050622
0.0049902997 -0.014139183 0.030794203
0.0057970504 -0.014078551 0.030305207
0.0065810368 -0.013984703 0.030311376
0.0073791556 -0.013938406 0.030255973
0.0082466872 -0.014019369 0.029965341
0.0089809997 -0.013879728 0.029613405
0.0099487426 -0.014094053 0.028936297
0.010563245 -0.013813475 0.028461277
0.011507816 -0.013973777 0.028102726
0.012461097 -0.014122577 0.027402043
0.013248675 -0.014076716 0.026011407
0.013810381 -0.013810381 0.024925441
0.01502539 -0.014190647 0.02286154
0.015908023 -0.014233495 0.019959331
0.01717647 -0.014599999 0.017277747
0.018210577 -0.014741896 0.015336782
0.018729931 -0.014473128 0.013045639
0.019775793 -0.01461689 0.011758745
0.02139736 -0.015156463 0.0079838037
-0.023623187 -0.013998926 0.0078364909
-0.022763066 -0.014008041 0.01100418
-0.021889515 -0.014009289 0.012080461
-0.021209804 -0.014139869 0.013306022
-0.019727457 -0.013723448 0.015273094
-0.019063771 -0.013864561 0.016983718
-0.018373437 -0.01399881 0.018950015
-0.016962823 -0.013570259 0.022533774
-0.016093511 -0.01355243 0.024820715
-0.015071852 -0.013397203 0.02575472
-0.01426195 -0.013423012 0.02672115
-0.013325037 -0.013325037 0.028779984
-0.01231443 -0.013135392 0.029254764
-0.011633458 -0.013295379 0.029684961
-0.010683868 -0.013149377 0.030053079
-0.0099431882 -0.013257585 0.030420184
-0.0090757161 -0.013201043 0.030598015
-0.0081744464 -0.013079115 0.030746788
-0.0074391207 -0.013225105 0.030739546
-0.0065524755 -0.013104951 0.030858278
-0.0056944527 -0.013015891 0.030676335
-0.0049597444 -0.013225986 0.030544698
-0.0041375267 -0.013240087 0.03047055
-0.0032859885 -0.013143954 0.030511051
-0.0025065835 -0.013368445 0.030289799
-0.0016342824 -0.013074259 0.030517489
-0.00082677533 -0.013228405 0.030439049
0 -0.013111466 0.030725956
0.00082324154 -0.013171865 0.030637443
0.0016219754 -0.012975804 0.030619025
0.0024544925 -0.013090627 0.030588984
0.00322872 -0.01291488 0.030952841
0.0041073705 -0.013143586 0.031302214
0.004864709 -0.012972557 0.030729324
0.0057648127 -0.013176715 0.030239701
0.0066353194 -0.013270639 0.030242175
0.0073201605 -0.013013619 0.030179769
0.0082542365 -0.013206779 0.029613405
0.0089142602 -0.012966197 0.029003054
0.0098606087 -0.013147478 0.028287798
0.010585705 -0.01302856 0.027733564
0.011678637 -0.013347014 0.026892781
0.012337261 -0.013159745 0.025126606
0.013262698 -0.013262698 0.023679346
0.014419244 -0.013571053 0.021123528
0.015415864 -0.01370299 0.017351329
0.01639184 -0.013803654 0.01633656
0.0170541 -0.01364328 0.014984936
0.018176671 -0.013848891 0.013045669
0.018848293 -0.013707849 0.011483818
0.019775024 -0.013756538 0.010661662
0.021100331 -0.014066888 0.0065203011
-0.023837212 -0.013242896 0.0060218275
-0.022787392 -0.013146573 0.008808732
-0.02170766 -0.013024596 0.011369705
-0.021093607 -0.013183504 0.012408763
-0.019851085 -0.012946359 0.013058454
-0.019017421 -0.012966424 0.015114665
-0.018188648 -0.012991891 0.016574264
-0.017456181 -0.013092137 0.017638683
-0.016215332 -0.012801577 0.019964188
-0.015377907 -0.012814923 0.021996915
-0.014114299 -0.012453793 0.025527954
-0.01327567 -0.01244594 0.026791245
-0.012349414 -0.012349414 0.028354645
-0.011526308 -0.012349617 0.028820902
-0.010650066 -0.012288538 0.030068874
-0.0097453529 -0.012181692 0.03068918
-0.0090899933 -0.012395445 0.030833006
-0.0082178768 -0.012326815 0.030676335
-0.0073345746 -0.012224291 0.03077659
-0.0065131448 -0.012212147 0.031118423
-0.0058046053 -0.01243844 0.030907422
-0.0049887379 -0.012471844 0.030759215
-0.0040955818 -0.012286745 0.030674547
-0.0033228642 -0.012460741 0.030758917
-0.0024675254 -0.012337627 0.030658543
-0.0016380965 -0.012285724 0.030888081
-0.0008260631 -0.012390946 0.030809641
0 -0.012337974 0.030965567
0.00081150018 -0.012172502 0.031116456
0.0016302973 -0.012227229 0.030965567
0.0024349883 -0.012174942 0.031051189
0.003279726 -0.012298972 0.031307966
0.0040349583 -0.012104874 0.031232506
0.0048359353 -0.012089839 0.030562669
0.0058199582 -0.012471339 0.030224979
0.0065511591 -0.012283424 0.030118108
0.0075072753 -0.012512126 0.029750258
0.0082465066 -0.01236976 0.029106766
0.0090899933 -0.012395445 0.02807647
0.010009926 -0.012512407 0.027143061
0.010918454 -0.012598217 0.025710821
0.011779512 -0.012620905 0.023185372
0.01264534 -0.01264534 0.021035522
0.013965365 -0.013092529 0.018432945
0.014477557 -0.012774315 0.017034531
0.015535685 -0.012946405 0.016124845
0.016346008 -0.012904743 0.015088022
0.017054526 -0.012790896 0.013995945
0.017935637 -0.012811169 0.011868328
0.019006712 -0.012959123 0.010917902
0.019838491 -0.012938146 0.0093902647
0.02132717 -0.013329481 0.0062521696
-0.022784701 -0.012268686 0.0078843236
-0.022112546 -0.012383025 0.0095388591
-0.02095682 -0.012224812 0.011803985
-0.020190101 -0.012289626 0.012337655
-0.019187804 -0.012210421 0.013670295
-0.018254187 -0.012169458 0.015196979
-0.017290995 -0.012103696 0.016568094
-0.016570693 -0.012209984 0.016839951
-0.015465862 -0.012029004 0.018434227
-0.014529581 -0.011965537 0.019848466
-0.013568165 -0.011872144 0.022607923
-0.012300291 -0.011480271 0.025862038
-0.011494098 -0.011494098 0.027839422
-0.010697744 -0.011520647 0.028639257
-0.0096979933 -0.011314326 0.029849023
-0.0091658635 -0.011665645 0.030026853
-0.0082082646 -0.01149157 0.030156463
-0.0072491542 -0.011276462 0.030230552
-0.0065970812 -0.011544892 0.031045347
-0.0057535232 -0.011507046 0.030907422
-0.0049694474 -0.011595377 0.031094402
-0.0041057016 -0.011495966 0.031039327
-0.0033173154 -0.011610604 0.031063437
-0.0024456289 -0.011412935 0.031127632
-0.0016683479 -0.011678435 0.031216025
-0.00081693626 -0.011437108 0.03125757
0 -0.01133306 0.031400561
0.00081839872 -0.011457582 0.031518579
0.0016454353 -0.011518047 0.03151539
0.0024514787 -0.011440235 0.031395972
0.003280998 -0.011483492 0.03151539
0.004105397 -0.011495112 0.031395972
0.0048634266 -0.011347995 0.030562669
0.0057987324 -0.011597465 0.030255973
0.0066706799 -0.01167369 0.029593796
0.0073664915 -0.011458987 0.028842449
0.0084470678 -0.011825895 0.027712822
0.0090955067 -0.0115761 0.026144147
0.010132167 -0.011820862 0.022872984
0.010957448 -0.011800328 0.020852864
0.011955363 -0.011955363 0.018986911
0.01303469 -0.012165711 0.017336428
0.013540886 -0.011848276 0.01675877
0.01452337 -0.011960423 0.015689135
0.015586398 -0.012122754 0.014451891
0.016251493 -0.011974785 0.013571024
0.01741272 -0.012188904 0.012457699
0.018062495 -0.012041663 0.010826886
0.018938823 -0.012051978 0.0101583
0.019997001 -0.012172087 0.0086663067
-0.022721784 -0.011360892 0.0058083534
-0.022185873 -0.011536654 0.0084488094
-0.02114984 -0.011456164 0.010135353
-0.02011483 -0.011369251 0.011495531
-0.018997978 -0.011226078 0.012623221
-0.018202042 -0.011267931 0.013810873
-0.017628439 -0.011458484 0.014946848
-0.016601004 -0.011358581 0.01545167
-0.015524151 -0.011211887 0.01596579
-0.014748176 -0.011278016 0.016270012
-0.013578075 -0.011032186 0.019268245
-0.012857655 -0.011143301 0.020898193
-0.011730408 -0.010892522 0.024213701
-0.010823756 -0.010823756 0.027411073
-0.0098501267 -0.01067097 0.027929425
-0.0090279188 -0.010669359 0.028818339
-0.0081821484 -0.010636793 0.029810518
-0.0073512099 -0.010618415 0.030106306
-0.0065532783 -0.010649078 0.030513793
-0.0057395059 -0.010659083 0.030537814
-0.0049439068 -0.010711798 0.030547947
-0.0041221967 -0.010717711 0.030660868
-0.0032773737 -0.010651465 0.031101584
-0.0024814857 -0.010753105 0.030978829
-0.0016186372 -0.010521142 0.030957073
-0.00082511053 -0.010726437 0.031090707
0 -0.010678934 0.031245887
0.00080920436 -0.010519656 0.031260848
0.0016107148 -0.010469646 0.030997276
0.0024670428 -0.010690519 0.030900389
0.0032976063 -0.01071722 0.031046599
0.0040950789 -0.010647205 0.03076455
0.0049205073 -0.010661099 0.030052394
0.0056840559 -0.010556104 0.029239893
0.0066512558 -0.010808291 0.02821964
0.0073309205 -0.010589108 0.0262824
0.0083460351 -0.010849847 0.023693472
0.0093194237 -0.011013865 0.021571219
0.010249979 -0.011104144 0.019711316
0.011042305 -0.011042305 0.018247396
0.012143108 -0.011275743 0.016935259
0.012857655 -0.011143301 0.016166151
0.013673559 -0.011109767 0.015742302
0.014498715 -0.011087253 0.014076024
0.015652366 -0.011304487 0.013097793
0.016263271 -0.0111275 0.012293607
0.017271753 -0.01122664 0.011158675
0.01799372 -0.01113897 0.0099780262
0.019097043 -0.011284617 0.0084844232
0.020126024 -0.011375579 0.0055868924
-0.021789163 -0.010458798 0.0071460605
-0.021336922 -0.010668461 0.0092859864
-0.020152781 -0.010514495 0.010335296
-0.019208314 -0.010477263 0.011761874
-0.018503826 -0.010573614 0.012147218
-0.017526327 -0.010515796 0.013276964
-0.016501661 -0.010422102 0.014129102
-0.015745647 -0.010497098 0.014743537
-0.014604399 -0.010308987 0.015529752
-0.013926991 -0.010445244 0.016341448
-0.013078829 -0.010463063 0.018072695
-0.011871174 -0.010175292 0.018582612
-0.011050294 -0.010200271 0.021394163
-0.010031463 -0.010031463 0.025875866
-0.0090306336 -0.009851601 0.02743727
-0.0081419637 -0.0097703571 0.028620541
-0.0074115586 -0.0098820785 0.029061317
-0.0065991268 -0.0098986905 0.029634744
-0.0056968699 -0.0097660627 0.029633403
-0.0049932897 -0.0099865794 0.030250728
-0.0041088057 -0.009861134 0.030135334
-0.0032827491 -0.0098482473 0.030385792
-0.0024809481 -0.0099237924 0.030469686
-0.0016411924 -0.0098471539 0.030804396
-0.00083419523 -0.010010342 0.03087768
0 -0.0098575167 0.030841351
0.00081365573 -0.0097638685 0.030792773
0.0016207141 -0.0097242845 0.030553758
0.0024643098 -0.0098572392 0.030157328
0.0032171723 -0.0096515166 0.029808968
0.0041206898 -0.0098896557 0.029766291
0.0048806695 -0.0097613391 0.028640598
0.005717345 -0.0098011633 0.026957273
0.0066434881 -0.0099652326 0.02580449
0.0076534012 -0.010204535 0.021762282
0.008555064 -0.010266077 0.020193368
0.0095741469 -0.010444525 0.018518358
0.010282944 -0.010282944 0.018007845
0.011149283 -0.010291646 0.016866177
0.012112503 -0.010382146 0.016213953
0.012927174 -0.010341739 0.014901578
0.013895811 -0.010421858 0.014162153
0.014465683 -0.01021107 0.013046414
0.015665641 -0.010443761 0.012212753
0.016469272 -0.010401646 0.01129356
0.017364407 -0.010418644 0.01072529
0.018360673 -0.010491813 0.0084654987
0.019022217 -0.010375755 0.0064326823
-0.021351591 -0.0097861458 0.0073642433
-0.020203212 -0.0096624056 0.00891608
-0.019398481 -0.0096992403 0.010543376
-0.018382439 -0.0096288966 0.01151377
-0.017604288 -0.0096823582 0.012131661
-0.016383694 -0.009485296 0.01269871
-0.015636075 -0.0095553799 0.013715655
-0.014679983 -0.0094988123 0.014558196
-0.01389486 -0.0095527153 0.015359908
-0.012941806 -0.0094906576 0.016099423
-0.011965835 -0.0094017275 0.016845077
-0.011135035 -0.0094219521 0.017908752
-0.01034217 -0.0094803227 0.019931078
-0.0092846276 -0.0092846276 0.023032904
-0.008319865 -0.0091518518 0.027064681
-0.0073638284 -0.0090002343 0.027480125
-0.0066429893 -0.0091341101 0.028519899
-0.0056563253 -0.008888511 0.028879911
-0.0049201478 -0.0090202708 0.029346853
-0.0041252524 -0.009075556 0.029384196
-0.0032581177 -0.0089598233 0.029926777
-0.0024897202 -0.0091289748 0.030066907
-0.0016471616 -0.0090593882 0.029910952
-0.00082547806 -0.0090802582 0.029944539
0 -0.008933452 0.029856503
0.00081901712 -0.009009188 0.029843301
0.0016491121 -0.0090701161 0.029541463
0.0024884404 -0.0091242809 0.029150426
0.003266894 -0.0089839585 0.028681725
0.0041240337 -0.0090728737 0.027599812
0.0049621998 -0.0090973666 0.025939256
0.005909727 -0.0092867138 0.021704346
0.0068184976 -0.0093754344 0.020006478
0.0077515719 -0.0094741434 0.019489646
0.0085721305 -0.009429343 0.018328756
0.009428055 -0.009428055 0.017200351
0.010409432 -0.0095419781 0.016592085
0.011192056 -0.0094702011 0.015363038
0.012026385 -0.0094493032 0.014641702
0.012913484 -0.0094698882 0.013857543
0.013774026 -0.0094696432 0.013139158
0.014798003 -0.0095751779 0.012395263
0.015743487 -0.0096210195 0.011367738
0.01651904 -0.0095636537 0.010521114
0.017331561 -0.0095323585 0.0089158118
0.018197095 -0.0095318109 0.0066674948
-0.020273115 -0.0088143973 0.0065621734
-0.019458666 -0.0088448478 0.0086298585
-0.018324839 -0.0087261135 0.0094269514
-0.017728418 -0.0088642091 0.011235237
-0.016510865 -0.0086899288 0.011628091
-0.015739035 -0.0087439092 0.012289226
-0.014720287 -0.0086589921 0.013490319
-0.013789545 -0.0086184656 0.014377832
-0.012942654 -0.0086284354 0.014909714
-0.012105636 -0.0086468831 0.015313983
-0.011206254 -0.0086201951 0.016071945
-0.010239025 -0.0085325204 0.017225593
-0.0095352456 -0.008668405 0.018327057
-0.0085708639 -0.0085708639 0.020791322
-0.0075628571 -0.0084031746 0.025676817
-0.0065980828 -0.0082476037 0.027115464
-0.0058243619 -0.0083205169 0.027477622
-0.0049497257 -0.0082495427 0.02809599
-0.0041453321 -0.0082906643 0.028627425
-0.0033273306 -0.0083183264 0.029263556
-0.0024809232 -0.008269744 0.029198706
-0.0016423931 -0.0082119647 0.029090375
-0.0008221186 -0.0082211858 0.029171646
0 -0.008198048 0.02905497
0.00081779069 -0.0081779063 0.028918445
0.001667263 -0.0083363149 0.028701842
0.0024694027 -0.0082313428 0.027120411
0.0033339136 -0.0083347838 0.025867313
0.0041922652 -0.0083845304 0.023857772
0.0051267236 -0.0085445391 0.020198613
0.0060453564 -0.0086362232 0.019168735
0.0068062684 -0.0085078357 0.018452406
0.0078754853 -0.0087505393 0.017251372
0.0086019421 -0.0086019421 0.016738772
0.0094990516 -0.0086355014 0.016416639
0.01035089 -0.008625742 0.015024364
0.011256943 -0.0086591868 0.014200658
0.012265123 -0.0087608015 0.013551831
0.012799202 -0.0085328016 0.012883753
0.013690144 -0.0085563399 0.012416571
0.014755487 -0.0086796982 0.011517972
0.015662309 -0.0087012826 0.010552526
0.016618455 -0.0087465541 0.0089099407
0.017294949 -0.0086474745 0.0069681406
0.018355519 -0.0087407222 0.005671978
-0.019478565 -0.0079685031 0.0061882436
-0.018379616 -0.0078769783 0.0079222322
-0.017680759 -0.0079563409 0.0090230703
-0.016455153 -0.0077945455 0.010103047
-0.015887953 -0.0079439767 0.011233628
-0.014685957 -0.0077749179 0.011944354
-0.01408079 -0.007920444 0.013208449
-0.012950731 -0.0077704382 0.014185816
-0.01212853 -0.0077969115 0.014532685
-0.011181572 -0.007741088 0.015143126
-0.010357354 -0.0077680149 0.016029239
-0.0093977284 -0.0076890504 0.01664114
-0.0085214004 -0.0076692603 0.017492354
-0.0077212746 -0.0077212746 0.019263297
-0.0068159369 -0.0076679285 0.022699177
-0.0058289738 -0.0074943942 0.025976032
-0.004948922 -0.0074233827 0.026803762
-0.0041385684 -0.007449423 0.027213156
-0.0032875403 -0.0073969653 0.028085411
-0.0024677205 -0.0074031618 0.028148383
-0.0016668743 -0.0075009339 0.028163105
-0.00083527376 -0.0075174635 0.028099418
0 -0.0074445177 0.027847379
0.0008160104 -0.0073440932 0.026435256
0.0016445632 -0.0074005341 0.026213109
0.0025004554 -0.0075013656 0.024807513
0.0034484672 -0.0077590509 0.021459997
0.0042824228 -0.0077083609 0.019371301
0.0050933817 -0.0076400721 0.018369943
0.0059403307 -0.0076375678 0.017513245
0.0067710788 -0.0076174634 0.016726077
0.0076411935 -0.0076411935 0.01641506
0.0087023964 -0.0078321565 0.016002834
0.0094205188 -0.0077076969 0.014948934
0.010341999 -0.0077564991 0.013960332
0.011220383 -0.0077679576 0.013029486
0.012164353 -0.0078199413 0.012402326
0.012970834 -0.0077824998 0.011696875
0.014068119 -0.0079133166 0.011258811
0.014769822 -0.0078193173 0.01054278
0.015664333 -0.0078321667 0.0088089406
0.016860081 -0.0079863537 0.0066907704
0.017712418 -0.0079705883 0.0054502785
-0.018508436 -0.0070508327 0.0056407154
-0.017606197 -0.0070424788 0.0073646903
-0.016502304 -0.0069483384 0.00878039
-0.015745189 -0.0069978619 0.0099140406
-0.014726081 -0.0069299205 0.010822147
-0.01384275 -0.0069213752 0.011458665
-0.013072041 -0.0069717551 0.012504578
-0.012014876 -0.0068656434 0.013625473
-0.011278803 -0.0069408016 0.014115751
-0.010520968 -0.0070139789 0.014804631
-0.0095168762 -0.0069213649 0.01529482
-0.0086077843 -0.0068862275 0.016426235
-0.0077573387 -0.0068954127 0.017052263
-0.0069474657 -0.0069474657 0.01769343
-0.0058984053 -0.0067410343 0.020592123
-0.0049945372 -0.006659383 0.024151117
-0.0041281199 -0.0066049923 0.025043875
-0.0033416033 -0.0066832067 0.025903136
-0.0024852257 -0.0066272686 0.026385397
-0.0016758633 -0.0067034531 0.02650255
-0.00083867111 -0.0067093689 0.026165843
0 -0.0065660039 0.025609732
0.00082574686 -0.0066059749 0.024788707
0.0016828132 -0.0067312527 0.023793727
0.0025806918 -0.0068818452 0.020375073
0.0034003693 -0.0068007386 0.019111544
0.0042235204 -0.0067576328 0.01803416
0.0050856061 -0.0067808083 0.016870797
0.0060238484 -0.0068843984 0.016328126
0.0068484806 -0.0068484806 0.016184121
0.0078418124 -0.0069705006 0.015074909
0.0085267285 -0.0068213828 0.014527351
0.0094330842 -0.0068604248 0.013826132
0.010278931 -0.0068526207 0.012774259
0.011251871 -0.0069242278 0.011949897
0.012084819 -0.0069056111 0.011090428
0.013204543 -0.0070424229 0.010902673
0.013789145 -0.0068945726 0.009365052
0.014995296 -0.0070566102 0.0080453753
0.015956761 -0.0070918943 0.0066604912
0.016869072 -0.0071027675 0.0053977072
-0.016640766 -0.006130808 0.0068039596
-0.015995877 -0.0062206192 0.0085108876
-0.014890377 -0.0061313319 0.0093382001
-0.01395256 -0.0061042449 0.0105232
-0.013069911 -0.0060992916 0.011105478
-0.012021409 -0.0060107047 0.012581378
-0.011347455 -0.0061101685 0.013583124
-0.010124383 -0.0059058899 0.014115751
-0.0096332971 -0.0061302804 0.014392972
-0.008569791 -0.0059988541 0.015197098
-0.0077412454 -0.0060209688 0.016451091
-0.0069039036 -0.0060409158 0.016637802
-0.0060796016 -0.0060796016 0.017242163
-0.0051728943 -0.0060350434 0.017696768
-0.0042356052 -0.0059298477 0.019811213
-0.0033420038 -0.0058485065 0.021840364
-0.0025127763 -0.005863145 0.023548484
-0.0016554574 -0.0057941009 0.024034351
-0.00082468818 -0.0057728174 0.023262918
0 -0.0058543468 0.021441132
0.00085358607 -0.0059751025 0.019808263
0.0017210563 -0.0060236971 0.018930078
0.0025616088 -0.0059770872 0.018193692
0.0034073566 -0.0059628738 0.017475337
0.0042782784 -0.0059895902 0.016639143
0.0051505831 -0.0060090134 0.016355574
0.0059725004 -0.0059725004 0.015730232
0.0068200305 -0.0059675267 0.014980733
0.0077752555 -0.0060474211 0.014052242
0.0086709633 -0.0060696746 0.013537377
0.0094335256 -0.006003153 0.012947679
0.010422008 -0.0060795047 0.01191625
0.011239723 -0.0060521588 0.010990947
0.01232252 -0.00616126 0.0094128847
0.012996803 -0.0060651749 0.0080836713
0.014176738 -0.0062023224 0.0067270696
0.015212416 -0.0062639359 0.0061275959
0.015991492 -0.0062189139 0.0050260723
-0.015989948 -0.0053299828 0.0065506697
-0.015021458 -0.0053016911 0.0078696609
-0.014097385 -0.0052865194 0.0094279945
-0.013191075 -0.0052764299 0.0098089278
-0.012108054 -0.0051891659 0.01119262
-0.011369304 -0.0052473708 0.012250811
-0.010374166 -0.005187083 0.013537824
-0.0096243033 -0.0052496199 0.013965577
-0.0085591674 -0.0051355008 0.014228702
-0.0077936747 -0.0051957835 0.014953911
-0.0069300295 -0.0051975222 0.015461236
-0.005952687 -0.0051023029 0.016359448
-0.0051895636 -0.0051895636 0.016570896
-0.004242484 -0.0050909808 0.016933203
-0.0034238338 -0.0051357504 0.017589539
-0.0025172678 -0.0050345357 0.017680109
-0.0016604022 -0.0049812063 0.01845628
-0.00083978096 -0.0050386856 0.018262267
0 -0.0051608831 0.017776906
0.00085313304 -0.0051187985 0.017662227
0.0017036895 -0.005111068 0.016976893
0.002552568 -0.005105136 0.01673609
0.0034379777 -0.0051569669 0.015969455
0.0042857681 -0.005142922 0.015542448
0.0050988528 -0.0050988528 0.015049785
0.0061024642 -0.0052306834 0.014832497
0.0069134496 -0.0051850872 0.013899177
0.0078019034 -0.0052012689 0.013063669
0.0087359212 -0.0052415528 0.012456268
0.0095069828 -0.0051856269 0.011806548
0.010478009 -0.0052390047 0.0095823407
0.011403368 -0.0052630929 0.0076695383
0.012517513 -0.0053646485 0.0064564943
0.013428687 -0.0053714747 0.0053404272
0.014504819 -0.0054393071 0.0050266683
-0.015184559 -0.0044660466 0.0055687129
-0.013928263 -0.0043525822 0.0072122216
-0.013232653 -0.0044108839 0.0084724128
-0.012303823 -0.0043942221 0.009642452
-0.011360188 -0.0043693031 0.010363966
-0.010302121 -0.00429255 0.011837274
-0.0094764698 -0.0043074866 0.012690216
-0.0087941261 -0.0043970631 0.013541311
-0.0076968409 -0.0042760228 0.01381737
-0.0069980538 -0.0043737837 0.014257967
-0.0060540265 -0.0043243044 0.015088022
-0.0051513352 -0.0042927791 0.015461236
-0.0043039005 -0.0043039005 0.01578936
-0.0034349258 -0.0042936569 0.016008109
-0.0026164902 -0.0043608169 0.016185552
-0.0016746044 -0.004186511 0.016328365
-0.00086200301 -0.0043100151 0.016113549
0 -0.0042286329 0.016204596
0.00086700264 -0.0043350128 0.016174048
0.0017130155 -0.0042825388 0.015771508
0.0025777139 -0.0042961896 0.015503764
0.00343834 -0.0042979247 0.015237987
0.0042737224 -0.0042737224 0.014980733
0.0051407274 -0.0042839395 0.014226139
0.0060053794 -0.0042895563 0.01344654
0.006943923 -0.0043399516 0.01270014
0.0078016235 -0.0043342351 0.011722118
0.0085734809 -0.0042867404 0.0098381937
0.0095267519 -0.0043303417 0.0085021555
0.010746764 -0.0044778185 0.0064445734
0.011804613 -0.0045402357 0.0050235391
-0.013288776 -0.0035436735 0.005903095
-0.012298197 -0.0035137704 0.0081937909
-0.011412001 -0.0035113848 0.0090251267
-0.010533514 -0.0035111718 0.010065049
-0.0096430061 -0.0035065478 0.011150897
-0.0085871303 -0.0034348522 0.01168859
-0.0077332654 -0.0034370071 0.013220191
-0.0069133933 -0.0034566966 0.013648272
-0.0060115224 -0.0034351556 0.014020383
-0.0052037882 -0.0034691922 0.014175057
-0.0042817681 -0.0034254147 0.014775872
-0.0034457529 -0.0034457529 0.015128583
-0.002607967 -0.0034772893 0.01517421
-0.0017245262 -0.0034490523 0.015585095
-0.00086269801 -0.003450792 0.015585661
0 -0.003455193 0.015546203
0.00086025911 -0.0034410364 0.015562057
0.0017145268 -0.0034290536 0.015350819
0.0025869322 -0.0034492428 0.015083373
0.0034425827 -0.0034425827 0.014507592
0.0043369443 -0.0034695554 0.013727903
0.005151114 -0.003434076 0.013127357
0.0060836417 -0.0034763669 0.011633396
0.0068953494 -0.0034476747 0.011031628
0.0079357047 -0.0035269798 0.0094651282
0.0087864483 -0.0035145795 0.0065770745
-0.012463969 -0.0026708504 0.0053986907
-0.011363924 -0.0026224442 0.0078800023
-0.01043428 -0.00260857 0.0088505745
-0.009517841 -0.0025957748 0.0093494952
-0.0087055713 -0.0026116716 0.010086715
-0.0077850055 -0.0025950021 0.011002958
-0.0068496568 -0.0025686214 0.012115806
-0.0061025526 -0.0026153796 0.01334244
-0.0052328007 -0.0026164004 0.013506293
-0.0043196627 -0.0025917976 0.013752818
-0.0034302196 -0.0025726648 0.013961166
-0.0026016217 -0.0026016217 0.014216542
-0.0017191985 -0.0025787978 0.014324307
