ply
format ascii 1.0
comment PCL generated
element vertex 1261
property float x
property float y
property float z
element camera 0
property float view_px
property float view_py
property float view_pz
property float x_axisx
property float x_axisy
property float x_axisz
property float y_axisx
property float y_axisy
property float y_axisz
property float z_axisx
property float z_axisy
property float z_axisz
property float focal
property float scalex
property float scaley
property float centerx
property float centery
property int viewportx
property int viewporty
property float k1
property float k2
end_header
-0.0033957947 -0.089988552 0.025501519
-0.0025278016 -0.089315653 0.025497109
-0.0016644787 -0.088217363 0.025249958
-0.00083749235 -0.088774182 0.025264204
0 -0.089574158 0.025102168
0.00082063518 -0.086987324 0.025141507
0.0016895871 -0.089548118 0.025560468
0.0025005713 -0.088353522 0.02549088
0.0033609029 -0.089063928 0.025475264
0.0042643757 -0.090404764 0.02569741
0.0050226725 -0.088733882 0.025864959
0.0057985075 -0.087805972 0.025870979
0.0067053069 -0.088845313 0.025772303
0.0074513457 -0.087760299 0.025634527
0.0082075167 -0.086999677 0.025211513
0.0092487242 -0.089124069 0.023900867
0.010283972 -0.090841748 0.014344871
0.012262904 -0.099989831 0.0072166026
0.013563085 -0.10269193 0.0055146813
-0.020940069 -0.087948285 0.0088472664
-0.020289036 -0.088764533 0.019577652
-0.019190343 -0.087608084 0.024679512
-0.018153673 -0.086642526 0.025830448
-0.017751236 -0.088756174 0.026521355
-0.016917385 -0.08881627 0.026755095
-0.01597148 -0.088263437 0.026696175
-0.015038116 -0.087722346 0.027353883
-0.014082903 -0.08698263 0.027146667
-0.013367983 -0.087727383 0.026834607
-0.012586663 -0.088106632 0.026508212
-0.011554622 -0.08665967 0.026372045
-0.01078378 -0.087099768 0.026270032
-0.01005049 -0.087941781 0.025799811
-0.0091662249 -0.087495781 0.025696933
-0.0084796641 -0.08903648 0.026003808
-0.0075387238 -0.087951779 0.025458455
-0.0067297248 -0.088327639 0.025592446
-0.0059713237 -0.089569852 0.025562972
-0.0050328458 -0.088074796 0.025425106
-0.0042484282 -0.089217 0.025482506
-0.0034096835 -0.08950419 0.025342643
-0.0025560763 -0.089462668 0.025264323
-0.0016639717 -0.087358512 0.025223792
-0.00084260904 -0.088473946 0.025189817
0 -0.08782398 0.025355399
0.00083618052 -0.087798953 0.025569856
0.0016747055 -0.087922037 0.025705636
0.0025212215 -0.088242754 0.02557689
0.0032981031 -0.08657521 0.025789917
0.0041635069 -0.087433651 0.025971264
0.0049886173 -0.087300807 0.026181996
0.0058582211 -0.08787331 0.026097089
0.0065995269 -0.086618789 0.026507765
0.0075153746 -0.087679371 0.026753873
0.008410681 -0.088312149 0.026276499
0.0089444304 -0.085378654 0.025824457
0.0099040503 -0.086660437 0.025170118
0.010831294 -0.087483525 0.024077863
0.012138872 -0.091041543 0.011526078
0.014417594 -0.10092316 0.0053074956
-0.023887815 -0.092012323 0.005259335
-0.021835171 -0.087340683 0.0090039074
-0.021379896 -0.08894036 0.020662487
-0.0198447 -0.085993692 0.024796426
-0.019118022 -0.086446702 0.026705086
-0.018709257 -0.088443764 0.0276483
-0.017408084 -0.086211465 0.027743995
-0.016727297 -0.086981945 0.02794835
-0.015816577 -0.086574942 0.027799219
-0.015172522 -0.087663464 0.028202921
-0.014055414 -0.085986063 0.027768046
-0.013438418 -0.087349713 0.027421176
-0.012289155 -0.08520481 0.027296871
-0.011788752 -0.087573588 0.026984334
-0.010893887 -0.087151095 0.026666641
-0.010047428 -0.087077715 0.026160628
-0.0092691649 -0.087635748 0.025927573
-0.0084984163 -0.088383533 0.025804728
-0.0074716476 -0.086339042 0.025543958
-0.0067361994 -0.087570593 0.025421202
-0.0059605185 -0.088556275 0.025118381
-0.0050051212 -0.086755432 0.024810255
-0.0042681387 -0.088777289 0.024811625
-0.0033527578 -0.087171696 0.025084734
-0.002545601 -0.088247508 0.025011569
-0.0016579076 -0.086211197 0.02488175
-0.00084955682 -0.08835391 0.025383085
0 -0.087844759 0.025186032
0.00082453515 -0.085751653 0.025446743
0.0016680579 -0.086739011 0.02589494
0.0025181605 -0.087296233 0.025863588
0.0032918584 -0.085588321 0.026067108
0.0042221118 -0.087819926 0.026554465
0.0050624763 -0.087749593 0.026941717
0.0058729546 -0.087255329 0.02685073
0.0067050457 -0.087165594 0.027464092
0.00756351 -0.087400563 0.027760863
0.0083196582 -0.086524449 0.027606547
0.0090121934 -0.085206188 0.026968449
0.01003681 -0.086985685 0.026656419
0.010630875 -0.085046999 0.025851905
0.011586451 -0.086070783 0.025199443
0.012426271 -0.086155482 0.017686754
0.014689513 -0.095481828 0.0087040961
-0.023160866 -0.088354416 0.0087071955
-0.021661427 -0.085812576 0.020590127
-0.020896234 -0.08609248 0.024974138
-0.019863768 -0.085248671 0.026678622
-0.019111952 -0.085588306 0.027760327
-0.018003194 -0.084287681 0.028507322
-0.017365362 -0.085172966 0.02852121
-0.016830605 -0.086677618 0.028621048
-0.01584184 -0.085879445 0.028394163
-0.014961896 -0.0856153 0.028480083
-0.014163221 -0.085812457 0.027889818
-0.013192596 -0.084927335 0.027555972
-0.012305451 -0.084497429 0.027170986
-0.011795067 -0.086778 0.02650696
-0.010850614 -0.085970253 0.026479989
-0.010057058 -0.086323082 0.025688738
-0.0092903655 -0.086991608 0.025510997
-0.0083613005 -0.086121395 0.025352687
-0.0075043361 -0.085882962 0.025118113
-0.006659518 -0.085741296 0.024731606
-0.005947188 -0.087508626 0.0244205
-0.005075465 -0.087128818 0.023850262
-0.0042234906 -0.087003909 0.024273545
-0.0033321171 -0.085802011 0.024294108
-0.0024943561 -0.085639559 0.024326533
-0.0016801707 -0.086528793 0.024450719
-0.00083017244 -0.085507765 0.024877459
0 -0.086304769 0.02499187
0.00082615711 -0.085094184 0.025124639
0.0016721401 -0.086115211 0.025641292
0.0024982532 -0.085773364 0.025608718
0.0032754322 -0.084342383 0.025953084
0.0041827499 -0.086164646 0.02642861
0.0049741468 -0.085389525 0.026708305
0.0058347741 -0.08585453 0.027084857
0.006728475 -0.086629115 0.02764979
0.0074756453 -0.085554615 0.027889907
0.0083914064 -0.086431488 0.027935714
0.0090910261 -0.085125066 0.027889907
0.0098629864 -0.084657297 0.027760148
0.01082683 -0.085781805 0.02765891
0.011685181 -0.085969545 0.02765891
0.012427602 -0.085336201 0.026226759
0.013139728 -0.084587 0.024155021
0.01456542 -0.088249311 0.010679632
0.017450944 -0.09985818 0.0052020848
-0.022808598 -0.086165816 0.019461066
-0.021554815 -0.084561191 0.025765389
-0.020594701 -0.084026381 0.026875705
-0.020218257 -0.085927598 0.027699709
-0.019271305 -0.085464045 0.0285483
-0.018347584 -0.085066073 0.028970838
-0.017731423 -0.086124055 0.02871269
-0.016900899 -0.086194582 0.028790265
-0.01577621 -0.084693335 0.028515965
-0.015169568 -0.085960895 0.028330803
-0.014185774 -0.085114643 0.027656794
-0.013547204 -0.086363427 0.027086914
-0.012628146 -0.085871391 0.026269525
-0.011594648 -0.084475286 0.025776923
-0.010850992 -0.085138552 0.025533915
-0.010001442 -0.085012257 0.024983734
-0.0091562625 -0.084903531 0.025227785
-0.0085441181 -0.087150015 0.025059938
-0.007659832 -0.086811438 0.024544001
-0.0067287385 -0.085791416 0.024146289
-0.0059751617 -0.087066643 0.023944229
-0.0050919862 -0.086563766 0.023468018
-0.0043430096 -0.088597395 0.02371639
-0.0033920209 -0.086496539 0.024017751
-0.0025472585 -0.086606793 0.024082452
-0.001715568 -0.087493964 0.02373758
-0.00085460098 -0.087169304 0.024372727
0 -0.085885875 0.024619341
0.00084313855 -0.08600013 0.025027752
0.00168898 -0.08613798 0.025157154
0.0024765357 -0.084202215 0.025318176
0.0033601166 -0.085682973 0.025681674
0.0041997395 -0.085674688 0.026176125
0.0049859993 -0.084761992 0.026388109
0.0058436575 -0.085150436 0.026668131
0.0067169238 -0.085640781 0.027670264
0.0074753542 -0.084720686 0.028066784
0.0083338385 -0.085005149 0.028228074
0.0089632999 -0.083114244 0.028343499
0.0099277357 -0.084385753 0.028251857
0.010725853 -0.084156692 0.028686553
0.011619448 -0.084655978 0.0291484
0.012256157 -0.083341867 0.027722478
0.013058822 -0.083249986 0.027422935
0.014027205 -0.084163234 0.025904596
0.014649997 -0.083016656 0.0094326437
-0.022809738 -0.082277983 0.0091314912
-0.022842845 -0.085449159 0.024763286
-0.021355912 -0.082959503 0.027565092
-0.020999365 -0.084837437 0.027804285
-0.019982388 -0.08409255 0.028401077
-0.018913476 -0.083054826 0.029130131
-0.01809613 -0.083077699 0.029362679
-0.017419588 -0.083779924 0.029216021
-0.016804658 -0.084863529 0.028836727
-0.016133444 -0.085761987 0.0283463
-0.014902175 -0.083617762 0.028106183
-0.014069698 -0.08359056 0.027369857
-0.01372446 -0.086635657 0.026540607
-0.012692383 -0.085462041 0.025743008
-0.011768647 -0.084902376 0.025434822
-0.010752215 -0.083536439 0.025492072
-0.01023007 -0.086103097 0.025030434
-0.0091890218 -0.084371932 0.024953514
-0.0084593734 -0.085439675 0.024240255
-0.0075048101 -0.084220648 0.023771018
-0.0068438738 -0.086403906 0.02371639
-0.0058140378 -0.083888255 0.023398608
-0.005075159 -0.085431851 0.022910744
-0.0042377124 -0.085601792 0.022926241
-0.003364248 -0.084947258 0.023417354
-0.0024875894 -0.083748847 0.023541152
-0.0016766262 -0.08466962 0.023566335
-0.00084027136 -0.08486741 0.024096221
0 -0.084873632 0.024328858
0.00084103993 -0.084945038 0.024720341
0.0016770991 -0.084693506 0.024987787
0.0025294453 -0.085157998 0.024778962
0.0033372904 -0.084266588 0.025263339
0.0041446048 -0.083721027 0.025742054
0.0050818981 -0.085545287 0.025953293
0.0058123823 -0.083864376 0.026155055
0.0067407875 -0.085102446 0.027640671
0.0074329958 -0.083414741 0.027962297
0.0083423499 -0.084257737 0.028207541
0.0090915076 -0.083476573 0.028444141
0.009918048 -0.083476909 0.028990716
0.010637756 -0.082647182 0.029278845
0.01154861 -0.083314978 0.029440731
0.012378662 -0.08334966 0.02903378
0.013102513 -0.08270961 0.029098004
0.013939152 -0.082814969 0.027371734
0.015145636 -0.084983855 0.026501358
0.015689095 -0.083399929 0.010031283
0.018893875 -0.095414072 0.0050060451
-0.026418559 -0.09109848 0.0067074299
-0.023588279 -0.084243856 0.023513854
-0.022443499 -0.083124071 0.026662081
-0.021452907 -0.082511179 0.027782351
-0.020545261 -0.082181044 0.028663903
-0.019818407 -0.0825767 0.029104561
-0.019184085 -0.083409064 0.029466331
-0.018412193 -0.083691798 0.029669285
-0.01756881 -0.083660997 0.029329568
-0.016482506 -0.082412541 0.029218823
-0.015971178 -0.084058829 0.028541237
-0.015073722 -0.083742909 0.027982593
-0.014106132 -0.08297725 0.027143985
-0.013264406 -0.082902536 0.026109546
-0.012587258 -0.083915055 0.025556833
-0.011966791 -0.085477084 0.025191456
-0.010779315 -0.082917809 0.025060147
-0.010014019 -0.083450161 0.024897367
-0.0093986969 -0.085442699 0.024117827
-0.0084359832 -0.08435984 0.023914725
-0.0075651309 -0.084057018 0.02371639
-0.0068375077 -0.085468844 0.022956491
-0.0058895135 -0.084135912 0.022783875
-0.0051196809 -0.085328013 0.0224666
-0.0043150419 -0.086300842 0.022496849
-0.0033686021 -0.084215052 0.022741258
-0.0025298751 -0.08432918 0.02262193
-0.0016963097 -0.084815487 0.022382498
-0.000848044 -0.084804401 0.02352789
0 -0.085118175 0.023879051
0.00082804967 -0.08280497 0.024495929
0.0016669692 -0.08334846 0.024480581
0.0025053858 -0.083512865 0.024649024
0.0032898113 -0.082245283 0.024928421
0.0041464623 -0.082929254 0.025439888
0.0050462177 -0.084103629 0.025810421
0.0059213932 -0.084591329 0.026387483
0.0067622764 -0.084528461 0.027562827
0.0074331281 -0.082590319 0.028011829
0.0083679752 -0.083679758 0.028269649
0.009241282 -0.084011659 0.028742433
0.0099494485 -0.082912073 0.029209644
0.010688617 -0.08222013 0.029488087
0.011591845 -0.082798898 0.029996574
0.012190886 -0.081272572 0.029797733
0.012993915 -0.081211969 0.029862583
0.013872018 -0.081600107 0.02914533
0.015025854 -0.083476968 0.028165549
0.015728662 -0.082782432 0.026439965
0.016417513 -0.082087569 0.0085868537
-0.024887783 -0.084961742 0.012157291
-0.023307711 -0.082409412 0.025830448
-0.022155195 -0.081235714 0.027783573
-0.021786422 -0.082955994 0.028856039
-0.020775853 -0.082272381 0.029525667
-0.020109355 -0.082951091 0.029950589
-0.019195288 -0.082623199 0.030023903
-0.018341029 -0.082534634 0.029950589
-0.017636178 -0.083141983 0.029669732
-0.016534707 -0.081846803 0.029421151
-0.01567944 -0.081698135 0.028534263
-0.015009092 -0.082550012 0.027846217
-0.014075172 -0.081967182 0.026637018
-0.013469946 -0.083345294 0.025811881
-0.012805788 -0.084518202 0.025191456
-0.011703808 -0.082762644 0.024632484
-0.011165551 -0.085029967 0.024753124
-0.010093007 -0.083267316 0.023640126
-0.0093345568 -0.084011018 0.023590446
-0.0083509805 -0.082674712 0.023584098
-0.0077128247 -0.08484108 0.022901118
-0.0068670767 -0.084980078 0.022524655
-0.0059812008 -0.084591277 0.022468746
-0.0051091854 -0.084301561 0.022178859
-0.004311651 -0.08537069 0.022157192
-0.0033966175 -0.084066279 0.022183716
-0.0026016727 -0.085855201 0.022200257
-0.0017421687 -0.086237349 0.022058398
-0.00085297995 -0.084445015 0.023005366
0 -0.084005788 0.023296624
0.00084504858 -0.083659813 0.023994714
0.0016692478 -0.082627766 0.024202466
0.0025279834 -0.083423458 0.024267197
0.0032881871 -0.081382632 0.024529457
0.0042095566 -0.08334922 0.024981737
0.0050317734 -0.083024263 0.025163084
0.0059223752 -0.083759308 0.025909454
0.0067188935 -0.083146311 0.027098238
0.0074577192 -0.082034916 0.02785638
0.0085361898 -0.084508285 0.028168887
0.0091288872 -0.082159989 0.028965443
0.0098977638 -0.081656553 0.029295206
0.010844843 -0.082587652 0.029842526
0.011601114 -0.082036451 0.030175984
0.012214875 -0.08061818 0.030084938
0.013166175 -0.081465714 0.030449569
0.014035963 -0.081738852 0.029430807
0.014668485 -0.080676675 0.029100448
0.015872665 -0.082704946 0.028298914
0.016386906 -0.081115186 0.017441273
0.017688315 -0.083387777 0.0066571832
-0.024629755 -0.083231583 0.023058742
-0.023370815 -0.081797853 0.027621329
-0.022247784 -0.08075121 0.028519809
-0.02115358 -0.079732724 0.029517144
-0.021055365 -0.082537025 0.030031621
-0.019989025 -0.081621848 0.030453444
-0.018889509 -0.080485731 0.030479908
-0.018212434 -0.081128113 0.030296117
-0.017542055 -0.081862919 0.029812604
-0.016657861 -0.081623517 0.029466331
-0.016295515 -0.084050551 0.028406918
-0.015179674 -0.082644895 0.02776134
-0.014430384 -0.083186917 0.026061922
-0.013641563 -0.083554573 0.025413215
-0.012357787 -0.080737539 0.02476421
-0.011797603 -0.082583226 0.023872554
-0.011118161 -0.083813824 0.023561567
-0.010114491 -0.082601674 0.022821367
-0.0094031431 -0.083773457 0.023208767
-0.0086210724 -0.084486507 0.022688717
-0.0076112561 -0.082878128 0.022271961
-0.006879115 -0.084269159 0.021807402
-0.0059282999 -0.08299619 0.021694839
-0.0050670272 -0.082761437 0.021433532
-0.004326886 -0.084806971 0.021387547
-0.0033981155 -0.083253831 0.021717548
-0.0025530809 -0.083400644 0.021928102
-0.00171345 -0.083959043 0.021734416
-0.00085619948 -0.083907545 0.021958143
0 -0.082781829 0.02195248
0.0008411567 -0.08243335 0.023658425
0.0017037373 -0.083483122 0.023793966
0.0025777768 -0.084207371 0.024048686
0.0032780149 -0.080311365 0.024210662
0.0041587022 -0.081510566 0.0246135
0.0049853069 -0.081426673 0.025116086
0.0058951392 -0.082531944 0.025810421
0.0066702119 -0.081710093 0.027084857
0.0076885251 -0.083719499 0.02778542
0.0084979227 -0.083279647 0.028175235
0.0090449648 -0.08058241 0.029047638
0.010161377 -0.082984574 0.029307336
0.01087345 -0.081969082 0.029848725
0.011620271 -0.081341892 0.030395389
0.01245633 -0.081381351 0.030490369
0.012810211 -0.078462534 0.030694395
0.0139767 -0.080571555 0.030156225
0.014685506 -0.079954423 0.02920866
0.01556038 -0.080258802 0.02878657
0.016346708 -0.080098867 0.026650637
0.017266311 -0.080576107 0.0089839399
0.01946927 -0.086726747 0.0053501427
-0.028930698 -0.093542591 0.0059105456
-0.024287295 -0.081236809 0.024891883
-0.022713764 -0.07868696 0.027949542
-0.021917272 -0.078739829 0.029482007
-0.021753082 -0.081155732 0.030342966
-0.020613467 -0.079980247 0.030727446
-0.019800298 -0.080026202 0.030723125
-0.019375268 -0.08171308 0.030794621
-0.018194241 -0.080220066 0.030479908
-0.017593132 -0.081263512 0.029868156
-0.016828414 -0.08161781 0.029235959
-0.015989956 -0.08163292 0.028354943
-0.015201177 -0.081917457 0.02692318
-0.014292725 -0.081552602 0.02591902
-0.013546132 -0.082123421 0.025181025
-0.012689999 -0.082061991 0.024414182
-0.011966065 -0.082907736 0.023414969
-0.010984416 -0.081960641 0.023298681
-0.010092584 -0.081581719 0.022342533
-0.0093010338 -0.082018204 0.022256792
-0.0084672645 -0.082132459 0.021791786
-0.0076081683 -0.081999145 0.021273285
-0.0067688441 -0.082072228 0.021273285
-0.0060188072 -0.083403468 0.021171957
-0.0051762392 -0.083682537 0.020962894
-0.0042819725 -0.083070263 0.021086097
-0.0034977233 -0.084819786 0.021340907
-0.0025614828 -0.08282128 0.021252424
-0.0017087471 -0.082874231 0.021193326
-0.00084667758 -0.08212772 0.021734118
0 -0.081639379 0.021562904
0.00083032239 -0.080541268 0.021878421
0.0016829108 -0.08162117 0.022568643
0.0025508166 -0.082476407 0.023561031
0.0033424746 -0.081055008 0.023722082
0.00424879 -0.082426533 0.024055868
0.0049991952 -0.080820322 0.024607986
0.0058860877 -0.081564359 0.025310189
0.0067859073 -0.082279123 0.026507765
0.0075047286 -0.0808843 0.027584612
0.008312054 -0.080626927 0.027962297
0.0092580281 -0.081638969 0.028918087
0.010050647 -0.081242733 0.029341549
0.010645628 -0.079432763 0.030226409
0.011576372 -0.08020772 0.030933529
0.012309815 -0.079603463 0.030786544
0.013080004 -0.07929752 0.030976981
0.014165902 -0.080828965 0.03045392
0.014621477 -0.078793511 0.030348301
0.015529949 -0.079284474 0.029659867
0.016615337 -0.080584385 0.028866261
0.017315987 -0.079983369 0.015527934
0.019045632 -0.083973922 0.0066201687
-0.026718903 -0.085500486 0.0075429678
-0.024035215 -0.079564847 0.027000576
-0.023213616 -0.079589538 0.029362679
-0.022351438 -0.079471774 0.03051722
-0.021413114 -0.07906381 0.031324029
-0.020731704 -0.079609744 0.031341761
-0.019906728 -0.07962691 0.031270236
-0.018947849 -0.079086676 0.031422466
-0.018286647 -0.079796277 0.030828565
-0.01773122 -0.081056997 0.030052751
-0.01664966 -0.07991837 0.029489994
-0.015886517 -0.080268718 0.028516531
-0.015230088 -0.081227131 0.027008235
-0.014158858 -0.079955906 0.026056617
-0.013635366 -0.081812195 0.025030345
-0.012732776 -0.081489764 0.023856252
-0.011797833 -0.080899425 0.023233235
-0.01104383 -0.081554435 0.02247718
-0.010212837 -0.081702694 0.021714002
-0.0092600426 -0.08081492 0.02123946
-0.0085366974 -0.081952296 0.021015108
-0.0076770578 -0.081888616 0.020784408
-0.006811115 -0.081733376 0.020663917
-0.0060442314 -0.082892314 0.020729184
-0.0051603368 -0.08256539 0.020361036
-0.0042639589 -0.081868008 0.020613939
-0.0034226414 -0.082143396 0.020992219
-0.0025793072 -0.08253783 0.020723492
-0.0017155318 -0.082345523 0.020897835
-0.00087218138 -0.083729409 0.021173805
0 -0.081908211 0.02126658
0.0008491762 -0.081520915 0.021435589
0.0016599166 -0.079675995 0.021716356
0.0025448003 -0.081433609 0.022437006
0.0033429568 -0.080230966 0.023362488
0.004207043 -0.080775224 0.023772895
0.0050326362 -0.08052218 0.024267197
0.0058603939 -0.080371112 0.025039047
0.0066399118 -0.079678938 0.025915205
0.0075047375 -0.080050536 0.027315915
0.0085147657 -0.081741758 0.02785638
0.0090631442 -0.079096533 0.028729349
0.010003032 -0.080024257 0.029227525
0.010849685 -0.080120757 0.030093849
0.011614489 -0.079642214 0.030383408
0.01252391 -0.080153026 0.030786008
0.012991706 -0.077950232 0.031293929
0.013974559 -0.078915149 0.030506432
0.014644724 -0.078105196 0.030246496
0.015542162 -0.078528814 0.029847682
0.016577408 -0.07957156 0.029602319
0.01714677 -0.078385226 0.023780346
0.018945742 -0.082672335 0.007447511
0.020446956 -0.085343815 0.0054151714
-0.028808443 -0.088283934 0.005869478
-0.025652913 -0.081234224 0.019953996
-0.024536116 -0.080376931 0.028129369
-0.022991335 -0.07800632 0.030159205
-0.022141842 -0.077906474 0.030927002
-0.020867905 -0.076248109 0.031454951
-0.020540558 -0.078054115 0.031725824
-0.0195967 -0.077570267 0.031503439
-0.019040259 -0.078644544 0.031459451
-0.018527629 -0.080005676 0.03093943
-0.017224861 -0.077921994 0.030075341
-0.016630599 -0.078995347 0.029557168
-0.016012574 -0.080062866 0.028425246
-0.015161861 -0.080020934 0.026763618
-0.014140642 -0.079021238 0.025717407
-0.013608911 -0.08080291 0.024785191
-0.012430485 -0.078726411 0.023407131
-0.012001216 -0.081436828 0.022678792
-0.011145647 -0.081448957 0.021697521
-0.010395077 -0.082294367 0.021070063
-0.0092939716 -0.080266118 0.020787835
-0.008523725 -0.080975391 0.020361036
-0.0076568369 -0.08082217 0.020223498
-0.0069117611 -0.08207716 0.019929916
-0.0059986487 -0.081410229 0.019987494
-0.0050692898 -0.080263756 0.019455016
-0.0042230627 -0.080238186 0.019598693
-0.0034067777 -0.080910973 0.019839555
-0.002548551 -0.080704115 0.020244986
-0.001706297 -0.081049107 0.020035267
-0.00086003769 -0.081703581 0.020425379
0 -0.079415649 0.020682037
0.0008503084 -0.080779292 0.020902783
0.0016990593 -0.080705315 0.02107504
0.002599807 -0.082327224 0.021660745
0.0034079643 -0.080939151 0.022188693
0.0042159441 -0.080102935 0.02297467
0.0050304951 -0.079649508 0.02433148
0.0059035639 -0.080119796 0.024881124
0.006682571 -0.07935553 0.025643498
0.0076728505 -0.080991201 0.02695474
0.008447811 -0.080254212 0.027625293
0.0090963114 -0.078559056 0.028157204
0.0099972915 -0.07914523 0.029165596
0.010721682 -0.078350753 0.029763252
0.011679147 -0.079251356 0.030395389
0.012239289 -0.07751549 0.031387508
0.013119491 -0.077896975 0.031785697
0.013784935 -0.07703346 0.031331271
0.014741527 -0.077802509 0.03088963
0.01533811 -0.076690547 0.030190676
0.016339062 -0.077610552 0.029681772
0.017384121 -0.07864245 0.02597633
0.019185791 -0.082847737 0.008333385
0.020319508 -0.083928406 0.0059954822
-0.028415289 -0.086162485 0.007080853
-0.025258705 -0.079143941 0.024266511
-0.024233827 -0.078551024 0.029368073
-0.023259502 -0.078085475 0.030955136
-0.022090208 -0.076906651 0.031601876
-0.021775953 -0.078728452 0.031895816
-0.020716423 -0.077893749 0.032025635
-0.019850822 -0.077749059 0.031903028
-0.018939106 -0.0774033 0.03169781
-0.018249776 -0.077976324 0.031312376
-0.017467272 -0.078186832 0.030103087
-0.016821306 -0.079060137 0.029545605
-0.0157669 -0.078004666 0.028531909
-0.014994202 -0.078303054 0.026037812
-0.014403625 -0.079643577 0.025421709
-0.013384006 -0.078631036 0.024070948
-0.012675004 -0.079430029 0.022963971
-0.012096792 -0.081221312 0.021750808
-0.011101744 -0.08027415 0.021252602
-0.010245673 -0.080257781 0.020572871
-0.0091601424 -0.07827758 0.020270556
-0.0084649967 -0.079570971 0.019574016
-0.0076173232 -0.079558715 0.019212335
-0.0067888619 -0.079769127 0.018285424
-0.0060701375 -0.081513278 0.018332928
-0.005181809 -0.081181675 0.018221051
-0.0043453206 -0.081692033 0.018295884
-0.0034685147 -0.081510089 0.018460572
-0.0025587026 -0.080172688 0.018954307
-0.0016981106 -0.079811193 0.018777519
-0.00085683877 -0.080542848 0.019766241
0 -0.079109102 0.019835174
0.00083671627 -0.078651324 0.020068616
0.0016610712 -0.078070343 0.020394176
0.0025627983 -0.080301017 0.020987123
0.0033552637 -0.078848697 0.021577895
0.0042527285 -0.079951294 0.02267459
0.0051597301 -0.080835775 0.023943424
0.005932624 -0.079666667 0.024727643
0.0067233429 -0.078999273 0.025461167
0.0074688438 -0.078007929 0.026594847
0.0083231721 -0.078237817 0.027645499
0.0092449943 -0.079002678 0.028218836
0.0098220333 -0.076939262 0.028973371
0.010761611 -0.077814728 0.029993415
0.011643318 -0.078176558 0.031137586
0.012268373 -0.076881804 0.032200187
0.013018633 -0.076484472 0.03218019
0.014033603 -0.077597573 0.031882763
0.014585376 -0.076168075 0.031719804
0.015557351 -0.07696794 0.03147015
0.016314982 -0.076680422 0.030616552
0.017279292 -0.077345394 0.026647776
0.019482078 -0.083241604 0.0084247887
0.020407178 -0.083403252 0.0066406727
0.021362601 -0.083670191 0.0050821304
-0.028688926 -0.083377197 0.0050934255
-0.027823262 -0.083469786 0.0079619884
-0.024753744 -0.076736607 0.026447058
-0.023673356 -0.075917996 0.030650467
-0.022870831 -0.075963832 0.032001793
-0.021948788 -0.075601384 0.032416135
-0.021379586 -0.076473139 0.033134282
-0.020419598 -0.075960904 0.033134282
-0.019737987 -0.076484703 0.032622725
-0.019227799 -0.077747189 0.032092541
-0.018387729 -0.077729955 0.031453311
-0.017419631 -0.077144079 0.030514508
-0.016554169 -0.076976888 0.029867172
-0.015795911 -0.077316828 0.028320491
-0.015558936 -0.080387838 0.025707453
-0.014391419 -0.078729525 0.024791032
-0.013604109 -0.079073884 0.023664892
-0.012674898 -0.078584373 0.022110134
-0.011894908 -0.079016171 0.021308184
-0.011013743 -0.078790627 0.020881206
-0.010331848 -0.080071822 0.020043463
-0.0094930576 -0.080259487 0.019672036
-0.0087564616 -0.081435092 0.018136382
-0.0078021688 -0.08062242 0.017312944
-0.0068586534 -0.079731844 0.017302096
-0.0060344278 -0.080171689 0.017340511
-0.0051611643 -0.079998046 0.017249376
-0.0043043764 -0.080061406 0.017302096
-0.003495855 -0.08127863 0.017464221
-0.0026103645 -0.0809213 0.018054217
-0.0017482273 -0.08129257 0.017795712
-0.0008551756 -0.079531334 0.018061787
0 -0.079277486 0.018698841
0.00087020156 -0.080928743 0.019206136
0.0017184131 -0.07990621 0.019776911
0.0025504993 -0.079065487 0.020300388
0.0033661502 -0.078262992 0.020825058
0.0043129874 -0.080221571 0.021292448
0.0050086631 -0.077634282 0.022917479
0.0059911972 -0.079597332 0.024067789
0.0068040239 -0.079096779 0.024828911
0.0075616911 -0.07813748 0.0259763
0.0082678143 -0.076890677 0.027402103
0.0091247242 -0.077145398 0.028091967
0.0099599781 -0.077189833 0.02894783
0.010810785 -0.077338696 0.030213863
0.011684665 -0.077619568 0.031823546
0.012162988 -0.07541053 0.033120751
0.012872961 -0.074824087 0.033086985
0.013733686 -0.075131342 0.032628357
0.014755784 -0.076238222 0.032340169
0.015526503 -0.07599815 0.031786382
0.016181633 -0.075244591 0.030947208
0.017501839 -0.077508144 0.026700795
0.01944457 -0.082197502 0.008471787
0.020531656 -0.083019301 0.0066168606
0.021646187 -0.083878979 0.0051791668
-0.028551018 -0.082084179 0.005869478
-0.027821919 -0.082568273 0.008582741
-0.024754813 -0.075914763 0.028348625
-0.024119476 -0.076516964 0.031526476
-0.023064269 -0.075782597 0.03280744
-0.022394653 -0.076307707 0.033191949
-0.021045882 -0.074470051 0.033409476
-0.020509357 -0.075474434 0.033409476
-0.019714616 -0.075572699 0.033091307
-0.018999511 -0.075998046 0.032734275
-0.018276386 -0.076428525 0.03193453
-0.017122583 -0.075013228 0.03111428
-0.0165573 -0.076163583 0.029869258
-0.015898174 -0.076980628 0.027909815
-0.015339848 -0.078403667 0.025517076
-0.014473997 -0.078329869 0.024490088
-0.01368187 -0.078670755 0.023159385
-0.012648888 -0.077579848 0.021444917
-0.01194716 -0.078509904 0.020739079
-0.011456806 -0.081078939 0.020328164
-0.0099583138 -0.076347075 0.019028395
-0.009380647 -0.07845632 0.01795727
-0.0086204717 -0.079308346 0.017055273
-0.0076668956 -0.078372717 0.016522378
-0.0069365646 -0.079770491 0.01540792
-0.0060864002 -0.079992689 0.015400171
-0.0050748698 -0.077814676 0.015371114
-0.0043111951 -0.079325996 0.015293539
-0.0034759068 -0.079945862 0.015456676
-0.0025567128 -0.078405857 0.01664272
-0.0017091355 -0.078620233 0.01621896
-0.00084750395 -0.077970363 0.016778588
0 -0.079479493 0.017568856
0.00085089105 -0.078281976 0.018094748
0.0016924969 -0.077854857 0.01926893
0.0026132236 -0.080138862 0.019809961
0.0034074537 -0.078371435 0.020363688
0.0042906953 -0.078948803 0.02104333
0.0050595398 -0.077579618 0.022134542
0.0058979937 -0.077516496 0.023875326
0.0067117466 -0.077185087 0.024594843
0.0076401616 -0.07809943 0.025816292
0.0084303711 -0.077559419 0.027267009
0.0090964055 -0.076079026 0.028112769
0.0099362172 -0.076177664 0.029393196
0.010663833 -0.075467125 0.030667603
0.011700218 -0.076887146 0.033130735
0.012388784 -0.075984545 0.033740789
0.012925619 -0.074322313 0.033706874
0.013546409 -0.07330998 0.033300161
0.01478524 -0.075569011 0.03301239
0.015479742 -0.07495454 0.032337785
0.016220169 -0.074612789 0.030954272
0.01723724 -0.075515531 0.02665484
0.019149736 -0.080080718 0.010768861
0.020320458 -0.081281833 0.0067400932
0.02109565 -0.080866665 0.005345881
-0.028668875 -0.081527114 0.0061517954
-0.026905136 -0.078979589 0.012693226
-0.024446212 -0.074153513 0.030183345
-0.023853891 -0.074851863 0.031808764
-0.023104984 -0.075091206 0.033191949
-0.021915004 -0.073861681 0.033743709
-0.021122074 -0.073927261 0.034346461
-0.020361714 -0.07411664 0.034436733
-0.019631278 -0.074435264 0.034283102
-0.018811829 -0.074429415 0.033748686
-0.0183516 -0.075908892 0.032272309
-0.017403703 -0.075416051 0.031338215
-0.016592409 -0.075495467 0.030406862
-0.015932752 -0.076309495 0.028140396
-0.0153332 -0.077517852 0.025344282
-0.014325318 -0.07668259 0.023386687
-0.013379407 -0.07609538 0.021799237
-0.013014038 -0.078951828 0.020722955
-0.011939503 -0.077606775 0.019774258
-0.011121563 -0.077850938 0.018842608
-0.010255408 -0.077770188 0.016816795
-0.0094890408 -0.078500248 0.016198397
-0.0085562058 -0.07786148 0.015055269
-0.0078620482 -0.079494052 0.014292508
-0.0069783786 -0.079379059 0.014037669
-0.0061862511 -0.080421261 0.013651878
-0.0052231611 -0.079217948 0.013539523
-0.0042157397 -0.076726466 0.013233989
-0.003534158 -0.080402099 0.01355505
-0.0026838493 -0.081410103 0.014083236
-0.0017760604 -0.080810755 0.013776332
-0.00086199626 -0.078441657 0.014911175
0 -0.078149736 0.016009301
0.00085171039 -0.077505648 0.016475379
0.0016985303 -0.077283129 0.017840385
0.0026269511 -0.07968419 0.018563598
0.0033947991 -0.077231683 0.019477606
0.0043055122 -0.078360327 0.020312458
0.0051225717 -0.077692337 0.021368057
0.0058649955 -0.076244943 0.023017943
0.0068613905 -0.078048319 0.024319977
0.0074800737 -0.075631864 0.025804341
0.0083499532 -0.075984582 0.027103633
0.0091425348 -0.075633697 0.028152496
0.0099223573 -0.075244546 0.029549897
0.010791685 -0.075541802 0.031218678
0.011656656 -0.075768262 0.033857286
0.012005143 -0.072831199 0.034754813
0.013175984 -0.074938409 0.034557164
0.013664848 -0.073147133 0.034202456
0.014286467 -0.072226033 0.03368184
0.015501679 -0.074244887 0.033091426
0.016453447 -0.074863188 0.031769931
0.017650599 -0.076485932 0.025115162
0.019363876 -0.080096036 0.010116905
0.020259105 -0.080155589 0.0066068172
0.021270897 -0.080652155 0.0051947534
-0.029261824 -0.079804979 0.0050601959
-0.029266853 -0.082313031 0.0065706372
-0.026272243 -0.076274253 0.021413147
-0.02493809 -0.074814275 0.030763656
-0.024207396 -0.075126402 0.032960773
-0.022819897 -0.073349677 0.03349638
-0.022482889 -0.074942969 0.034496635
-0.021527013 -0.074516587 0.035061449
-0.020182621 -0.072657436 0.035303652
-0.019730175 -0.073988162 0.035092086
-0.019051425 -0.074549057 0.035120845
-0.017960241 -0.073473722 0.034290254
-0.017706236 -0.075883865 0.031962067
-0.016385039 -0.073732682 0.030933052
-0.015825016 -0.074960604 0.028261036
-0.015261207 -0.076306038 0.025358915
-0.014644228 -0.077528268 0.023090839
-0.013612007 -0.076567538 0.021131516
-0.012862305 -0.077173829 0.019635499
-0.011875172 -0.0763404 0.017375529
-0.011302232 -0.078246221 0.016118675
-0.010499964 -0.078749739 0.014117867
-0.0095857233 -0.078428648 0.013605982
-0.0087772822 -0.078995541 0.013451129
-0.0078967875 -0.078967884 0.013252586
-0.007105845 -0.079940759 0.013192356
-0.0061770887 -0.079419717 0.012720585
-0.0052591632 -0.078887448 0.012627423
-0.0044934191 -0.080881551 0.012537599
-0.003565327 -0.080219865 0.012595356
-0.0026597742 -0.07979323 0.01288113
-0.0017617876 -0.079280443 0.012528867
-0.00087661849 -0.078895666 0.013605565
0 -0.078001782 0.01396668
0.00087685644 -0.078917079 0.014714241
0.0017100332 -0.076951496 0.016332656
0.0025783961 -0.077351891 0.017372102
0.0034197066 -0.076943398 0.018026471
0.004289092 -0.077203661 0.019379795
0.0051149786 -0.076724678 0.020412922
0.0059776534 -0.076855548 0.021380186
0.006717579 -0.075572766 0.023783565
0.0077517312 -0.077517316 0.025101602
0.0084555447 -0.07609991 0.026891232
0.0091088573 -0.074527025 0.02872625
0.009896297 -0.074222229 0.030216157
0.010936621 -0.075715072 0.033277631
0.011285867 -0.072552003 0.034961641
0.012155163 -0.072930984 0.035645872
0.012875862 -0.072426729 0.035414994
0.013747973 -0.072783388 0.03499943
0.014512374 -0.072561875 0.034454167
0.015440004 -0.073136859 0.033728153
0.016080819 -0.07236369 0.032343596
0.017633874 -0.07557375 0.024447531
0.019651325 -0.080391787 0.0087501407
0.020213965 -0.079098128 0.0066938996
0.021527456 -0.080727965 0.0052637756
-0.029784391 -0.0803276 0.0053807199
-0.029172217 -0.081135228 0.0072940588
-0.025557576 -0.073374972 0.02582112
-0.025319939 -0.075115815 0.031188697
-0.023665819 -0.072629578 0.033172518
-0.023106346 -0.073445171 0.033778369
-0.022295976 -0.073494136 0.034540266
-0.021300599 -0.072913587 0.035448939
-0.02027948 -0.072194949 0.035617381
-0.019727819 -0.073157333 0.035600036
-0.018637834 -0.072120309 0.035503
-0.017750114 -0.07180728 0.034953296
-0.017142685 -0.072652325 0.034058928
-0.016516212 -0.073497146 0.031441003
-0.01668068 -0.078135811 0.029324025
-0.015009232 -0.074212313 0.025899142
-0.014545865 -0.076151878 0.02294299
-0.013438446 -0.074751347 0.020758361
-0.012895023 -0.076510467 0.018788069
-0.012310383 -0.078258857 0.016070426
-0.011353877 -0.077730387 0.013515502
-0.01062978 -0.078837529 0.012863934
-0.0098349508 -0.079573691 0.012233019
-0.0087337587 -0.077730455 0.01229915
-0.0079722228 -0.078836426 0.011838585
-0.0070848749 -0.07881923 0.011623025
-0.0060916478 -0.077450946 0.01132825
-0.0052819611 -0.078349091 0.011176616
-0.0044464152 -0.079146191 0.011090338
-0.0035931761 -0.079948165 0.011151731
-0.0026638696 -0.07902813 0.011509061
-0.0017883197 -0.079580218 0.011577189
-0.00089803658 -0.079925254 0.011602521
0 -0.079517595 0.012179315
0.00088887051 -0.079109468 0.012097687
0.001746775 -0.07773149 0.013148338
0.0026204807 -0.07774093 0.015595287
0.0034548582 -0.07687059 0.016717285
0.0042098402 -0.074935153 0.018016696
0.0050330749 -0.074657276 0.019581467
0.0059725055 -0.075936146 0.020796448
0.0068506487 -0.076213464 0.02358672
0.0074993302 -0.074160047 0.025079936
0.0083684148 -0.074478887 0.02709794
0.008988047 -0.072721474 0.029157579
0.010079335 -0.074755073 0.030787766
0.010993485 -0.07526309 0.035250962
0.01126689 -0.071625225 0.03587684
0.01208044 -0.071677275 0.03662169
0.012900794 -0.071760662 0.036300391
0.013780559 -0.072145283 0.035544157
0.014523303 -0.071809664 0.034949154
0.01545838 -0.0724103 0.033941209
0.016242746 -0.072280221 0.032006353
0.018011488 -0.076334402 0.024128944
0.019349258 -0.078276545 0.0084423721
0.020592375 -0.079683527 0.007160157
0.0216929 -0.0804445 0.005181849
-0.029337712 -0.078233898 0.0056168139
-0.029527588 -0.08120086 0.0073314905
-0.02583606 -0.073341072 0.024340689
-0.024495792 -0.071854323 0.031303704
-0.02372303 -0.071987122 0.03308785
-0.022835668 -0.071769245 0.034209788
-0.021856846 -0.071237125 0.034994781
-0.021117089 -0.071473226 0.03566277
-0.020461028 -0.072022818 0.035882086
-0.019401466 -0.07113871 0.035770386
-0.018725583 -0.071645707 0.035901368
-0.01790859 -0.07163436 0.035852224
-0.017086757 -0.071601644 0.035069346
-0.016913906 -0.07442119 0.03379637
-0.015541113 -0.071979888 0.030723363
-0.015549367 -0.076019131 0.02713424
-0.014473615 -0.074922241 0.023308635
-0.013415055 -0.073782802 0.020852834
-0.013059818 -0.076617599 0.017375529
-0.012203548 -0.076708019 0.014196545
-0.011501461 -0.077856041 0.012902081
-0.01047609 -0.076824658 0.012230009
-0.0096908323 -0.077526659 0.011404872
-0.0087681301 -0.077159546 0.010835767
-0.0078987293 -0.077232026 0.010014236
-0.0070666997 -0.077733696 0.0092182159
-0.0062278192 -0.078292578 0.0092062056
-0.0053744214 -0.078824848 0.0092476308
-0.0044612652 -0.078518271 0.0092476308
-0.0036029315 -0.079264492 0.0092943907
-0.0026884989 -0.078862637 0.0093316436
-0.0018085572 -0.079576515 0.0098941326
-0.00089749781 -0.078979805 0.010253817
0 -0.0781992 0.010607928
0.00088272913 -0.077680163 0.010752559
0.0017280446 -0.076033957 0.011359721
0.0026706338 -0.078338593 0.011741102
0.0034807378 -0.076576233 0.015613794
0.00430942 -0.075845793 0.017309934
0.0051382659 -0.075361229 0.019079596
0.005871872 -0.073817819 0.02078253
0.0067628068 -0.074390873 0.023837119
0.0076452796 -0.074753851 0.025547922
0.0082841208 -0.072900265 0.028048784
0.0089777224 -0.071821779 0.030378461
0.010252511 -0.075185083 0.035065144
0.010593044 -0.071706757 0.036934793
0.011302822 -0.071046315 0.037168503
0.012070736 -0.070814982 0.037100583
0.012978994 -0.071384467 0.037111431
0.013780735 -0.071335569 0.036751926
0.014402441 -0.070411935 0.035894632
0.015558069 -0.072058417 0.034744143
0.016083557 -0.070767656 0.032499909
0.017598823 -0.073747449 0.017337382
0.019208986 -0.076835945 0.0087566674
0.020224396 -0.077380292 0.0077930987
0.02128768 -0.078054823 0.0061355829
-0.029264733 -0.077152476 0.00584203
-0.029044887 -0.078965783 0.007527709
-0.025576886 -0.071780287 0.02573818
-0.024765218 -0.071819127 0.031065524
-0.02381636 -0.071449079 0.03304711
-0.023220366 -0.072148994 0.034100175
-0.021924391 -0.070645258 0.034988075
-0.021092512 -0.070578784 0.035547495
-0.020138629 -0.070082426 0.035905153
-0.019667087 -0.07129319 0.035823077
-0.018591663 -0.070324987 0.036470294
-0.01808022 -0.07149905 0.036483705
-0.016946953 -0.070208795 0.035473764
-0.016540652 -0.071951836 0.035087794
-0.01636116 -0.074916892 0.033807129
-0.016299983 -0.078783259 0.03029108
-0.015789716 -0.080806188 0.026364148
-0.014657563 -0.079700492 0.021307528
-0.013386371 -0.077640951 0.018477589
-0.012228252 -0.07598985 0.014183193
-0.011297655 -0.075607389 0.012596071
-0.010644502 -0.077172637 0.011535555
-0.0095831985 -0.075794391 0.010787547
-0.0088423956 -0.076928847 0.0095363557
-0.0079693291 -0.07703685 0.0086449385
-0.0071218563 -0.077450186 0.007930696
-0.0062218946 -0.077329263 0.0077543259
-0.0053554219 -0.077653617 0.0075084567
-0.0044123563 -0.076774999 0.0071451068
-0.0035499989 -0.077212475 0.0074116588
-0.0026832889 -0.077815376 0.007453084
-0.0017490853 -0.07608521 0.0072811544
-0.00088938652 -0.077376626 0.0084091127
0 -0.076360859 0.0086409152
0.00087556336 -0.076174013 0.0094404221
0.0017828086 -0.07755217 0.010154814
0.002632526 -0.076343253 0.010870755
0.003428218 -0.074563742 0.014502198
0.0043968661 -0.076505475 0.016655117
0.0052696322 -0.076409668 0.019282848
0.0058957869 -0.073276214 0.021149129
0.0067444136 -0.073345497 0.024081588
0.0081242658 -0.078534573 0.026747525
0.0081365528 -0.070788011 0.029879004
0.0092221983 -0.07293921 0.034692675
0.0095703322 -0.069384903 0.036670536
0.010411216 -0.069675058 0.037686855
0.011255361 -0.069944032 0.038115948
0.012152052 -0.070481904 0.038063437
0.012935272 -0.070335545 0.03791073
0.013674569 -0.06998162 0.037018508
0.014466732 -0.069922544 0.036343068
0.015398806 -0.07051032 0.035517067
0.015890785 -0.069124915 0.032617897
0.018079082 -0.074899048 0.016188204
0.019111654 -0.075577907 0.0092739463
0.020248605 -0.076592542 0.0079191029
0.021221668 -0.076928549 0.0066355765
0.022440186 -0.078091845 0.0053150952
-0.029824877 -0.07772544 0.0061833858
-0.028158339 -0.075675532 0.0079627931
-0.0257356 -0.071395531 0.024340689
-0.024601366 -0.070523918 0.03019169
-0.023738932 -0.070398211 0.032845348
-0.022899251 -0.070333421 0.034081131
-0.022027215 -0.070160754 0.034994781
-0.02098735 -0.069419697 0.035542011
-0.02040188 -0.070182465 0.035931408
-0.019437263 -0.069650196 0.03630662
-0.018747713 -0.070100144 0.036619306
-0.018051554 -0.070565172 0.036687285
-0.017033201 -0.06975501 0.036183596
-0.016290763 -0.070050284 0.036105245
-0.015371669 -0.069577031 0.035461783
-0.015638387 -0.074716739 0.033857763
-0.016430704 -0.083120033 0.028886735
-0.014232422 -0.076499268 0.02307272
-0.014036669 -0.080476902 0.01982528
-0.013051979 -0.080176443 0.014396846
-0.01165747 -0.07711865 0.012850463
-0.010230261 -0.073316872 0.012069404
-0.0095829014 -0.07492087 0.010892749
-0.0087200226 -0.074992195 0.0097456574
-0.0078661665 -0.075165592 0.0086449385
-0.0070082373 -0.07533855 0.0079284012
-0.0061187139 -0.075172767 0.007668227
-0.005272354 -0.075570405 0.0073983371
-0.0045028566 -0.077449135 0.0069442689
-0.0035577933 -0.076492555 0.0071611106
-0.0026151082 -0.074966438 0.0070740581
-0.0017719263 -0.076192826 0.0070960224
-0.00087005435 -0.074824676 0.0082703829
0 -0.075793855 0.0084854364
0.00087804248 -0.075511657 0.0092837214
0.0017037295 -0.073260367 0.010092646
0.0026226193 -0.075181752 0.010870755
0.0034650397 -0.074498348 0.014685094
0.0043103201 -0.074137509 0.017642975
0.0054912306 -0.078707635 0.019694209
0.0068063131 -0.083620414 0.022722721
0.0072523672 -0.077962942 0.025627583
0.0075223399 -0.071880139 0.029721379
0.0086353971 -0.074264415 0.035146445
0.0087313941 -0.068263628 0.03668046
0.009628186 -0.069002002 0.037186265
0.010484751 -0.069360666 0.037935287
0.01118026 -0.068678744 0.03859964
0.012220874 -0.070066348 0.038640201
0.012665549 -0.068077326 0.038463831
0.013725161 -0.069433168 0.03766641
0.014547087 -0.069502756 0.036741138
0.015264183 -0.069090508 0.035702348
0.016333634 -0.070234627 0.03270039
0.018297188 -0.074931338 0.013969004
0.01981166 -0.077445582 0.0096459687
0.020565676 -0.07689774 0.008305788
0.021525387 -0.077132635 0.007135272
0.022335706 -0.076834828 0.0054588914
-0.029653646 -0.076380603 0.0062630773
-0.028589353 -0.075940467 0.0084818304
-0.025735773 -0.070565827 0.023237169
-0.024815526 -0.070310652 0.02765885
-0.023958046 -0.070221856 0.031125784
-0.022934228 -0.069621764 0.032916456
-0.022006286 -0.069279045 0.034406513
-0.021270417 -0.0695379 0.035306007
-0.0204718 -0.069604121 0.035570562
-0.019581491 -0.069351114 0.035800457
-0.018753158 -0.069305152 0.036437958
-0.017955933 -0.069375195 0.036574453
-0.016924299 -0.068503119 0.036245942
-0.016249029 -0.069058374 0.036245942
-0.015167823 -0.067856051 0.036132634
-0.01459741 -0.06893222 0.035975993
-0.014941772 -0.074708857 0.034215152
-0.015685301 -0.083328165 0.028672159
-0.01339028 -0.075878255 0.021525264
-0.013300655 -0.080753982 0.01442644
-0.011544077 -0.075480506 0.01314652
-0.010944464 -0.077523291 0.0123941
-0.010150511 -0.078435771 0.010949582
-0.0091275489 -0.07758417 0.010008812
-0.0081492504 -0.076965146 0.0088371634
-0.0069903512 -0.074272484 0.0079797208
-0.0062583457 -0.075994194 0.0077138543
-0.0051362128 -0.072763011 0.0076840222
-0.0043518851 -0.073982053 0.007558912
-0.0034660951 -0.073654518 0.007558912
-0.0026049935 -0.073808149 0.0076197982
-0.0017587561 -0.074747138 0.0075704455
-0.00087986316 -0.074788369 0.0086976886
0 -0.075822815 0.0092195868
0.00088022108 -0.07481879 0.010074914
0.0018441651 -0.078377023 0.010529399
0.0027347154 -0.077483602 0.011539549
0.0036008835 -0.076518774 0.015774816
0.0046468019 -0.078995638 0.018638015
0.0055054873 -0.077994406 0.021296024
0.0062462399 -0.075847201 0.025324732
0.0076386747 -0.081160918 0.029842556
0.0080547975 -0.076073095 0.035530359
0.0079153525 -0.067280494 0.036670536
0.008747004 -0.067590483 0.037422597
0.0095901787 -0.067930438 0.03805384
0.010457558 -0.06837634 0.038304657
0.011400443 -0.069216974 0.038842499
0.011942802 -0.067675881 0.038708985
0.013016254 -0.069148846 0.038731962
0.013612623 -0.068063118 0.03791073
0.014287443 -0.067468487 0.037044227
0.015183671 -0.067926951 0.036244124
0.016240688 -0.069022924 0.033472717
0.018487889 -0.074831933 0.01352635
0.019317303 -0.074635036 0.0098523796
0.020111844 -0.074326381 0.0088230371
0.021109086 -0.074761346 0.0075747967
0.022248851 -0.075646095 0.0063432753
0.023231244 -0.075948298 0.0052205026
-0.029105205 -0.074085981 0.0061127841
-0.028657027 -0.075224698 0.0076947808
-0.025573477 -0.069295868 0.022671103
-0.025011905 -0.070033334 0.025491625
-0.023885515 -0.069185629 0.029645711
-0.022909097 -0.068727292 0.032217145
-0.022062382 -0.068638518 0.034062713
-0.021295063 -0.068799436 0.034890562
-0.020056244 -0.067388974 0.035464466
-0.019688578 -0.068910033 0.035718441
-0.018596802 -0.067918755 0.036437958
-0.01790075 -0.068348318 0.036490887
-0.017106798 -0.06842719 0.036507845
-0.0161559 -0.067854784 0.036576927
-0.015498264 -0.068518639 0.03660816
-0.014409476 -0.067244224 0.036573082
-0.013545504 -0.066930726 0.036197901
-0.013168796 -0.06913618 0.03561157
-0.013729798 -0.07688687 0.031267881
-0.013061064 -0.078366384 0.019662321
-0.01153285 -0.074519955 0.013682336
-0.010795387 -0.075567707 0.012596071
-0.0098938262 -0.075552858 0.012300789
-0.0089812316 -0.075442351 0.010980219
-0.0082022306 -0.076554157 0.010008812
-0.0073308581 -0.076974012 0.0091836452
-0.0063500525 -0.076200627 0.0088045895
-0.0056160302 -0.078624427 0.0083092153
-0.0047103125 -0.07913325 0.0077283084
-0.0037545078 -0.078844666 0.0077283084
-0.0027378884 -0.076660879 0.0085340142
-0.0018146645 -0.076215908 0.0086976886
-0.00092476507 -0.077680267 0.0094066858
0 -0.07358519 0.0096395314
0.00091808155 -0.077118851 0.010095924
0.0018529745 -0.077824935 0.011365294
0.0027479134 -0.07694158 0.012999982
0.0035549672 -0.074654311 0.016345769
0.0044546286 -0.074837767 0.021283537
0.0055827359 -0.078158304 0.026067197
0.0066273767 -0.079528518 0.03406781
0.0065218341 -0.068479255 0.036150515
0.0070800348 -0.066080332 0.037128806
0.0080249431 -0.06740953 0.037801534
0.008809167 -0.067270003 0.038413525
0.0096179293 -0.06732551 0.038501441
0.010545805 -0.068142124 0.03900823
0.011080571 -0.066483431 0.039317608
0.012411295 -0.069503248 0.039244175
0.012856821 -0.067498311 0.038689077
0.013597196 -0.067186147 0.037811846
0.014647702 -0.068355948 0.0367558
0.01557981 -0.068879157 0.035835207
0.015978284 -0.067108795 0.03281337
0.018419623 -0.073678493 0.013210028
0.019403076 -0.074084476 0.010772675
0.0203152 -0.07419464 0.009256959
0.02157723 -0.075520307 0.0078431666
0.022038192 -0.074048318 0.0066900551
0.023385394 -0.075552814 0.0056095123
0.024202224 -0.075295806 0.0051434636
0.026850885 -0.075182475 0.0050083995
-0.030352142 -0.074094936 0.005456388
-0.030209595 -0.075981714 0.0062101781
-0.028591279 -0.074158631 0.007692486
-0.026390839 -0.070659339 0.020854086
-0.025779955 -0.071324542 0.024136543
-0.024054565 -0.068845823 0.027593821
-0.023229044 -0.068857521 0.029738367
-0.022054069 -0.067795843 0.032635033
-0.021153854 -0.067529611 0.03453207
-0.020472957 -0.067970216 0.035048187
-0.019369395 -0.066985823 0.035484761
-0.018745918 -0.067648314 0.036183476
-0.017917549 -0.06759803 0.036605656
-0.016846122 -0.066582292 0.03650105
-0.01588727 -0.06593217 0.036685318
-0.015269171 -0.066702172 0.036839813
-0.014452099 -0.066640243 0.036830515
-0.013619197 -0.066493727 0.036815405
-0.012541565 -0.065059371 0.036416799
-0.011848303 -0.065560609 0.035811841
-0.011735185 -0.069572888 0.035391957
-0.011883825 -0.075873658 0.026514053
-0.010892447 -0.075339429 0.014288008
-0.010260506 -0.077420183 0.013343185
-0.0090627167 -0.075220548 0.012705177
-0.0080532283 -0.074268669 0.012390614
-0.0071640424 -0.07432694 0.012336761
-0.0065258062 -0.077377424 0.012127101
-0.0054028537 -0.074739479 0.011165202
-0.0046935645 -0.07791318 0.010740519
-0.0036123872 -0.074957035 0.010607928
-0.0026054648 -0.072084531 0.010524899
-0.0018057808 -0.074939907 0.010510862
-0.00088540529 -0.073488645 0.011251122
0 -0.074251994 0.011706263
0.00088695763 -0.073617488 0.013064295
0.0017666155 -0.073314548 0.013741285
0.0026939437 -0.074532442 0.018264443
0.0037344161 -0.077489138 0.022959054
0.004719235 -0.078339309 0.034504682
0.0048834863 -0.067554899 0.035686046
0.0054761283 -0.064931236 0.037067413
0.0063297818 -0.065671489 0.037752181
0.007221099 -0.066594586 0.038321882
0.0081292279 -0.067472599 0.038296789
0.0087564541 -0.066071428 0.03906104
0.0096213026 -0.066547349 0.039098233
0.010416092 -0.066502742 0.039199948
0.011176326 -0.066259652 0.039402276
0.012252822 -0.06779895 0.039111346
0.012716244 -0.065965518 0.038219064
0.013571535 -0.066261023 0.03697145
0.014557314 -0.067125395 0.035748988
0.015255573 -0.066642769 0.034487337
0.016129376 -0.066936918 0.030010402
0.018790675 -0.074267909 0.01273334
0.019568833 -0.07382787 0.010316402
0.020197826 -0.072887808 0.0093160272
0.020918546 -0.072343312 0.0082292259
0.021961274 -0.072911434 0.0068695545
