ply
format ascii 1.0
comment PCL generated
element vertex 1296
property float x
property float y
property float z
element camera 0
property float view_px
property float view_py
property float view_pz
property float x_axisx
property float x_axisy
property float x_axisz
property float y_axisx
property float y_axisy
property float y_axisz
property float z_axisx
property float z_axisy
property float z_axisz
property float focal
property float scalex
property float scaley
property float centerx
property float centery
property int viewportx
property int viewporty
property float k1
property float k2
end_header
-0.017494703 0.07952138 0.033102542
-0.016607307 0.079082415 0.032307982
-0.01594601 0.079730049 0.031239003
-0.01533233 0.080696478 0.030168682
-0.014540771 0.080782071 0.028760195
-0.013785606 0.081091806 0.02786091
-0.013108352 0.081927203 0.026690423
-0.012166943 0.081112958 0.024614632
-0.011571981 0.082657009 0.023469418
-0.010777778 0.082905985 0.022562176
-0.0098692682 0.082243904 0.021987796
-0.009063703 0.082397304 0.021718234
-0.0082958275 0.082958281 0.021110564
-0.007423548 0.082483873 0.020383477
-0.0067338874 0.084173597 0.019962877
-0.005769446 0.082420655 0.019541144
-0.0049340716 0.082234532 0.019356638
-0.0041565178 0.083130367 0.019356638
-0.0033406822 0.08351706 0.019380122
-0.0024968677 0.083228931 0.019981652
-0.0016577411 0.082887061 0.020250529
-0.00083136233 0.083136238 0.020384669
0 0.082550839 0.020700336
0.00082597922 0.082597926 0.021156043
0.0016093529 0.080467641 0.02221635
0.0024894143 0.082980476 0.023955554
0.003279164 0.081979096 0.025325179
0.0040207673 0.080415346 0.026135236
0.0048826123 0.081376873 0.026486069
0.0056191543 0.080273636 0.028745472
0.0063459035 0.079323798 0.029673308
0.0072415117 0.080461249 0.030485183
0.0079652481 0.079652488 0.031293809
0.0086415447 0.078559503 0.03207168
0.0096634962 0.080529138 0.032874554
0.010328896 0.079453051 0.033755988
0.010966109 0.078329355 0.034439325
0.011879641 0.0791976 0.035065919
0.01251914 0.078244627 0.03482464
0.013203838 0.077669635 0.034164876
0.014291847 0.079399154 0.033825666
0.014654187 0.077127293 0.033460826
0.01576639 0.078831956 0.031634599
0.017421171 0.082957961 0.018842071
0.018462878 0.083922178 0.012462676
0.01970573 0.085677087 0.011170328
0.020545494 0.085606232 0.010154933
0.021491483 0.085965931 0.009619832
0.022231141 0.085504398 0.0094038844
0.022996539 0.085172363 0.0092665255
0.023826245 0.085093737 0.0089716911
0.024924623 0.08594697 0.0080707371
0.025986727 0.086622424 0.0077002943
0.026262995 0.084719338 0.0069927573
0.027652506 0.086414084 0.0054779053
-0.039660525 0.087080717 0.0052094162
-0.039118018 0.087798215 0.0058547854
-0.037619721 0.086354367 0.0062924922
-0.037375797 0.087789662 0.0062052608
-0.036728058 0.088322237 0.0065645278
-0.03557279 0.087630525 0.0061912239
-0.03481926 0.087918632 0.0062644184
-0.033887722 0.087760516 0.0060457289
-0.032717492 0.086959653 0.0060336888
-0.03229703 0.088162161 0.006034404
-0.031384178 0.088050053 0.0060242414
-0.030467167 0.087919548 0.0062892139
-0.029450387 0.087484971 0.0068347454
-0.02852172 0.087293759 0.0083205402
-0.027905997 0.088078298 0.0089090765
-0.024769064 0.080699205 0.031898707
-0.02356571 0.079337887 0.034389585
-0.022770435 0.079303928 0.034893095
-0.022125991 0.07981161 0.034873158
-0.021152847 0.079127312 0.03513357
-0.020443134 0.079413712 0.035149604
-0.019830931 0.080116957 0.034983099
-0.018894525 0.079514459 0.034874678
-0.018364983 0.080646224 0.034299463
-0.017529856 0.080477983 0.033291042
-0.016730193 0.080464266 0.032560915
-0.016158644 0.081601158 0.031237453
-0.015314316 0.081407681 0.029667139
-0.014535388 0.08155968 0.028791487
-0.013846767 0.082266092 0.027362913
-0.012928593 0.081611745 0.025449187
-0.012424746 0.083659954 0.023651302
-0.011481606 0.082831591 0.022345126
-0.010501788 0.081590816 0.021384329
-0.0099024465 0.083345592 0.020528466
-0.009296936 0.085362777 0.01974842
-0.0083399862 0.084233865 0.018911123
-0.0075808791 0.08507432 0.016468197
-0.006795641 0.08579497 0.016373426
-0.0060035498 0.086622648 0.015483141
-0.0050907652 0.085694551 0.015482754
-0.0042359391 0.085565969 0.016374558
-0.0034051572 0.085980222 0.016771793
-0.0025707691 0.08654923 0.017104983
-0.0016845481 0.085069679 0.017605364
-0.00083701982 0.084539004 0.018452346
0 0.084712408 0.019316822
0.00081928383 0.082747668 0.019609809
0.0016595997 0.083809786 0.020526111
0.0024398807 0.082142651 0.022214025
0.0033108059 0.083597846 0.023653328
0.00405268 0.081864141 0.025228947
0.0048825662 0.082189873 0.02607584
0.0056166644 0.081040442 0.027211756
0.0065029333 0.082099535 0.028898835
0.0072430884 0.081283554 0.029779583
0.0080202399 0.081004433 0.031042755
0.0087781642 0.080599517 0.031910241
0.0095769512 0.080606014 0.03324908
0.010432651 0.081053674 0.034211665
0.011015062 0.079465806 0.034794629
0.011875291 0.079960294 0.035388321
0.012303809 0.077667795 0.03522566
0.013519402 0.080321148 0.034656018
0.01392833 0.078153409 0.034442067
0.014864357 0.079015799 0.034190029
0.015470112 0.078124069 0.032947749
0.017212521 0.082784027 0.021846622
0.018639028 0.08557009 0.013425082
0.019698199 0.086500786 0.011636555
0.02062689 0.08680483 0.01108107
0.021230986 0.085773177 0.01024577
0.022152098 0.086052388 0.010031253
0.022965493 0.085907951 0.0099852383
0.023825448 0.085941799 0.0094186664
0.024814198 0.086421862 0.0089188516
0.025614133 0.086234249 0.0082645118
0.026351741 0.08585567 0.0074719787
0.027098712 0.085530311 0.0061846077
-0.039248213 0.087028645 0.0058886707
-0.038857102 0.088076092 0.006814599
-0.037962057 0.08800295 0.0070059001
-0.037518021 0.088996232 0.0070278645
-0.036029942 0.087501287 0.0071769357
-0.035373416 0.088002153 0.0070292056
-0.034688145 0.088454768 0.0068034232
-0.033881474 0.088613093 0.0067793429
-0.033364426 0.089557141 0.0066391826
-0.032005765 0.088232107 0.0066384077
-0.03100327 0.087842599 0.0065078735
-0.030292541 0.088281125 0.0069263279
-0.029651187 0.088953562 0.0078035891
-0.028430978 0.087877572 0.0086063147
-0.027793325 0.088591225 0.010176152
-0.024463978 0.080494374 0.032550931
-0.023525225 0.079985768 0.034974366
-0.023021867 0.080973461 0.035730153
-0.02186363 0.079646081 0.035919249
-0.021291528 0.080434658 0.036086589
-0.020506127 0.080447115 0.036078721
-0.019530172 0.079683095 0.03589496
-0.019242877 0.081782229 0.034983099
-0.018269951 0.081023261 0.034460694
-0.017359786 0.080486283 0.033463538
-0.016689273 0.081062183 0.03222537
-0.016396904 0.083624214 0.030856729
-0.01536689 0.082495935 0.029340386
-0.014532058 0.082348324 0.027684122
-0.013946919 0.083681516 0.026072532
-0.013204296 0.08417739 0.023865432
-0.012344725 0.083944134 0.022641093
-0.011575633 0.084336758 0.02129662
-0.010896288 0.085493952 0.019540668
-0.010109168 0.085927926 0.016851127
-0.0094232904 0.087379605 0.015589952
-0.0083822738 0.08549919 0.015423864
-0.0076608951 0.086823486 0.015027672
-0.006774107 0.086369865 0.014761597
-0.0059362892 0.086500213 0.014785677
-0.0050944677 0.086605959 0.014538497
-0.0042529115 0.086759403 0.014871329
-0.0034031284 0.086779773 0.015116394
-0.0025389276 0.086323544 0.015631855
-0.0016863804 0.086005405 0.015812188
-0.00085146946 0.086849883 0.016356885
0 0.085536338 0.016923875
0.00083545758 0.085216671 0.017719686
0.0016856713 0.085969239 0.018995911
0.0024682051 0.083918974 0.020352125
0.0033022161 0.084206514 0.02204752
0.0040860092 0.083354592 0.023953706
0.004872214 0.082827635 0.025501192
0.00560174 0.081625357 0.026821494
0.0064938613 0.08279673 0.028627276
0.0073174573 0.082931183 0.02965185
0.0079794331 0.081390217 0.030601174
0.0086520929 0.0802285 0.031936437
0.0094465148 0.080295384 0.033273935
0.010237581 0.080325633 0.034393609
0.01111102 0.080951713 0.035101444
0.011726514 0.079740293 0.035769254
0.012495811 0.079660796 0.035604507
0.01308383 0.078502975 0.035141319
0.013977423 0.079205401 0.034994006
0.014821876 0.07957007 0.034785658
0.015534096 0.079223894 0.033636957
0.016997829 0.082560882 0.025828391
0.018587716 0.086179413 0.014015466
0.019584734 0.086854041 0.012116432
0.020597652 0.087540016 0.0112634
0.021225754 0.086601071 0.010730952
0.022069959 0.086582147 0.010269701
0.023061709 0.087122008 0.010269433
0.02384433 0.086861491 0.0098241568
0.024394393 0.085800968 0.0092050135
0.025579507 0.086970322 0.0089697838
0.026140695 0.086011313 0.0079105198
0.026897924 0.085737132 0.006441921
-0.040665224 0.089117408 0.0051660538
-0.039546162 0.088549018 0.0071254671
-0.038812891 0.088838384 0.0071545541
-0.038345113 0.089762427 0.0070182979
-0.036879499 0.088339269 0.0075011551
-0.036405753 0.089280777 0.0075919032
-0.035477642 0.089126758 0.0071716607
-0.034869675 0.08978942 0.0070084035
-0.034042418 0.089906901 0.0072385371
-0.033076406 0.089654468 0.0072385371
-0.032145541 0.089486234 0.0071337223
-0.031363856 0.089735478 0.0070163012
-0.030338306 0.089281298 0.0077308416
-0.02928533 0.088717327 0.0083409846
-0.028406233 0.088661879 0.0087301433
-0.027744697 0.089303248 0.010818779
-0.024608167 0.081762612 0.033252865
-0.023843326 0.081862085 0.035300851
-0.022603251 0.080280513 0.036512792
-0.022064997 0.081167668 0.036283642
-0.02113083 0.080610201 0.036452979
-0.020366676 0.080683373 0.036452979
-0.019602466 0.080762163 0.036283642
-0.018822476 0.080779791 0.035912395
-0.018184423 0.081434593 0.034723461
-0.017468728 0.081785411 0.033573627
-0.016747382 0.082141921 0.032461703
-0.016081557 0.082820013 0.030591279
-0.015598636 0.084561028 0.028881729
-0.014649703 0.083828859 0.027241021
-0.013840258 0.083855681 0.024094731
-0.013122735 0.084477603 0.02279982
-0.01244265 0.085439533 0.020909756
-0.011761193 0.086528778 0.019424379
-0.010924271 0.086553842 0.016452849
-0.010116555 0.08683376 0.015372485
-0.0094150342 0.088158958 0.014745533
-0.0084846774 0.087392181 0.014530212
-0.0075935978 0.086904511 0.014538795
-0.0068489132 0.088179752 0.013488144
-0.005990583 0.088147148 0.013649613
-0.005108411 0.087694392 0.013414264
-0.0042819455 0.088208079 0.01400432
-0.0033833697 0.08712177 0.014070034
-0.0025519275 0.087616183 0.014659971
-0.0017030817 0.087708704 0.014736384
-0.000852375 0.087794624 0.014930427
0 0.086256109 0.015760839
0.00083891174 0.086407915 0.016663104
0.0016800526 0.086522713 0.017287433
0.0025469675 0.087445885 0.018201321
0.0033656554 0.08666563 0.020112753
0.0040667262 0.083774567 0.0225223
0.0049401382 0.084805705 0.024947792
0.0056934301 0.08377476 0.025905788
0.0064153359 0.082597449 0.027321607
0.007305623 0.083608799 0.029284179
0.0078860922 0.081226751 0.030402809
0.0086306641 0.080814406 0.031936437
0.0094875898 0.081435151 0.033448935
0.010368007 0.082146518 0.03464368
0.011039079 0.081216082 0.03559044
0.011749572 0.080680393 0.036847234
0.012394847 0.079791829 0.036511391
0.013540364 0.082038671 0.036305755
0.014047617 0.080383591 0.036028832
0.014825317 0.080368824 0.035412401
0.01558966 0.080286749 0.033879578
0.016883612 0.082810089 0.028003961
0.018411828 0.086200833 0.014964432
0.019411635 0.086930357 0.012499452
0.020310843 0.087167367 0.011826754
0.02119536 0.08732488 0.011262476
0.022098118 0.087542549 0.010787666
0.023008136 0.087771773 0.010545045
0.023699747 0.087181218 0.010016054
0.024830779 0.088192068 0.009871304
0.025468806 0.087442897 0.0091189444
0.025988167 0.086347774 0.0086747706
0.02685548 0.086441077 0.0071498752
-0.040210977 0.088977478 0.0058014095
-0.038950518 0.088062041 0.0072694719
-0.038934842 0.089982733 0.0075421929
-0.037379701 0.088352017 0.0077382624
-0.036610037 0.088545203 0.0080497265
-0.036309935 0.089910313 0.0084293485
-0.035075929 0.088973083 0.0079502463
-0.034343582 0.089293316 0.0076994002
-0.033593487 0.08958263 0.0074750185
-0.032895748 0.090030462 0.0075851381
-0.031893507 0.089646608 0.0073635876
-0.030784121 0.088931911 0.0079118311
-0.030196562 0.089726932 0.0082221031
-0.029425675 0.090007946 0.0084477961
-0.028317297 0.089242391 0.0092599392
-0.027215859 0.088451542 0.011379153
-0.024803128 0.083210491 0.034478992
-0.023518175 0.081529677 0.036307305
-0.022697169 0.081396744 0.036838174
-0.022226436 0.082555331 0.036705285
-0.020943178 0.080670014 0.036735952
-0.020392662 0.081570648 0.036753476
-0.019534668 0.08126422 0.036687106
-0.018910082 0.081943691 0.036160856
-0.01835368 0.08299055 0.034951776
-0.017437426 0.082431473 0.033495635
-0.016708791 0.082748294 0.03221193
-0.016139029 0.083922952 0.030062795
-0.015338304 0.083957031 0.02852577
-0.01472468 0.08507593 0.026072532
-0.014012313 0.085722379 0.022827923
-0.013456344 0.087466232 0.021110564
-0.012633273 0.087590694 0.019177139
-0.011759026 0.087352768 0.016565561
-0.010935294 0.087482348 0.015570164
-0.010113968 0.087654382 0.01503852
-0.0093360031 0.088267669 0.014259398
-0.0084181819 0.08754909 0.014285237
-0.0076755499 0.08869525 0.013482004
-0.0068041701 0.088454209 0.012936413
-0.0059667137 0.088648319 0.012800038
-0.005101067 0.088418499 0.012748867
-0.00421267 0.087623537 0.013028711
-0.0033987863 0.088368438 0.013287038
-0.0025477256 0.088321157 0.013961703
-0.0017003971 0.088420644 0.014042497
-0.00084878964 0.088274121 0.01428777
0 0.087789528 0.014764428
0.00083610177 0.086954579 0.015851736
0.0016898927 0.08787442 0.016490519
0.002530199 0.087713562 0.017199039
0.0033296254 0.086570255 0.018386692
0.0041808048 0.086960748 0.020140052
0.0049923756 0.086534508 0.022565991
0.0056077857 0.08331567 0.025437534
0.0065006609 0.08450859 0.026903003
0.0072799581 0.084123962 0.028813362
0.008047685 0.083695926 0.030032992
0.0087201791 0.082445331 0.03262043
0.0094620241 0.082004212 0.033821851
0.010238275 0.081906199 0.034923673
0.011034047 0.081967205 0.035988241
0.011713268 0.081211992 0.037874162
0.012252425 0.079640761 0.037518412
0.013112172 0.080215633 0.03711763
0.013790791 0.07968013 0.036836058
0.014809629 0.081063226 0.036452591
0.015392791 0.080042511 0.03451854
0.016749635 0.082950577 0.030532926
0.018593872 0.087898307 0.015236974
0.019604543 0.088646621 0.013735563
0.020203842 0.087549977 0.012349367
0.021250304 0.088401258 0.011561424
0.021858141 0.087432563 0.011352658
0.023016509 0.08865618 0.011262476
0.023805797 0.088421531 0.01048556
0.02454265 0.08801502 0.010223269
0.025437556 0.08818353 0.0097565353
0.026045475 0.087378368 0.0088754892
0.026656669 0.086634174 0.0072977245
-0.039869979 0.089071229 0.0067956448
-0.039285615 0.089673683 0.0075290501
-0.037929837 0.088502944 0.0079502463
-0.038066734 0.09084107 0.0084795654
-0.036832575 0.089940012 0.0088602901
-0.036125321 0.0903133 0.0090111196
-0.035261638 0.090304196 0.0085370243
-0.034322783 0.090097308 0.0080462098
-0.0337632 0.09090092 0.0079624951
-0.032967314 0.09109389 0.0081585944
-0.032134984 0.09119387 0.0081040859
-0.031152528 0.090861544 0.0081987381
-0.030118588 0.090355769 0.0083270669
-0.029339865 0.090608403 0.0085553825
-0.028267115 0.089940824 0.0097618103
-0.027528614 0.090328261 0.012219131
-0.024447117 0.082804747 0.034911364
-0.023549758 0.082424149 0.036838174
-0.022736257 0.082320921 0.037717104
-0.022010259 0.082538471 0.037703067
-0.021073442 0.081952274 0.037956536
-0.020285364 0.081921667 0.03800112
-0.019485978 0.081841111 0.037625551
-0.018981935 0.083045967 0.036816657
-0.018388545 0.083947703 0.035836339
-0.017617265 0.084082395 0.034049809
-0.016686235 0.083431177 0.032325506
-0.016047893 0.084251441 0.029098213
-0.01564014 0.086432353 0.027528256
-0.014759181 0.086095229 0.023896962
-0.014215137 0.08779937 0.021197826
-0.013247287 0.086935319 0.019529432
-0.012551298 0.087859087 0.017692566
-0.01187398 0.089054845 0.016358942
-0.01087804 0.087861083 0.015138537
-0.010107083 0.088436976 0.014600515
-0.0092278337 0.088083871 0.014000595
-0.0084778955 0.089017905 0.013591051
-0.0076533491 0.089289077 0.012998164
-0.006788691 0.089101568 0.012819499
-0.0059552253 0.089328378 0.012677282
-0.0050738901 0.088793077 0.012455374
-0.0042823376 0.089929096 0.012813538
-0.0034146372 0.089634225 0.013057053
-0.0025224602 0.088286102 0.013709724
-0.0016957013 0.089024313 0.013598949
-0.00084414246 0.08863496 0.013909519
0 0.087947838 0.01437977
0.00085251726 0.089514308 0.015320271
0.0016690437 0.087624788 0.015848637
0.0025235217 0.088323258 0.016516566
0.0033405651 0.087689832 0.017479718
0.0041673398 0.08751414 0.018522322
0.0049868482 0.087269843 0.020220637
0.0057401652 0.086102478 0.023891509
0.0064915004 0.085200943 0.025512815
0.0071147173 0.083005033 0.028325707
0.0081648165 0.085730582 0.029722124
0.0086979913 0.083026275 0.032048404
0.0095064742 0.083181642 0.033983916
0.010396784 0.083974026 0.035634011
0.0109811 0.082358249 0.03768608
0.011540795 0.080785565 0.038210154
0.012402417 0.081390858 0.03804028
0.013104171 0.080937527 0.037833244
0.014107978 0.082296543 0.037503719
0.014828581 0.081947424 0.037379265
0.015298574 0.08031752 0.036382228
0.016710974 0.083554871 0.03099975
0.018397259 0.0878051 0.015973777
0.019171383 0.087521523 0.014021367
0.02024523 0.088572882 0.01253584
0.021023959 0.088300623 0.012073636
0.021997873 0.088837564 0.01167202
0.022773683 0.088564321 0.011543006
0.023713874 0.088927031 0.011118412
0.024456063 0.088547811 0.010650545
0.025575619 0.089514665 0.0099993348
0.026414337 0.089467913 0.0093031228
0.026915196 0.088315487 0.0081849992
0.028917046 0.092008784 0.0052934885
-0.04015125 0.09055388 0.0071622431
-0.039563507 0.091168076 0.0081544816
-0.038531654 0.090763442 0.0089764297
-0.038108006 0.091805652 0.0090648234
-0.036805078 0.09072879 0.0091939569
-0.036366813 0.091782905 0.0095314085
-0.035139117 0.090847462 0.0091745257
-0.0345365 0.091521725 0.0087192357
-0.033726558 0.091667049 0.0084728897
-0.032585841 0.090897337 0.0085291564
-0.032160956 0.092136785 0.0083268285
-0.031173637 0.091789044 0.0084813535
-0.030414665 0.092112981 0.0086196661
-0.029267976 0.091247216 0.0092365146
-0.028447574 0.091377057 0.010620475
-0.026970165 0.089338668 0.013503522
-0.024543284 0.083922185 0.034896851
-0.023593521 0.083363771 0.037688851
-0.022394933 0.081857339 0.0381836
-0.021754708 0.082357109 0.038282126
-0.021103388 0.082850337 0.03834644
-0.020396795 0.083156168 0.038304627
-0.019496078 0.082663365 0.038302064
-0.018659588 0.082413174 0.037583977
-0.018377248 0.084695138 0.036288232
-0.017458821 0.084119767 0.034304082
-0.016820611 0.084904037 0.032238454
-0.015983863 0.084714472 0.028994828
-0.015461598 0.086259432 0.026122302
-0.014929232 0.08791659 0.022393584
-0.0143015 0.089174055 0.020143002
-0.01358969 0.090031698 0.018126279
-0.012594819 0.089003384 0.016452193
-0.011770179 0.089117065 0.015437931
-0.011016854 0.089829735 0.014788121
-0.010197012 0.0900736 0.014132172
-0.0093627945 0.09022329 0.013655365
-0.0084885834 0.089978985 0.013341814
-0.0076428 0.090015203 0.012663424
-0.0067222789 0.089070193 0.012202859
-0.0059354673 0.08987993 0.012257189
-0.0050969305 0.090045772 0.012253165
-0.0042060278 0.089167789 0.012361288
-0.00336939 0.089288838 0.012642741
-0.0025102964 0.088697135 0.013345569
-0.0016960707 0.089891739 0.013441503
-0.00084315066 0.089373969 0.013540626
0 0.090198934 0.014178276
0.00084438844 0.089505173 0.014823407
0.0016457356 0.087223984 0.015644431
0.0025189605 0.089003272 0.016259223
0.0034304503 0.090906933 0.016677082
0.0041447333 0.087868348 0.017780006
0.0050148931 0.088596441 0.019139707
0.005822022 0.08816205 0.021437734
0.0065341736 0.086577795 0.025170475
0.007312926 0.086130016 0.027217478
0.0080495998 0.085325763 0.029722124
0.0085960636 0.082834795 0.032697946
0.0095387977 0.084259383 0.034213722
0.010438632 0.085115001 0.035700887
0.010874549 0.082335867 0.037927181
0.011689194 0.082603633 0.038684964
0.012329762 0.081684671 0.039123446
0.013271311 0.082750529 0.038941383
0.013968928 0.082261465 0.037936926
0.014854142 0.082870476 0.037670583
0.015459898 0.081937462 0.03715837
0.016518984 0.083381534 0.03111434
0.018573709 0.089491509 0.016079068
0.01923405 0.088643871 0.014766574
0.020150887 0.088999748 0.013320893
0.0208419 0.088369653 0.012305766
0.022025665 0.089796938 0.012201428
0.022829583 0.089627244 0.012034327
0.023700975 0.089725114 0.011398226
0.024720704 0.090358429 0.011048794
0.025164893 0.088915952 0.010173172
0.026274247 0.089840971 0.009677738
0.026827248 0.088865258 0.0087028444
0.028651159 0.092030995 0.0056198239
-0.039961569 0.090976343 0.0075148344
-0.039076019 0.090894222 0.009265542
-0.038381502 0.091262683 0.0095244348
-0.037432536 0.09102913 0.009577781
-0.036807645 0.09159112 0.0097520351
-0.035896476 0.09145055 0.0098292828
-0.03535302 0.09226276 0.0095825791
-0.034686442 0.092786238 0.0093717873
-0.033513661 0.091947742 0.0091888905
-0.03252564 0.09158536 0.0090777576
-0.031943586 0.092377394 0.0089814961
-0.030987516 0.09210179 0.0092623234
-0.030163761 0.092214935 0.0094994903
-0.029321771 0.092277341 0.010570288
-0.02794946 0.090624012 0.011745214
-0.027346289 0.091439158 0.01521039
-0.024316886 0.083932482 0.035729855
-0.023148881 0.082564346 0.038109779
-0.022578755 0.083307818 0.038377106
-0.022136187 0.084591866 0.038506985
-0.021041131 0.083385222 0.039001197
-0.020385701 0.083895005 0.039271772
-0.019467836 0.083322339 0.038581073
-0.018697429 0.083359376 0.038281232
-0.018415913 0.085674033 0.036738455
-0.017366476 0.08446423 0.034908563
-0.016917665 0.086199537 0.032310247
-0.016228124 0.086820476 0.029428631
-0.015576109 0.087718092 0.023725778
-0.015056619 0.089503244 0.021884769
-0.014426701 0.090803355 0.019253433
-0.013441877 0.089892551 0.017852753
-0.012616141 0.089995146 0.016366541
-0.011784303 0.090065747 0.015280128
-0.010948019 0.090110622 0.014534563
-0.010141929 0.090432197 0.014095396
-0.0093815941 0.091257326 0.01367864
-0.0084415013 0.090324074 0.013525903
-0.0076677343 0.091160849 0.013129711
-0.0067614489 0.09043438 0.01232639
-0.0059684725 0.091232367 0.012520075
-0.0051153204 0.091223225 0.012673467
-0.0041995863 0.089871153 0.012734115
-0.0034085282 0.091178127 0.013056427
-0.0025776532 0.091936305 0.013540447
-0.00167228 0.089466982 0.013655066
-0.00084044732 0.089927867 0.013735235
0 0.091094144 0.014307499
0.0008412131 0.090009801 0.014990121
0.0016866525 0.090235911 0.015715837
0.0025336526 0.090366952 0.016116053
0.0033522178 0.089671828 0.016409695
0.0041748481 0.08934176 0.017265677
0.0050018826 0.089200243 0.018519968
0.0058118086 0.088837653 0.020838499
0.0066040852 0.088329643 0.024870723
0.007261212 0.086327754 0.02694878
0.0080540227 0.086178049 0.030126005
0.0086827036 0.084459029 0.033674061
0.0095788017 0.08541099 0.035185724
0.010157379 0.083603054 0.037625432
0.010832361 0.082790188 0.038266331
0.011607769 0.082802087 0.039489299
0.012318346 0.082378939 0.03966549
0.013076981 0.082308054 0.039518446
0.013871285 0.082457088 0.038966835
0.014726422 0.082933009 0.03859365
0.015520917 0.083036914 0.037384331
0.016470449 0.083920859 0.03421858
0.01855961 0.090267204 0.017835975
0.019391226 0.090211354 0.015134841
0.020251315 0.090287119 0.014017254
0.020921603 0.08954446 0.013210654
0.022080814 0.090871051 0.012672603
0.022947181 0.090938829 0.012391776
0.023706058 0.090591013 0.012158811
0.024511153 0.090437703 0.011420935
0.025471877 0.090849698 0.010629296
0.026343599 0.090927906 0.0093300939
0.026705433 0.089296296 0.0082384646
0.028743919 0.093199983 0.0061371922
-0.039222077 0.090127327 0.0073923469
-0.039364044 0.092419922 0.0094616115
-0.037946902 0.091072567 0.0098316073
-0.037690099 0.092512071 0.009967804
-0.036888063 0.092649087 0.010098726
-0.03574631 0.091919079 0.010223776
-0.035213396 0.09275724 0.0098845065
-0.034374282 0.092810564 0.009798795
-0.03355914 0.092933007 0.0096865892
-0.032725971 0.093010657 0.0097519457
-0.031620007 0.092296235 0.0095753074
-0.031025257 0.093075775 0.0099199712
-0.030337987 0.093614362 0.010545671
-0.029261634 0.09294872 0.011377513
-0.028139267 0.092092149 0.013169855
-0.027263524 0.092014395 0.015349448
-0.024083361 0.083903328 0.036245257
-0.023335258 0.084006928 0.03862074
-0.022498263 0.083786637 0.038988382
-0.021724407 0.083794139 0.039522439
-0.02120406 0.08481624 0.040006846
-0.02044783 0.084937148 0.040043771
-0.0194028 0.083820097 0.039872766
-0.018818339 0.084682532 0.038763404
-0.018231373 0.085608192 0.038081944
-0.017365975 0.085251153 0.036183357
-0.016795978 0.086379319 0.033488393
-0.016660154 0.089964837 0.029941946
-0.015893744 0.090343393 0.023636818
-0.014945578 0.089673474 0.020863265
-0.014169701 0.090019278 0.018776864
-0.013230175 0.08930368 0.017446339
-0.012549126 0.090353712 0.016298771
-0.011726685 0.090462998 0.015092582
-0.011033721 0.091664761 0.014534563
-0.010300105 0.092700951 0.014157325
-0.0092307227 0.090628915 0.013742894
-0.0085174311 0.091988258 0.013695359
-0.0076136729 0.091364078 0.013463944
-0.0067364979 0.090942718 0.01300025
-0.0059766835 0.092211686 0.013060689
-0.0050870422 0.091566764 0.013388574
-0.0042355112 0.09148705 0.013391763
-0.0034129859 0.092150621 0.013577849
-0.002544604 0.091605745 0.013843536
-0.0016821816 0.090837806 0.013865232
-0.00084204006 0.090940326 0.014193803
0 0.091411062 0.014589638
0.00085287163 0.092110142 0.015438527
0.0016679359 0.090068541 0.015746176
0.0025062822 0.090226158 0.016271293
0.0033764897 0.091165222 0.016409308
0.004250227 0.091804914 0.017242014
0.0050033415 0.090060152 0.017679811
0.0058526667 0.090298295 0.019705206
0.0066093667 0.089226454 0.023408234
0.0072725569 0.087270692 0.027378112
0.0081984615 0.088543385 0.030272484
0.0085788751 0.084228963 0.033919007
0.0095996391 0.086396754 0.036274552
0.010154848 0.084363356 0.038139611
0.01077369 0.083111331 0.039384723
0.011639333 0.083803207 0.040121377
0.012419819 0.083833776 0.040448487
0.012963812 0.08235833 0.04004547
0.013740869 0.082445227 0.03926906
0.014740679 0.083789133 0.039209843
0.015092568 0.081499867 0.037666172
0.016255209 0.083598219 0.034639984
0.018372135 0.090190485 0.018514752
0.019018164 0.089302689 0.015336812
0.020158274 0.090712234 0.01468733
0.021507906 0.092914149 0.013599724
0.022065511 0.091656737 0.013187706
0.022726677 0.090906709 0.013036191
0.023661677 0.091266468 0.012521356
0.024369854 0.090756699 0.011976093
0.025373219 0.091343589 0.010786891
0.026121549 0.091004103 0.0099562407
0.026998701 0.091120623 0.0088821054
0.028381329 0.092884354 0.0060808957
-0.039986137 0.092733808 0.0094800293
-0.038820371 0.091987401 0.010157585
-0.038586464 0.093464985 0.010268092
-0.03776953 0.093565434 0.010444343
-0.036444809 0.092383355 0.010479718
-0.03586163 0.093069471 0.010915875
-0.035193779 0.093563944 0.010398775
-0.034289531 0.093438976 0.01025942
-0.033777986 0.094405144 0.010047376
-0.032511797 0.093257524 0.010076076
-0.031736787 0.093494862 0.0099907517
-0.031195706 0.09445367 0.010464489
-0.030060442 0.093616813 0.010850996
-0.029380834 0.094191499 0.011682451
-0.028210633 0.093180574 0.013522506
-0.026651405 0.090781346 0.01554662
-0.024473803 0.086053044 0.036890775
-0.02314985 0.084111124 0.038462043
-0.022456894 0.08440695 0.03986153
-0.021801142 0.084868737 0.040177852
-0.020773854 0.083864823 0.040521592
-0.020341847 0.085279286 0.04092142
-0.019340679 0.084325358 0.040777773
-0.018485114 0.083953232 0.040320247
-0.017798377 0.084348835 0.039007276
-0.017696247 0.087676868 0.037376761
-0.01646213 0.085446291 0.034811467
-0.017209072 0.093789451 0.031355977
-0.016472181 0.094498307 0.024409592
-0.014956259 0.090568468 0.02081871
-0.014046851 0.090065099 0.018724024
-0.013297079 0.090586357 0.017439872
-0.01258178 0.091427602 0.016175091
-0.011789258 0.091787793 0.015093565
-0.010901395 0.091404013 0.014534503
-0.0099972254 0.090808131 0.014110863
-0.0093251681 0.092403948 0.013723135
-0.0084626526 0.092242919 0.013851553
-0.0075029978 0.090869643 0.013643652
-0.0067901239 0.092515439 0.013567805
-0.0059440876 0.092557937 0.013534993
-0.0051014777 0.092676848 0.013772368
-0.004294605 0.093622394 0.013807625
-0.0033738869 0.091938421 0.014049709
-0.00253382 0.092062131 0.014111787
-0.0016980624 0.092544407 0.014347166
-0.000841979 0.091775715 0.014567763
0 0.090596072 0.015058368
0.00084415573 0.092012979 0.01562342
0.0016788839 0.091499172 0.01606375
0.0025105239 0.0912157 0.016464472
0.0033211776 0.090502091 0.016419679
0.0041345977 0.090134241 0.01734212
0.0049730055 0.090342939 0.01766035
0.0058419723 0.090967856 0.019441754
0.0066014309 0.089944497 0.022235096
0.0076750368 0.092953227 0.027779073
0.0080380198 0.087614425 0.030905366
0.0087183695 0.086391121 0.034797966
0.0094940821 0.086237915 0.037832558
0.010055948 0.084315255 0.039590657
0.010664002 0.083026871 0.040119231
0.011521759 0.083724789 0.041714668
0.012237979 0.083371229 0.041680455
0.01321645 0.084740765 0.041244507
0.013780875 0.083450861 0.040004849
0.014638714 0.083979994 0.039491713
0.015392148 0.083887212 0.038597763
0.016544797 0.085875377 0.035734564
0.018230028 0.090321511 0.018846065
0.019302066 0.091475002 0.015833378
0.020096254 0.091270491 0.014704108
0.0209042 0.091142312 0.013949692
0.021992095 0.092197627 0.013647676
0.022706049 0.091665164 0.013405502
0.023484096 0.091420233 0.013210654
0.02448559 0.092032038 0.012521356
0.025440013 0.092432052 0.011704534
0.026221542 0.09219832 0.010359108
0.026658913 0.090806924 0.010137796
0.028864758 0.095341168 0.0069987476
-0.041747663 0.095671736 0.0053988099
-0.040029652 0.093686417 0.0097913742
-0.039172288 0.093672857 0.010386378
-0.038543779 0.094218127 0.010424376
-0.037493657 0.093734145 0.010642469
-0.036826719 0.09420789 0.01099661
-0.035883259 0.093979962 0.011276752
-0.034914922 0.093674183 0.010677457
-0.034382612 0.094552182 0.010556996
-0.033302385 0.093929812 0.010357559
-0.032611415 0.094401464 0.01063177
-0.031933423 0.094937205 0.010660201
-0.030899772 0.094415978 0.011076301
-0.030002488 0.094293535 0.011660308
-0.02902158 0.093893349 0.012220085
-0.028047735 0.093492456 0.013575554
-0.027171023 0.093400396 0.015724927
-0.024033016 0.085278444 0.03769058
-0.023001494 0.084338807 0.039391845
-0.022447774 0.085146725 0.040309191
-0.021227248 0.083392762 0.040811628
-0.020898502 0.085142046 0.041499287
-0.020026878 0.084729105 0.041811138
-0.019398836 0.085354879 0.042164296
-0.01865088 0.085483208 0.0415079
-0.017789785 0.085081577 0.040492743
-0.017117988 0.085589945 0.039028585
-0.016520731 0.08653716 0.036987185
-0.016192775 0.089060269 0.032201529
-0.016785329 0.097178221 0.027919888
-0.015332665 0.093699627 0.021083176
-0.014184726 0.091783524 0.019125462
-0.013345969 0.091753535 0.017488986
-0.012512089 0.091755316 0.016355485
-0.011650963 0.09154328 0.015134364
-0.010793624 0.09133067 0.014534503
-0.0099132936 0.090871863 0.013887048
-0.0093095405 0.093095407 0.013588279
-0.0083467709 0.091814481 0.01371929
-0.007535784 0.092104033 0.013481855
-0.0068196617 0.093770348 0.013181418
-0.0059094438 0.092862688 0.013239056
-0.0050647235 0.092853263 0.013631105
-0.0042175041 0.092785098 0.013791382
-0.0033700939 0.092677578 0.013942659
-0.0025352058 0.092957549 0.01428777
-0.0016666449 0.091665469 0.014399409
-0.00083768042 0.092144847 0.014378041
0 0.092261523 0.014738768
0.00082880259 0.091168284 0.015438348
0.0016755813 0.092156976 0.015746176
0.0025355588 0.09297049 0.016395837
0.0033240023 0.091410063 0.016431689
0.004139903 0.091077872 0.017363638
0.0049927682 0.091534086 0.017744213
0.0057802349 0.090832263 0.019430935
0.0067561776 0.092897445 0.022235096
0.007820393 0.095582582 0.028114706
0.0077490197 0.085239217 0.033545226
0.0088951364 0.088951364 0.037609667
0.0092440387 0.084737025 0.039384723
0.0098998221 0.083767727 0.040539533
0.010703289 0.084097266 0.041718006
0.011682767 0.08567363 0.042200059
0.012197301 0.083856449 0.042096913
0.013081226 0.084643222 0.041370183
0.013845074 0.084608793 0.040941238
0.014761091 0.085458949 0.039922625
0.015270798 0.083989389 0.038885415
0.016189033 0.084799699 0.036526442
0.018401871 0.092009351 0.019452423
0.019501796 0.093269452 0.01731351
0.020201834 0.092591748 0.015246212
0.020852797 0.091752298 0.014606506
0.021692859 0.091777481 0.014000833
0.022791453 0.092854068 0.013915688
0.023677809 0.093019962 0.013739735
0.024461577 0.092785284 0.013055682
0.025216321 0.092459843 0.011738926
0.025786916 0.091501959 0.010487616
0.026672058 0.091685198 0.010029852
0.028020659 0.093402199 0.0077570975
-0.04157275 0.096136987 0.0071889162
-0.040031739 0.09454304 0.010305285
-0.038889579 0.093842246 0.010757416
-0.038671799 0.095390432 0.011135697
-0.037310485 0.094124176 0.011552691
-0.036871195 0.095179133 0.011603415
-0.035529029 0.093898147 0.012045264
-0.03514206 0.095140696 0.011574686
-0.033974763 0.094279967 0.011169016
-0.033187672 0.094457224 0.011093795
-0.032977544 0.096329138 0.011261612
-0.031181209 0.093543626 0.011384934
-0.030545043 0.094180547 0.011676788
-0.029628873 0.093965851 0.012239188
-0.028592937 0.093347527 0.012820601
-0.02796221 0.094054706 0.01399371
-0.027106831 0.094026819 0.015678793
-0.024228381 0.086753234 0.038157105
-0.02328393 0.086150542 0.040158391
-0.022419848 0.085813895 0.041037917
-0.021358138 0.084669761 0.041695237
-0.020753762 0.085321017 0.042479128
-0.020040002 0.08555539 0.042719513
-0.019154776 0.0850472 0.043063164
-0.018505219 0.085586637 0.042698354
-0.017709592 0.085468031 0.042402565
-0.016925035 0.085394494 0.040794879
-0.016570542 0.087587155 0.038900733
-0.015683573 0.087043837 0.036261857
-0.016215879 0.09473487 0.031383365
-0.015956812 0.098400339 0.022813708
-0.01465668 0.095699497 0.019316047
-0.0134896 0.093584098 0.017947942
-0.012457394 0.092184722 0.016421705
-0.011634455 0.092244603 0.015136063
-0.010768386 0.091945447 0.014467508
-0.010040142 0.092871308 0.013756543
-0.0091523901 0.092355944 0.013459235
-0.0084248278 0.09351559 0.013588637
-0.0075499848 0.093116485 0.013195008
-0.0066738324 0.092599422 0.01289925
-0.0058994861 0.093548991 0.012979329
-0.0050096586 0.092678688 0.013355881
-0.004200405 0.093248993 0.013540477
-0.0033911986 0.094105758 0.013761103
-0.0025549075 0.094531573 0.013894022
-0.0016597003 0.092113368 0.01387772
-0.00083602668 0.092798963 0.014100403
0 0.092564449 0.014504641
0.00083291269 0.092453308 0.015035301
0.0016642832 0.092367716 0.015495479
0.0024951547 0.092320725 0.016126156
0.0032870888 0.091216713 0.016423315
0.0041172723 0.091403447 0.017347544
0.004971589 0.0919744 0.017995298
0.0059920126 0.095016204 0.019676089
0.0070606056 0.097965904 0.025097966
0.0072296089 0.089165181 0.030474275
0.0079149799 0.087856285 0.037184834
0.0085644564 0.086423151 0.039443046
0.0091697518 0.084820203 0.040539533
0.010093501 0.086182967 0.041895181
0.010804948 0.085667804 0.042149216
0.011421627 0.084520042 0.042808563
0.012254306 0.085014254 0.042553127
0.013048896 0.085201614 0.041842461
0.013824587 0.085251622 0.041398942
0.014473963 0.084558412 0.041045874
0.014872516 0.082542464 0.039088547
0.016189767 0.085574478 0.038293153
0.018171953 0.091685764 0.020449489
0.018909123 0.091257066 0.017992765
0.020155134 0.093217492 0.01625669
0.020975826 0.093132667 0.015014797
0.021739988 0.092813022 0.014909238
0.022868713 0.094015822 0.014755785
0.023549432 0.093356676 0.014155149
0.02432528 0.093107097 0.013667554
0.025346152 0.093780763 0.012735188
0.026115576 0.093510605 0.010994673
0.026162028 0.090749539 0.010489911
0.028120702 0.094587818 0.0078949928
-0.041504238 0.09684322 0.0075444877
-0.039830688 0.094915681 0.01056689
-0.038832527 0.094548762 0.011484325
-0.038400162 0.095573731 0.012251079
-0.037011731 0.094211675 0.012336135
-0.036377981 0.094751947 0.012446105
-0.035812996 0.095501319 0.01253897
-0.03513873 0.095988728 0.012113363
-0.034027815 0.095277891 0.011838317
-0.033164129 0.095240578 0.011541098
-0.032316476 0.095248558 0.011725605
-0.031594008 0.095635906 0.011682451
-0.030664435 0.095400468 0.012090117
-0.0297102 0.095072642 0.012473881
-0.02901431 0.095576547 0.013401568
-0.027785858 0.094303519 0.014140874
-0.026937665 0.09428183 0.015859216
-0.024203729 0.087445728 0.038120508
-0.023372617 0.087257765 0.04046002
-0.022617757 0.087351337 0.041634738
-0.02145594 0.085823759 0.042501837
-0.021031495 0.087241754 0.043288022
-0.019990528 0.086113051 0.043549001
-0.019272847 0.086342357 0.043606818
-0.018491888 0.086295485 0.043644965
-0.017659077 0.085992023 0.043651044
-0.016861236 0.085839018 0.04306671
-0.016038939 0.085541002 0.041509867
-0.015730934 0.088093236 0.039541125
-0.015090954 0.088957198 0.035852283
-0.015348863 0.095504038 0.028299332
-0.015101021 0.099489078 0.02058661
-0.013654568 0.095581979 0.018587053
-0.012346369 0.092186227 0.017258465
-0.011502063 0.092016503 0.015809
-0.010670641 0.091931678 0.015024781
-0.009990694 0.093246475 0.014019996
-0.0091561629 0.093226388 0.013463229
-0.0083066812 0.093034826 0.013585716
-0.0075155203 0.093526475 0.013090223
-0.0067498307 0.094497629 0.012554318
-0.00587718 0.09403488 0.012635916
-0.0049835229 0.093025766 0.013234615
-0.0041718562 0.093449585 0.013243318
-0.003321602 0.09300486 0.013458908
-0.0024986502 0.093282938 0.013850629
-0.0016642644 0.093198806 0.013586611
-0.00083454681 0.09346924 0.014178127
0 0.093167 0.014522403
0.00084065337 0.094153181 0.015312165
0.001626216 0.091068096 0.015715837
0.0025035823 0.093467072 0.016625375
0.0032231964 0.090249501 0.0166547
0.0041598203 0.093179971 0.017411351
0.0050874422 0.094965585 0.018613219
0.006065812 0.097052991 0.020807445
0.0067305751 0.094228044 0.028736532
0.0070426632 0.087642029 0.035986423
0.0078523401 0.087946214 0.039529413
0.0083626416 0.085146897 0.040703118
0.0092962394 0.086764902 0.042349368
0.0098588606 0.084937878 0.043526083
0.010860412 0.086883299 0.043592125
0.011666866 0.087112598 0.043930352
0.012114967 0.084804773 0.043726414
0.012904834 0.085020088 0.043118477
0.013781876 0.085753903 0.041635454
0.014396644 0.084864423 0.041514605
0.015074062 0.08441475 0.040183246
0.01622982 0.086559035 0.038496882
0.017962873 0.091447361 0.021364182
0.019150443 0.093254335 0.018393517
0.020074617 0.093681552 0.016470313
0.020872936 0.093510747 0.015546262
0.021756459 0.093720138 0.015462607
0.022385713 0.092859246 0.01508835
0.02326362 0.093054481 0.014859825
0.024270561 0.093734577 0.013740897
0.025187539 0.09403348 0.01296562
0.025683109 0.092790581 0.011616617
0.026366279 0.092281975 0.010803282
0.027571451 0.093575835 0.0088847578
-0.041253716 0.097118124 0.0095150769
-0.039152842 0.094133429 0.010800481
-0.038450722 0.094455026 0.012155473
-0.03769026 0.09464442 0.012455672
-0.036972485 0.094952062 0.012953401
-0.036399711 0.095655054 0.013005108
-0.035360798 0.09513738 0.013103068
-0.034716226 0.095681302 0.012696028
-0.033522226 0.094700292 0.012462825
-0.033370562 0.096689068 0.012118727
-0.032122392 0.095521852 0.012316108
-0.031802822 0.097127534 0.012284964
-0.030446783 0.095569067 0.01271075
-0.030002054 0.096863776 0.01304552
-0.028997524 0.096374117 0.013973266
-0.027937742 0.095665604 0.014921963
-0.027103698 0.095709935 0.01738897
-0.024153586 0.088043712 0.037455708
-0.023222273 0.087470561 0.040574759
-0.02237053 0.087167926 0.041801244
-0.021619072 0.0872484 0.04267472
-0.020764893 0.086904921 0.043438375
-0.019832904 0.086196855 0.043593138
-0.019188587 0.086732402 0.043676376
-0.018495351 0.087082274 0.043867439
-0.017622007 0.086577676 0.043965876
-0.016955992 0.087092146 0.043900311
-0.016037133 0.086295038 0.04360047
-0.015417106 0.087106645 0.042789161
-0.014960862 0.088977754 0.040346146
-0.014796495 0.092889108 0.035748005
-0.014825079 0.098543167 0.022687286
-0.014431874 0.10192511 0.019752771
-0.012913606 0.097282499 0.018321097
-0.012046319 0.097231001 0.017211497
-0.01073308 0.093295239 0.016760737
-0.0099616675 0.093805708 0.015780985
-0.0090011517 0.092466369 0.015316516
-0.008151684 0.092114039 0.014942259
-0.0075317463 0.094565257 0.013733894
-0.0066792578 0.094344519 0.013449669
-0.0058589787 0.09458065 0.013486236
-0.0049894308 0.093967617 0.013819844
-0.0041439096 0.093652353 0.013836086
-0.0033450215 0.094496854 0.014049709
-0.0025119854 0.094618119 0.014087349
-0.0016654101 0.09409567 0.014528424
-0.00082772458 0.093532875 0.015082389
0 0.093015946 0.015464902
0.00081405242 0.091987923 0.016041696
0.001666701 0.094168611 0.016791612
0.0024943822 0.093955062 0.017241269
0.0033048869 0.093363054 0.017434269
0.0042137322 0.095230356 0.018531442
0.0054048351 0.10179106 0.019672722
0.0060372204 0.097457983 0.027569234
0.0063924878 0.090293892 0.035949409
0.007116748 0.089354731 0.040119231
0.0075879418 0.08574374 0.041877151
0.0082913833 0.085175119 0.043851614
0.0091395639 0.086064227 0.044234782
0.0098981922 0.086038135 0.044185311
0.010836104 0.087462835 0.044413507
0.011416503 0.086004324 0.044656217
0.012135233 0.085705079 0.044200957
0.012898437 0.085736662 0.043572158
0.013625184 0.085535884 0.042307436
0.014451882 0.085950665 0.041665375
0.014963455 0.084543519 0.040585041
0.016051902 0.086374514 0.038485408
0.01813684 0.093157411 0.022565335
0.019019421 0.093443245 0.018710434
0.019877404 0.09358944 0.016855091
0.020945784 0.094674937 0.016285926
0.021672301 0.094191156 0.016314179
0.022589371 0.094540693 0.015992612
0.02361246 0.095293142 0.015700489
0.024394028 0.095052592 0.01474902
0.02492716 0.093892299 0.013666958
0.026156256 0.095343769 0.012451261
0.026118925 0.092232451 0.01135096
0.027572909 0.094416328 0.010258108
-0.041252162 0.097973891 0.0093986988
-0.03930001 0.095323421 0.011734992
-0.038691223 0.095886938 0.012446344
-0.038077701 0.096463501 0.013598412
-0.037461661 0.097059764 0.013630927
-0.03644881 0.096631736 0.013504118
-0.035423588 0.096149735 0.013662875
-0.034717586 0.096531823 0.013330549
-0.03381563 0.096374549 0.01326248
-0.033378456 0.097567789 0.012812853
-0.032827131 0.098481394 0.013060063
-0.031620029 0.097423866 0.012989134
-0.030626753 0.096984722 0.013502061
-0.030129755 0.098136917 0.013881952
-0.0287342 0.096344076 0.0144822
-0.02752406 0.095083117 0.015347898
-0.026921369 0.095907375 0.018491268
-0.023800636 0.087524913 0.037130713
-0.02311587 0.087840304 0.04044196
-0.022159129 0.087108299 0.042319626
-0.021596758 0.087929651 0.043086678
-0.020645464 0.087169729 0.043533236
-0.02001928 0.08777684 0.0437195
-0.019231647 0.087696314 0.044015169
-0.018463584 0.087702021 0.044237733
-0.017716862 0.087814011 0.044406086
-0.016885635 0.087498285 0.044253707
-0.016115185 0.08748243 0.044163316
-0.015445668 0.088040315 0.043690711
-0.014534798 0.087208785 0.043331712
-0.014216293 0.090036519 0.041903019
-0.013706753 0.091915868 0.036334097
-0.013707061 0.097662807 0.023641527
-0.0131627 0.10003652 0.020239294
-0.012455237 0.10142121 0.018384576
-0.011360751 0.099625051 0.017744571
-0.010263222 0.097500607 0.016985774
-0.0091080917 0.094392955 0.016566962
-0.0082237208 0.093750425 0.016558677
-0.0074270815 0.094076365 0.015927374
-0.00659467 0.093974046 0.015587628
-0.0058181966 0.094753481 0.015755862
-0.0049516801 0.094081923 0.015663952
-0.0040966263 0.093403086 0.015671581
-0.0033074089 0.094261155 0.01573959
-0.0024602006 0.093487628 0.015858382
-0.0016592741 0.094578624 0.015818298
-0.00082724006 0.094305359 0.01661855
0 0.09362375 0.016916335
0.00082718133 0.094298668 0.017225415
0.001701143 0.096965149 0.017369062
0.0026273218 0.099838227 0.017841816
0.0035156906 0.10019718 0.018613219
0.0043988968 0.10029485 0.020393461
0.0052728793 0.10018471 0.027317226
0.0057201041 0.09315598 0.035672575
0.0062461752 0.089007989 0.040398031
0.006822404 0.086417124 0.04351747
0.0077084196 0.087875985 0.044223368
0.0083033554 0.086052962 0.044988453
0.0090604182 0.08607398 0.045126051
0.010016663 0.087838426 0.044993609
0.010701822 0.087143406 0.044933021
0.011394077 0.086594984 0.044861615
0.012440424 0.088638023 0.044589102
0.012855123 0.086204939 0.043709815
0.013846148 0.087692276 0.042999893
0.014377863 0.086267173 0.041750312
0.015203177 0.086658113 0.041042149
0.016153311 0.0876894 0.038283229
0.017909827 0.092805468 0.0226475
0.018760536 0.092987001 0.018846065
0.019832088 0.094202414 0.017671734
0.020967208 0.095610462 0.016607493
0.021749433 0.095362902 0.016574204
0.022663087 0.095688581 0.016303331
0.023639629 0.096247055 0.016025752
0.0240897 0.094697438 0.015257955
0.025045993 0.095174775 0.014582396
0.025714984 0.094564773 0.013834208
0.026419951 0.094121069 0.01228264
0.027352372 0.094490014 0.010414451
-0.04072785 0.09757714 0.0095279813
-0.039720464 0.097188368 0.01224944
-0.038502507 0.096256256 0.013493896
-0.038176037 0.097560972 0.013888001
-0.036965352 0.096613988 0.013841659
-0.036136713 0.096644692 0.013484657
-0.035936695 0.098398089 0.01382187
-0.03499135 0.098146461 0.013662875
-0.034283474 0.098564982 0.013459325
-0.033261005 0.09807732 0.013009697
-0.032517314 0.098407656 0.013501048
-0.031422187 0.097663544 0.01349619
-0.030879887 0.098644085 0.013547629
-0.029791135 0.097885154 0.014033884
-0.028612064 0.096776098 0.014527738
-0.027868401 0.097117156 0.015360057
-0.026776532 0.09622816 0.018426776
-0.024344781 0.090311281 0.037130713
-0.022874465 0.087685443 0.04044196
-0.022112338 0.087686852 0.042351335
-0.021458117 0.088131547 0.043385029
-0.020464504 0.08716362 0.043718934
-0.019781033 0.087493025 0.044204175
-0.019176565 0.0882122 0.044249117
-0.018417714 0.088251546 0.04475373
-0.017632511 0.088162549 0.044918299
-0.016956897 0.088638321 0.044517875
-0.016119305 0.088272385 0.044692278
-0.015546694 0.089393497 0.044184893
-0.014580821 0.088252336 0.043604404
-0.013656803 0.087251805 0.043086618
-0.013305516 0.090007901 0.037943721
-0.012925975 0.092905439 0.033206195
-0.012852697 0.098537341 0.02205205
-0.012066549 0.099118076 0.019260406
-0.011337256 0.10029111 0.018314511
-0.010831437 0.10380127 0.01750499
-0.0096684974 0.10107975 0.017199516
-0.0087484792 0.10060751 0.016730726
-0.0078751175 0.10062651 0.016456544
-0.0069488883 0.099890262 0.01588425
-0.0059554433 0.097839423 0.016052485
-0.0051421239 0.098557375 0.016093194
-0.0042896341 0.098661579 0.016146332
-0.003406716 0.097943082 0.016242445
-0.0025842716 0.099063739 0.0168235
-0.0017256854 0.099226907 0.016763926
-0.00086765556 0.099780388 0.016962349
0 0.1010072 0.01709789
0.00088933815 0.10227388 0.017344862
0.0017429141 0.10021756 0.017456412
0.002609411 0.10002742 0.018425345
0.0034718781 0.099816494 0.018992871
0.0041903108 0.096377149 0.021239847
0.0049775871 0.095403753 0.032295197
0.0054767928 0.089975879 0.039423794
0.0060929912 0.087586746 0.043108046
0.0068115685 0.087036707 0.043957949
0.007548661 0.086809605 0.044720232
0.0083900178 0.087713823 0.045340151
0.0091317547 0.087512642 0.045167536
0.0099864407 0.088341594 0.045134336
0.010605378 0.087115601 0.045012027
0.011486696 0.088064671 0.044938773
0.012081796 0.08683791 0.044803113
0.012984002 0.08783295 0.043916434
0.013714765 0.087622114 0.043059796
0.014447347 0.087444462 0.041766107
0.015083103 0.086727843 0.041042149
0.016110701 0.088225268 0.038496882
0.017547833 0.091727309 0.0226475
0.019029438 0.095147185 0.01889208
0.019915901 0.095430359 0.018065095
0.020615576 0.094831645 0.016883075
0.02159977 0.095537439 0.016749173
0.02234501 0.09517318 0.016470313
0.023303185 0.09570951 0.016518176
0.024362056 0.096608147 0.015571475
0.024992697 0.09580534 0.01505366
0.02578141 0.095640704 0.014079005
0.026219349 0.094225779 0.01253438
0.027176319 0.094705351 0.010891587
-0.041195352 0.09955544 0.0094174445
-0.039081678 0.096456915 0.013493896
-0.03875564 0.097731613 0.01396215
-0.037875794 0.097635381 0.014177203
-0.037097316 0.097802021 0.013970405
-0.036343347 0.098042518 0.013840139
-0.035631571 0.098411009 0.014156401
-0.034729313 0.09825854 0.013970405
-0.033584632 0.097395435 0.01399532
-0.033136714 0.09856049 0.013694227
-0.031939574 0.097499751 0.013851613
-0.031384151 0.098393552 0.01364255
-0.03070824 0.098948777 0.013810515
-0.02974692 0.098589793 0.014324367
-0.028801506 0.098263964 0.015055299
-0.027886558 0.098025478 0.015483111
-0.026969941 0.097766034 0.018491268
-0.023968376 0.089688115 0.037130713
-0.023137927 0.089466654 0.040323883
-0.022133259 0.088533036 0.04266119
-0.021383354 0.088588186 0.043420136
-0.020878537 0.089700378 0.04372111
-0.019805901 0.088364787 0.044467419
-0.019513123 0.090540893 0.044661582
-0.01840128 0.088939518 0.044979423
-0.017573731 0.088632725 0.044988185
