ply
format ascii 1.0
comment PCL generated
element vertex 1261
property float x
property float y
property float z
element camera 0
property float view_px
property float view_py
property float view_pz
property float x_axisx
property float x_axisy
property float x_axisz
property float y_axisx
property float y_axisy
property float y_axisz
property float z_axisx
property float z_axisy
property float z_axisz
property float focal
property float scalex
property float scaley
property float centerx
property float centery
property int viewportx
property int viewporty
property float k1
property float k2
end_header
-0.0041548689 -0.089745171 0.030777037
-0.0033246886 -0.089766599 0.031125665
-0.0025114035 -0.090410531 0.031289548
-0.0016863022 -0.091060326 0.031042308
-0.00081348931 -0.087856844 0.030974239
0 -0.08881712 0.030729264
0.00082673453 -0.089287333 0.031051576
0.0016614605 -0.089718871 0.031158984
0.0024921542 -0.08971756 0.031343579
0.0032486352 -0.087713152 0.031528771
0.0040901192 -0.088346578 0.031758964
0.0048822048 -0.087879688 0.031994313
0.0057327705 -0.088448465 0.032086372
0.0065401518 -0.088292047 0.03260085
0.0074139824 -0.0889678 0.03362
0.0082720239 -0.089337863 0.033806503
0.008895413 -0.087336786 0.034162223
0.0097133238 -0.08741992 0.034579992
0.01057172 -0.087826602 0.03471908
0.011307433 -0.087228775 0.035581291
0.012089376 -0.087043509 0.035639971
0.012955351 -0.087448619 0.036050826
0.013428769 -0.08531218 0.036285162
0.014332638 -0.085995831 0.036835283
0.015435648 -0.087739475 0.035656035
0.016090978 -0.086891286 0.035062224
0.016889812 -0.086861886 0.033185929
0.017788872 -0.087327197 0.011012316
0.019764399 -0.092806742 0.0068786144
-0.023184415 -0.088597588 0.0083060861
-0.022128262 -0.087693483 0.031242281
-0.02060275 -0.08478824 0.034521192
-0.020154297 -0.086260393 0.035722643
-0.019396042 -0.086474031 0.036747694
-0.018505193 -0.08608938 0.037305027
-0.018030334 -0.087692998 0.037305027
-0.016906546 -0.086142883 0.037343591
-0.016321087 -0.087317824 0.036725372
-0.015596233 -0.087831423 0.036011189
-0.014746251 -0.087658271 0.035646826
-0.013819377 -0.086980782 0.035086334
-0.01323563 -0.088513277 0.034741908
-0.012163169 -0.086763941 0.034024596
-0.011554353 -0.088308275 0.033553392
-0.010627324 -0.08747106 0.03254652
-0.0098487074 -0.087817639 0.032064766
-0.0091749709 -0.08924745 0.031774551
-0.0083054714 -0.088868551 0.031491578
-0.0073878863 -0.087833762 0.031001747
-0.0065908935 -0.088153198 0.03083095
-0.0059317802 -0.090671502 0.030673027
-0.0049774987 -0.088765398 0.030362457
-0.0042001754 -0.08988376 0.030150086
-0.0032843631 -0.087856717 0.030524641
-0.0025037888 -0.08930181 0.030442417
-0.0016555514 -0.088571995 0.030202895
-0.00082648697 -0.088434115 0.030319273
0 -0.087079264 0.030231655
0.00082365953 -0.088131577 0.030541509
0.0016534308 -0.088458553 0.030853987
0.0024864716 -0.088684157 0.030985236
0.0032600954 -0.087207556 0.031390071
0.0041141813 -0.088043481 0.031468987
0.0050061233 -0.089275874 0.031850159
0.0057281177 -0.087558374 0.032042712
0.0065809991 -0.088020869 0.032761484
0.0073730461 -0.087657332 0.033787876
0.0081517762 -0.087224007 0.034060836
0.0089210644 -0.086777627 0.034263432
0.0098296301 -0.087647535 0.034738958
0.010601301 -0.087256864 0.035544753
0.011392811 -0.087073632 0.036407024
0.012167583 -0.086795434 0.036287397
0.012811833 -0.085679136 0.036828339
0.013695311 -0.086199902 0.037202328
0.014517445 -0.086298153 0.037880093
0.015251887 -0.085892208 0.03714779
0.016003372 -0.085618049 0.036792725
0.016879367 -0.086004399 0.035765022
0.017532118 -0.085269846 0.030720979
0.01879197 -0.087423511 0.0085184276
0.021798141 -0.097183391 0.0061384141
-0.026751492 -0.097781315 0.0061692894
-0.022787118 -0.086265519 0.021194249
-0.022033976 -0.086503759 0.034278393
-0.021025402 -0.085718952 0.035278141
-0.02030063 -0.086074665 0.037174106
-0.019588826 -0.086517312 0.037824214
-0.018639838 -0.085905336 0.03808856
-0.017725565 -0.085404992 0.037951142
-0.016968951 -0.085652798 0.037738323
-0.016311195 -0.086449325 0.037471682
-0.015335184 -0.085554183 0.036220789
-0.014747982 -0.086849228 0.035927206
-0.013960106 -0.087045364 0.03536433
-0.013079876 -0.086654179 0.03503257
-0.012283814 -0.086805619 0.034276217
-0.011445245 -0.086656846 0.033705533
-0.010542789 -0.085964277 0.033006638
-0.0098795695 -0.08726953 0.03267312
-0.0090808608 -0.087506481 0.032048315
-0.0081921965 -0.086837277 0.031618178
-0.0074508158 -0.087754048 0.031107247
-0.0066308188 -0.087858349 0.030629486
-0.0057671559 -0.087331213 0.030510843
-0.0050506075 -0.089227401 0.030150086
-0.0041600573 -0.088193215 0.030150086
-0.0033446359 -0.088632852 0.030524641
-0.0025382338 -0.089684255 0.030442417
-0.0016504508 -0.087473884 0.030202895
-0.00083307177 -0.088305607 0.030279845
0 -0.088555768 0.030156195
0.00082776707 -0.087743305 0.030506939
0.0016844005 -0.089273222 0.030765384
0.0025074673 -0.088597178 0.030885756
0.0032394899 -0.085846476 0.031352341
0.0041485643 -0.087949567 0.031758964
0.0049537183 -0.087515689 0.031962216
0.0057725189 -0.087412424 0.032086372
0.0066789063 -0.088495508 0.03303045
0.0072758016 -0.085692771 0.034060091
0.0082623158 -0.087580547 0.034270942
0.0089460509 -0.086207405 0.035046488
0.0098682577 -0.08716961 0.035172433
0.010466969 -0.085346051 0.035894334
0.011414731 -0.086425811 0.036928803
0.012113292 -0.0856006 0.036876529
0.01293287 -0.085680261 0.037724882
0.013689795 -0.085359894 0.038090795
0.014305988 -0.084246375 0.038237333
0.015209888 -0.084855162 0.038053781
0.015749551 -0.083472617 0.037843257
0.016580792 -0.083693519 0.037328809
0.017542986 -0.084525302 0.035899907
0.018500421 -0.085262805 0.016201884
0.021241117 -0.093814932 0.0073669255
-0.026221937 -0.094941489 0.0069596767
-0.022613281 -0.084799804 0.029831201
-0.021577159 -0.083911173 0.03462711
-0.020801106 -0.084004469 0.037409157
-0.020193892 -0.08481434 0.038569719
-0.01933803 -0.084603883 0.038979203
-0.018885607 -0.086216897 0.039239615
-0.01748381 -0.083445452 0.039109111
-0.017345522 -0.086727604 0.038434833
-0.016267033 -0.085401922 0.038068384
-0.01542074 -0.085219875 0.036384553
-0.014566153 -0.08496923 0.036077082
-0.01392262 -0.085992649 0.035161138
-0.013100189 -0.085969992 0.034754306
-0.012385092 -0.086695641 0.034113675
-0.011493556 -0.086201668 0.033106804
-0.010663467 -0.086128004 0.03282389
-0.0099167842 -0.086771861 0.03228575
-0.0090909963 -0.086777687 0.031708866
-0.0083652809 -0.087835453 0.031435847
-0.0075312941 -0.087865099 0.030999243
-0.0066632107 -0.087454639 0.03064099
-0.0058961976 -0.088442959 0.030649841
-0.0049351896 -0.086365819 0.030614883
-0.0041865064 -0.087916635 0.030684382
-0.0033707602 -0.088482454 0.030775189
-0.0025068903 -0.087741159 0.030696869
-0.0016454529 -0.086386278 0.030692875
-0.00081948994 -0.086046442 0.030606687
0 -0.085730866 0.030320793
0.00081683596 -0.085767768 0.030912369
0.0016421502 -0.086212888 0.031057388
0.0025003441 -0.087512039 0.031126499
0.0032506876 -0.085330546 0.031545788
0.0041576093 -0.0873098 0.03163597
0.0049716337 -0.087003589 0.031679064
0.0058049723 -0.087074578 0.031766176
0.0065400884 -0.085838661 0.03284657
0.0073970347 -0.086298741 0.033886015
0.0082774311 -0.086913027 0.034108132
0.0088315867 -0.084301509 0.034615964
0.0097682234 -0.085471958 0.035248965
0.01063588 -0.085905179 0.036105454
0.011459722 -0.085947916 0.037026167
0.012187942 -0.085315593 0.037211478
0.013227485 -0.086805366 0.038243383
0.013725271 -0.084773727 0.038478345
0.014474942 -0.084437169 0.038760066
0.015399471 -0.085102342 0.038686842
0.016072635 -0.084381334 0.038420469
0.016525434 -0.08262717 0.038271546
0.017680751 -0.084385403 0.037825882
0.018519921 -0.084547468 0.033918321
0.021091666 -0.092276037 0.008061409
0.022251399 -0.093455873 0.0050226748
-0.024766291 -0.088817045 0.012860954
-0.022643533 -0.084104553 0.033457667
-0.02213089 -0.085244909 0.036193728
-0.020712709 -0.082850836 0.038929522
-0.020167906 -0.083898485 0.03952077
-0.019423343 -0.084167816 0.039635241
-0.018426862 -0.08332146 0.039952308
-0.0177771 -0.084037207 0.039955467
-0.016966231 -0.084023237 0.039293051
-0.016177932 -0.084125251 0.038544446
-0.015521997 -0.08496251 0.037397653
-0.014743783 -0.085186303 0.036300987
-0.013642433 -0.083459593 0.035437167
-0.0132082 -0.085853301 0.034818769
-0.012084808 -0.083788007 0.034061044
-0.011458465 -0.08512003 0.033028334
-0.010874717 -0.086997733 0.032051623
-0.0099398326 -0.086145215 0.031152129
-0.0091121262 -0.086151011 0.031125546
-0.0084335208 -0.087708615 0.031059533
-0.0073904051 -0.085400239 0.030618697
-0.0066375472 -0.086288109 0.030310571
-0.0058993888 -0.087648064 0.030325323
-0.0049272315 -0.08540535 0.030250996
-0.0042035235 -0.087433293 0.030295074
-0.0033173512 -0.086251132 0.030665219
-0.002501342 -0.086713195 0.030510843
-0.0016352468 -0.085032828 0.030159563
-0.00084524881 -0.087905876 0.030439138
0 -0.086930282 0.030156434
0.00081527006 -0.084788084 0.030515343
0.0016530686 -0.085959569 0.0307208
0.002510194 -0.087020054 0.030838341
0.0032977597 -0.085741751 0.03127113
0.0041778544 -0.086899377 0.031468958
0.0050097238 -0.086835213 0.03159374
0.005783739 -0.085929841 0.031526029
0.0066441554 -0.086374015 0.03241837
0.0074541247 -0.086136557 0.033711284
0.0081013711 -0.084254265 0.034036309
0.0088266023 -0.083451509 0.034615874
0.00997735 -0.086470366 0.035293519
0.010444543 -0.083556347 0.036411911
0.011441952 -0.084997348 0.037078261
0.01219627 -0.084560804 0.037454963
0.012846836 -0.083504431 0.038541734
0.013535177 -0.082803436 0.038855642
0.014319287 -0.082733661 0.039907336
0.015059406 -0.08243043 0.039861202
0.015910326 -0.082733691 0.039437771
0.016770676 -0.083054774 0.038711458
0.017270183 -0.081640869 0.038000643
0.018272366 -0.082622878 0.036299974
0.021084726 -0.091367148 0.0083219111
0.022820145 -0.094931804 0.0057097971
-0.025773719 -0.091541134 0.019170165
-0.022800718 -0.083874069 0.034953386
-0.021806978 -0.083189577 0.03845191
-0.020274742 -0.080319166 0.039566189
-0.020100523 -0.08281415 0.040301979
-0.019279456 -0.082741 0.040638983
-0.018348504 -0.082169384 0.041052341
-0.017523212 -0.082040496 0.041097969
-0.016889803 -0.082840465 0.040418595
-0.016087454 -0.082850389 0.039699167
-0.015435006 -0.083673976 0.0383389
-0.014837656 -0.084904373 0.037397653
-0.013842263 -0.083867833 0.035539746
-0.012846119 -0.082696892 0.034971327
-0.012253227 -0.084138826 0.034154356
-0.011642217 -0.085653454 0.032848805
-0.010615066 -0.084103979 0.031552136
-0.01002731 -0.086067751 0.030835629
-0.0091319336 -0.085508101 0.030895054
-0.0082143107 -0.084607407 0.030285448
-0.0074442979 -0.085195854 0.029975265
-0.0066198446 -0.0852305 0.02965948
-0.0058219619 -0.085666016 0.029730856
-0.0049440353 -0.084872603 0.029444784
-0.0041293139 -0.085063867 0.029372096
-0.0032525223 -0.083752446 0.029689729
-0.0024725674 -0.084891483 0.029738843
-0.0016463948 -0.084789336 0.029298574
-0.00081818551 -0.084273107 0.029751331
0 -0.084674768 0.029335022
0.00081511488 -0.083956838 0.030026048
0.0016395452 -0.084436573 0.030282229
0.0024748703 -0.084970549 0.030247808
0.0032126068 -0.082724623 0.030617863
0.004094773 -0.084352322 0.030877084
0.0048760171 -0.083704963 0.030888408
0.0057926192 -0.085234255 0.031215161
0.0066699092 -0.085875079 0.032338411
0.0074357963 -0.085098557 0.033665478
0.0083069913 -0.085562013 0.034036309
0.0090416791 -0.084662996 0.034664482
0.0097411592 -0.083611622 0.03581512
0.010551383 -0.083599418 0.03688401
0.011323297 -0.083307117 0.038059771
0.012224901 -0.083944321 0.038855433
0.013038712 -0.083936706 0.039471805
0.013739959 -0.083247989 0.040958762
0.01427486 -0.081683926 0.041896135
0.015029294 -0.081474595 0.04161796
0.016027294 -0.082540572 0.040961266
0.016526941 -0.081060708 0.040554553
0.017311761 -0.081050523 0.039450079
0.018122047 -0.081155248 0.038235784
0.020681521 -0.0887582 0.015326947
0.022366824 -0.092151307 0.0069468021
-0.024900332 -0.087580472 0.021175474
-0.022725234 -0.082784779 0.037073731
-0.021581251 -0.08152917 0.039473414
-0.020550588 -0.080621541 0.040440291
-0.020013781 -0.081656225 0.041090876
-0.019251371 -0.081818327 0.042164892
-0.018394781 -0.081576854 0.042726189
-0.017445454 -0.080883473 0.042503476
-0.016696708 -0.081098296 0.041697621
-0.017033095 -0.086868785 0.040709078
-0.015436418 -0.082869194 0.039549232
-0.01442368 -0.081734195 0.038340092
-0.013648851 -0.081893109 0.036502421
-0.013237359 -0.084388167 0.035324335
-0.01240318 -0.084341623 0.034226
-0.011424344 -0.083234504 0.032958806
-0.010713569 -0.084060311 0.031656593
-0.0097959135 -0.083265267 0.030559629
-0.0089684976 -0.083162442 0.030650556
-0.008319662 -0.084860556 0.03015554
-0.0075200112 -0.085226797 0.029348582
-0.0066205156 -0.084411569 0.028967798
-0.0060235448 -0.087771654 0.028710037
-0.0051065194 -0.086810835 0.028523266
-0.0042727035 -0.087163158 0.028039038
-0.0033728783 -0.0860084 0.028320074
-0.0025532849 -0.086811692 0.028161377
-0.0016837807 -0.085872814 0.027429342
-0.00084367028 -0.08605437 0.028033733
0 -0.0842406 0.027972788
0.00085436465 -0.087145194 0.028867424
0.0017076506 -0.087090179 0.02960676
0.0024744086 -0.0841299 0.029631227
0.0033901304 -0.086448327 0.029870212
0.0041533611 -0.084728569 0.030197978
0.0048693782 -0.08277943 0.03031674
0.0057237321 -0.083402954 0.030667692
0.0065831812 -0.083935559 0.032219172
0.0073876334 -0.083726518 0.032959402
0.0082499627 -0.084149621 0.0339894
0.0088275131 -0.081855126 0.035429329
0.0097392164 -0.082783341 0.036013544
0.010583056 -0.083036289 0.037950128
0.01111846 -0.081005923 0.039286494
0.01246075 -0.084733099 0.039855242
0.012727248 -0.081136212 0.041598469
0.013561538 -0.081369236 0.042265892
0.014398181 -0.081589699 0.042797416
0.015291753 -0.082092568 0.042660713
0.015549441 -0.079302147 0.04202196
0.016381957 -0.079569504 0.041682273
0.01732474 -0.080323793 0.040740192
0.018051498 -0.080054462 0.038947582
0.0197879 -0.084098577 0.030358672
0.022518821 -0.09187679 0.0078743696
0.022985261 -0.090172946 0.0055522621
-0.026965596 -0.090784177 0.0057163239
-0.024284016 -0.08457537 0.024222076
-0.022434833 -0.080925651 0.03796941
-0.021602027 -0.080807582 0.039621592
-0.020338817 -0.079008482 0.04113245
-0.020035995 -0.080945417 0.042334259
-0.019193403 -0.080772236 0.042677373
-0.017984841 -0.078976907 0.043096274
-0.017393483 -0.079851903 0.043096274
-0.016531808 -0.079510123 0.042854518
-0.015767729 -0.079627037 0.042160898
-0.017050192 -0.090635233 0.041416556
-0.014828818 -0.083206147 0.040245533
-0.013700156 -0.081395045 0.038468808
-0.013038238 -0.082303882 0.03607282
-0.012163312 -0.081899635 0.0349814
-0.011333537 -0.081763372 0.033943564
-0.010349687 -0.08040911 0.032659322
-0.0098613175 -0.082999423 0.031221479
-0.0091435146 -0.083954096 0.031077445
-0.0083529884 -0.084365182 0.030337602
-0.0073877801 -0.082907319 0.029306859
-0.0066953921 -0.084529325 0.02864632
-0.0057234196 -0.082580768 0.027935863
-0.0049772663 -0.083783992 0.027664751
-0.0041989912 -0.08481963 0.02751708
-0.003279119 -0.082797758 0.02740413
-0.0024576164 -0.082739748 0.027062804
-0.0016651569 -0.084090427 0.026665211
-0.0008282109 -0.0836493 0.027065694
0 -0.083153948 0.026960671
0.00083571917 -0.084407635 0.027757108
0.0016331143 -0.082472272 0.02880919
0.0024829782 -0.083593599 0.028912485
0.003279119 -0.082797758 0.029398799
0.0041147517 -0.083117984 0.029676348
0.0049637887 -0.083557114 0.02988866
0.005758591 -0.083088249 0.030419797
0.006514282 -0.082242809 0.032307357
0.0072601112 -0.081474587 0.033891052
0.0081360815 -0.082174428 0.034618765
0.0087417597 -0.080265254 0.035969913
0.0096322643 -0.081071563 0.036832333
0.010330483 -0.080259912 0.039334804
0.012092911 -0.087241717 0.0404329
0.012318399 -0.082943887 0.042786807
0.012169589 -0.07682053 0.043093115
0.013021323 -0.077361979 0.043769598
0.014020824 -0.078672402 0.044647664
0.014455915 -0.076844603 0.044727892
0.015627189 -0.078917302 0.043330461
0.016452452 -0.079128467 0.042491227
0.017296072 -0.079404697 0.041950643
0.018139614 -0.079656564 0.040702969
0.019224565 -0.080903381 0.035999209
0.022774147 -0.092007548 0.0087697804
0.023224419 -0.090217941 0.0068763793
0.02434648 -0.091073871 0.0053000748
-0.027680591 -0.092268638 0.0072974861
-0.024536164 -0.08460746 0.027699977
-0.022542225 -0.080507949 0.039300442
-0.02153505 -0.079759441 0.04104355
-0.020815888 -0.080061115 0.042558998
-0.019869179 -0.079476714 0.042889059
-0.018670378 -0.077793248 0.043170393
-0.018412482 -0.080054268 0.043963969
-0.017419329 -0.079178765 0.044185549
-0.016655693 -0.079312824 0.044227958
-0.015589133 -0.077945672 0.043111682
-0.014788916 -0.077836402 0.042850763
-0.016493866 -0.091632597 0.042619318
-0.01493809 -0.087871119 0.040629953
-0.014227198 -0.088919982 0.03797698
-0.013411924 -0.089412831 0.036034465
-0.012039628 -0.085997343 0.035141408
-0.010814672 -0.083189793 0.033603102
-0.0099600917 -0.083000764 0.031773299
-0.0089680823 -0.08152803 0.031400979
-0.008125511 -0.081255116 0.030440897
-0.0071866885 -0.079852097 0.030088276
-0.0065133991 -0.081417494 0.029399425
-0.0056659393 -0.080941997 0.029061764
-0.0048645129 -0.081075221 0.028008789
-0.0041272384 -0.082544774 0.027906537
-0.0032661504 -0.081653759 0.027870923
-0.0024478887 -0.081596293 0.027596205
-0.0016106542 -0.080532707 0.027296931
-0.00081219617 -0.081219621 0.028033733
0 -0.082255065 0.0281232
0.00080131169 -0.080131173 0.029521644
0.0015945643 -0.079728216 0.02983135
0.0024200273 -0.080667578 0.029763907
0.0031802612 -0.079506531 0.030203313
0.0039554057 -0.079108119 0.030861199
0.0048091495 -0.080152497 0.031349301
0.0057508145 -0.082154498 0.031894833
0.0066979281 -0.083724096 0.03381747
0.0072654639 -0.080727383 0.034858525
0.0084596388 -0.084596395 0.036015719
0.0097317388 -0.088470362 0.036870837
0.010937866 -0.091148883 0.03877601
0.012101364 -0.09308742 0.042030782
0.011518181 -0.082272723 0.043538272
0.011639333 -0.077595562 0.043869853
0.012763147 -0.079769671 0.044895232
0.01346709 -0.079218179 0.045835704
0.014373758 -0.079854213 0.0457021
0.0148967 -0.078403689 0.045802474
0.015886923 -0.079434626 0.045033693
0.016444784 -0.078308493 0.044101983
0.017272478 -0.078511268 0.042979479
0.017915288 -0.077892557 0.041950911
0.019070063 -0.079458602 0.038140625
0.022871695 -0.091486782 0.0090555847
0.022846669 -0.087871812 0.0079957247
0.023779081 -0.088070668 0.0062646866
0.024743402 -0.088369295 0.005844593
-0.027709125 -0.088490434 0.0050607324
-0.026775798 -0.088360138 0.0088325143
-0.023875833 -0.081507154 0.030124366
-0.021943575 -0.077586211 0.03907904
-0.021235051 -0.077861853 0.041474015
-0.020763528 -0.079061128 0.042845994
-0.019803969 -0.078423716 0.043188304
-0.018981926 -0.078300446 0.043886006
-0.018235659 -0.078492619 0.044360042
-0.017594645 -0.079175904 0.044809222
-0.016701424 -0.078735285 0.044899315
-0.015769692 -0.078059986 0.044811219
-0.014820031 -0.077220164 0.044487447
-0.013886152 -0.076373845 0.04430902
-0.013779595 -0.080245875 0.043845296
-0.014709626 -0.091015816 0.04111287
-0.013630938 -0.089964189 0.038361639
-0.011878553 -0.083998337 0.036672592
-0.011593929 -0.088292241 0.03551048
-0.010517572 -0.086769976 0.034728408
-0.0094953179 -0.085457869 0.032388061
-0.0087918146 -0.087038971 0.03127414
-0.0087950276 -0.096745312 0.030775458
-0.0074867941 -0.09264908 0.030255288
-0.006297702 -0.089067504 0.030225873
-0.0054891426 -0.09057086 0.029920101
-0.0045951488 -0.090983957 0.029285192
-0.0035824645 -0.088665999 0.029134631
-0.0027240145 -0.089892484 0.02898246
-0.0017808782 -0.088153474 0.028788328
-0.00088251551 -0.08736904 0.02981329
0 -0.088851824 0.029857278
0.0008993845 -0.089039065 0.030241191
0.0018065663 -0.089425027 0.030504435
0.002802853 -0.092494152 0.030700445
0.003558316 -0.088068321 0.030862033
0.0046999068 -0.093058154 0.031457871
0.0055718813 -0.091936044 0.032190174
0.006263318 -0.088581212 0.0329476
0.0072150463 -0.089286201 0.036158979
0.0079402365 -0.087342612 0.036775053
0.0092935953 -0.092006594 0.03799966
0.0098402714 -0.088562444 0.040447146
0.010731985 -0.088538878 0.043420762
0.010292642 -0.078382425 0.044430226
0.010841675 -0.076666132 0.04511556
0.011534349 -0.076126702 0.045917869
0.012334359 -0.076318845 0.04634881
0.013231668 -0.077055007 0.046149492
0.013930856 -0.076619714 0.046144903
0.015088526 -0.07861916 0.046127468
0.015410243 -0.076280706 0.045394212
0.016357565 -0.077114239 0.044768661
0.017503623 -0.078766309 0.043792427
0.017874099 -0.076936342 0.042460114
0.019118069 -0.078862034 0.039747596
0.022750637 -0.090092525 0.010983646
0.022944473 -0.087365493 0.0083672702
0.024440402 -0.089614809 0.0070903897
0.025162937 -0.088968962 0.0072788298
0.026144587 -0.089252204 0.0059624612
-0.028144371 -0.088972516 0.0056987703
-0.02737603 -0.089428358 0.010041684
-0.024088366 -0.081402056 0.030102432
-0.022225933 -0.07779076 0.039730698
-0.021512199 -0.07808131 0.041852742
-0.020125484 -0.075857587 0.042954236
-0.020009026 -0.078435376 0.043276697
-0.019344814 -0.078991316 0.043894529
-0.018235331 -0.077698365 0.044588864
-0.017124735 -0.076282911 0.044984549
-0.016696192 -0.077915557 0.045599312
-0.015558773 -0.076237984 0.045094877
-0.015139981 -0.078090429 0.045386463
-0.014190273 -0.077258155 0.045277238
-0.013215194 -0.076181702 0.044882268
-0.012335829 -0.075556949 0.043902963
-0.012445676 -0.081311747 0.043386668
-0.012951924 -0.09066347 0.040527076
-0.011349019 -0.085554138 0.037965626
-0.010428482 -0.085165933 0.035751283
-0.0096968487 -0.086390108 0.035438299
-0.0090390705 -0.088582896 0.033559382
-0.0077093085 -0.083945803 0.033400714
-0.0072898157 -0.089300238 0.032463014
-0.006167057 -0.086338796 0.03178671
-0.0055655222 -0.090903528 0.031253606
-0.0047360943 -0.092827447 0.031644613
-0.0035122943 -0.086051203 0.031270653
-0.0027469161 -0.089732595 0.030775189
-0.0018217103 -0.089263797 0.031200856
-0.00090458541 -0.08864937 0.031392753
0 -0.090982817 0.031478912
0.00086472777 -0.084743313 0.031913698
0.0018104578 -0.088712431 0.031838179
0.0028382372 -0.092715748 0.031849116
0.0033450534 -0.081953801 0.032716125
0.0041738031 -0.08180654 0.033043325
0.0051217442 -0.083655156 0.034911066
0.0060853986 -0.085195579 0.035904229
0.0071410728 -0.087478139 0.039875627
0.0082651116 -0.089997888 0.042110234
0.0090668984 -0.088855602 0.043667734
0.0086216638 -0.076811187 0.044750959
0.0092158513 -0.075262785 0.046382368
0.010133163 -0.076388456 0.046445131
0.010925855 -0.076480985 0.046776325
0.011855307 -0.077454671 0.047032088
0.012327307 -0.07550475 0.047131538
0.013477747 -0.077695243 0.046673775
0.014204119 -0.07733354 0.046395659
0.014701597 -0.07582929 0.046131492
0.015536294 -0.076127842 0.045504153
0.016471373 -0.076866403 0.044852972
0.017101316 -0.076178588 0.044114619
0.018066688 -0.076979794 0.042559057
0.018944664 -0.077357374 0.040253073
0.022146041 -0.086812474 0.014478028
0.02321131 -0.087488778 0.0092563629
0.023387058 -0.08488635 0.0083672702
0.024454482 -0.085590683 0.0083298683
0.026116859 -0.08825697 0.0072550476
0.026622919 -0.086968198 0.0060379207
0.027629925 -0.087346204 0.0055214465
-0.027202435 -0.085117288 0.0072378516
-0.028042404 -0.090670437 0.010748178
-0.023550173 -0.078771263 0.030119985
-0.022162514 -0.076777279 0.038973182
-0.021301011 -0.076525845 0.041829318
-0.021021163 -0.078425109 0.042989224
-0.019838613 -0.076973818 0.043454975
-0.019121641 -0.0772833 0.044163585
-0.018403647 -0.07761538 0.045060009
-0.017435281 -0.076873735 0.045607597
-0.016624989 -0.076791607 0.045835286
-0.015870748 -0.076973125 0.04582876
-0.01498784 -0.076516867 0.045993805
-0.01402579 -0.075583428 0.045815706
-0.01329928 -0.075884119 0.045637429
-0.012485974 -0.075696222 0.045826524
-0.011497924 -0.07435324 0.045923322
-0.010610431 -0.073515125 0.045408279
-0.0099996226 -0.074612565 0.044602573
-0.010145893 -0.082012638 0.043542385
-0.01053257 -0.092878118 0.03834331
-0.0097824065 -0.094889343 0.037873775
-0.0082634659 -0.089061797 0.036110193
-0.0071063144 -0.086164057 0.035691857
-0.0061913417 -0.085794307 0.03523612
-0.0055502369 -0.089728832 0.034540117
-0.0045444663 -0.088162646 0.033268422
-0.003615523 -0.087676428 0.032996804
-0.0025678824 -0.083028197 0.031820804
-0.0017732191 -0.086001121 0.031744868
-0.00088892848 -0.086226061 0.032223433
0 -0.084197253 0.032349467
0.00089935795 -0.087237716 0.033413827
0.0017958555 -0.087098986 0.033863544
0.0027209423 -0.087977134 0.034213722
0.0035723851 -0.086630337 0.035904229
0.0046564559 -0.09033525 0.0379664
0.0057020402 -0.092182986 0.041320503
0.0067288536 -0.093242683 0.04281044
0.0065332782 -0.079215996 0.045334935
0.0069368752 -0.074764103 0.045853972
0.0075437026 -0.073173918 0.047141224
0.0085067255 -0.075013854 0.047157198
0.009425858 -0.076192349 0.047471225
0.01003966 -0.074911311 0.047523052
0.011020023 -0.076353014 0.047546089
0.011671139 -0.075473368 0.047425359
0.012596822 -0.076368235 0.047536641
0.013321424 -0.076010473 0.047001123
0.013897915 -0.074894324 0.046761543
0.014649304 -0.074788548 0.046475589
0.015381852 -0.074601986 0.045655757
0.016401285 -0.075758308 0.044930071
0.017154088 -0.075633936 0.043960243
0.017852519 -0.075291052 0.042351514
0.018836265 -0.076129906 0.040206969
0.022089237 -0.085706234 0.015195757
0.023033941 -0.085934319 0.011100084
0.024096547 -0.086569071 0.0084252954
0.025213419 -0.087346479 0.0084141791
0.026085528 -0.087251589 0.0077668428
0.02612575 -0.084473252 0.0064685643
0.027272042 -0.085335098 0.0058446825
-0.028351692 -0.085055076 0.0060797632
-0.027390141 -0.084821075 0.0088375807
-0.026942434 -0.086215787 0.011497259
-0.023503501 -0.077804685 0.030313343
-0.022499733 -0.077141941 0.039025426
-0.021563899 -0.076671638 0.041434705
-0.020394616 -0.075303197 0.042882055
-0.020172428 -0.077462122 0.043295026
-0.018785883 -0.075143531 0.044011265
-0.018121365 -0.075636998 0.045102596
-0.017275859 -0.075385571 0.045708716
-0.016777446 -0.076696895 0.045956373
-0.015638148 -0.075063109 0.046020269
-0.015015499 -0.07586778 0.046294004
-0.014212899 -0.075802132 0.046410084
-0.013212182 -0.074609965 0.04643631
-0.012651391 -0.075908348 0.046577811
-0.011799548 -0.075517103 0.046514094
-0.010875311 -0.074573562 0.04643327
-0.010044607 -0.074175566 0.046602935
-0.0092754746 -0.074203797 0.046499372
-0.0082964189 -0.072405107 0.046009064
-0.0074869487 -0.071874708 0.046011358
-0.0069376277 -0.074001364 0.045873463
-0.0063463543 -0.076156251 0.04481411
-0.0058923475 -0.08080934 0.042843252
-0.0053936853 -0.086298965 0.040001005
-0.0044269995 -0.084998392 0.038377017
-0.0036804306 -0.088330336 0.038483649
-0.002725695 -0.087222241 0.037582994
-0.0018922195 -0.090826534 0.038024902
-0.00095696852 -0.091868982 0.039453775
0 -0.087309934 0.042462617
0.00089631305 -0.086046055 0.042228788
0.0016577821 -0.079573542 0.042907834
0.0023550116 -0.075360373 0.044421494
0.0030832707 -0.073998496 0.044205546
0.0037970699 -0.072903745 0.04602775
0.0044730986 -0.071569577 0.046351492
0.0052184146 -0.071566828 0.047075868
0.0061172931 -0.073407516 0.047302812
0.0070704683 -0.075418331 0.047471792
0.0077827275 -0.074714184 0.047761619
0.0085115721 -0.07428281 0.04775691
0.0092996554 -0.074397244 0.04771173
0.010266486 -0.075814046 0.047662437
0.010977353 -0.075273275 0.047345072
0.011787104 -0.075437471 0.047333211
0.012297804 -0.073786825 0.047313452
0.013309871 -0.075161621 0.046889484
0.013866373 -0.073953994 0.046389401
0.014435945 -0.072939515 0.046099335
0.015719874 -0.075455397 0.045495808
0.016640661 -0.07607159 0.044545829
0.017071357 -0.0744932 0.043471605
0.018084604 -0.075483561 0.041771293
0.018623935 -0.07449574 0.040177554
0.021333888 -0.081922129 0.015139461
0.02291471 -0.08460816 0.012031257
0.023867415 -0.084861912 0.0090343654
0.024995839 -0.08570002 0.0092478096
0.025537737 -0.084538713 0.0087040067
0.02666568 -0.085330173 0.0076523721
0.027263675 -0.084429435 0.0068769455
0.028523831 -0.08557149 0.006118983
0.028892737 -0.084051602 0.0051492453
-0.029835897 -0.085891224 0.0057943463
-0.027688134 -0.082199149 0.0067590475
-0.027990531 -0.085777432 0.009483248
-0.026403757 -0.083611898 0.01323548
-0.024119087 -0.0790108 0.03044945
-0.022338372 -0.075790904 0.038901597
-0.021587217 -0.075955018 0.041193157
-0.0203753 -0.074448213 0.042107791
-0.020001693 -0.076006427 0.04319787
-0.018989766 -0.075167827 0.044001013
-0.01808661 -0.074705563 0.04454419
-0.017428951 -0.075261384 0.045214683
-0.016263086 -0.073571101 0.045856088
-0.015655257 -0.074362472 0.045950681
-0.014947395 -0.074736975 0.046257704
-0.014121696 -0.074531183 0.046714157
-0.013165218 -0.073570333 0.046529502
-0.012601616 -0.074822091 0.046717435
-0.011653246 -0.073803894 0.046993494
-0.011069042 -0.075111359 0.046956688
-0.010129673 -0.074024536 0.047967643
-0.0094458004 -0.074779257 0.047941059
-0.0084896293 -0.073319532 0.048110455
-0.0077776327 -0.073887512 0.048251867
-0.0069671664 -0.073542312 0.048251867
-0.0062308344 -0.073991157 0.048394412
-0.0053874482 -0.073115371 0.048514217
-0.0045404006 -0.071889676 0.049300313
-0.0037535368 -0.071317203 0.04944399
-0.0029881974 -0.070969686 0.049474657
-0.0023040185 -0.072960585 0.04921931
-0.0015190681 -0.072155736 0.048785865
-0.0007493369 -0.071187004 0.049529463
0 -0.071976244 0.049520791
0.00076387153 -0.072567791 0.049594492
0.0015003217 -0.07126528 0.04939124
0.0023260869 -0.07365942 0.049327672
0.0030586729 -0.072643481 0.047842205
0.0038469674 -0.073092379 0.047759861
0.0046130074 -0.073039286 0.047996163
0.0054061329 -0.073368952 0.048129141
0.0061439988 -0.072959982 0.048368722
0.0070787305 -0.074719936 0.048294336
0.0078582913 -0.074653767 0.048237234
0.0085790008 -0.074091375 0.047914028
0.0094023924 -0.074435607 0.047702402
0.010039484 -0.073365465 0.047462463
0.010951172 -0.074311525 0.047278136
0.011561651 -0.073223785 0.047172338
0.012351215 -0.073335335 0.047078758
0.013190409 -0.073711105 0.046570331
0.01384432 -0.073067248 0.045696199
0.014614104 -0.073070519 0.045504153
0.015546228 -0.073844582 0.044714719
0.016551742 -0.074876927 0.043646604
0.017165685 -0.074124552 0.042801887
0.018172439 -0.07506007 0.041570187
0.018910168 -0.07485275 0.04002592
0.021396229 -0.081305668 0.015069395
0.022990715 -0.084004536 0.012815535
0.024171738 -0.085048705 0.01086688
0.024930345 -0.0845851 0.0096764266
0.025483444 -0.083480246 0.0093759596
0.026368257 -0.083499476 0.0080966949
0.027563237 -0.084467985 0.0075786114
0.027928507 -0.082912751 0.0069082379
0.029086538 -0.083733968 0.006005317
-0.03150209 -0.084605619 0.0050475299
-0.030421188 -0.084105641 0.0056762397
-0.030030169 -0.085540481 0.0065217614
-0.028220527 -0.082897797 0.0077736974
-0.027653804 -0.083853468 0.0095969439
-0.026722154 -0.083729416 0.014200747
-0.024012318 -0.077833027 0.030586123
-0.022763701 -0.076421 0.038403749
-0.021602442 -0.0752085 0.0404661
-0.021535676 -0.077859752 0.041541547
-0.019737333 -0.074212372 0.043016165
-0.019185239 -0.07514219 0.043488353
-0.018464742 -0.075464599 0.044107169
-0.017499965 -0.074772581 0.044669807
-0.016739003 -0.074926965 0.04533565
-0.015521703 -0.07295201 0.045603901
-0.015043616 -0.074426316 0.046011984
-0.013672723 -0.071402006 0.046143651
-0.013280452 -0.073433094 0.046474636
-0.012266061 -0.072063111 0.046674371
-0.011392822 -0.071395025 0.047190815
-0.011138351 -0.074786067 0.047520369
-0.010021958 -0.072466463 0.048253
-0.0094126342 -0.073732302 0.048866361
-0.0085178753 -0.072789118 0.049090475
-0.0076437173 -0.071850948 0.049218267
-0.0069555743 -0.07264711 0.04923144
-0.0062077325 -0.072940856 0.049565822
-0.0053804913 -0.072252311 0.049664795
-0.0046408726 -0.072707005 0.050166965
-0.0039515058 -0.074288309 0.050188631
-0.00304234 -0.071494989 0.050311893
-0.0022789531 -0.071407199 0.050348878
-0.0015602815 -0.073333234 0.049924612
-0.00077937602 -0.073261343 0.05071187
0 -0.071950339 0.050969422
0.00076364604 -0.071782731 0.050613821
0.0015340454 -0.072100133 0.050852031
0.0023142113 -0.072511956 0.050806403
0.0030929113 -0.072683416 0.050442636
0.0037912491 -0.071275488 0.050017565
0.0047904402 -0.075050227 0.049905986
0.0054789525 -0.073574506 0.05003354
0.0061797206 -0.072611719 0.049098521
0.0068476857 -0.071520276 0.048598915
0.0076632998 -0.072035022 0.048516572
0.0085302759 -0.072895087 0.048286766
0.0093044098 -0.072884552 0.047975838
0.010197038 -0.073732428 0.047932565
0.010854307 -0.072878912 0.047640562
0.011453329 -0.071774192 0.047592938
0.012416007 -0.072944038 0.047252893
0.013453869 -0.074391983 0.046551019
0.014224584 -0.074283943 0.046087056
0.014951235 -0.073969267 0.045877874
0.015914192 -0.074796706 0.044579715
0.016376736 -0.073305383 0.043548018
0.017288713 -0.073869959 0.042318851
0.018137595 -0.074127555 0.041105002
0.018808363 -0.073666088 0.039637595
0.021556281 -0.08105161 0.015089095
0.02301123 -0.08319445 0.013140678
0.023775799 -0.082775004 0.011361927
0.024552893 -0.082427569 0.011024803
0.024979061 -0.080966607 0.0095701218
0.026496598 -0.083022676 0.0087243319
0.027549217 -0.083536327 0.0078842342
0.027904272 -0.081968799 0.0072703362
0.028784445 -0.081992052 0.006442368
0.029359212 -0.081169583 0.0054937601
-0.034830522 -0.083057404 0.0050061047
-0.033218879 -0.083496094 0.0050973296
-0.031857293 -0.082298018 0.0051426888
-0.031939879 -0.084868819 0.005340457
-0.030904818 -0.084533766 0.0065910518
-0.029333632 -0.082667507 0.0073763728
-0.028427444 -0.082617261 0.0085217059
-0.026712535 -0.080137603 0.010695428
-0.026422355 -0.081909299 0.014270455
-0.024506621 -0.078590192 0.025310546
-0.022597078 -0.075054578 0.038135201
-0.021377549 -0.073633775 0.039483488
-0.020860238 -0.074615464 0.041129649
-0.019945344 -0.074196681 0.041800171
-0.01929402 -0.074764334 0.042985588
-0.018354923 -0.074217729 0.043786734
-0.017696215 -0.074806735 0.044322431
-0.016879043 -0.074750051 0.044945329
-0.01608316 -0.074786693 0.045264751
-0.015266112 -0.074723601 0.046013743
-0.014329643 -0.074036494 0.04614383
-0.013350345 -0.073034242 0.046547174
-0.012291841 -0.071446322 0.046763599
-0.011679567 -0.072413318 0.047265679
-0.010860316 -0.072143525 0.047747046
-0.0099773463 -0.071376398 0.048866361
-0.0092176637 -0.071436897 0.048966199
-0.0085767973 -0.072512925 0.049293071
-0.0078017293 -0.072556086 0.049444348
-0.0070214174 -0.072554648 0.049507946
-0.0062287482 -0.072409198 0.050081998
-0.0055343648 -0.073527992 0.050179839
-0.0046894085 -0.07268583 0.050373465
-0.0038764924 -0.072102763 0.050707608
-0.0031872715 -0.074104063 0.050853848
-0.0023477424 -0.072780021 0.050749928
-0.0015508123 -0.072112769 0.050988883
-0.00077279977 -0.071870379 0.051414639
0 -0.070810102 0.051243901
0.00079109235 -0.073571593 0.051031858
0.0015486742 -0.072013348 0.050940245
0.0023227986 -0.072006762 0.050902933
0.0030513904 -0.070944831 0.050667197
0.0039127185 -0.072776571 0.05024001
0.0045005637 -0.069758736 0.049979359
0.0053186268 -0.070661753 0.049861997
0.0061954954 -0.072022632 0.049387157
0.0068391887 -0.070671618 0.048452049
0.0076788254 -0.071413077 0.048300415
0.0085278163 -0.072098814 0.04799217
0.0092796413 -0.071917221 0.047928661
0.0101695 -0.072751045 0.047666103
0.011132883 -0.07395415 0.047408074
0.011746338 -0.072827294 0.047123611
0.012695396 -0.073791996 0.04679805
0.013294862 -0.072730713 0.04616791
0.014352072 -0.074152373 0.045744091
0.015163533 -0.074221507 0.045533597
0.01562164 -0.072640628 0.043973714
0.016798079 -0.074391492 0.043257147
0.017303489 -0.073146567 0.042136878
0.018273091 -0.073886849 0.040862739
0.019188721 -0.074356295 0.038058758
0.021559291 -0.08020056 0.015073359
0.022598593 -0.080833428 0.013517201
0.023484901 -0.080892436 0.011630535
0.024218027 -0.08043845 0.011292815
0.02515777 -0.080678366 0.010197282
0.026406363 -0.081859723 0.0092444718
0.026708862 -0.080126584 0.0089064538
0.027688481 -0.080469646 0.0077780485
0.029310187 -0.082601443 0.0069025457
0.0297195 -0.081291579 0.0060023367
-0.035772592 -0.08227697 0.0051655173
-0.035453942 -0.083634943 0.0059397519
-0.033749979 -0.08171048 0.0058495998
-0.033015795 -0.082093328 0.0057891905
-0.031823505 -0.081326738 0.006216377
-0.031097271 -0.0817414 0.0065910518
-0.030343786 -0.082106717 0.0070348084
-0.029206939 -0.081425406 0.0083080232
-0.028298875 -0.081359267 0.0092923641
-0.027226757 -0.080801994 0.010973454
-0.027034184 -0.082904838 0.013013184
-0.024575016 -0.077962115 0.024268031
-0.022695744 -0.074571736 0.037014782
-0.021691818 -0.073912859 0.039038271
-0.02060489 -0.072909608 0.040605545
-0.020269135 -0.074590422 0.041475564
-0.01943841 -0.074513905 0.041790873
-0.018367697 -0.073470786 0.043124408
-0.018025739 -0.075380363 0.043558687
-0.016630305 -0.072856575 0.043923527
-0.015707355 -0.072253838 0.044562161
-0.015101912 -0.073125042 0.045302182
-0.014379171 -0.07349354 0.045693338
-0.013338485 -0.072184741 0.046231836
-0.012694754 -0.072994836 0.046225995
-0.011667263 -0.071559213 0.047012776
-0.010936111 -0.071865879 0.047560453
-0.010267732 -0.072663948 0.048165828
-0.0091321953 -0.070013501 0.048866361
-0.0084122634 -0.070357114 0.04912132
-0.0078434348 -0.072159611 0.049487412
-0.0068937363 -0.070469305 0.049521118
-0.0061955675 -0.071249031 0.050276875
-0.0054928991 -0.072192393 0.0503681
-0.0045254934 -0.0693909 0.050557703
-0.0038717869 -0.07124088 0.051039696
-0.0031177155 -0.071707457 0.051478833
-0.0023288869 -0.071419202 0.051477253
-0.0015509505 -0.07134372 0.051309615
-0.00076520181 -0.070398569 0.051456213
0 -0.070819743 0.051357061
0.00075807091 -0.069742523 0.051140368
0.0015200503 -0.069922313 0.051389515
0.0022827156 -0.070003286 0.051321238
0.003054729 -0.070258766 0.050902933
0.00387862 -0.071366616 0.050565571
0.0046231765 -0.070888706 0.05052647
0.0054030633 -0.071011692 0.050017565
0.006062008 -0.069713093 0.049377292
0.0071755173 -0.073349737 0.048434973
0.0078891786 -0.072580442 0.048167467
0.0084547363 -0.070712343 0.04790622
0.0093431799 -0.071631052 0.047562599
0.01015423 -0.071860701 0.047226638
0.011103233 -0.072964109 0.047069669
0.011680624 -0.071641162 0.04681024
0.012553194 -0.072180867 0.046639532
0.013478783 -0.072944 0.045980632
0.01441016 -0.073651932 0.045165479
0.015012812 -0.072693616 0.044557095
0.015663432 -0.072051793 0.043555081
0.016606625 -0.072752833 0.042638272
0.017328626 -0.072465166 0.041670948
0.01835132 -0.073405281 0.040242165
0.019350136 -0.074175529 0.035790324
0.021538457 -0.079261519 0.015073359
0.022530768 -0.07972426 0.013517201
0.023368055 -0.079624481 0.012049407
0.024669504 -0.081056945 0.011622667
0.025633927 -0.081321418 0.011368006
0.026451007 -0.081116423 0.010001451
0.026905296 -0.079847977 0.0095638931
0.028742496 -0.082634673 0.0087420046
0.028391832 -0.079152994 0.0074724555
0.029401457 -0.079556882 0.0065436661
0.030836158 -0.081055045 0.0057913363
-0.035867754 -0.079608917 0.0056738555
-0.03600489 -0.081911132 0.0063901246
-0.034314226 -0.080066532 0.0066456497
-0.034087628 -0.081630901 0.0066128969
-0.032976635 -0.081104688 0.0066666305
-0.031844936 -0.080496922 0.0069436729
-0.030844504 -0.080195718 0.0072485507
-0.030327937 -0.081171833 0.0081125796
-0.029566927 -0.081533045 0.0092028677
-0.028372966 -0.080685623 0.0099965334
-0.02756127 -0.080905661 0.011086166
-0.026002785 -0.078875117 0.013264924
-0.024645064 -0.077334516 0.023339629
-0.022761175 -0.07397382 0.036750942
-0.021733994 -0.073251612 0.038569808
-0.02095237 -0.073333293 0.039547145
-0.020032343 -0.072917722 0.04089573
-0.019062895 -0.072280146 0.041369975
-0.018526472 -0.073300391 0.041932821
-0.017647577 -0.072996803 0.042676002
-0.016921133 -0.073324911 0.043475062
-0.015658863 -0.071247831 0.043808848
-0.015300813 -0.073282838 0.044349998
-0.014497096 -0.073290877 0.044664592
-0.013402277 -0.071741603 0.045381039
-0.012558106 -0.071424231 0.045968115
-0.011972167 -0.072631143 0.046140313
-0.011059348 -0.071885757 0.046937853
-0.010247814 -0.071734697 0.047711641
-0.0094816172 -0.071902268 0.048085243
-0.0086051226 -0.071187839 0.048743367
-0.0077692368 -0.070700057 0.04900673
-0.00694991 -0.070271313 0.049426258
-0.0061323564 -0.069755554 0.050172567
-0.0054501095 -0.07085143 0.050360292
-0.0045893048 -0.069604464 0.050673902
-0.0038408951 -0.069904298 0.051205575
-0.0031284471 -0.07117217 0.051717877
-0.0023180239 -0.070313394 0.051745206
-0.0015506044 -0.070552498 0.051566511
-0.00076454756 -0.069573827 0.051466346
0 -0.069601089 0.051413387
0.00077239575 -0.070288017 0.051494151
0.0015425185 -0.070184596 0.051494598
0.002334255 -0.070805743 0.051361173
0.0030418825 -0.069202833 0.051056087
0.0038679456 -0.070396617 0.050533026
0.0046000062 -0.06976676 0.050097257
0.0054022544 -0.070229307 0.049924254
0.0062645623 -0.071259394 0.048960924
0.0070750946 -0.071537077 0.048325151
0.0078476956 -0.071414039 0.04799217
0.008646965 -0.071533985 0.047565699
0.0093946103 -0.071242467 0.047197998
0.010267127 -0.071869895 0.047089428
0.011015257 -0.071599171 0.046632737
0.012033663 -0.073004223 0.046115547
0.01269594 -0.072208166 0.045843422
0.013502256 -0.072276786 0.044924527
0.014129297 -0.071431451 0.044370323
0.015192481 -0.072763987 0.043870717
0.015984297 -0.072728559 0.043267161
0.016716633 -0.072438747 0.042232305
0.017545696 -0.07257539 0.040991008
0.018200152 -0.072009295 0.039637595
0.019212469 -0.072847284 0.033879638
0.022029344 -0.080186814 0.015399426
0.022826837 -0.079893932 0.013977885
0.023529675 -0.079303719 0.012752831
0.024576554 -0.079873808 0.012065142
0.024940895 -0.078262806 0.011097729
0.026385257 -0.080035284 0.010781139
0.027153254 -0.079707935 0.0096393526
0.027263314 -0.077530049 0.0088534951
0.028956734 -0.079850391 0.0078982115
0.029427404 -0.078761578 0.0068904161
0.030711804 -0.079850696 0.0059357882
-0.037593275 -0.080557019 0.0054117143
-0.03669503 -0.080550067 0.0065592527
-0.036395907 -0.081890799 0.0071298182
-0.035528917 -0.08198981 0.0073110759
-0.034108069 -0.080782272 0.0072853267
-0.033042468 -0.08037357 0.0072800219
-0.031964347 -0.079910874 0.0075929165
-0.031379621 -0.080690458 0.008136183
-0.029600359 -0.078353897 0.0086399019
-0.028758928 -0.078433447 0.0093515813
-0.028760126 -0.080887854 0.010384172
-0.027649574 -0.080272958 0.011200815
-0.026249869 -0.078749612 0.013273269
-0.025307028 -0.078539051 0.020198643
-0.022519112 -0.072382867 0.036038399
-0.021843407 -0.072811358 0.038096517
-0.02110561 -0.07305789 0.039249629
-0.019903544 -0.071652763 0.040502131
-0.019733025 -0.073998846 0.041024059
-0.018496795 -0.072378762 0.041647524
-0.017498918 -0.07158649 0.041821092
-0.016995091 -0.072836109 0.042451411
-0.016089138 -0.072401129 0.04322058
-0.015140801 -0.071719587 0.043367356
-0.014560513 -0.072802573 0.043988705
-0.01343979 -0.071151838 0.044456095
-0.012486867 -0.070238627 0.045102328
-0.011943824 -0.071662948 0.045788974
-0.011102749 -0.071374819 0.046123922
-0.010098731 -0.069914296 0.047579736
-0.0095452275 -0.071589209 0.047786087
-0.0085711563 -0.070127651 0.047936767
-0.0079583703 -0.071625337 0.048165828
-0.006911898 -0.069118984 0.048975825
-0.0061918017 -0.069657773 0.049484074
-0.0054592872 -0.070190839 0.050081998
-0.0046624392 -0.069936596 0.050394595
-0.0038483154 -0.069269687 0.051039696
-0.003096581 -0.069673076 0.051707417
-0.0023048162 -0.069144495 0.051849514
-0.0015300234 -0.068851061 0.05162546
-0.00077566691 -0.069810025 0.051565319
0 -0.069660321 0.051471472
0.0007681119 -0.069130071 0.051243901
0.001541683 -0.069375739 0.05101335
0.0022957148 -0.068871446 0.050995827
0.0031125229 -0.07003177 0.050571233
0.0039137481 -0.070447475 0.05023098
0.0046767145 -0.070150726 0.049776375
0.0055129975 -0.070881404 0.049122572
0.0062783998 -0.070632003 0.048095435
0.0071265399 -0.071265407 0.047773391
0.0079595596 -0.071636043 0.047462463
0.0086208712 -0.070534408 0.047144324
0.0094681643 -0.071011238 0.046732396
0.010382407 -0.07187821 0.046076685
0.010897159 -0.070053168 0.045342505
0.011796689 -0.070780136 0.045006096
0.012649504 -0.071153462 0.044955879
0.013449894 -0.071205325 0.044159263
0.014326235 -0.071631186 0.043657482
0.015290967 -0.072430894 0.043203384
0.015801556 -0.071107008 0.042232305
0.016786739 -0.071943171 0.041847229
0.017509373 -0.071629256 0.040161818
0.018278223 -0.07152348 0.038975
0.019609025 -0.073533848 0.033658981
0.021635901 -0.077889249 0.015327871
0.022442367 -0.077685118 0.014112502
0.023691338 -0.078971125 0.013144016
0.024338787 -0.078231819 0.012572914
0.025186568 -0.078165211 0.012179196
0.026093239 -0.078279719 0.011541754
0.027059289 -0.078559227 0.010828674
0.028074998 -0.07896094 0.010088205
0.028694354 -0.078257337 0.0087538064
0.029727345 -0.078690037 0.0074688196
0.030402509 -0.078177884 0.0063149333
-0.037610665 -0.077845328 0.00521034
-0.03692425 -0.078244239 0.006788522
-0.036245748 -0.078679793 0.0077689588
-0.035417542 -0.078804024 0.0087660253
-0.035203364 -0.080335878 0.0086089373
-0.033948176 -0.079510197 0.0084897578
-0.03285595 -0.079031877 0.0085674822
-0.03217762 -0.079550229 0.0085460544
-0.031607937 -0.080374472 0.0090420842
-0.030336004 -0.079408944 0.0091840625
-0.029547496 -0.079688698 0.0099990368
-0.028520908 -0.079323776 0.010955006
-0.026968753 -0.077426419 0.011388808
-0.026619948 -0.078972511 0.013264924
-0.024872785 -0.076333717 0.018585324
-0.022835327 -0.07258372 0.035934091
-0.022166086 -0.073065989 0.03762871
-0.020919127 -0.071607776 0.038545609
-0.020130957 -0.071666196 0.039587826
-0.01963798 -0.072824173 0.040653318
-0.018617332 -0.072040975 0.041131079
-0.017476834 -0.070701741 0.04141289
-0.016776936 -0.071102247 0.041519791
-0.01596809 -0.071057998 0.042240679
-0.0152878 -0.07161127 0.042723686
-0.014357402 -0.070989378 0.043111086
-0.013646101 -0.071441345 0.043837547
-0.012660991 -0.070426762 0.044100136
-0.011847575 -0.07029561 0.044615358
-0.011209427 -0.071259931 0.045639157
-0.010327612 -0.070704415 0.046429634
-0.0093775373 -0.069550067 0.047489792
-0.0086064823 -0.069634266 0.047471672
-0.0078263478 -0.069654495 0.047704995
-0.0070724958 -0.069939122 0.047825664
-0.0062255687 -0.06925945 0.048728883
-0.0054788585 -0.06965977 0.049317777
-0.0047099153 -0.069863744 0.049766392
-0.0039077983 -0.069558814 0.050191253
-0.0031422733 -0.069915578 0.050594687
-0.0022969381 -0.068142496 0.050816804
-0.0015604794 -0.069441333 0.050842673
-0.00078322267 -0.069706813 0.050998569
0 -0.067937724 0.051190823
0.00078042521 -0.069457836 0.05086118
0.0015476232 -0.068869233 0.050588161
0.0023296138 -0.069111876 0.050097257
0.0031106102 -0.069211073 0.049905986
0.0038220957 -0.0680333 0.049257815
0.0047781179 -0.070875414 0.048677117
0.0055438452 -0.070486024 0.047780037
0.0063155456 -0.070260443 0.047486007
0.0069868076 -0.06909176 0.047137827
0.0077769607 -0.069214955 0.046661019
0.0086418241 -0.069920212 0.046130836
0.009583151 -0.071075037 0.045378059
0.010395669 -0.071170352 0.04524076
0.011136974 -0.070799336 0.044612527
0.011697684 -0.069406264 0.044130921
0.012601041 -0.070093289 0.044178247
0.013629925 -0.071356662 0.043585211
0.014254649 -0.070481323 0.042927623
0.015046051 -0.070478871 0.042472959
0.016090557 -0.071602978 0.041851133
0.016498569 -0.069922499 0.040644884
0.017619358 -0.071278311 0.039637595
0.018290665 -0.070776917 0.0380283
0.019563824 -0.072549179 0.032935053
0.022121178 -0.078751393 0.014987081
0.022695208 -0.077687435 0.013999164
0.023668628 -0.078018807 0.013263136
0.024263574 -0.0771235 0.012778282
0.025487458 -0.078220129 0.012661278
0.026256658 -0.077894747 0.012372792
0.026790285 -0.076914035 0.011896461
0.027824027 -0.077385575 0.011355132
0.02864494 -0.077254534 0.010161936
0.029188471 -0.076405108 0.0084926784
0.030356321 -0.077191792 0.0074739158
-0.03753351 -0.076812766 0.0064447224
-0.037528228 -0.078630567 0.0079003572
-0.03684289 -0.079077415 0.0083484352
-0.036092751 -0.079404049 0.0090071559
-0.035080731 -0.079156518 0.0088115036
-0.033517525 -0.077619523 0.0085338354
-0.032895081 -0.078236945 0.0090460479
-0.032833014 -0.080258481 0.0089358687
-0.030820794 -0.077492282 0.0090411901
-0.030226791 -0.078234047 0.0091563761
-0.028793151 -0.076781735 0.010104895
-0.028376274 -0.078034751 0.010946095
-0.027257182 -0.077375218 0.011513889
-0.026484247 -0.077687129 0.013515383
