ply
format ascii 1.0
comment PCL generated
element vertex 1262
property float x
property float y
property float z
element camera 0
property float view_px
property float view_py
property float view_pz
property float x_axisx
property float x_axisy
property float x_axisz
property float y_axisx
property float y_axisy
property float y_axisz
property float z_axisx
property float z_axisy
property float z_axisz
property float focal
property float scalex
property float scaley
property float centerx
property float centery
property int viewportx
property int viewporty
property float k1
property float k2
end_header
-0.0065589407 -0.038533777 0.040120453
-0.0055608982 -0.03733746 0.04033646
-0.0047899275 -0.037521098 0.040120453
-0.0040631955 -0.038194038 0.04026401
-0.0032036549 -0.037642945 0.040226549
-0.0024122403 -0.037791763 0.040226549
-0.0016081849 -0.037792344 0.040021747
-0.00080809672 -0.037980545 0.039717466
0 -0.037641957 0.039183527
0.00080870226 -0.038009007 0.03904435
0.0015920763 -0.037413791 0.038629085
0.0023691838 -0.037117217 0.038333803
0.0031510924 -0.037025336 0.037708998
0.003972061 -0.037337378 0.037532002
0.0047801179 -0.037444256 0.037167639
0.0057198415 -0.038404651 0.036466032
0.0064087841 -0.037651606 0.035904855
0.0072247614 -0.037729312 0.03505972
0.0080197789 -0.03769296 0.034191757
0.0089443764 -0.038216881 0.033682019
0.0098744854 -0.03867507 0.032513082
0.01064775 -0.038495712 0.032148182
0.011622608 -0.039018758 0.031513453
0.012468023 -0.039066471 0.031254262
0.013105286 -0.038496777 0.029988766
0.013985698 -0.038666341 0.029456377
0.014982116 -0.039119974 0.028285354
0.015439121 -0.038191509 0.026467115
0.016571533 -0.038943104 0.024571538
0.018187867 -0.040706176 0.015657693
0.018873174 -0.040319964 0.0123218
0.02006484 -0.041002065 0.010610968
0.021401374 -0.041911025 0.0089861751
0.021984508 -0.041330878 0.0081642866
0.022986008 -0.041551631 0.0076833665
0.023456715 -0.040832061 0.0074009001
0.024546355 -0.041202813 0.007411629
0.025124285 -0.040718667 0.0073786676
0.02640808 -0.041372657 0.0072602928
0.027032426 -0.040984645 0.0075046718
0.027953142 -0.041056179 0.0080173016
0.028468397 -0.040545899 0.0079679787
0.029647179 -0.040982865 0.007360816
0.03065419 -0.041164197 0.0067453384
0.031158373 -0.040678989 0.0067081749
0.032248791 -0.040964678 0.005845964
-0.036529101 -0.040983867 0.0053738654
-0.035697594 -0.041052233 0.0060813725
-0.034712441 -0.040942881 0.0070505142
-0.034155767 -0.041346453 0.0076715648
-0.033146266 -0.041208871 0.0077039301
-0.032046929 -0.040948857 0.0081530213
-0.031581726 -0.041507412 0.008485347
-0.030328775 -0.041033048 0.0086120367
-0.029052293 -0.040497139 0.0089534819
-0.028492507 -0.04095798 0.010480285
-0.027255449 -0.040443569 0.012261569
-0.025661705 -0.03934795 0.015461385
-0.024984272 -0.039630223 0.018500388
-0.024133733 -0.039648276 0.020080715
-0.022964053 -0.039123941 0.021773785
-0.022066835 -0.039041325 0.02195403
-0.021198764 -0.039005727 0.0228571
-0.020715239 -0.039704211 0.023547709
-0.019402903 -0.038805805 0.024196118
-0.018721549 -0.039145056 0.024706215
-0.017725568 -0.038827438 0.025323212
-0.016939284 -0.038960356 0.026716262
-0.016209221 -0.039243374 0.027389765
-0.015109493 -0.038613152 0.029044241
-0.014190334 -0.038397375 0.029922098
-0.013427663 -0.038604531 0.032284111
-0.011884107 -0.036444597 0.034632206
-0.0112403 -0.036932413 0.036454678
-0.010484727 -0.037099805 0.038221627
-0.0097683258 -0.037445251 0.039118767
-0.0087544397 -0.036609478 0.039718211
-0.0079475911 -0.036558919 0.039829612
-0.0071799583 -0.036697567 0.039987981
-0.0063839732 -0.036707845 0.040057153
-0.005804156 -0.038141597 0.04033646
-0.0048498106 -0.037181884 0.040296853
-0.0040489146 -0.037250016 0.040345818
-0.0032135386 -0.036955696 0.040433407
-0.0024485497 -0.037544429 0.040433407
-0.0015914426 -0.036603179 0.040200353
-0.00079033739 -0.036355522 0.039491355
0 -0.036873925 0.039200693
0.00079197297 -0.036430757 0.03863737
0.0015983481 -0.036762007 0.037899047
0.0024414624 -0.037435759 0.037733763
0.0032096619 -0.036911115 0.037065059
0.0041933781 -0.03857908 0.036565959
0.0048959651 -0.037535734 0.035537034
0.0056816284 -0.037336417 0.034784645
0.0064261258 -0.036950223 0.034016907
0.0073020495 -0.03732159 0.032921761
0.0083575659 -0.038444806 0.032472759
0.0091181258 -0.038130347 0.032142967
0.0099405283 -0.038105361 0.030585259
0.010694878 -0.037843417 0.029847085
0.011547963 -0.037943307 0.029522955
0.012100214 -0.037107326 0.028972208
0.013006384 -0.037393354 0.028494298
0.014190334 -0.038397375 0.02767846
0.015082261 -0.038543556 0.026310235
0.015797637 -0.038246911 0.025136411
0.016863052 -0.038785022 0.02376765
0.018298509 -0.040082447 0.015537739
0.019095473 -0.039926901 0.01204595
0.020124827 -0.040249653 0.010530055
0.021082409 -0.040407952 0.0093367994
0.021939397 -0.04036849 0.0082108676
0.02261222 -0.040006235 0.007971853
0.02373757 -0.040441789 0.0076920688
0.025275867 -0.041524637 0.007629931
0.025436334 -0.040347286 0.007415086
0.02650441 -0.040640097 0.0075887442
0.027156219 -0.040296324 0.0080105364
0.027640341 -0.039732989 0.0084891915
0.028765395 -0.040097222 0.0082356036
0.030014774 -0.040608224 0.0077515543
0.030297503 -0.039819576 0.0076321959
0.031493049 -0.040241119 0.0077082515
0.03165311 -0.039352514 0.0068975687
0.033319287 -0.040333875 0.0054659545
-0.03635883 -0.039906032 0.0063005686
-0.035615873 -0.040067859 0.0067203045
-0.035072565 -0.040468346 0.0080153644
-0.033961251 -0.040217273 0.0083824098
-0.033267122 -0.040460013 0.0084737241
-0.032616407 -0.040770512 0.0085530579
-0.031455308 -0.040442541 0.0087659657
-0.030222271 -0.040000066 0.0089507699
-0.029353352 -0.040027302 0.0092591047
-0.028407676 -0.039948296 0.010740042
-0.026628163 -0.038653787 0.012191683
-0.026326908 -0.039490364 0.015025556
-0.024814231 -0.038504843 0.017638654
-0.024035539 -0.038628548 0.019122779
-0.023003116 -0.038338527 0.020448089
-0.022203494 -0.038429126 0.021466732
-0.021247027 -0.03824465 0.022155076
-0.020511996 -0.038459998 0.022843033
-0.019623995 -0.038394775 0.023089379
-0.018428629 -0.037694927 0.023796171
-0.017799152 -0.038141042 0.024565279
-0.016814519 -0.03783267 0.025870293
-0.015928561 -0.037725542 0.026798815
-0.015216148 -0.038040373 0.027243435
-0.014294141 -0.037837435 0.028867841
-0.013201839 -0.037130173 0.029728234
-0.012723049 -0.038169149 0.031653374
-0.011666502 -0.037499472 0.03422755
-0.010648278 -0.036859423 0.03594628
-0.0096213454 -0.036080047 0.037944615
-0.0088641662 -0.036262501 0.038860619
-0.0079243798 -0.035659712 0.039212316
-0.0072539398 -0.036269702 0.039663076
-0.0065025659 -0.036576934 0.039836228
-0.005624698 -0.036158778 0.039990395
-0.0048213634 -0.036160227 0.039933085
-0.0040421747 -0.036379576 0.04000026
-0.0032529763 -0.036595985 0.040059686
-0.0024196079 -0.036294121 0.040059686
-0.0016149146 -0.03633558 0.039860189
-0.00080346566 -0.036155954 0.039183527
0 -0.03575797 0.038645864
0.00080619234 -0.036278658 0.038282603
0.0015973427 -0.035940211 0.037611395
0.0023928871 -0.03589331 0.037269056
0.0032234085 -0.036263347 0.036048651
0.0040327832 -0.036295053 0.034907371
0.0047526583 -0.035644937 0.033754349
0.0059020529 -0.037941772 0.033124566
0.0066479617 -0.037394784 0.031323582
0.0074725668 -0.037362836 0.030509055
0.0084011015 -0.037804961 0.029973388
0.0091253472 -0.03733097 0.02932626
0.0099992799 -0.037497304 0.029001683
0.010744329 -0.037191909 0.028542161
0.0115707 -0.03719154 0.028295875
0.012341576 -0.037024729 0.027655989
0.013244462 -0.037250053 0.026951879
0.014023469 -0.037120949 0.026447535
0.014936124 -0.037340313 0.025212288
0.015654864 -0.037077311 0.024442852
0.016473195 -0.03706469 0.021941185
0.01821214 -0.039026015 0.014357954
0.018886518 -0.038631517 0.012037396
0.019893924 -0.038922895 0.010732323
0.021075241 -0.03951608 0.0096619129
0.022250943 -0.040051699 0.008533597
0.022859082 -0.039563797 0.0081316829
0.023917234 -0.039862059 0.007805109
0.025000278 -0.040179018 0.0077991486
0.025741391 -0.039943539 0.0077361166
0.026787354 -0.04018103 0.0078425407
0.027246203 -0.039550941 0.0083565712
0.028419273 -0.039964605 0.0087330937
0.029094277 -0.039674018 0.0084795058
0.029748058 -0.039372433 0.0081202388
0.030570045 -0.039304346 0.007910043
0.031217197 -0.039021499 0.0079583228
0.032077178 -0.039012782 0.0069859624
0.03365637 -0.039856229 0.0057756305
-0.036745004 -0.038494766 0.0058949292
-0.035941027 -0.038570855 0.0070192218
-0.035738945 -0.039312843 0.0077419877
-0.034122188 -0.038496826 0.0080609024
-0.033800822 -0.039137792 0.0086180568
-0.033238221 -0.03952653 0.0086714327
-0.032342773 -0.039530057 0.0088243186
-0.031034874 -0.039015271 0.0089507699
-0.030435856 -0.03938758 0.0092033744
-0.029449075 -0.039265431 0.0096388161
-0.028243359 -0.03883462 0.011433005
-0.02739602 -0.03888467 0.012138486
-0.026613345 -0.039032906 0.014495105
-0.024743877 -0.037542433 0.016861171
-0.024379017 -0.038309883 0.018076718
-0.023077989 -0.037608571 0.019345224
-0.022071183 -0.037351232 0.020994693
-0.021714104 -0.038216822 0.021479696
-0.020391284 -0.037384018 0.022075981
-0.019609885 -0.03751456 0.022419959
-0.018698635 -0.037397269 0.023062617
-0.017927324 -0.037562013 0.023598462
-0.017015263 -0.03743358 0.024738759
-0.016181396 -0.037472706 0.025968105
-0.015316232 -0.037439678 0.026380479
-0.0141107 -0.036521811 0.027341872
-0.013297515 -0.036568165 0.028499037
-0.012628418 -0.037043359 0.029299796
-0.01182998 -0.037179936 0.03108722
-0.010720502 -0.036284775 0.034000039
-0.0096821459 -0.035501204 0.035363704
-0.0088612698 -0.035445079 0.037230313
-0.0080725811 -0.035519354 0.038201571
-0.0072095771 -0.035246823 0.038780749
-0.0064393911 -0.035416648 0.039049566
-0.0056241225 -0.035351627 0.039295048
-0.0048208698 -0.035353046 0.039204895
-0.0040144976 -0.03532758 0.039135724
-0.0032080512 -0.035288561 0.039139718
-0.0023971808 -0.035158649 0.039085031
-0.001648451 -0.036265921 0.038458198
-0.00078744296 -0.034647487 0.038113952
0 -0.035319638 0.037447959
0.00079720112 -0.035076849 0.035929829
0.0016714826 -0.036772616 0.034582824
0.0025010027 -0.036681373 0.034323782
0.0033675688 -0.037043255 0.033847094
0.0041196477 -0.036252901 0.032855928
0.004974681 -0.036480993 0.030837506
0.0058107735 -0.036524858 0.030130237
0.0065324693 -0.035928581 0.029113054
0.0074658934 -0.036499925 0.028859735
0.0082695019 -0.036385812 0.028542161
0.0091011953 -0.036404781 0.028148055
0.0099445926 -0.036463507 0.027892381
0.010670887 -0.03611685 0.027512103
0.011668854 -0.036673542 0.027242571
0.012554828 -0.036827497 0.026797086
0.013024258 -0.035816707 0.026393294
0.013979959 -0.036183424 0.025366783
0.014878097 -0.036368683 0.024469167
0.015755782 -0.036487073 0.023640662
0.016776754 -0.036908858 0.020957947
0.018362034 -0.038472831 0.014419615
0.019087411 -0.038174823 0.012374341
0.020141536 -0.038531635 0.010760635
0.021470165 -0.039361969 0.0099752545
0.022202589 -0.039076556 0.0089320242
0.022892069 -0.038740426 0.0084487796
0.023701716 -0.038625017 0.0080626905
0.024507685 -0.038512073 0.0079184175
0.02521372 -0.038255297 0.0079048276
0.026403006 -0.038724408 0.0081327558
0.02673847 -0.037951373 0.0084480345
0.027939811 -0.038417242 0.0090054572
0.028512159 -0.038016211 0.0090913773
0.029370129 -0.038008403 0.0082792938
0.030147254 -0.037899405 0.0079203248
0.031014901 -0.037907101 0.0079886317
0.031965327 -0.038012818 0.007569313
0.033411015 -0.038686439 0.0057723522
-0.038097069 -0.038097069 0.005194962
-0.036278654 -0.03714243 0.0064747334
-0.035928328 -0.037680928 0.0078569651
-0.036117669 -0.038826495 0.0082621276
-0.034618422 -0.03816903 0.0091229379
-0.033729546 -0.038167644 0.0091229379
-0.033532999 -0.03897078 0.0092659295
-0.032012273 -0.038236886 0.0094147325
-0.030937452 -0.038008869 0.0093095303
-0.030741801 -0.038879339 0.009508729
-0.029560622 -0.038518388 0.010378122
-0.0283476 -0.038092088 0.011276305
-0.027037935 -0.03750423 0.011765897
-0.026353836 -0.037773833 0.013627887
-0.025387054 -0.03764287 0.015225559
-0.023980804 -0.036827665 0.017021805
-0.023260551 -0.037044581 0.01847589
-0.02217304 -0.036670797 0.020599335
-0.021524774 -0.037022609 0.021171093
-0.020377861 -0.036510337 0.021616131
-0.019741822 -0.036908623 0.022199601
-0.018543828 -0.036244757 0.022644103
-0.017607916 -0.036054302 0.023112804
-0.017230542 -0.037045669 0.023672551
-0.016052263 -0.036328804 0.024483591
-0.014974751 -0.035773017 0.025629729
-0.014573745 -0.036863003 0.026573598
-0.013123708 -0.035269964 0.027455717
-0.012415523 -0.035591166 0.028452247
-0.011666898 -0.03583404 0.02905184
-0.010826573 -0.035810973 0.030881852
-0.010042525 -0.035985716 0.03246212
-0.0088156508 -0.034461182 0.034228384
-0.0079614129 -0.034234077 0.036374152
-0.0073664356 -0.035195194 0.036828488
-0.0065565305 -0.035241351 0.037296683
-0.0055887173 -0.034330692 0.038253874
-0.0048261662 -0.034587525 0.038440734
-0.0040231543 -0.034599129 0.038552612
-0.0032067308 -0.034472357 0.038489789
-0.0024583891 -0.03523691 0.037697732
-0.001570687 -0.033769771 0.036776543
-0.00082530337 -0.035488043 0.036000997
0 -0.034857281 0.035447061
0.0008379136 -0.036030285 0.034201801
0.0016444076 -0.035354763 0.0332416
0.0024791227 -0.035534091 0.032131076
0.0032899058 -0.035366487 0.031509787
0.0040543741 -0.034867618 0.030596733
0.0048963637 -0.035090607 0.029620171
0.0058471286 -0.035918076 0.029094487
0.0065070698 -0.034975499 0.028456658
0.0074329865 -0.035513159 0.027774602
0.0082602082 -0.035518896 0.027542233
0.0091709699 -0.035850156 0.027304053
0.0099058133 -0.035495829 0.027101576
0.010788761 -0.035685904 0.026772469
0.011690648 -0.035906993 0.026615739
0.012253763 -0.035127454 0.026208997
0.013310774 -0.035772707 0.02529487
0.01414229 -0.035771672 0.024569243
0.015040162 -0.035929278 0.023504615
0.015663354 -0.035448641 0.021903992
0.016843013 -0.036212482 0.019381046
0.018341526 -0.037556458 0.013101608
0.019220378 -0.037567105 0.012588739
0.020025818 -0.03743957 0.011090577
0.020887671 -0.037423745 0.010255992
0.021940779 -0.037738137 0.0094278753
0.022898193 -0.03787009 0.0087482035
0.023694992 -0.037736468 0.0084731877
0.024576895 -0.037743088 0.0081619024
0.025108229 -0.037229441 0.0081142783
0.026373787 -0.037802428 0.0084604025
0.027294653 -0.037860323 0.0085074902
0.027496669 -0.036948647 0.0092186928
0.02910799 -0.037928596 0.0093108416
0.029449854 -0.037245404 0.0087625682
0.030360347 -0.037299857 0.0084490478
0.031190556 -0.037255388 0.008030355
0.03176387 -0.036914766 0.0078791678
0.032497887 -0.036773924 0.0059861243
-0.038246978 -0.037357517 0.0064120293
-0.036703527 -0.036703527 0.0075607896
-0.036766298 -0.037663035 0.008410722
-0.035185691 -0.036944978 0.0087468326
-0.034135442 -0.036761247 0.009188205
-0.034458704 -0.038085934 0.009188205
-0.032940701 -0.037392147 0.0092772245
-0.031657487 -0.036933739 0.0093277395
-0.031182341 -0.037418809 0.0093212128
-0.030414939 -0.037571393 0.0098856688
-0.029348942 -0.037353199 0.010610461
-0.027908145 -0.036629438 0.01102972
-0.027444232 -0.03718251 0.011688441
-0.026132129 -0.036584981 0.012219727
-0.025421752 -0.036817711 0.014041215
-0.023892215 -0.035838325 0.016009927
-0.022787971 -0.035447955 0.018252254
-0.022443175 -0.036254361 0.019479513
-0.021354884 -0.035876203 0.020996243
-0.02063744 -0.03611552 0.021377087
-0.019336205 -0.03530959 0.021708786
-0.018781811 -0.035856187 0.022358477
-0.017906306 -0.035812613 0.022678643
-0.016992789 -0.035684858 0.023203939
-0.016087545 -0.035561942 0.023636669
-0.015121529 -0.035283569 0.024310857
-0.014126427 -0.034900587 0.025781661
-0.013352077 -0.035049204 0.026717305
-0.012486954 -0.034963474 0.027488232
-0.011662321 -0.034986965 0.02842465
-0.010963364 -0.035420097 0.028996766
-0.0099986084 -0.034995131 0.030431598
-0.009086024 -0.034692094 0.031876147
-0.0081872037 -0.034386259 0.032957286
-0.0072745192 -0.033947758 0.034317493
-0.0064035235 -0.033618499 0.034700483
-0.0056530014 -0.033918012 0.035816193
-0.0048838248 -0.034186773 0.035746783
-0.0040690824 -0.034180295 0.036433518
-0.0032216413 -0.033827234 0.036052108
-0.0024233782 -0.033927295 0.035793096
-0.001635622 -0.034348063 0.034296304
-0.00082752138 -0.034755897 0.033260792
0 -0.03443509 0.032916397
0.00083619321 -0.035120115 0.032384157
0.0016231299 -0.034085728 0.03186205
0.0024706777 -0.034589488 0.031219244
0.0032735486 -0.034372259 0.03045243
0.0041145608 -0.034562312 0.029778838
0.0050082486 -0.035057742 0.028602302
0.0057773599 -0.034664158 0.028082013
0.0067027942 -0.03518967 0.027643621
0.0075266059 -0.035124164 0.027568758
0.0082799569 -0.034775823 0.027153969
0.0091833789 -0.035063814 0.026803553
0.0100037 -0.035012953 0.026251018
0.010816807 -0.034946606 0.025903136
0.011771776 -0.035315327 0.025840014
0.012554221 -0.035151821 0.025277585
0.013230889 -0.034731083 0.024770647
0.013986347 -0.034554508 0.023612469
0.015164058 -0.035382804 0.022816032
0.015895342 -0.035137072 0.021267086
0.016723869 -0.03512013 0.01702404
0.018201353 -0.036402706 0.012802213
0.019046906 -0.036362279 0.012493938
0.019882062 -0.036306374 0.011097372
0.021247627 -0.037183348 0.01026094
0.021784613 -0.03659815 0.009671092
0.022801913 -0.03683386 0.0091952682
0.023921732 -0.037211582 0.0090032816
0.024679871 -0.037019808 0.0086942017
0.025360361 -0.036728799 0.0086486042
0.026591128 -0.037227578 0.0090447664
0.02713684 -0.036766041 0.0097795725
0.028503953 -0.037411436 0.010308176
0.028742615 -0.036581513 0.010360867
0.029379465 -0.036292281 0.0098329484
0.030632574 -0.03675909 0.0094224215
0.031309579 -0.036527846 0.0093010068
0.032601085 -0.037006635 0.0085011423
0.033258844 -0.036759775 0.0067309439
-0.037955839 -0.036190454 0.0070267022
-0.037303232 -0.036415059 0.008300513
-0.0365876 -0.0365876 0.0088954866
-0.035334669 -0.03621804 0.0096284151
-0.034311298 -0.036070857 0.0097960234
-0.034019988 -0.036705777 0.0097904503
-0.032488693 -0.036000986 0.0097639561
-0.03196352 -0.0364029 0.009750843
-0.030815924 -0.036098655 0.009545207
-0.030229514 -0.03645324 0.010602921
-0.029412284 -0.036542539 0.010922849
-0.027967505 -0.035833366 0.011072367
-0.0275506 -0.036437891 0.011565655
-0.025890185 -0.035383254 0.012024641
-0.02528437 -0.035746869 0.013367295
-0.023713635 -0.034723539 0.015231103
-0.023318332 -0.03540932 0.01710254
-0.022127854 -0.034893923 0.017994314
-0.02114391 -0.034676012 0.019406885
-0.02059331 -0.035180241 0.020875603
-0.019988827 -0.035632256 0.021046937
-0.019011805 -0.035431094 0.021677762
-0.017742973 -0.034641042 0.022173703
-0.016716033 -0.034267873 0.02258572
-0.016113538 -0.034771323 0.023261577
-0.015251927 -0.034740504 0.023825824
-0.01441955 -0.034776565 0.024628192
-0.013497083 -0.034586273 0.025928468
-0.012374682 -0.033824135 0.026908755
-0.011674648 -0.03419004 0.027511746
-0.010711605 -0.033782754 0.028395414
-0.01006738 -0.034396883 0.029056132
-0.0090876874 -0.033872291 0.029529274
-0.0083026988 -0.034041066 0.030588806
-0.0073189563 -0.033341914 0.031713784
-0.0064963778 -0.033293936 0.032516897
-0.0056243092 -0.032942384 0.033555597
-0.0048141163 -0.032896463 0.033365965
-0.0040398003 -0.033126362 0.033844709
-0.0032753588 -0.033572428 0.03364408
-0.0025180778 -0.034413733 0.033076495
-0.0016634589 -0.034100909 0.032494873
-0.00082330569 -0.033755537 0.03223303
0 -0.033653673 0.031467974
0.00082985678 -0.034024127 0.03108266
0.0016547242 -0.033921849 0.03034091
0.0025051578 -0.034237161 0.029248357
0.0033668263 -0.034509972 0.028909862
0.0041908263 -0.034364779 0.028349876
0.0049080038 -0.033538029 0.028013855
0.0057805399 -0.03385745 0.027604431
0.0066462941 -0.034062259 0.027006894
0.0075378157 -0.03433894 0.026481628
0.0082911765 -0.033993825 0.026170522
0.0091270395 -0.034018967 0.026014864
0.0099255051 -0.033912145 0.025451571
0.010773868 -0.033979125 0.025281936
0.011672949 -0.034185071 0.025151968
0.012669275 -0.034629352 0.024342448
0.012970504 -0.033236917 0.023932695
0.013988901 -0.033737939 0.023186594
0.015143944 -0.034494542 0.021444827
0.016074397 -0.034686856 0.019894511
0.016748749 -0.034334935 0.016352534
0.018321769 -0.035771076 0.012712985
0.018794611 -0.035026323 0.012711734
0.020079361 -0.035793647 0.011375427
0.021187667 -0.036195602 0.010519952
0.022108022 -0.036257155 0.0099296272
0.022752658 -0.035879195 0.0093679428
0.02359776 -0.035833638 0.0093565285
0.024706505 -0.036177386 0.0092040598
0.025045758 -0.035409521 0.0090032816
0.026038989 -0.035586622 0.0095792711
0.027025647 -0.035743598 0.01010108
0.027630826 -0.035402 0.010725826
0.02857239 -0.035499033 0.011343241
0.029331466 -0.035370298 0.010779262
0.030215256 -0.035395019 0.0098746717
0.030906478 -0.035199046 0.0093360543
0.031766821 -0.035201073 0.0091463029
0.033145681 -0.035762448 0.0067290068
-0.038655285 -0.035958402 0.0080501139
-0.037010875 -0.035248451 0.0087031722
-0.036277432 -0.035392616 0.0091738403
-0.035473846 -0.035473846 0.0095967352
-0.034736685 -0.035627369 0.01019311
-0.033711683 -0.035485979 0.01006192
-0.032811966 -0.035472393 0.010015398
-0.031999748 -0.035555273 0.0096881986
-0.0308659 -0.035275314 0.010027617
-0.030261705 -0.035602003 0.010403782
-0.028960641 -0.035103809 0.010695428
-0.028235748 -0.035294686 0.010656118
-0.027469324 -0.035444286 0.011575788
-0.026101749 -0.034802329 0.011851966
-0.025545143 -0.035234679 0.013261318
-0.025134658 -0.035906654 0.014168799
-0.023500675 -0.034815811 0.015622735
-0.022284498 -0.034283843 0.017132074
-0.02136416 -0.034182653 0.018211454
-0.020666769 -0.034444615 0.019528419
-0.019949239 -0.034694325 0.02076149
-0.018715339 -0.034027889 0.021098435
-0.01779194 -0.033889409 0.021555632
-0.016819593 -0.033639185 0.022315115
-0.016068053 -0.033827476 0.023033172
-0.015096453 -0.033547673 0.023369431
-0.014238693 -0.033502806 0.024304807
-0.01338018 -0.033450447 0.025700867
-0.012538753 -0.033436671 0.026615977
-0.0116538 -0.03329657 0.027181774
-0.011013066 -0.033886354 0.027915746
-0.0099461833 -0.033153944 0.028706014
-0.0091980407 -0.033447422 0.028745353
-0.0084163817 -0.033665527 0.029726535
-0.0074468968 -0.033097319 0.030353695
-0.0065411958 -0.032705978 0.031631351
-0.0056652105 -0.032372631 0.031729102
-0.0049350774 -0.032900516 0.031817794
-0.0041063344 -0.032850675 0.032262057
-0.003336607 -0.033366069 0.032267839
-0.0025421884 -0.033895846 0.031819016
-0.0016601139 -0.033202279 0.030644447
-0.00082988269 -0.033195306 0.030184478
0 -0.033270642 0.029955268
0.00083467586 -0.033387035 0.02936542
0.001631234 -0.032624681 0.028889507
0.002520347 -0.033604626 0.028718799
0.0033028747 -0.033028744 0.02832067
0.0041645761 -0.033316609 0.027575552
0.0048972215 -0.032648142 0.026937991
0.0058630956 -0.033503406 0.026624233
0.0066605764 -0.033302881 0.026552439
0.0076134023 -0.033837344 0.026322693
0.0083799893 -0.033519957 0.025760978
0.0093174623 -0.033881679 0.025482178
0.0099490946 -0.033163648 0.025192559
0.010825441 -0.03330905 0.025099725
0.011697095 -0.033420268 0.02467519
0.012652435 -0.033739828 0.024160057
0.01332101 -0.033302523 0.02361396
0.014502506 -0.034123544 0.022411734
0.014898979 -0.033108842 0.021157056
0.016122172 -0.033941414 0.018240869
0.016946848 -0.033893697 0.014996201
0.018146941 -0.034565601 0.012710989
0.019175159 -0.034863926 0.012457132
0.019846141 -0.034515027 0.011854917
0.020765612 -0.034609351 0.01097697
0.021940954 -0.035105526 0.010234773
0.022577303 -0.034734309 0.0099670291
0.023538267 -0.034871507 0.0099689662
0.024548279 -0.03506897 0.0098737478
0.025132731 -0.03466583 0.0097255111
0.026325012 -0.035100013 0.0098174214
0.027411191 -0.035369277 0.010791481
0.027686093 -0.034607615 0.011355013
0.028338045 -0.034349147 0.011349171
0.029786874 -0.035043381 0.010998756
0.029875821 -0.034143794 0.010990381
0.030611765 -0.034013074 0.010002285
0.031978142 -0.034570962 0.0096727908
0.032286275 -0.033985551 0.0077789426
-0.038921528 -0.034498628 0.0055132508
-0.037476227 -0.033990063 0.008900851
-0.036102127 -0.033523403 0.0090661943
-0.036340669 -0.034567952 0.0094159544
-0.03546311 -0.034576531 0.010434031
-0.034575485 -0.034575485 0.010807931
-0.033478785 -0.034359805 0.010807931
-0.032182664 -0.033922262 0.010557592
-0.031441741 -0.034061886 0.01017791
-0.03115694 -0.034717735 0.010429651
-0.02983317 -0.034220401 0.010513127
-0.028829953 -0.034071762 0.010687441
-0.028366506 -0.034571681 0.010647029
-0.026716325 -0.033610858 0.011114687
-0.026389511 -0.034306366 0.011564404
-0.025281029 -0.033998623 0.012605488
-0.024676302 -0.034370564 0.012957424
-0.023413209 -0.033819079 0.014293551
-0.022581225 -0.033871837 0.015430689
-0.021355737 -0.033314947 0.016765147
-0.020807019 -0.033811405 0.018149525
-0.019618256 -0.033265736 0.019106448
-0.018913206 -0.033527955 0.020483553
-0.017881552 -0.033208594 0.021045893
-0.016890369 -0.032936223 0.021406949
-0.016234374 -0.033323187 0.022039711
-0.015295478 -0.033140205 0.022924572
-0.01446997 -0.033195812 0.02394405
-0.013511517 -0.032934323 0.024535418
-0.012532718 -0.032585066 0.025926232
-0.011672779 -0.032517027 0.026428908
-0.010881705 -0.032645117 0.02742812
-0.010049796 -0.032661837 0.027608395
-0.0091882776 -0.032576621 0.028090417
-0.0083328951 -0.032498293 0.028289646
-0.0075519211 -0.032724991 0.029072195
-0.0068117096 -0.033207081 0.029741585
-0.0057685352 -0.032138981 0.029844284
-0.0049814302 -0.032379296 0.029872924
-0.0041419277 -0.032307036 0.030073702
-0.0032837775 -0.032016829 0.029970556
-0.0025185964 -0.032741752 0.029646605
-0.0016317543 -0.031819209 0.029351979
-0.0008374895 -0.03266209 0.029278815
0 -0.031552147 0.029156595
0.00084046321 -0.032778066 0.028653413
0.0016765414 -0.032692555 0.027952194
0.002468348 -0.032088526 0.028077573
0.0033803876 -0.032958779 0.027195722
0.0041310047 -0.032221835 0.026696295
0.0049308222 -0.032050345 0.026458204
0.0058267261 -0.032463189 0.025943995
0.0066563794 -0.032449849 0.025857091
0.0075639347 -0.032777052 0.025576741
0.0082625188 -0.032223824 0.025052518
0.0090701627 -0.03215785 0.024782807
0.010099296 -0.03282271 0.02455616
0.010820201 -0.0324606 0.024119377
0.011605699 -0.032330159 0.023885608
0.012513615 -0.0325354 0.023150712
0.013471738 -0.032837357 0.022013813
0.014011276 -0.032143515 0.021267086
0.01497573 -0.032447416 0.019199163
0.01612265 -0.033093862 0.017018765
0.017089181 -0.033323903 0.014732122
0.018134821 -0.033678953 0.012633622
0.018851882 -0.033419244 0.012457132
0.01976876 -0.033520937 0.011757493
0.020948049 -0.034040581 0.010998368
0.021840302 -0.034070868 0.010415554
0.022482026 -0.033723038 0.010007977
0.023736915 -0.034286655 0.010168225
0.024383042 -0.033962093 0.010105908
0.025388109 -0.034142628 0.010097235
0.0264349 -0.034365371 0.010232091
0.026995812 -0.03396247 0.011117935
0.027733473 -0.03380017 0.011512816
0.02861239 -0.033814646 0.011679947
0.029399345 -0.033722777 0.011318773
0.030352836 -0.033821732 0.011383414
0.031050049 -0.033637553 0.011324763
0.032274339 -0.034018897 0.011113554
0.032824453 -0.033688251 0.0092198253
-0.038601473 -0.033337638 0.0061059892
-0.037601851 -0.033229541 0.0089385211
-0.036445349 -0.032974362 0.0090564787
-0.036208116 -0.033558737 0.0098531246
-0.035299934 -0.03353494 0.010786742
-0.034541242 -0.033655569 0.011015981
-0.033408616 -0.033408616 0.010966182
-0.032637578 -0.03351967 0.010623366
-0.032300211 -0.034094669 0.010361552
-0.030698672 -0.033329986 0.01042828
-0.029655144 -0.033143986 0.010623962
-0.02898851 -0.03338071 0.010667205
-0.028373228 -0.033693209 0.011043906
-0.027086636 -0.033202972 0.011455625
-0.026459327 -0.033515148 0.011427224
-0.025457339 -0.033357892 0.012110174
-0.024695722 -0.033515625 0.012855172
-0.023366436 -0.032886095 0.01356867
-0.022940952 -0.033529084 0.014628917
-0.021365352 -0.032475334 0.015409678
-0.020406224 -0.032309856 0.016725808
-0.019759519 -0.032646161 0.017933697
-0.018640345 -0.032196961 0.018816203
-0.018192599 -0.03291994 0.020235956
-0.017288463 -0.032848082 0.02067709
-0.016197914 -0.032395829 0.021262795
-0.015248907 -0.032192141 0.022678941
-0.014414647 -0.032220975 0.023285151
-0.013544818 -0.032168943 0.023875833
-0.012570279 -0.031844705 0.025010675
-0.011821641 -0.032087311 0.025551736
-0.010706836 -0.031296909 0.02618894
-0.010036172 -0.031781211 0.026695669
-0.0093172872 -0.032186992 0.027047366
-0.0083178887 -0.031607978 0.027574569
-0.0074898172 -0.031623676 0.028143406
-0.0067108879 -0.031876717 0.028669864
-0.0058242911 -0.031617582 0.029057294
-0.0049418309 -0.031298261 0.02910614
-0.0041920799 -0.031859811 0.029505163
-0.0033202516 -0.031542391 0.029420853
-0.0025259347 -0.031995174 0.029140413
-0.0016614014 -0.031566627 0.02910614
-0.00084005663 -0.03192215 0.028784156
0 -0.031772316 0.028119683
0.00084685517 -0.032180499 0.027277917
0.0016467116 -0.031287521 0.026982218
0.0025022612 -0.03169531 0.027034223
0.0033183091 -0.031523939 0.026562482
0.004128044 -0.031373136 0.026127726
0.0049789762 -0.031533517 0.025845587
0.0058812215 -0.031926632 0.025430113
0.0066501978 -0.031588439 0.02519381
0.0075012874 -0.031672105 0.024881303
0.008362188 -0.031776316 0.024464011
0.0091784531 -0.031707384 0.024104208
0.010057287 -0.031848077 0.023844123
0.01094424 -0.031990856 0.023316622
0.011840326 -0.032138027 0.022643179
0.012785925 -0.032391012 0.021933854
0.013385662 -0.031790949 0.021219939
0.0142569 -0.031868365 0.019610465
0.015419188 -0.03255162 0.018174112
0.015871882 -0.031743765 0.015760362
0.017275125 -0.032822739 0.014021933
0.018168412 -0.032876175 0.012743652
0.018936371 -0.032708276 0.012515873
0.019844545 -0.032786638 0.012108922
0.021019923 -0.033281546 0.011302233
0.021807624 -0.033147588 0.010631621
0.022666909 -0.03312856 0.010368407
0.023665691 -0.033307269 0.010290444
0.024565164 -0.033338439 0.010373384
0.025555665 -0.033486731 0.010360867
0.026105205 -0.033066593 0.010825962
0.027227353 -0.033375464 0.011399716
0.027937548 -0.033175841 0.011599272
0.028996497 -0.033389907 0.011904746
0.029208878 -0.032645218 0.011716962
0.030110266 -0.032691147 0.011572152
0.030989917 -0.03271158 0.011508435
0.031854793 -0.032715734 0.011251271
0.032829911 -0.032829911 0.0097362399
-0.038751084 -0.032586142 0.0079313219
-0.037706539 -0.032445163 0.0091198981
-0.036557715 -0.032205608 0.0097975433
-0.035731047 -0.032245088 0.010405302
-0.035803482 -0.033118222 0.011154324
-0.034339428 -0.032578435 0.011316985
-0.033296868 -0.032420635 0.011220485
-0.033175275 -0.033175275 0.010802805
-0.032000691 -0.032889605 0.010693789
-0.030839125 -0.032601364 0.010717839
-0.029945852 -0.032588135 0.010928035
-0.028921315 -0.032426931 0.010933965
-0.028191911 -0.032596897 0.011055321
-0.026618108 -0.031770002 0.011262
-0.026245654 -0.03236964 0.011356086
-0.025631819 -0.032702666 0.011795968
-0.024640379 -0.032560505 0.012543499
-0.023644995 -0.0324024 0.012955397
-0.022804484 -0.032452539 0.014128655
-0.022008102 -0.032571994 0.014532357
-0.021228433 -0.032727171 0.015271187
-0.019883996 -0.031987298 0.01658085
-0.018840726 -0.031686679 0.017590255
-0.017947247 -0.031621341 0.018792927
-0.017256087 -0.031923763 0.020388782
-0.016215496 -0.031577546 0.020588666
-0.015277555 -0.031403866 0.021776557
-0.014642803 -0.031869631 0.022914052
-0.013548931 -0.031331904 0.023654878
-0.012811645 -0.031602059 0.024682909
-0.011962856 -0.031616122 0.024808049
-0.010792945 -0.030718384 0.025504619
-0.010051611 -0.030992471 0.026016265
-0.00919527 -0.030929547 0.026305616
-0.0084090466 -0.031113474 0.026696503
-0.0073904898 -0.030383129 0.027383626
-0.0067105042 -0.031036083 0.027583331
-0.0057814494 -0.030559091 0.02777043
-0.0049520847 -0.030537859 0.02777043
-0.0042067142 -0.031129686 0.028637469
-0.003332437 -0.030825043 0.028554231
-0.0025101285 -0.030958252 0.028137207
-0.00170696 -0.031578761 0.027670622
-0.00083903741 -0.031044384 0.02713266
0 -0.030455898 0.026782751
0.0008370945 -0.030972498 0.02663663
0.0016596018 -0.030702634 0.02624929
0.002538543 -0.031308696 0.026273936
0.0032877522 -0.030411707 0.025757641
0.0042024641 -0.031098239 0.025589645
0.0050336788 -0.031041021 0.024860352
0.0058490164 -0.030916231 0.024395704
0.0068076313 -0.031485297 0.024211317
0.0075718644 -0.031128779 0.024099886
0.0085189091 -0.031519964 0.023372322
0.00934749 -0.031441558 0.023033202
0.010310876 -0.03179187 0.022590905
0.010878147 -0.03096088 0.022250265
0.011919531 -0.031501617 0.021427751
0.012622342 -0.03113511 0.020234585
0.013383914 -0.030950302 0.019254029
0.014210707 -0.030929187 0.018153578
0.015117059 -0.03107396 0.016435504
0.01654391 -0.032217089 0.015093714
0.017211212 -0.031840745 0.013991416
0.018251566 -0.032157522 0.013020039
0.018706016 -0.031460121 0.012737185
0.01995231 -0.032097194 0.012525141
0.021082973 -0.032502919 0.011812389
0.021850545 -0.032338805 0.011160821
0.022848593 -0.032515306 0.010790676
0.023129763 -0.031696342 0.01084888
0.024238441 -0.032029368 0.010757327
0.02491002 -0.031781748 0.011161715
0.026016783 -0.032087367 0.011178553
0.026980298 -0.032202289 0.011512816
0.027779374 -0.032119904 0.01193136
0.02849797 -0.031952273 0.012165308
0.028977001 -0.031533796 0.011984795
0.029702267 -0.031399541 0.011904746
0.031049315 -0.031911798 0.011633784
0.031772655 -0.031772655 0.011572152
0.031907201 -0.031067537 0.010136515
-0.038895216 -0.031823359 0.0082169771
-0.037473496 -0.031373158 0.0096065104
-0.036687668 -0.031446569 0.010090888
-0.036365744 -0.031930897 0.010697693
-0.035480339 -0.031932306 0.011279464
-0.033708278 -0.031115331 0.011410117
-0.033359472 -0.031603709 0.011172056
-0.032332454 -0.031458601 0.010853261
-0.03216248 -0.03216248 0.010568112
-0.030846048 -0.031727362 0.01065585
-0.030230338 -0.032008592 0.010959953
-0.028975751 -0.031609911 0.010988861
-0.02798903 -0.031487655 0.010753244
-0.026824938 -0.031151539 0.011192173
-0.026416892 -0.031700268 0.011352777
-0.025542734 -0.031708218 0.011993289
-0.024281217 -0.031218706 0.012238234
-0.024010247 -0.032013658 0.012750238
-0.022571694 -0.031253114 0.01356113
-0.021923661 -0.031570069 0.013996273
-0.021049898 -0.031574845 0.014703393
-0.019848038 -0.031066492 0.015842915
-0.018922351 -0.030963849 0.016538441
-0.017958937 -0.030786749 0.017632276
-0.01711441 -0.030805936 0.018628299
-0.016343638 -0.030966891 0.019386709
-0.015413143 -0.030826285 0.020415246
-0.014310877 -0.030305386 0.022353351
-0.013582091 -0.030559702 0.023042053
-0.012598794 -0.030237105 0.023709655
-0.011765028 -0.030252928 0.024490058
-0.010856143 -0.030063165 0.024817824
-0.0099591855 -0.029877555 0.025218695
-0.0092888353 -0.030399825 0.025544763
-0.0082925605 -0.029853217 0.025973231
-0.0075670197 -0.030268079 0.02637291
-0.0066809342 -0.030064203 0.026681572
-0.0059230225 -0.030461257 0.026792347
-0.0050530341 -0.030318204 0.026672333
-0.0041423859 -0.029825179 0.026853353
-0.0033161873 -0.029845685 0.027101278
-0.0025125183 -0.030150218 0.02699098
-0.0016460095 -0.029628169 0.026853353
-0.00083934877 -0.030216554 0.026607335
0 -0.029895265 0.026357025
0.00083643373 -0.030111613 0.026129335
0.0016845118 -0.030321211 0.025767386
0.0024908383 -0.029890059 0.025907606
0.0033419356 -0.030077418 0.025065035
0.0041782139 -0.03008314 0.024902463
0.0050217016 -0.030130208 0.023828119
0.0059310985 -0.030502791 0.023341894
0.0067576822 -0.030409569 0.023213714
0.007598713 -0.030394852 0.022857219
0.0083247377 -0.029969055 0.022039324
0.0093796542 -0.03069705 0.021539003
0.010026931 -0.03008079 0.021159559
0.010866402 -0.030091573 0.020408124
0.011795618 -0.030331586 0.019830018
0.012798153 -0.030715566 0.018687397
0.013418007 -0.030190513 0.017488629
0.014394427 -0.030482313 0.016499907
0.015567121 -0.031134242 0.015106231
0.016381674 -0.031038957 0.014484584
0.017478339 -0.031461012 0.013724297
0.018431442 -0.031596757 0.013144344
0.018880995 -0.030896174 0.012863934
0.020004224 -0.031310957 0.012590528
0.021062993 -0.031594489 0.012301296
0.021617567 -0.031129295 0.011700749
0.022442488 -0.031074213 0.011292398
0.023390193 -0.031186922 0.011063993
0.024047125 -0.03091773 0.011244148
0.025217762 -0.031304806 0.01131773
0.026158901 -0.031390682 0.011422247
0.026853094 -0.031184236 0.011798799
0.027684884 -0.031145493 0.012102962
0.028320616 -0.030895216 0.012363166
0.028876526 -0.030575143 0.012209207
0.0302849 -0.031150183 0.01210174
0.030873368 -0.030873368 0.011833549
0.031157747 -0.030315643 0.011751562
0.032842539 -0.031113984 0.011245072
-0.038103979 -0.030309984 0.0088674128
-0.037559569 -0.03057174 0.0099340975
-0.037347764 -0.031123135 0.010157704
-0.035972297 -0.030708058 0.010881215
-0.035055295 -0.030673385 0.011420816
-0.03408346 -0.03058772 0.011498392
-0.033495441 -0.030851064 0.011499524
-0.03272669 -0.03095768 0.01104641
-0.031803593 -0.030920161 0.010792524
-0.030674877 -0.030674877 0.010988861
-0.029940607 -0.030821212 0.010690212
-0.029359674 -0.03113905 0.011011392
-0.02759406 -0.030181002 0.010870636
-0.026688121 -0.030131748 0.011072993
-0.027040536 -0.031547293 0.011393726
-0.024979064 -0.030147145 0.011424482
-0.02479385 -0.030992312 0.011752367
-0.023061497 -0.029894533 0.012238234
-0.022458438 -0.030232513 0.012935489
-0.021840559 -0.030576782 0.013156474
-0.021246608 -0.030984638 0.013795048
-0.0201202 -0.030617693 0.015136272
-0.019709771 -0.031356454 0.015939385
-0.018315744 -0.030526239 0.016810954
-0.017359629 -0.030379351 0.017410725
-0.016591629 -0.030563526 0.01801765
-0.01548425 -0.030108264 0.019541144
-0.014369735 -0.029584747 0.019817978
-0.013670535 -0.029904295 0.021662474
-0.01252326 -0.029220941 0.023197055
-0.011757418 -0.029393544 0.023884624
-0.010879842 -0.029291881 0.024443388
-0.0098805027 -0.028818132 0.024761468
-0.0093596764 -0.029780788 0.025171578
-0.0083508585 -0.029228006 0.025377065
-0.0074145561 -0.028834386 0.025730133
-0.0066551967 -0.029116485 0.026203305
-0.0058006099 -0.02900305 0.026308358
-0.0050264508 -0.029320965 0.026272744
-0.0041551418 -0.029085992 0.026134133
-0.0033766862 -0.029546004 0.026572198
-0.0025272849 -0.029484991 0.026366502
-0.0016721267 -0.029262217 0.026066482
-0.00083023985 -0.029058393 0.025947064
0 -0.029115885 0.02565223
0.00084099139 -0.029434698 0.025437117
0.0016693326 -0.029213319 0.024591625
0.0025074224 -0.029253261 0.024474353
0.0033786299 -0.029563012 0.024271071
0.0041429941 -0.02900096 0.023845017
0.0050847582 -0.029661089 0.023249477
0.0058388729 -0.029194364 0.022050142
0.0067698578 -0.029618127 0.021523505
0.0075506484 -0.029363634 0.02135998
0.0084808096 -0.029682834 0.0206168
0.0092761852 -0.029515136 0.020301431
0.010252086 -0.02990192 0.019901872
0.011044007 -0.029733863 0.019020677
0.011691126 -0.029227816 0.018468142
0.012595192 -0.02938878 0.017332673
0.014190088 -0.031040817 0.016052634
0.014675122 -0.030213486 0.015597165
0.015554156 -0.030244194 0.01477772
0.016416399 -0.030240733 0.014129192
0.017156996 -0.030024745 0.01343292
0.018325936 -0.030543225 0.013138801
0.019107977 -0.030399054 0.012969851
0.019976534 -0.030399073 0.012668073
0.02054809 -0.029965967 0.012385786
0.021428302 -0.029999621 0.012140155
0.022543544 -0.030347079 0.011772156
0.023153134 -0.030013321 0.011508435
0.024417182 -0.030521479 0.011639893
0.024710244 -0.029822707 0.011565238
0.025926569 -0.030247664 0.011772633
0.026853338 -0.030318284 0.011935294
0.027679317 -0.030274253 0.012810826
0.028434692 -0.030158008 0.012958854
0.029216219 -0.030075518 0.012900382
0.030444015 -0.030444015 0.01260826
0.030723289 -0.029869866 0.012234598
0.031739719 -0.030024057 0.012100428
0.03265208 -0.030074283 0.011381626
0.033963207 -0.0304798 0.0074268281
-0.038686033 -0.029893752 0.0089633167
-0.037512966 -0.029661413 0.010358572
-0.036639977 -0.029660933 0.010654479
-0.036084 -0.029923314 0.011389285
-0.035285208 -0.029992428 0.012087345
-0.034456238 -0.030038774 0.012162477
-0.033514041 -0.029986247 0.011801541
-0.032807507 -0.030147437 0.011286259
-0.031527147 -0.029775638 0.011179388
-0.030355154 -0.029487863 0.011179566
-0.030070473 -0.030070473 0.011097491
-0.029024219 -0.029903742 0.011163086
-0.028293755 -0.030062115 0.010917068
-0.027076885 -0.029697228 0.011280149
-0.026233815 -0.029731655 0.011425108
-0.025235685 -0.029586663 0.011393726
-0.024624335 -0.029900977 0.011661887
-0.023789847 -0.029957585 0.012144268
-0.023106385 -0.030216042 0.01264751
-0.022172669 -0.03015483 0.012643695
-0.020968761 -0.029705746 0.013111264
-0.020452345 -0.030233899 0.013910472
-0.01929757 -0.029823519 0.015660673
-0.018355329 -0.029718151 0.015983641
-0.017801452 -0.030262472 0.016591698
-0.016513305 -0.029550124 0.01714921
-0.015491929 -0.029262533 0.01802516
-0.014522435 -0.02904487 0.018647105
-0.013725908 -0.029167557 0.020156354
-0.012956703 -0.029368527 0.021133631
-0.011804984 -0.028669247 0.022549421
-0.01085217 -0.028382597 0.02400738
-0.010056059 -0.028492166 0.024518818
-0.0092334086 -0.028539628 0.024624258
-0.0084200641 -0.028628219 0.025026232
-0.0075774109 -0.028625777 0.025460333
-0.0066682831 -0.028340204 0.026056826
-0.0057508242 -0.027932575 0.025969297
-0.0050617894 -0.028683474 0.025990069
-0.0041933935 -0.028515076 0.025681078
-0.0034230954 -0.029096311 0.02578938
-0.0025068657 -0.028411144 0.025647044
-0.0016603335 -0.02822567 0.025013298
-0.00084524212 -0.028738232 0.024957806
0 -0.028480103 0.02467075
0.00082415965 -0.028021429 0.024353564
0.0017073584 -0.029025095 0.023918003
0.0025230872 -0.028594989 0.023506135
0.0033380406 -0.028373344 0.023477823
0.0041982536 -0.028548127 0.022269517
0.0050803791 -0.028788816 0.021503001
0.0059634391 -0.028965276 0.020962
0.0068558622 -0.029137416 0.020564079
0.0076211444 -0.028790992 0.020189792
0.0084431442 -0.028706692 0.019224435
0.0092427619 -0.028568536 0.018746406
0.010155169 -0.02877298 0.018518388
0.011025053 -0.028834755 0.017398447
0.012191768 -0.029608579 0.016399562
0.013139756 -0.029783446 0.015969157
0.013568552 -0.028833173 0.015280336
0.014594671 -0.029189343 0.014831632
0.015416545 -0.029120142 0.014216483
0.016419904 -0.029382987 0.014078557
0.0176364 -0.029981881 0.013494104
0.017705515 -0.028666072 0.013237953
0.018643595 -0.028812831 0.013089597
0.019894298 -0.029408963 0.012819916
0.020831941 -0.029511916 0.012483329
0.021819444 -0.029674444 0.012370855
0.022676038 -0.029653279 0.012189776
0.023596713 -0.029714379 0.011907846
0.024415595 -0.02964751 0.01194188
0.025153089 -0.029489828 0.011774778
0.025623091 -0.029039504 0.011915267
0.026915388 -0.029520104 0.012542337
0.027565043 -0.029287858 0.013125837
0.028220933 -0.029076114 0.013259828
0.029008362 -0.029008362 0.01313889
0.029973835 -0.029117441 0.012979209
0.030729815 -0.029022604 0.012818992
0.03139725 -0.028851526 0.01226449
0.032134954 -0.028752329 0.011937946
0.033777021 -0.029446634 0.0095200539
-0.038452111 -0.028839083 0.0098447204
-0.037063394 -0.028443998 0.010557324
-0.036507897 -0.028684776 0.011128902
-0.036036894 -0.029005304 0.011498392
-0.034956262 -0.028838914 0.012155831
-0.033944383 -0.028722171 0.012345076
-0.033173807 -0.028808832 0.012033463
-0.032957565 -0.029394584 0.011679173
-0.031649131 -0.029011704 0.011262655
-0.030721631 -0.028966108 0.01141876
-0.030261971 -0.029371912 0.011110038
-0.028826352 -0.028826352 0.011226982
-0.027789785 -0.028658215 0.011236101
-0.026904047 -0.02863979 0.011445165
-0.02638468 -0.029023148 0.011455864
-0.025490502 -0.029006431 0.011199772
-0.024554743 -0.028939519 0.011691213
-0.023547573 -0.028780365 0.01174739
-0.023268839 -0.029533526 0.012440175
-0.021729955 -0.028683539 0.012434959
-0.021223515 -0.029182333 0.012755781
-0.020351928 -0.029200589 0.013462424
-0.019465767 -0.02919865 0.013686419
-0.018224049 -0.028637789 0.015074253
-0.017538095 -0.028937856 0.015502602
-0.016730094 -0.029057533 0.01586023
-0.015753031 -0.028880557 0.016441315
-0.014526481 -0.028198462 0.01704064
-0.013426611 -0.027692385 0.017991066
-0.012617806 -0.027759174 0.019685954
-0.011779378 -0.027765676 0.020711422
-0.011073928 -0.028110741 0.022549421
-0.010106256 -0.027792204 0.023838043
-0.0092092659 -0.0276278 0.024248093
-0.0084181689 -0.027779957 0.024396539
-0.0074658012 -0.027374605 0.024404705
-0.0067309127 -0.027765015 0.024713874
-0.0059025823 -0.027826458 0.024747014
-0.0050621126 -0.02784162 0.024763763
-0.0042176596 -0.027836554 0.024597615
-0.0033506446 -0.027642818 0.024824023
-0.0025243408 -0.02776775 0.024481505
-0.0016646895 -0.027467376 0.024149209
-0.0008517378 -0.028107347 0.024042785
0 -0.027451674 0.02403459
0.00084547861 -0.027900793 0.023817211
0.0017068627 -0.028163234 0.023314178
0.0025350966 -0.027886063 0.02254501
0.0033980424 -0.028033849 0.022124827
0.0042246473 -0.027882673 0.021734476
0.0050172699 -0.027594985 0.020774543
0.0058762128 -0.027702145 0.019659549
0.006816945 -0.028119897 0.019629061
0.0073963595 -0.027119985 0.019047588
0.0086520575 -0.028551789 0.01859805
0.0095353527 -0.028606057 0.018290699
0.010685006 -0.029383766 0.017765641
0.011452929 -0.029072819 0.016776085
0.012250418 -0.028875984 0.015761107
0.012841888 -0.028252153 0.015337795
0.013857972 -0.028582066 0.015117407
0.01445836 -0.028066227 0.014848799
0.015765052 -0.028902596 0.014348298
0.016429078 -0.028534714 0.014258802
0.016696876 -0.027549846 0.013725072
0.018123372 -0.028479582 0.013481706
0.018969178 -0.028453765 0.013380468
0.019751903 -0.028339686 0.01314953
0.021016782 -0.028898077 0.012963712
0.021877035 -0.028877685 0.012554735
0.02252464 -0.028588966 0.012550831
0.023473905 -0.028690329 0.012157142
0.024369728 -0.028721465 0.012078524
0.024903422 -0.028338376 0.012187362
0.025957448 -0.028553192 0.012756079
0.026706832 -0.028429851 0.013207138
0.027820799 -0.028690198 0.013637662
0.028470594 -0.028470594 0.013860017
0.028987588 -0.028135011 0.013834536
0.030164365 -0.028440686 0.01357919
0.030672966 -0.028116886 0.013370037
0.031231325 -0.027854962 0.01313141
0.03239676 -0.028134029 0.012820214
0.03388777 -0.028674267 0.01031962
-0.038119495 -0.027723271 0.010251969
-0.037457999 -0.02787572 0.010972738
-0.036558349 -0.027853981 0.011962295
-0.03650273 -0.028489936 0.012267441
-0.035178561 -0.028142851 0.012601972
-0.033793092 -0.027727664 0.012823552
-0.033582836 -0.028280282 0.012570888
-0.032460295 -0.028073767 0.012128621
-0.031672902 -0.028153691 0.011856616
-0.030717187 -0.028084286 0.011908054
-0.03024538 -0.028466241 0.011727184
-0.029107997 -0.028225938 0.01141876
-0.028012509 -0.028012509 0.011727184
-0.027497455 -0.028384469 0.011654615
-0.026611816 -0.028385937 0.011884302
-0.025230151 -0.027840165 0.011828125
-0.024096189 -0.027538503 0.011781633
-0.02382575 -0.028237924 0.011821747
-0.023019616 -0.028331835 0.012440175
-0.02168276 -0.027753931 0.012434959
-0.021044306 -0.028059077 0.0125992
-0.02048303 -0.028498126 0.013002872
-0.019097166 -0.027777698 0.013110697
-0.018357731 -0.027973685 0.013480991
-0.017517341 -0.028027747 0.01409483
-0.016618107 -0.027988391 0.014758825
-0.015797738 -0.028084869 0.015360415
-0.015016681 -0.028266693 0.015650213
-0.013836472 -0.027672945 0.016783893
-0.012596661 -0.026872877 0.017394155
-0.011829375 -0.02703857 0.019186229
-0.010989289 -0.027050558 0.020387053
-0.010040492 -0.026774645 0.022664875
-0.009267265 -0.026959319 0.023792088
-0.0084162205 -0.026931908 0.023864865
-0.0075832489 -0.026962664 0.023998201
-0.0067361603 -0.026944641 0.024369508
-0.0058748457 -0.026856439 0.024254352
-0.0050310451 -0.026832242 0.024223506
-0.0042157755 -0.026980964 0.024065465
-0.003347188 -0.026777504 0.024018407
-0.0025408962 -0.027102893 0.023823082
-0.001687879 -0.027006064 0.023418397
-0.00083811238 -0.026819596 0.023369521
0 -0.026860524 0.023139536
0.00083233818 -0.026634822 0.022695899
0.0016862986 -0.026980778 0.022133678
0.0025228446 -0.026910342 0.021570086
0.0033476744 -0.026781395 0.02122727
0.0042048357 -0.026910949 0.020166934
0.0050627696 -0.027001437 0.019368082
0.0059607779 -0.027249271 0.018735707
0.0068329046 -0.027331619 0.018724144
0.0077445828 -0.027536297 0.01816541
0.0087109199 -0.027874943 0.0176346
0.0095132161 -0.027674811 0.017145604
0.010275975 -0.0274026 0.016956568
0.011129864 -0.027396588 0.015961975
0.01204113 -0.027522584 0.015314519
0.012967472 -0.027663941 0.01495865
0.013767479 -0.027534958 0.014803976
0.014656387 -0.027588494 0.014758527
0.015382409 -0.027346507 0.014301717
