ply
format ascii 1.0
comment PCL generated
element vertex 1263
property float x
property float y
property float z
element camera 0
property float view_px
property float view_py
property float view_pz
property float x_axisx
property float x_axisy
property float x_axisz
property float y_axisx
property float y_axisy
property float y_axisz
property float z_axisx
property float z_axisy
property float z_axisz
property float focal
property float scalex
property float scaley
property float centerx
property float centery
property int viewportx
property int viewporty
property float k1
property float k2
end_header
-0.0099573396 -0.087956503 0.021863908
-0.0093945526 -0.09052933 0.022069782
-0.0083907694 -0.088942163 0.02236411
-0.0075727948 -0.089190692 0.022257775
-0.0068439106 -0.090681814 0.022248387
-0.0059416555 -0.089973643 0.022110909
-0.0051040025 -0.090170711 0.022187948
-0.0042331386 -0.089742541 0.022187948
-0.0034038101 -0.090200968 0.022378117
-0.0025783717 -0.091102466 0.022280306
-0.0016834574 -0.089223243 0.02196297
-0.0008433864 -0.089398958 0.021932691
0 -0.090186439 0.021682322
0.00084197184 -0.089249015 0.021666676
0.0017085661 -0.090553999 0.021729589
0.0025598058 -0.090446465 0.021425039
0.003372455 -0.08937005 0.021700621
0.0042525879 -0.090154871 0.021777332
0.0050746528 -0.089652203 0.021663249
0.0059676445 -0.090367191 0.021481782
0.006829767 -0.090494417 0.021162659
0.0075574149 -0.089009553 0.021263063
0.0084214099 -0.089266948 0.020898104
0.009163172 -0.088299662 0.020667285
0.0099997595 -0.088331208 0.020161539
0.011148581 -0.090903811 0.018276393
0.012527256 -0.094849221 0.010328203
0.015169446 -0.10719742 0.0063970685
0.01523504 -0.10093214 0.0052230358
-0.019684562 -0.09842281 0.005515039
-0.016946837 -0.0889709 0.012364298
-0.015870735 -0.087706685 0.020131648
-0.015065691 -0.087883204 0.021895409
-0.014197105 -0.087687999 0.022140861
-0.013502821 -0.088612266 0.022336692
-0.012831553 -0.089820869 0.022435218
-0.0117634 -0.088225506 0.022151649
-0.010926318 -0.088251032 0.022236347
-0.010200464 -0.089254066 0.021861643
-0.0092894435 -0.088671967 0.021945089
-0.0084855603 -0.089098386 0.022358537
-0.0076305298 -0.089022852 0.022057742
-0.0067731244 -0.088897251 0.022233784
-0.0060187941 -0.090281911 0.021984398
-0.0050576138 -0.088508241 0.02202788
-0.0042693634 -0.089656636 0.021855503
-0.0034488426 -0.090532117 0.02197203
-0.0025721767 -0.090026185 0.02189371
-0.0016934602 -0.088906653 0.021591276
-0.00084673747 -0.088907436 0.021718919
0 -0.088108838 0.021461606
0.00084591174 -0.088820733 0.021504015
0.0016953474 -0.089005731 0.021721125
0.0025675767 -0.089865185 0.021592379
0.003340801 -0.087696023 0.02171737
0.0042345691 -0.088925958 0.021621644
0.0050760126 -0.088830225 0.021607518
0.0058895927 -0.088343889 0.021476209
0.0066731167 -0.087584659 0.02192229
0.0077027013 -0.08986485 0.022168398
0.0084826127 -0.089067429 0.021806747
0.0091182338 -0.087037683 0.02170077
0.010103546 -0.088406026 0.021436781
0.010865011 -0.087755859 0.021337271
0.011766702 -0.088250265 0.020926267
0.012467312 -0.087271184 0.018960029
0.014773897 -0.096953698 0.0092699826
0.017287569 -0.10677616 0.0051861703
-0.018685922 -0.08833345 0.0089193583
-0.017627155 -0.087296389 0.020933986
-0.016867585 -0.087711446 0.022228956
-0.015931943 -0.087206431 0.022601128
-0.015370973 -0.088810071 0.022790521
-0.014138612 -0.086495034 0.022654742
-0.013615797 -0.088502683 0.023066908
-0.012480234 -0.08652962 0.023046553
-0.011829212 -0.087874144 0.022695333
-0.011055681 -0.088445447 0.022878587
-0.010034687 -0.086967289 0.022307158
-0.0092600798 -0.087549843 0.022292525
-0.0086057903 -0.089500219 0.022497684
-0.0075502349 -0.087247163 0.022233784
-0.0068079461 -0.088503301 0.022015095
-0.0060224738 -0.089476757 0.02177757
-0.0050801788 -0.08805643 0.021453142
-0.0043097404 -0.089642599 0.021453142
-0.0034315961 -0.0892215 0.021747321
-0.002564721 -0.088910334 0.021670759
-0.0016874141 -0.087745532 0.021308094
-0.00086271681 -0.089722544 0.021605104
0 -0.088667169 0.021517128
0.00083940651 -0.087298274 0.02154696
0.0016982727 -0.088310175 0.021726966
0.00256419 -0.088891916 0.021638095
0.0033440241 -0.086944625 0.022033185
0.00430679 -0.089581229 0.022204846
0.0051109805 -0.088590331 0.022201419
0.0059617572 -0.088574678 0.022058487
0.0068570366 -0.089141473 0.023012668
0.0076691778 -0.088621609 0.023158997
0.0083792442 -0.087144144 0.022857636
0.0091504119 -0.08651299 0.022836328
0.010246337 -0.088801593 0.022969961
0.010859381 -0.086875051 0.023011953
0.011741686 -0.087223947 0.022789091
0.012506772 -0.08671362 0.02193445
0.013422377 -0.087245457 0.021559983
0.014244864 -0.087145053 0.01719293
0.016768625 -0.096885391 0.0074228346
-0.019404855 -0.086899996 0.01009652
-0.018663494 -0.087379083 0.020408899
-0.017574659 -0.086199515 0.022306651
-0.016565194 -0.08531075 0.023028433
-0.016115302 -0.087361902 0.023192286
-0.014986319 -0.085755058 0.023295164
-0.014295616 -0.086614616 0.023133427
-0.013136896 -0.084568769 0.023294806
-0.012455927 -0.085530698 0.023184955
-0.011856208 -0.087227814 0.022672474
-0.010811484 -0.085660219 0.022885203
-0.010140637 -0.087040469 0.022005111
-0.0092676394 -0.086778812 0.022277653
-0.0084675588 -0.087215856 0.022040933
-0.0076589496 -0.08765243 0.021711469
-0.0067591746 -0.087024376 0.021730572
-0.0060046343 -0.08835391 0.021366656
-0.0051420657 -0.088272125 0.020579249
-0.0042798789 -0.088165507 0.020909816
-0.0034067519 -0.087723859 0.021131009
-0.0025407674 -0.087233022 0.02110076
-0.0017113484 -0.088134445 0.020662516
-0.00084847771 -0.087393202 0.021203578
0 -0.08904779 0.020939589
0.00084458047 -0.086991787 0.021195441
0.0016974129 -0.087416761 0.021498442
0.0025459048 -0.087409399 0.021246105
0.0033472329 -0.086191252 0.021634668
0.0042754505 -0.088074282 0.021915734
0.0050744023 -0.087110572 0.021941841
0.0059686787 -0.087824844 0.021941841
0.0067790118 -0.087279782 0.022996843
0.0075696884 -0.086630881 0.023113191
0.0084834974 -0.087380022 0.023147136
0.0092741325 -0.086839609 0.02326718
0.0099571887 -0.085465871 0.023926556
0.010839873 -0.085885145 0.024111718
0.011883472 -0.087428406 0.024344206
0.012618796 -0.08664906 0.023266017
0.013220919 -0.085109666 0.022877961
0.014367831 -0.087052152 0.021707743
0.015107374 -0.086447753 0.019795835
0.01603573 -0.086930536 0.0074720979
-0.020532532 -0.087263264 0.010035902
-0.019453121 -0.086270362 0.020532489
-0.018225567 -0.084500365 0.022609174
-0.017777273 -0.086346753 0.023272008
-0.016935129 -0.086369157 0.023558438
-0.016024046 -0.086023822 0.023778766
-0.015240758 -0.086364299 0.023808599
-0.014235953 -0.085415721 0.023500144
-0.013576488 -0.086550117 0.023419708
-0.012850453 -0.087383084 0.023211271
-0.011618622 -0.084649958 0.02263701
-0.011041387 -0.086632423 0.022646278
-0.010163738 -0.086391777 0.02194801
-0.0092530679 -0.085801177 0.021962821
-0.008612046 -0.087842874 0.021769553
-0.0076311235 -0.086486071 0.021208882
-0.0068171127 -0.08691819 0.020964712
-0.0060595227 -0.088295907 0.020597696
-0.0051607541 -0.087732822 0.020066053
-0.004336806 -0.088470854 0.019963056
-0.0034116362 -0.086996727 0.020069301
-0.0025651609 -0.087215468 0.019910604
-0.0017011514 -0.086758718 0.019639254
-0.00085625536 -0.087338045 0.020031124
0 -0.086108863 0.019952714
0.00085070141 -0.086771548 0.020361841
0.0017111958 -0.087270983 0.020443022
0.0025173035 -0.085588314 0.020243764
0.0034168356 -0.087129302 0.020711333
0.0042806794 -0.087325871 0.020899564
0.0051143183 -0.08694341 0.021128267
0.0058837701 -0.085734941 0.021261066
0.0068043536 -0.086755507 0.022094816
0.0075226696 -0.085256927 0.022822857
0.0085157668 -0.086860821 0.022889197
0.0090776486 -0.084174559 0.023223221
0.010016325 -0.085138761 0.02400136
0.01099302 -0.086252928 0.02446419
0.011854235 -0.086366571 0.024546564
0.012621945 -0.085829228 0.023999304
0.01335733 -0.085152976 0.023786604
0.01411753 -0.084705174 0.022951216
0.015203569 -0.086153559 0.02222091
0.016235994 -0.087161653 0.019915462
0.01679703 -0.085664861 0.0074228346
-0.021294422 -0.08602947 0.0098859966
-0.020785535 -0.087472461 0.019703716
-0.019303123 -0.084765881 0.022637457
-0.018505253 -0.084955938 0.023686051
-0.01783496 -0.085777655 0.023948938
-0.017024327 -0.08597286 0.024080336
-0.016165985 -0.085934974 0.024057299
-0.015131815 -0.084906302 0.023913801
-0.014272544 -0.084795699 0.023593545
-0.013588351 -0.085776463 0.023501426
-0.012839494 -0.086452596 0.023229539
-0.011932433 -0.086083978 0.022541821
-0.010831336 -0.084151156 0.022509009
-0.010206668 -0.085906126 0.022007972
-0.0092956359 -0.085350849 0.021705896
-0.0085988557 -0.086848453 0.021117389
-0.0075931144 -0.08521162 0.020666629
-0.0068448191 -0.086415842 0.020195782
-0.0058401059 -0.08426439 0.019910783
-0.0051372284 -0.086476684 0.0196262
-0.0043331841 -0.087530322 0.019323945
-0.0034124877 -0.086165316 0.019738019
-0.0025349432 -0.085343093 0.01959303
-0.0017097329 -0.086341515 0.019235998
-0.00084925757 -0.085775018 0.019450128
0 -0.08549463 0.01925838
0.00085002615 -0.085852645 0.019887537
0.0017034664 -0.086025052 0.020050496
0.0025578223 -0.086113349 0.019670635
0.0033495869 -0.084577069 0.019989878
0.0042140661 -0.085124142 0.020215958
0.0051308442 -0.086369216 0.020163625
0.0059538959 -0.085906215 0.020263821
0.0068883239 -0.086965092 0.021915734
0.0075782198 -0.085044466 0.022372276
0.0085107926 -0.08595901 0.02269873
0.0092449291 -0.084885262 0.023177415
0.010018037 -0.084318481 0.024036676
0.01078755 -0.08381097 0.024540722
0.011834824 -0.085379794 0.024815083
0.012568312 -0.084626637 0.024492085
0.013265089 -0.083735876 0.024554819
0.014216309 -0.084461607 0.024097025
0.015178594 -0.085168779 0.023036063
0.015854042 -0.084276751 0.022246659
0.016856624 -0.085125953 0.019599795
0.017756846 -0.085401967 0.0069815218
-0.021278914 -0.085115656 0.018383652
-0.020342818 -0.084761746 0.022404283
-0.019313138 -0.083970167 0.023665488
-0.018765675 -0.085298531 0.024231404
-0.017805772 -0.084789388 0.024338871
-0.016710576 -0.08355289 0.024596363
-0.015912794 -0.083751544 0.024577767
-0.01529818 -0.084989898 0.024551034
-0.014127231 -0.083101362 0.023725778
-0.013500848 -0.084380299 0.023588002
-0.01265465 -0.08436434 0.023206174
-0.012011487 -0.085796334 0.022644609
-0.010966093 -0.084354565 0.02225545
-0.010240369 -0.085336402 0.021589279
-0.0094559379 -0.085963078 0.021332026
-0.0085211424 -0.085211426 0.02034992
-0.0077157631 -0.085730709 0.019917637
-0.0069775605 -0.087219507 0.019676685
-0.0060261418 -0.086087741 0.019265413
-0.0051817866 -0.086363114 0.018485785
-0.004359405 -0.087188102 0.018456876
-0.0034208929 -0.085522324 0.018977046
-0.0025726431 -0.085754775 0.018702328
-0.0017357065 -0.086785324 0.018424988
-0.00086265523 -0.086265527 0.018931031
0 -0.08675085 0.018764257
0.00085768627 -0.085768625 0.019042015
0.0016984392 -0.084921964 0.018948495
0.0025644801 -0.085482672 0.018999606
0.0033754639 -0.084386602 0.019615799
0.0042138943 -0.084277891 0.01990518
0.005112228 -0.085203797 0.019857615
0.0060079242 -0.085827492 0.020011336
0.006825679 -0.085320994 0.021176696
0.0075826957 -0.084252179 0.02199465
0.0085116792 -0.085116804 0.022442758
0.0093538146 -0.085034676 0.023060709
0.010143158 -0.084526323 0.024011403
0.010858485 -0.083526805 0.024540722
0.011892298 -0.084944993 0.024898082
0.012315916 -0.082106106 0.024856329
0.013298453 -0.083115332 0.024946511
0.014171442 -0.083361425 0.024752885
0.01508968 -0.083831564 0.02420792
0.015948722 -0.08394064 0.023299217
0.016703486 -0.08351744 0.022346079
0.01758866 -0.083755523 0.017873704
0.018733185 -0.085150845 0.0052268505
-0.02238695 -0.085242622 0.015623212
-0.021267703 -0.084220104 0.022132784
-0.020314988 -0.083799325 0.023563713
-0.019329853 -0.083202414 0.02402705
-0.018662209 -0.083979942 0.024417728
-0.0178199 -0.084008105 0.024575025
-0.016684871 -0.082590118 0.025143445
-0.015783917 -0.082242511 0.024890393
-0.015004834 -0.082526594 0.024700075
-0.014205871 -0.082728311 0.023682505
-0.013578773 -0.084018655 0.023420691
-0.013008083 -0.085853353 0.023070246
-0.011822238 -0.083600111 0.022223741
-0.011318599 -0.086195484 0.021698028
-0.010095847 -0.083290741 0.020925313
-0.0094491076 -0.085041977 0.020644814
-0.0084888516 -0.084039643 0.01974532
-0.0077005755 -0.084706336 0.019331276
-0.0069129989 -0.085548364 0.018956274
-0.0060719256 -0.085874379 0.018494695
-0.0051546381 -0.085051529 0.018036157
-0.0043971739 -0.08706405 0.017918468
-0.0034077447 -0.084341682 0.018069208
-0.0025906637 -0.085491911 0.01789847
-0.0017419318 -0.086225629 0.017722905
-0.00085937243 -0.085077874 0.018295228
0 -0.08361318 0.018122554
0.00084889587 -0.084040694 0.018585235
0.0016888985 -0.083600476 0.018609494
0.0025739726 -0.084941097 0.018444002
0.0033828863 -0.083726436 0.018815458
0.0043015894 -0.085171476 0.019354045
0.0051802052 -0.085473396 0.019486487
0.0060209706 -0.085153729 0.019462079
0.006823048 -0.084435225 0.020411611
0.007502988 -0.082532875 0.021113366
0.0086776111 -0.085908361 0.02150631
0.0093078716 -0.083770849 0.022347003
0.010107206 -0.083384462 0.023197651
0.010969435 -0.083536468 0.024294227
0.01175267 -0.083108172 0.024894863
0.012447337 -0.082152426 0.025047868
0.013341245 -0.082548961 0.025026858
0.014201849 -0.082704887 0.024912834
0.01495268 -0.082239747 0.024705142
0.015952429 -0.083120547 0.024145097
0.016430654 -0.081331745 0.023304284
0.017786384 -0.083850093 0.021814317
0.018489266 -0.083201699 0.0098302662
-0.021579262 -0.081337221 0.01995331
-0.021578535 -0.084587857 0.023177058
-0.020102542 -0.082085378 0.023951948
-0.019290719 -0.08219523 0.024322808
-0.018523389 -0.08251328 0.024701953
-0.017605402 -0.082158536 0.02522698
-0.016760789 -0.082127869 0.025480539
-0.016378697 -0.084479593 0.025223136
-0.015409716 -0.083897345 0.024738401
-0.014608437 -0.084213339 0.023606628
-0.013706896 -0.083954737 0.023241073
-0.012513147 -0.081752554 0.022671044
-0.011913616 -0.08339531 0.021967739
-0.011078914 -0.083517961 0.021391928
-0.010201869 -0.083315253 0.020316333
-0.0093946764 -0.083698027 0.019727796
-0.0086773187 -0.085037723 0.019359887
-0.0077332882 -0.084206916 0.018925965
-0.0069364328 -0.084971301 0.01840958
-0.0059693363 -0.083570704 0.018081546
-0.0051352461 -0.083875686 0.017629445
-0.0043641943 -0.085538208 0.017235816
-0.0034376755 -0.084223047 0.017765045
-0.0026022948 -0.085008293 0.017404139
-0.0017405744 -0.085288137 0.017182678
-0.00087331521 -0.085584886 0.017607927
0 -0.084145755 0.017405599
0.00084713829 -0.083019547 0.017914861
0.0017193722 -0.084249236 0.017839342
0.0025807971 -0.084306039 0.018127859
0.0033611616 -0.082348451 0.01837495
0.0042309505 -0.082926631 0.018766254
0.0050975834 -0.083260529 0.019208014
0.006026953 -0.084377341 0.019147635
0.0068521136 -0.08393839 0.020068944
0.0078894245 -0.085907072 0.020842224
0.0085464725 -0.083755426 0.021311104
0.0092142848 -0.082090907 0.02210772
0.010396515 -0.084904872 0.023056149
0.011055828 -0.083343931 0.02406013
0.011916931 -0.083418511 0.024606764
0.012609914 -0.082384773 0.024946511
0.01314919 -0.080538779 0.025194824
0.014258365 -0.082195282 0.02499789
0.015158373 -0.082528919 0.024783283
0.015908839 -0.082056113 0.024494171
0.016332511 -0.080029301 0.023754627
0.017718432 -0.082686007 0.022582769
0.018654797 -0.083098643 0.019553661
0.02014618 -0.08584024 0.0053257942
-0.023285506 -0.083655335 0.01025036
-0.02229741 -0.083186492 0.021256953
-0.021129543 -0.08198262 0.023434341
-0.020304322 -0.082063302 0.024221271
-0.019599803 -0.082660034 0.024409056
-0.0183778 -0.081029385 0.02495271
-0.017568277 -0.081148706 0.0254471
-0.016978752 -0.082346946 0.025440574
-0.016087804 -0.082132466 0.025208801
-0.015316266 -0.082537651 0.02426824
-0.014347078 -0.081862733 0.023642361
-0.013635188 -0.082663327 0.023131818
-0.012849001 -0.083090208 0.022318423
-0.011857448 -0.082155176 0.021501243
-0.011097602 -0.082805179 0.02099365
-0.010150159 -0.08204712 0.020316303
-0.0095349606 -0.084081016 0.019629389
-0.0085241357 -0.082684115 0.018586218
-0.0076929466 -0.08291287 0.018172026
-0.0068721706 -0.083325066 0.017740458
-0.0061191758 -0.08479429 0.017053276
-0.0052800486 -0.085360788 0.016694605
-0.0043764822 -0.084903754 0.016760975
-0.0035465499 -0.086003833 0.0168975
-0.0025965034 -0.083953612 0.016578048
-0.0017473828 -0.084748067 0.016244173
-0.00086552161 -0.083955593 0.016498953
0 -0.083478756 0.017006427
0.00085562555 -0.082995676 0.017328471
0.0017127765 -0.08306966 0.017481893
0.0026149915 -0.084551387 0.017655015
0.0034138181 -0.082785085 0.017858654
0.0043124878 -0.083662264 0.0182513
0.0050813179 -0.082147971 0.018752486
0.0059818947 -0.082891963 0.018977642
0.0069375793 -0.084118143 0.019763738
0.0078070504 -0.084142655 0.020422429
0.0085365763 -0.082804784 0.020842224
0.00946589 -0.083471939 0.021261573
0.010147315 -0.082024135 0.022608638
0.010912038 -0.081420593 0.023916692
0.011900564 -0.082453907 0.0247159
0.012689999 -0.082061991 0.025047868
0.013461811 -0.081612229 0.025388986
0.014341039 -0.081828281 0.025226682
0.014886818 -0.080223411 0.025015146
0.015761638 -0.080467306 0.024922401
0.01666387 -0.080819771 0.02444452
0.017584434 -0.081223331 0.023673385
0.01840774 -0.081161402 0.021231174
0.019790316 -0.083463505 0.0069815218
-0.023447286 -0.083368123 0.016576141
-0.021913135 -0.080910034 0.022415757
-0.021156341 -0.081240349 0.023891479
-0.02025051 -0.081002042 0.024476349
-0.01932637 -0.080666587 0.024819583
-0.018523714 -0.080830745 0.025930554
-0.017840648 -0.081557244 0.02594319
-0.016725464 -0.080282226 0.025829434
-0.015968667 -0.08068379 0.025480539
-0.015267405 -0.081426159 0.024580896
-0.014285753 -0.080672488 0.023704112
-0.013664753 -0.081988513 0.022943735
-0.012534576 -0.080221288 0.022084117
-0.011946333 -0.081917711 0.021391928
-0.011093906 -0.08192423 0.020569324
-0.010335875 -0.082686998 0.01956892
-0.0092659108 -0.080866128 0.019067585
-0.0085692983 -0.082265265 0.017797768
-0.0077021318 -0.082156077 0.017084807
-0.0069230366 -0.083076432 0.016679376
-0.0061039892 -0.083711848 0.016302764
-0.0051799016 -0.082878426 0.015931368
-0.0043190964 -0.082926653 0.015752852
-0.0034641437 -0.083139449 0.016051173
-0.0025951378 -0.08304441 0.015683413
-0.0017218165 -0.082647189 0.015400738
-0.00087597605 -0.084093697 0.016056895
0 -0.082363568 0.015847772
0.00085065846 -0.081663206 0.016142607
0.0016766367 -0.080478564 0.016691655
0.0025901573 -0.082885034 0.016752124
0.0034245388 -0.082188927 0.017185956
0.0043205786 -0.082955107 0.017456472
0.0051400615 -0.082240984 0.018012375
0.0059342608 -0.081384145 0.018428415
0.0067836088 -0.0814033 0.018671095
0.0075879632 -0.080938272 0.019799739
0.0086890329 -0.083414719 0.020401597
0.0093291523 -0.081418052 0.020963848
0.010084109 -0.080672875 0.021629959
0.011160932 -0.082419187 0.023560166
0.011670903 -0.080029048 0.02413097
0.012709667 -0.08134187 0.024983734
0.013309271 -0.079855621 0.02530846
0.014245469 -0.080444999 0.025393158
0.014943269 -0.079697438 0.025122315
0.015862884 -0.080149308 0.024956882
0.016665058 -0.079992279 0.02458483
0.017609356 -0.08049991 0.024219692
0.018255385 -0.079659857 0.021994144
0.019670852 -0.082104422 0.015839577
-0.02308806 -0.081235766 0.018254489
-0.021646833 -0.079094194 0.02277112
-0.021008363 -0.079831779 0.024444491
-0.020062914 -0.079415709 0.025336385
-0.019489834 -0.080501489 0.025729746
-0.018578457 -0.080225155 0.026112229
-0.017523473 -0.079272851 0.026349396
-0.016578455 -0.078747667 0.026085258
-0.016101526 -0.080507629 0.025829434
-0.015217336 -0.08031372 0.025220692
-0.014328069 -0.080068618 0.023880601
-0.013581404 -0.080639586 0.022953749
-0.012558544 -0.079537444 0.021893948
-0.012060151 -0.081836738 0.02067551
-0.011247398 -0.082192525 0.019672483
-0.010208637 -0.080818377 0.018786877
-0.0094981557 -0.082029529 0.018138111
-0.0086702155 -0.082367048 0.016805053
-0.0077571915 -0.081881464 0.016250551
-0.0068794941 -0.081693992 0.015958428
-0.0060937339 -0.08270067 0.015525788
-0.005189233 -0.08216285 0.015052259
-0.0043939073 -0.08348424 0.014551163
-0.0035019312 -0.083170861 0.014581829
-0.0026421642 -0.08366853 0.014697194
-0.0017577908 -0.083495066 0.013703316
-0.00088513229 -0.084087566 0.014679641
0 -0.081996903 0.014670968
0.00087095361 -0.08274059 0.015357107
0.0017332304 -0.082328446 0.015787333
0.0026357572 -0.083465643 0.016015977
0.0034312184 -0.081491441 0.016617417
0.0042981035 -0.081663974 0.016753405
0.0051486585 -0.081520431 0.017656624
0.0060032164 -0.081472218 0.017985076
0.0068647848 -0.081519321 0.018481493
0.007819646 -0.082540713 0.019068539
0.0086571677 -0.082243092 0.020009845
0.0093689924 -0.080914021 0.02058509
0.010285491 -0.081426799 0.021201342
0.010881247 -0.079516806 0.022973597
0.012001216 -0.081436828 0.024103433
0.012646584 -0.08009503 0.025024533
0.013422058 -0.079693466 0.02530846
0.014041891 -0.078469388 0.025458604
0.015021038 -0.079277709 0.025096059
0.015634244 -0.078171216 0.024996907
0.016605712 -0.078877136 0.024696678
0.017795956 -0.080505505 0.024467885
0.018150976 -0.078379214 0.023096949
0.019680565 -0.081289284 0.01788047
-0.02288183 -0.079662666 0.018810332
-0.022296557 -0.080610633 0.023798257
-0.021160793 -0.079564579 0.02475521
-0.02018219 -0.079046912 0.025899649
-0.019281248 -0.078801617 0.026153266
-0.018509278 -0.079085097 0.026337594
-0.017686376 -0.079167582 0.026726454
-0.01693514 -0.079595156 0.026486546
-0.015922371 -0.078773841 0.025886059
-0.015248251 -0.079629764 0.024890214
-0.014276587 -0.078941129 0.023825735
-0.013286256 -0.07805676 0.022874802
-0.012497936 -0.078320406 0.021681011
-0.012269543 -0.082381226 0.020529747
-0.01108709 -0.080168188 0.019552261
-0.010385226 -0.081350937 0.018311769
-0.0093239723 -0.079677589 0.017477721
-0.0085320519 -0.080201291 0.016058028
-0.0077182679 -0.080613025 0.015730619
-0.0069047078 -0.081130318 0.015371382
-0.0061299624 -0.082316644 0.014551163
-0.0051882188 -0.081282094 0.013849765
-0.0043444303 -0.081675291 0.013452262
-0.0034504703 -0.081086054 0.013568819
-0.0025765097 -0.080730639 0.013172567
-0.0017264836 -0.081144728 0.012748301
-0.00087055052 -0.081831753 0.013386518
0 -0.079644755 0.013203144
0.00085173396 -0.080062993 0.014062971
0.0017084389 -0.080296621 0.014549226
0.0026017958 -0.081522942 0.014887393
0.003427915 -0.080556005 0.015703499
0.0043301852 -0.081407487 0.016096979
0.0052711931 -0.082582027 0.01696524
0.0060826014 -0.081680648 0.017236352
0.0068477346 -0.080460884 0.01812306
0.0076766079 -0.080177911 0.018766731
0.0084899198 -0.079805255 0.019284904
0.009389244 -0.080235355 0.020339847
0.010276289 -0.0804976 0.020937353
0.011059324 -0.079967424 0.022979558
0.011693151 -0.078511156 0.024153322
0.012578018 -0.07882224 0.02531743
0.013359331 -0.07848607 0.025608271
0.014259448 -0.078846365 0.02593869
0.015010214 -0.078386679 0.025794297
0.015975323 -0.079035811 0.025777936
0.016630398 -0.078162871 0.025074542
0.017175965 -0.076882884 0.024637878
0.018341057 -0.078366339 0.023584485
0.019474808 -0.079592697 0.020832688
-0.022787249 -0.078489415 0.020239204
-0.021692429 -0.077592149 0.024652272
-0.020896817 -0.077736154 0.025966555
-0.020231757 -0.078398064 0.026173472
-0.019526485 -0.07895492 0.026436031
-0.018490804 -0.078165673 0.026790738
-0.017545436 -0.077701211 0.026944041
-0.01680569 -0.078146465 0.026727796
-0.016014595 -0.078387223 0.026135534
-0.015564276 -0.080415428 0.025090337
-0.014414621 -0.078856453 0.023825735
-0.013399958 -0.077887252 0.022835612
-0.012852064 -0.079682797 0.021531254
-0.011857512 -0.078767762 0.020408154
-0.011214386 -0.080225989 0.019198567
-0.010205754 -0.079094596 0.017556369
-0.0094695464 -0.080060713 0.016532779
-0.0088336477 -0.082152925 0.015676081
-0.0078401109 -0.081014484 0.015039086
-0.0068866811 -0.080057666 0.014236867
-0.0060618627 -0.080536172 0.013100564
-0.0052694823 -0.081676975 0.012026399
-0.0044219629 -0.082248509 0.011878788
-0.0035823251 -0.083289057 0.012005091
-0.0026919662 -0.083450958 0.0117414
-0.0017674698 -0.082187347 0.01142776
-0.00087566557 -0.081436895 0.011383981
0 -0.080050759 0.011339515
0.0008892662 -0.082701758 0.011850685
0.0017502466 -0.081386469 0.012679666
0.0026146404 -0.08105386 0.012932986
0.0034419305 -0.080024883 0.013767928
0.0043732654 -0.081342742 0.014422446
0.0051212572 -0.079379484 0.015292883
0.0060535492 -0.080425724 0.016096979
0.006995941 -0.081327811 0.017100483
0.0075921519 -0.078452237 0.018302947
0.0085486537 -0.079502478 0.0188573
0.0093774637 -0.079282194 0.019932508
0.010223564 -0.079232618 0.020610094
0.011148791 -0.079756737 0.02182427
0.011965543 -0.079485394 0.023956239
0.012534235 -0.07771226 0.024971008
0.013347733 -0.0775837 0.025608271
0.014045402 -0.076836616 0.026060075
0.014986476 -0.077430129 0.026013136
0.015799293 -0.077333383 0.026010752
0.016448578 -0.076485887 0.025194556
0.017607715 -0.077977024 0.025050521
0.018231159 -0.07706809 0.023724169
0.019435106 -0.078585431 0.020837992
-0.022993425 -0.078347966 0.021494746
-0.021883154 -0.0774327 0.0247235
-0.020942351 -0.077067852 0.025966555
-0.020326827 -0.077919506 0.026301503
-0.019220579 -0.076882318 0.026496649
-0.018797264 -0.07860674 0.026821762
-0.017313262 -0.075848579 0.026915222
-0.016601222 -0.07636562 0.026822418
-0.016030133 -0.07761959 0.026070148
-0.015289623 -0.078146972 0.025005102
-0.014271119 -0.077231936 0.023799598
-0.013562163 -0.077982441 0.022900671
-0.012678282 -0.077760138 0.021565348
-0.012137562 -0.079761125 0.020388871
-0.011307014 -0.080018871 0.018771291
-0.010106572 -0.077483721 0.01668489
-0.0095152538 -0.079582132 0.015860707
-0.0087363143 -0.080374099 0.014556855
-0.007824094 -0.079979628 0.013345629
-0.0071594813 -0.082334034 0.012043029
-0.0062319678 -0.081905864 0.010322571
-0.0051283459 -0.078634642 0.0099475682
-0.0043545715 -0.080124117 0.0086510479
-0.0035350905 -0.081307083 0.008551091
-0.0026162541 -0.080231801 0.0081987083
-0.0017596453 -0.080943689 0.0077749491
-0.0008643209 -0.079517521 0.0080680251
0 -0.080507293 0.0079825222
0.00085469417 -0.078631863 0.0092930496
0.0017257741 -0.079385608 0.010829806
0.0026053798 -0.07989832 0.01123476
0.0034659242 -0.079716258 0.012017071
0.0044175563 -0.081283048 0.01331535
0.0052074902 -0.079848185 0.014235526
0.0059774322 -0.078560539 0.01468116
0.006818214 -0.078409463 0.016159236
0.0079417247 -0.081182085 0.018098742
0.0086513637 -0.079592548 0.018510193
0.0094368421 -0.078926317 0.019824892
0.010110137 -0.07751105 0.020481765
0.01097191 -0.077647373 0.02182427
0.011923878 -0.078356922 0.023956239
0.012741528 -0.078148037 0.02538687
0.01338355 -0.076955415 0.026076734
0.013971343 -0.075609617 0.026744515
0.015034226 -0.0768416 0.026537657
0.015630873 -0.075686336 0.026535273
0.016353123 -0.07522437 0.025929272
0.017439138 -0.076400034 0.025799036
0.018027043 -0.075385824 0.024835676
0.019504419 -0.078017674 0.021297246
-0.022844082 -0.076993011 0.022641122
-0.021884205 -0.076594718 0.025004894
-0.020900281 -0.076077022 0.026438951
-0.020121312 -0.076293312 0.026811182
-0.019218706 -0.076039225 0.027041793
-0.018377723 -0.076016955 0.027005523
-0.017608203 -0.076302215 0.027133316
-0.016626853 -0.075652182 0.02690807
-0.016001588 -0.07663919 0.026211232
-0.015263704 -0.077166505 0.025284201
-0.014330368 -0.076709621 0.024144053
-0.013612298 -0.077419952 0.022967935
-0.012802811 -0.077670388 0.021529943
-0.012010215 -0.078066401 0.019390672
-0.01129075 -0.079035252 0.017261654
-0.01041088 -0.078949176 0.015698642
-0.0095197679 -0.078754455 0.014413327
-0.008719068 -0.07934352 0.013120919
-0.0078262044 -0.079131633 0.010754645
-0.0070240325 -0.079898372 0.0083747804
-0.0063489596 -0.082536474 0.0050696731
0.0026826006 -0.081372224 0.0076914728
0.003441886 -0.078302912 0.0096449256
0.0043423725 -0.079031192 0.011618108
0.0051728664 -0.078455143 0.012776822
0.0060164686 -0.078214094 0.01423341
0.0070292638 -0.07995788 0.014935374
0.0077063697 -0.077919967 0.017521054
0.0086608185 -0.078813449 0.018355846
0.0094445832 -0.078132465 0.019471049
0.010140588 -0.076899461 0.020481765
0.011040445 -0.077283122 0.02182427
0.011940336 -0.077612184 0.024152756
0.012442747 -0.075485997 0.025665998
0.013509637 -0.076836064 0.0263547
0.014003163 -0.074958108 0.026919484
0.014664959 -0.074139521 0.027037561
0.015611141 -0.074769147 0.026828825
0.016751563 -0.076219618 0.026347578
0.017538372 -0.075999618 0.026266605
0.018287597 -0.075644158 0.025113136
0.019437162 -0.076903552 0.021567196
-0.022992553 -0.076641843 0.023741841
-0.02182184 -0.075537145 0.026004314
-0.020826876 -0.07497675 0.026961088
-0.020122128 -0.075457983 0.027084976
-0.019377921 -0.075826652 0.027356058
-0.01833139 -0.074992061 0.027275205
-0.017550284 -0.075215504 0.02756989
-0.016598942 -0.074695244 0.026990235
-0.015961632 -0.075607732 0.026275218
-0.015171346 -0.075856738 0.025284201
-0.01455329 -0.077046826 0.024141222
-0.013320021 -0.074925125 0.022962958
-0.013111097 -0.078666583 0.02096796
-0.012008348 -0.077196531 0.017473847
-0.011197882 -0.077523798 0.015863568
-0.010652665 -0.079894997 0.014141321
-0.0095347008 -0.078011192 0.012187481
-0.0089265537 -0.080338985 0.0081892312
0.0044990703 -0.080983274 0.0068586767
0.0052377498 -0.078566246 0.011060596
0.0061267093 -0.078771979 0.012055457
0.0069887941 -0.078623936 0.013702273
0.0079701198 -0.079701208 0.015259683
0.0086625032 -0.077962533 0.017419249
0.0095085353 -0.077797107 0.018542767
0.010322289 -0.077417172 0.019915968
0.011143775 -0.077149212 0.020788103
0.011776955 -0.075709 0.023745418
0.01258676 -0.075520568 0.025556535
0.01341513 -0.075460114 0.026553154
0.014047062 -0.0743668 0.027088523
0.014901767 -0.074508838 0.027111977
0.015811468 -0.074896425 0.026908576
0.016430195 -0.073935889 0.026605964
0.017343177 -0.074327901 0.026558459
0.018503897 -0.075697765 0.025310993
0.019252241 -0.075334862 0.02190578
-0.022839585 -0.075286038 0.024281472
-0.021830333 -0.074726909 0.026226431
-0.020889914 -0.074368089 0.027037293
-0.020128535 -0.074643314 0.027362406
-0.019272035 -0.074574389 0.027448893
-0.018260062 -0.073870249 0.027620703
-0.01751592 -0.074234135 0.027689695
-0.016556639 -0.073677041 0.027375787
-0.015974637 -0.074828565 0.02633208
-0.015133391 -0.074826211 0.025378317
-0.014422528 -0.075506173 0.024090141
-0.013431784 -0.074714296 0.022818744
-0.012782604 -0.075843453 0.020500779
-0.012242926 -0.077830024 0.016635031
-0.011251792 -0.077031501 0.014748007
-0.010611932 -0.078705154 0.012153625
-0.0099972636 -0.080886945 0.0064945519
0.0054640733 -0.081050418 0.0050712526
0.0062416163 -0.079357691 0.0078974664
0.0069806157 -0.077659346 0.011706084
0.0077151572 -0.076294333 0.014132947
0.0085481117 -0.076078199 0.015331179
0.0094141159 -0.076168761 0.018271476
0.010407746 -0.077190779 0.019728631
0.01107933 -0.0758508 0.021055758
0.01182986 -0.075204104 0.023913682
0.012543494 -0.074424729 0.025718331
0.013348995 -0.074253783 0.026931167
0.014027238 -0.073436715 0.027386904
0.015073451 -0.074529842 0.027364641
0.015636867 -0.073246375 0.027140111
0.016711207 -0.074364871 0.026857942
0.017384851 -0.07367865 0.026704788
0.018063929 -0.073076807 0.025765419
0.019459289 -0.07529898 0.023508877
-0.022764942 -0.074196845 0.024357319
-0.021818625 -0.073847651 0.026432365
-0.020994511 -0.073900677 0.027425826
-0.019870879 -0.072859891 0.027596951
-0.019190542 -0.073424682 0.027867734
-0.018414881 -0.073659524 0.027955949
-0.017290335 -0.072454736 0.027863234
-0.016620072 -0.07312832 0.027427554
-0.016061034 -0.074387945 0.026550978
-0.015118868 -0.073914468 0.02554968
-0.014151957 -0.073257186 0.024300754
-0.013677835 -0.075228088 0.022773862
-0.012955377 -0.07600487 0.019875139
-0.011951078 -0.07512106 0.015643328
-0.011725083 -0.079369791 0.013371646
-0.010834675 -0.07945428 0.0081063509
0.007269612 -0.079965733 0.0078793466
0.0078617567 -0.076870516 0.012055457
0.0087157404 -0.076698519 0.01460737
0.0094550941 -0.075640753 0.017400324
0.010218224 -0.074933641 0.019284189
0.011087488 -0.075053766 0.020813644
0.011863588 -0.074571125 0.024416536
0.012585809 -0.073836744 0.026454359
0.013259863 -0.072929248 0.027571946
0.014115542 -0.073068686 0.028282344
0.014727992 -0.072003521 0.0282152
0.015974004 -0.073984861 0.027901292
0.016261999 -0.071552798 0.027622938
0.016790759 -0.070361272 0.027187735
0.018218644 -0.072874576 0.026250809
0.019191911 -0.07342992 0.02364856
-0.022765538 -0.073355623 0.02470696
-0.021717107 -0.072668776 0.026551604
-0.020693202 -0.072012343 0.027750552
-0.020109622 -0.072897375 0.027877659
-0.019060969 -0.072100185 0.028163105
-0.018641749 -0.073719643 0.028217524
-0.017471779 -0.072383083 0.028250605
-0.016762035 -0.072914846 0.02779308
-0.015758418 -0.072156958 0.027235329
-0.015195318 -0.073444039 0.026539564
-0.014320245 -0.07328596 0.024848819
-0.013967884 -0.075950369 0.022999614
-0.01274331 -0.073911197 0.020089
-0.01257089 -0.078119099 0.01491484
-0.011649908 -0.077964775 0.011850566
-0.010950387 -0.079390302 0.0050399899
0.0072233658 -0.078554101 0.0063271523
0.0081199771 -0.078493118 0.0096105635
0.0086970571 -0.075664401 0.013696402
0.009590405 -0.075851388 0.01716423
0.010237847 -0.074224398 0.019232333
0.011096368 -0.074260309 0.021715105
0.011773903 -0.073166393 0.025100529
0.012551285 -0.072797455 0.026753455
0.013163894 -0.071578674 0.028519481
0.01386888 -0.070976026 0.02870214
0.015013172 -0.072563671 0.028982788
0.015609144 -0.071473449 0.028771937
0.016346645 -0.071107902 0.02795586
0.017234359 -0.07139948 0.027678668
0.018296191 -0.072353125 0.026351511
0.018954247 -0.071696497 0.024294466
0.02144579 -0.07774099 0.0067501068
-0.022717822 -0.072360471 0.025261521
-0.021695798 -0.071763024 0.026859134
-0.020861534 -0.071763679 0.027783662
-0.01990859 -0.071339123 0.028105855
-0.019113222 -0.071466833 0.028305292
-0.018604206 -0.072725534 0.028806865
-0.017487034 -0.071613565 0.028545767
-0.016698033 -0.071801536 0.028416753
-0.015902312 -0.071978889 0.027787715
-0.015209584 -0.072668016 0.02734834
-0.014296241 -0.07232216 0.02554968
-0.013297446 -0.07147377 0.023879528
-0.013420979 -0.076946944 0.020135045
-0.012759211 -0.078378007 0.014609337
-0.011575364 -0.076575488 0.006955266
0.0081686908 -0.07805638 0.0073529184
0.00893695 -0.076857775 0.012055457
0.0092597352 -0.072394297 0.016933918
0.010188073 -0.07301452 0.018825322
0.011260883 -0.074495077 0.022244215
0.011577292 -0.071117654 0.026374102
0.012723077 -0.072945639 0.027533978
0.013001035 -0.069880567 0.029073507
0.014213212 -0.071902126 0.0299142
0.014951233 -0.071433671 0.03001684
0.015454264 -0.069950879 0.029893816
0.016769482 -0.072108775 0.028446764
0.017274495 -0.070743166 0.02797538
0.018406456 -0.071952507 0.026735008
0.019191252 -0.071758591 0.024734229
0.021686781 -0.077710964 0.0069233179
-0.022695638 -0.071449235 0.025021285
-0.021884819 -0.071546525 0.026742637
-0.020958481 -0.071258835 0.027783662
-0.020140227 -0.071329974 0.028025746
-0.018985998 -0.070165642 0.028523237
-0.018270398 -0.070590176 0.028972
-0.017382119 -0.070356198 0.028967559
-0.016523061 -0.070223019 0.028967559
-0.015657984 -0.070048876 0.028643489
-0.015180877 -0.071687482 0.02774033
-0.014424091 -0.072120458 0.026450366
-0.0130687 -0.069427468 0.024857789
-0.013743431 -0.077879444 0.021211475
-0.01262302 -0.076639771 0.012316912
-0.011397606 -0.074522808 0.0050399899
0.0081073903 -0.076569803 0.0064101815
0.0089003742 -0.07565318 0.011646539
0.0097124074 -0.075050421 0.015391916
0.010639697 -0.075364523 0.019730151
0.011172087 -0.073048264 0.024806678
0.012039688 -0.073098108 0.027501255
0.012493541 -0.070796728 0.028302163
0.013329025 -0.070810445 0.030199707
0.0137737 -0.068868503 0.030262083
0.014675707 -0.069301955 0.030167758
0.015371586 -0.068767622 0.030156821
0.016341962 -0.069453344 0.029514402
0.017278297 -0.069935963 0.028646648
0.018339843 -0.070858486 0.027219594
0.01916679 -0.070833787 0.025479436
0.021149097 -0.074903056 0.0078730583
-0.022613822 -0.070354111 0.025002867
-0.02164655 -0.069935009 0.02648887
-0.020751636 -0.069725499 0.027730227
-0.020176111 -0.070616394 0.028025746
-0.019024344 -0.069480218 0.028523237
-0.018419879 -0.070330448 0.02898559
-0.017573606 -0.070294425 0.029364645
-0.016662523 -0.069982603 0.029537737
-0.01591392 -0.07035628 0.029373616
-0.014827981 -0.069197252 0.028840452
-0.014360422 -0.070957385 0.027650952
-0.013533245 -0.071049534 0.026182622
-0.013019559 -0.072909534 0.023749799
-0.012619378 -0.075716272 0.014729708
-0.011575495 -0.074795507 0.0050367415
0.0090128491 -0.075707935 0.011493087
0.010031623 -0.076605126 0.01724878
0.011264938 -0.078854568 0.021739215
0.01084975 -0.070106074 0.026731521
0.011675889 -0.070055336 0.028418601
0.012541892 -0.070234597 0.029658735
0.01318597 -0.069226339 0.031233281
0.013910393 -0.068733707 0.031276166
0.014780765 -0.068976909 0.031287074
0.015810857 -0.069900624 0.031260073
0.016427688 -0.068996295 0.029773176
0.017241959 -0.068967834 0.028891176
0.018341223 -0.07003013 0.027476668
0.018857166 -0.06886965 0.02567178
0.021481439 -0.075185038 0.0080820024
-0.022716768 -0.069833025 0.024832517
-0.02166353 -0.069156654 0.026099265
-0.020887123 -0.069345251 0.027422458
-0.019892931 -0.068796389 0.028013974
-0.019254565 -0.069483869 0.028572112
-0.018303154 -0.069052815 0.029182345
-0.017250558 -0.068180785 0.029733539
-0.01639653 -0.068045609 0.029936701
-0.015771156 -0.068895049 0.029859304
-0.014750567 -0.068016514 0.029616922
-0.013869677 -0.067716658 0.029338539
-0.013615411 -0.070629947 0.028271437
-0.012601854 -0.069730267 0.025698781
-0.013465222 -0.079829529 0.021493554
-0.011716262 -0.074803822 0.0057253838
0.0080397977 -0.07414481 0.0062437057
0.0092196902 -0.076523438 0.012162536
0.010521137 -0.079386771 0.019793838
0.0099099064 -0.068543524 0.026479185
0.011187196 -0.071425945 0.028192639
0.011335046 -0.067200631 0.029660255
0.012477456 -0.069041923 0.030866057
0.013111419 -0.068015486 0.031564891
0.013904156 -0.067884997 0.031507611
0.014968514 -0.069021486 0.031507283
0.015367755 -0.067132823 0.031083345
0.016482402 -0.06840197 0.029750109
0.01718545 -0.067923442 0.028585374
0.018074939 -0.068191819 0.027156621
0.018910442 -0.068242028 0.025306731
0.021080185 -0.072902307 0.008066684
0.022271154 -0.073940232 0.0051059723
-0.022346556 -0.067867324 0.022693217
-0.0217703 -0.068660177 0.025852144
-0.021058394 -0.069071531 0.026977271
-0.019912757 -0.06803526 0.02805236
-0.019189991 -0.068416491 0.028629363
-0.018453903 -0.068782739 0.029179305
-0.017416917 -0.068008915 0.029708654
-0.016452352 -0.067454644 0.029989392
-0.0156599 -0.067584835 0.029973119
-0.014986646 -0.068272509 0.0298388
-0.01410481 -0.068034962 0.029629439
-0.012957455 -0.066406958 0.029414862
-0.012764774 -0.069780767 0.028135568
-0.013249559 -0.077604569 0.024931878
-0.012280873 -0.07746397 0.014719933
-0.011302648 -0.077234767 0.0050675869
0.0084237643 -0.076749861 0.0076433718
0.0093830917 -0.076941356 0.017157137
0.0091515956 -0.068220988 0.026246369
0.010313175 -0.070473365 0.027704
0.010580349 -0.066737585 0.028697699
0.011435926 -0.066981852 0.030937314
0.012345729 -0.067489989 0.031280398
0.013127445 -0.067278162 0.03180182
0.0140277 -0.067663029 0.031373531
0.01485345 -0.067665718 0.031365961
0.015598681 -0.067320623 0.030944884
0.016446386 -0.067430183 0.030144989
0.017384345 -0.067881733 0.028446764
0.018428972 -0.068689808 0.027203768
0.019302469 -0.068817504 0.025354326
0.021270901 -0.072675586 0.0088049769
0.022070473 -0.072391152 0.0058429837
-0.022806648 -0.068419941 0.018953562
-0.021779355 -0.067851067 0.024974316
-0.020694351 -0.06704969 0.026515454
-0.020218855 -0.068238631 0.027485371
-0.019122496 -0.067344435 0.02822879
-0.018258097 -0.06722299 0.029130161
-0.017347706 -0.066912577 0.029746294
-0.016615577 -0.067293085 0.030167341
-0.015589282 -0.066459566 0.03024587
-0.01480267 -0.066612013 0.030131876
-0.013965525 -0.066541612 0.0300318
-0.013210296 -0.066877119 0.029919922
-0.012444927 -0.067202605 0.029660076
-0.01164387 -0.067368098 0.028913736
-0.01232803 -0.076813109 0.025265306
-0.011382724 -0.076833382 0.014375895
0.0074899229 -0.075835466 0.0071101487
0.008301517 -0.074713647 0.016815305
0.0093357004 -0.075619176 0.026479185
0.0090502687 -0.066642888 0.028157443
0.0097017307 -0.065486684 0.029316664
0.010590179 -0.065984957 0.030499578
0.011589517 -0.067053631 0.031293511
0.012327574 -0.066568896 0.031169742
0.012994359 -0.06578394 0.031894892
0.013852851 -0.066004753 0.031365961
0.015053071 -0.067738816 0.031275094
0.015565461 -0.066358015 0.030846745
0.016434118 -0.066558175 0.029517144
0.017241171 -0.066501655 0.027795345
0.018154379 -0.066841125 0.026204914
0.018832926 -0.066324651 0.024321795
0.021408703 -0.072254375 0.0088169575
0.02219755 -0.07192006 0.0064708591
-0.022943281 -0.067980088 0.015032619
-0.021977572 -0.067623295 0.021413445
-0.020781906 -0.066502094 0.025089025
-0.019797411 -0.065991372 0.026584476
-0.019374739 -0.067390397 0.027865648
-0.018394312 -0.066888407 0.028754324
-0.017658278 -0.067269631 0.029695898
-0.016617622 -0.066470489 0.030089945
-0.015643332 -0.065866657 0.030343533
-0.014885078 -0.066155903 0.03026849
-0.013903208 -0.065426864 0.030300945
-0.013118213 -0.06559106 0.030455142
-0.012094225 -0.06450253 0.030003697
-0.011348323 -0.064847559 0.029728293
-0.010498961 -0.064608984 0.029117644
-0.011209644 -0.074730963 0.025868505
-0.010631908 -0.077322967 0.014690578
-0.0095721353 -0.076577082 0.0055929422
0.006620755 -0.075665765 0.007070452
0.0077537065 -0.07753706 0.016708225
0.0078848191 -0.070087276 0.027175546
0.0080706235 -0.064564988 0.028104007
0.0089481333 -0.065077335 0.029521525
0.0098304925 -0.065536618 0.030331641
0.010819042 -0.066578716 0.030997574
0.011535719 -0.065918393 0.031223953
0.012249279 -0.065329485 0.031071752
0.012999678 -0.064998388 0.031546682
0.014084996 -0.066282332 0.031112462
0.014671113 -0.065204948 0.030768335
0.015512829 -0.065317169 0.030203372
0.0166439 -0.066575602 0.029167652
0.017561723 -0.066901803 0.027454942
0.018280039 -0.066472866 0.025372922
0.01904384 -0.066239446 0.018873841
0.021500675 -0.071668915 0.008269906
0.022351477 -0.071524724 0.0058511198
-0.022680225 -0.066360652 0.013532549
-0.02194147 -0.066668309 0.018009573
-0.021169456 -0.066895477 0.023190349
-0.020067686 -0.066056132 0.025214553
-0.019361995 -0.06650424 0.027015716
-0.018445132 -0.066234797 0.028183907
-0.017470989 -0.065724194 0.02888602
-0.01670561 -0.065987162 0.029953837
-0.015700752 -0.065282069 0.030312717
-0.014953498 -0.065629236 0.030292571
-0.014051077 -0.065296181 0.03046003
-0.013251675 -0.065430142 0.030748993
-0.012143937 -0.063958071 0.030309707
-0.011577217 -0.065328583 0.030464321
-0.010515635 -0.063902698 0.030066311
-0.0098122275 -0.064597167 0.029692322
-0.0090668621 -0.065116554 0.028582871
-0.0090618134 -0.071588323 0.02534011
-0.0085113421 -0.074710667 0.0073241591
-0.0075655463 -0.074709766 0.0055019557
0.0037505392 -0.074073143 0.0067459941
0.0046590366 -0.073612779 0.0073404312
0.0056943758 -0.074975945 0.0091170669
0.0064811502 -0.073144406 0.026521444
0.0066684172 -0.065850616 0.028120399
0.0072787497 -0.063891254 0.028761446
0.0080972053 -0.063967921 0.029960275
0.0089649064 -0.064384326 0.030628681
0.0097698933 -0.064318463 0.030779213
0.010553721 -0.064134151 0.031186908
0.011506074 -0.064927131 0.031366795
0.012469438 -0.065672368 0.030985385
0.013164644 -0.06500043 0.031113654
0.014005355 -0.065083705 0.030661821
0.014768476 -0.064817198 0.030404776
0.015574726 -0.06475807 0.029411525
0.016747434 -0.066152364 0.027847171
0.017261477 -0.064936034 0.025760651
0.018134998 -0.065121129 0.022348613
0.019614751 -0.067372404 0.01578477
0.021209948 -0.069816083 0.0081918836
0.02205015 -0.06967847 0.0058511198
0.029441629 -0.070481479 0.0052211881
-0.022811824 -0.065900825 0.011520594
-0.022307411 -0.066922233 0.015598297
-0.021004694 -0.065534636 0.019532412
-0.020425567 -0.066383094 0.023190349
-0.019384857 -0.065739952 0.025260866
-0.018464342 -0.065464489 0.027062029
-0.017742803 -0.065901838 0.028502405
-0.016630994 -0.06486088 0.029927254
-0.015612738 -0.064094402 0.030112565
-0.014792659 -0.064101525 0.030220807
-0.014145127 -0.064901173 0.030478626
-0.013101007 -0.063867405 0.030940205
-0.012323707 -0.064083278 0.030914068
-0.011248566 -0.062670588 0.030923396
-0.010768663 -0.064611979 0.030860156
-0.0099934563 -0.06495747 0.030769169
-0.008841469 -0.06269405 0.030656338
-0.0080340197 -0.062665351 0.030348063
-0.0072988817 -0.063256979 0.028792977
-0.0069506457 -0.067768797 0.025349885
-0.0065956325 -0.073494188 0.014450341
-0.0058485856 -0.07603161 0.010214776
-0.0046429853 -0.072430573 0.0083348155
-0.0037707437 -0.073529504 0.0076558888
-0.00273727 -0.071169019 0.0075359344
-0.0018969307 -0.073980294 0.0069464445
-0.00092130282 -0.071861617 0.0070337057
0 -0.071558401 0.0072035789
0.00094895274 -0.074018314 0.0071052611
0.0018920233 -0.073788904 0.0075780451
0.0029277622 -0.076121815 0.0089690089
0.0036883962 -0.071923725 0.017218024
0.0044505876 -0.069429167 0.025406897
0.0049531115 -0.064390451 0.02805084
0.0056070834 -0.06247893 0.028630435
0.006571041 -0.064067647 0.029801428
0.0073123449 -0.063373655 0.030388594
0.00815727 -0.063626707 0.030599415
0.0090750912 -0.06435065 0.030926287
0.010018582 -0.065120786 0.030901194
0.010441279 -0.062647671 0.030997574
0.011759371 -0.065516494 0.031169742
0.012283338 -0.063873358 0.030650944
0.013232093 -0.064506456 0.030758351
0.013863546 -0.063609205 0.030414581
0.01462154 -0.063360013 0.029318243
0.016065957 -0.065954983 0.028060973
0.016448079 -0.06414751 0.027008832
0.017841959 -0.066270135 0.023851156
0.01831446 -0.064933091 0.018873841
0.019272164 -0.065357767 0.014656752
0.021324608 -0.06930498 0.0090249479
0.022242723 -0.069397293 0.0067808628
0.022951864 -0.068855591 0.0050114393
0.029057801 -0.068682075 0.0052211881
-0.023538655 -0.067128755 0.010564715
-0.022179512 -0.065685481 0.0140751
-0.021431318 -0.066008456 0.016577721
-0.020455157 -0.065626964 0.020135909
-0.01942963 -0.065047026 0.023767948
-0.018370342 -0.064296193 0.025756061
-0.017251285 -0.063254714 0.026654541
-0.016932979 -0.065191969 0.028861225
-0.015393869 -0.062385678 0.029408038
-0.014984749 -0.064101428 0.030046761
-0.014119174 -0.063951552 0.030338079
-0.0130985 -0.063036531 0.030923367
-0.012311504 -0.063199058 0.03093791
-0.011563789 -0.063600838 0.03097111
-0.010503722 -0.062214356 0.030953437
-0.0098113855 -0.062956393 0.03088823
-0.0091346316 -0.063942425 0.031415373
-0.0084160715 -0.064803757 0.031169772
-0.0072193197 -0.061765295 0.030573726
-0.0064452793 -0.062035814 0.030463457
-0.0056763333 -0.062439669 0.029749513
-0.0048526875 -0.062276155 0.028481036
-0.0041509117 -0.063924037 0.026176482
-0.0033878773 -0.065216638 0.026183307
-0.0025829938 -0.066296846 0.02231431
-0.0017469299 -0.067256801 0.022105277
-0.00085329462 -0.065703683 0.022192538
0 -0.066146486 0.02218166
0.00085024093 -0.06546855 0.025164872
0.0016317293 -0.062821575 0.027815104
0.0024335466 -0.06246103 0.027847469
0.0031816734 -0.061247211 0.028556585
0.0040117097 -0.06178033 0.029345334
0.004905852 -0.062958434 0.029744983
0.0058154655 -0.063970119 0.030115098
0.0066785128 -0.064280681 0.030478388
0.0072645759 -0.062152483 0.0309816
0.0084154736 -0.064799152 0.030901194
0.0088502029 -0.061951425 0.030901194
0.0098472964 -0.063186817 0.030499578
0.010684995 -0.063288048 0.030901194
0.011467446 -0.063070953 0.030779213
0.012368946 -0.06349393 0.030104369
0.013217202 -0.06360779 0.029923022
0.014171043 -0.064186491 0.029350042
0.014792017 -0.063276961 0.027572393
0.015833659 -0.064167991 0.025944382
0.016569369 -0.063792072 0.024098098
0.017334163 -0.063558593 0.019532531
0.01816909 -0.063591816 0.01573804
0.019340258 -0.064747818 0.014397919
0.021097831 -0.067688882 0.0090723634
0.022260541 -0.06856247 0.0069731474
0.023200242 -0.068708412 0.0051550865
0.029218996 -0.068177655 0.0050450265
0.030098382 -0.068163984 0.0052323043
-0.023489757 -0.066119313 0.0097940862
-0.022889158 -0.066906765 0.013020217
-0.021466579 -0.065258406 0.015004307
-0.020842019 -0.065999731 0.016821086
-0.019823734 -0.065504506 0.020101696
