ply
format ascii 1.0
comment PCL generated
element vertex 1591
property float x
property float y
property float z
element camera 0
property float view_px
property float view_py
property float view_pz
property float x_axisx
property float x_axisy
property float x_axisz
property float y_axisx
property float y_axisy
property float y_axisz
property float z_axisx
property float z_axisy
property float z_axisz
property float focal
property float scalex
property float scaley
property float centerx
property float centery
property int viewportx
property int viewporty
property float k1
property float k2
end_header
80.053001 201.67075 450.92728
81.422653 201.48657 450.16568
82.623802 201.47945 450.37036
83.98513 201.29556 449.60065
85.025253 201.46564 450.76974
86.380859 201.28207 449.99249
87.578323 201.27551 450.18338
88.625435 201.44595 451.34363
89.824982 201.43967 451.52829
91.169243 201.25668 450.73605
92.365723 201.25067 450.91367
93.701759 201.06799 450.11371
94.895203 201.06226 450.28436
95.953804 201.2334 451.42676
97.017365 201.40466 452.56656
98.215317 201.39926 452.72809
99.539948 201.21727 451.91025
100.61063 201.38889 453.04135
101.92969 201.20715 452.21634
103.12428 201.20227 452.36444
104.31869 201.19751 452.50931
105.62688 201.0162 451.67334
106.81836 201.01169 451.81143
108.00965 201.00729 451.94635
109.30702 200.82635 451.09949
110.49542 200.82222 451.22769
111.58259 200.99481 452.33176
112.77326 200.99089 452.4538
113.96379 200.98706 452.57263
115.15417 200.98337 452.68829
116.25365 201.15637 453.78082
117.35815 201.32948 454.87067
118.46768 201.50269 455.95776
119.66527 201.49939 456.06134
120.78227 201.67279 457.14273
121.90432 201.84628 458.22128
123.03139 202.01987 459.29709
124.16351 202.19357 460.37012
125.23051 202.54388 462.42206
126.3753 202.71776 463.48953
127.52513 202.89172 464.55417
128.74248 202.88925 464.63358
129.95973 202.8869 464.70984
131.00499 203.4142 467.73071
132.28453 203.23552 466.81815
133.50668 203.23346 466.88492
134.62961 203.58453 468.91464
135.90378 203.40617 467.99213
137.1283 203.40442 468.04932
138.35275 203.40277 468.10336
139.57716 203.40123 468.15417
140.83823 203.2233 467.21811
142.0941 203.04547 466.27869
143.37637 202.69125 464.35196
144.56129 202.86661 465.37341
145.77774 202.8656 465.40793
146.99417 202.86467 465.43915
148.18927 203.04031 466.45129
149.38948 203.21606 467.46033
150.62711 203.03896 466.49786
151.84601 203.03842 466.51636
153.06488 203.03801 466.53171
154.28374 203.03767 466.54379
155.49672 203.21391 467.53696
156.71814 203.21378 467.54266
157.93954 203.21375 467.5451
159.16283 203.39029 468.52878
160.37796 203.03752 466.55624
161.58981 202.8613 465.56482
162.79654 202.68521 464.57025
163.98599 202.3327 462.58832
165.1799 202.1568 461.58749
166.36868 201.98099 460.58365
167.5722 201.98172 460.56079
168.7309 201.62964 458.56671
169.92934 201.63058 458.53766
171.12781 201.63162 458.50543
172.29619 201.45627 457.48624
173.45946 201.28104 456.46405
174.65292 201.28238 456.42258
175.80856 201.1073 455.39435
176.95914 200.93234 454.36322
178.14761 200.93398 454.3125
179.33615 200.93571 454.25867
180.47661 200.76102 453.21854
181.612 200.58646 452.17557
182.79559 200.58847 452.11261
183.97928 200.59061 452.04645
185.16302 200.59283 451.97723
186.40788 200.7717 452.88724
187.53079 200.5976 451.82932
188.71483 200.60013 451.75064
189.89894 200.60278 451.66885
191.08316 200.60551 451.58386
192.26747 200.60837 451.49576
193.4519 200.61133 451.40451
194.71548 200.79095 452.29123
195.90271 200.79414 452.19345
197.00587 200.62083 451.11179
198.19078 200.62424 451.00793
199.28647 200.45111 449.92059
200.37714 200.27811 448.83066
201.55728 200.2818 448.71771
202.73758 200.28561 448.60159
203.918 200.28955 448.48236
205.20082 200.47023 449.3389
206.48894 200.65103 450.19165
207.67499 200.65532 450.06226
208.97118 200.8364 450.90787
210.16014 200.84091 450.77173
211.23418 200.66888 449.655
212.42093 200.67365 449.51279
213.60786 200.67851 449.36737
214.79498 200.6835 449.21866
215.9823 200.68863 449.0668
217.16982 200.69385 448.91165
218.35753 200.69922 448.75323
219.54547 200.70471 448.59164
220.59785 200.53354 447.4519
221.78363 200.53928 447.28412
222.96965 200.54514 447.11307
224.29941 200.72794 447.91248
225.63458 200.91092 448.70779
227.12387 201.27087 450.47202
228.3212 201.27731 450.28625
229.51877 201.28389 450.09714
230.56015 201.11371 448.93298
231.75568 201.12054 448.73764
232.95148 201.1275 448.53891
233.98334 200.95767 447.36639
235.01028 200.78795 446.19147
236.54056 201.14923 447.92264
237.39354 200.8028 445.77234
238.58563 200.81046 445.55777
239.77802 200.81824 445.33978
240.97072 200.82616 445.11841
242.16374 200.83424 444.89365
243.54205 201.01953 445.63211
244.92587 201.20502 446.36621
246.31525 201.39069 447.09583
247.71017 201.57655 447.82098
248.71997 201.40829 446.61237
250.12079 201.59451 447.3295
251.32668 201.60373 447.07855
252.73605 201.79031 447.78708
254.15103 201.97708 448.49094
255.15492 201.80957 447.26642
256.36496 201.81946 447.00082
257.57541 201.8295 446.73166
258.57013 201.66235 445.49875
259.77881 201.6727 445.22302
260.98792 201.68323 444.94376
261.97351 201.51651 443.70251
263.40744 201.70471 444.3743
265.07623 202.07057 445.99832
266.29236 202.08179 445.70328
267.74329 202.27063 446.36035
269.43698 202.63722 447.96765
270.42273 202.4715 446.70514
272.13043 202.83853 448.3017
273.35941 202.85071 447.98557
274.58887 202.86307 447.66565
275.81885 202.87556 447.34192
277.04932 202.88824 447.0144
278.02499 202.72342 445.7327
279.25391 202.73643 445.39838
280.7439 202.92735 446.00906
281.9765 202.94073 445.66629
283.20966 202.95428 445.31967
284.44333 202.968 444.96912
285.67758 202.98187 444.61469
286.91241 202.99594 444.25641
288.42407 203.1881 444.83862
289.6626 203.20251 444.47165
290.90173 203.21713 444.10077
292.70984 203.58789 445.61002
293.95538 203.60287 445.22955
294.91202 203.43997 443.9046
296.44818 203.63335 444.45654
297.6955 203.6488 444.06393
298.64594 203.48627 442.72931
300.19177 203.68021 443.26651
301.4408 203.69614 442.86166
302.9957 203.89047 443.38812
304.2485 203.90671 442.97415
305.8125 204.10143 443.48972
307.06909 204.11798 443.06656
308.95807 204.49147 444.50293
310.2211 204.50835 444.06958
311.80588 204.7038 444.56201
313.39648 204.89946 445.04831
314.66644 204.91672 444.60028
315.93695 204.93411 444.14807
317.53976 205.1302 444.61777
318.81396 205.1478 444.15588
320.42572 205.34415 444.61404
321.70355 205.36191 444.14255
322.98175 205.37973 443.66663
324.60553 205.57639 444.10776
326.23505 205.77316 444.54251
327.51984 205.79117 444.05145
328.80505 205.80917 443.556
330.802 206.18509 444.89075
332.45151 206.38214 445.30063
335.91183 207.4744 450.27997
340.49548 209.10428 457.98456
344.76086 210.55563 464.75229
349.43811 212.18665 472.41016
353.79172 213.63904 479.13287
355.19318 213.65814 478.55487
356.5946 213.67709 477.97202
357.99603 213.69586 477.38446
360.54437 214.25241 479.51147
361.95349 214.27086 478.91095
363.36237 214.28906 478.30576
365.16129 214.48642 478.59882
366.96509 214.68352 478.8848
368.77377 214.88036 479.16385
370.18884 214.89734 478.53629
373.20718 215.63214 481.49738
376.64966 216.54633 485.34146
376.86746 216.02338 482.00156
375.02356 214.60153 474.19086
376.42892 214.61604 473.54303
378.24734 214.80966 473.78314
377.15143 213.74463 467.77936
378.95905 213.93683 468.01459
-44.073868 208.70233 437.23703
-43.187027 208.87177 438.73117
-41.478439 208.67616 438.43417
-39.774155 208.4801 438.13071
-38.074234 208.2836 437.82065
-36.77858 208.26886 438.40244
-35.482208 208.25371 438.98004
-34.185211 208.23816 439.55334
-32.495956 208.04025 439.22055
-31.589722 208.20607 440.68719
-30.291367 208.18958 441.24759
-28.992752 208.17282 441.80371
-27.31282 207.97394 441.44901
-26.394867 208.13861 442.90274
-24.344223 207.75757 441.6283
-22.677261 207.55832 441.25482
-21.386108 207.54073 441.78564
-19.727188 207.34129 441.40002
-18.073761 207.14185 441.00793
-17.150681 207.30566 442.43747
-15.143066 206.92453 441.1192
-13.860626 206.90663 441.62479
-12.57843 206.8887 442.12595
-11.648361 207.05225 443.54108
-10.364136 207.03427 444.03452
-9.4267731 207.19769 445.44388
-7.7967682 206.99832 445.00818
-6.5136871 206.98039 445.48843
-5.2310486 206.96252 445.96436
-3.6129303 206.7634 445.51154
-2.0006409 206.56445 445.05252
-0.72468567 206.54684 445.5134
0.87872314 206.34814 445.04279
2.1510162 206.33073 445.49411
3.7453918 206.13235 445.01221
5.0140228 206.11517 445.45401
6.599411 205.91711 444.96072
7.8642731 205.90021 445.39319
9.4406281 205.70248 444.88876
10.701752 205.68588 445.31189
12.269073 205.48853 444.79639
13.526413 205.4722 445.21033
14.783188 205.45605 445.62015
16.039383 205.44003 446.02579
17.295013 205.42416 446.42734
18.843643 205.22772 445.88605
20.386398 205.03152 445.33908
21.635056 205.0162 445.72672
23.168777 204.8204 445.16916
24.413635 204.80542 445.548
25.657944 204.79062 445.92279
26.901688 204.77596 446.29358
28.419998 204.58099 445.71613
29.387482 204.74716 447.02338
30.629555 204.73303 447.38235
31.871086 204.71906 447.73734
33.376678 204.52487 447.14117
34.614502 204.51128 447.48764
36.111153 204.31754 446.8815
37.345276 204.30432 447.2196
38.833031 204.11102 446.60361
39.811974 204.2784 447.88422
41.293442 204.08551 447.25928
42.522911 204.073 447.58136
43.995529 203.88052 446.94681
45.22139 203.86838 447.26071
46.446754 203.85643 447.57092
47.671623 203.84465 447.87744
49.129257 203.653 447.22467
50.350601 203.64157 447.52307
51.571472 203.63034 447.8179
52.791901 203.61926 448.10904
54.23468 203.42841 447.43842
55.231438 203.5976 448.68033
56.668121 203.40714 448.00128
57.884224 203.39674 448.27728
59.099884 203.38654 448.54974
60.31514 203.37648 448.8186
61.529991 203.36659 449.08392
62.94902 203.17706 448.38348
64.362473 202.98773 447.67838
65.570969 202.97836 447.93192
66.975861 202.78943 447.21817
68.375198 202.60068 446.49982
69.5774 202.59183 446.74185
70.590263 202.7628 447.9458
71.794357 202.75424 448.18149
72.814323 202.92548 449.38004
73.839134 203.09683 450.5762
75.047417 203.08868 450.80249
76.255386 203.08069 451.0253
77.636459 202.89326 450.27643
79.012054 202.70602 449.52313
80.213921 202.69849 449.73477
81.415489 202.69113 449.94308
82.779831 202.50438 449.17786
83.978249 202.4973 449.37894
85.018494 202.66986 450.5477
86.218964 202.66302 450.74246
87.419144 202.65637 450.93396
88.61908 202.64983 451.1221
89.818764 202.64343 451.30692
91.163162 202.45776 450.51538
92.359779 202.45163 450.69312
93.556152 202.44566 450.86761
94.752319 202.43979 451.03876
95.813614 202.61343 452.18118
96.879875 202.78719 453.32101
98.209999 202.60236 452.50778
99.407883 202.59698 452.66614
100.60556 202.59178 452.82129
102.04646 202.22809 451.02069
103.2386 202.22311 451.16861
104.43054 202.21829 451.31332
105.73628 202.0343 450.4776
106.92529 202.02974 450.61554
108.00531 202.20453 451.72803
109.30281 202.02094 450.88177
110.49133 202.01671 451.01004
111.5786 202.19183 452.11377
112.76938 202.18784 452.23593
113.86409 202.36316 453.33395
115.05717 202.35938 453.44995
116.25011 202.35571 453.56274
117.44291 202.35217 453.67236
118.63559 202.34872 453.77875
119.82814 202.3454 453.88199
121.02057 202.34218 453.98199
122.21288 202.33908 454.07886
123.32976 202.51523 455.15347
124.37894 202.87064 457.20645
125.50848 203.04697 458.27563
126.64307 203.2234 459.34201
127.78271 203.39993 460.40552
128.92741 203.57655 461.46619
130.07716 203.75328 462.52399
131.17468 204.10921 464.561
132.39188 204.10703 464.63083
133.55684 204.28404 465.6799
134.72687 204.46115 466.72601
135.94897 204.45929 466.78644
137.21548 204.27841 465.86075
138.43489 204.27673 465.91461
139.61496 204.45425 466.9483
140.91028 204.09464 465.02951
142.16112 203.91422 464.09036
143.37518 203.91296 464.13113
144.56021 204.09088 465.15213
145.80319 203.91077 464.20313
147.01715 203.90982 464.23438
148.20978 204.08806 465.24603
149.42624 204.08731 465.27084
150.64268 204.08667 465.29254
151.8591 204.08612 465.311
153.0755 204.08569 465.32629
154.29189 204.08536 465.33838
155.50241 204.26419 466.33105
156.72134 204.26404 466.33673
157.94029 204.26402 466.33926
159.15923 204.2641 466.33853
160.37817 204.26425 466.33463
161.59013 204.08545 465.34363
162.79695 203.90678 464.34958
163.98651 203.54912 462.36853
165.18051 203.37064 461.36823
166.36938 203.19223 460.36481
167.57301 203.19299 460.34192
168.7318 202.83572 458.34872
169.93034 202.8367 458.31967
171.15648 203.01683 459.27087
172.32753 202.83893 458.25208
173.49347 202.66112 457.23022
174.68961 202.66248 457.18857
175.81006 202.30579 455.17761
176.96072 202.12827 454.14694
178.10629 201.95084 453.11328
179.33795 202.13168 454.0423
180.4785 201.95444 453.00256
181.6647 201.95641 452.94254
182.79767 201.77936 451.89697
183.98146 201.78152 451.83078
185.16531 201.7838 451.76151
186.34926 201.78616 451.68906
187.53329 201.78864 451.61346
188.71742 201.79123 451.5347
189.90164 201.79391 451.45282
191.08597 201.79671 451.3678
192.27039 201.79962 451.27966
193.45493 201.80261 451.18832
194.71861 201.98489 452.07443
195.90594 201.98813 451.97659
197.00922 201.81229 450.89536
198.19423 201.81575 450.79138
199.37936 201.81931 450.68423
200.47272 201.64377 449.59436
201.65555 201.64755 449.48108
202.83853 201.65143 449.36465
204.02165 201.65544 449.24506
205.20493 201.65955 449.12222
206.38837 201.66379 448.99622
207.67935 201.84738 449.84494
208.97565 202.03113 450.68991
210.16475 202.03574 450.55374
211.354 202.04047 450.41431
212.54346 202.04532 450.27167
213.73309 202.05029 450.12579
214.80005 201.87607 449.00061
215.98749 201.88126 448.84857
217.17511 201.8866 448.6933
218.36298 201.89206 448.53479
219.55103 201.89763 448.37299
220.7393 201.90335 448.20798
221.9278 201.90918 448.03967
223.11652 201.91516 447.86807
224.44901 202.10068 448.66647
225.64081 202.10693 448.48795
226.98154 202.29276 449.27859
228.32768 202.47873 450.06506
229.52541 202.48541 449.87582
230.56693 202.31276 448.71198
231.76257 202.3197 448.51645
232.9585 202.32678 448.3175
233.99048 202.15448 447.14536
235.01758 201.98228 445.9707
236.3786 202.16931 446.73166
237.5731 202.17696 446.51978
238.59332 202.00516 445.3364
239.78586 202.01306 445.11823
241.15848 202.20074 445.86377
242.17188 202.02933 444.67163
243.55035 202.21736 445.40945
244.93436 202.40558 446.14285
246.32388 202.59399 446.87177
247.52621 202.60286 446.6315
248.92426 202.79164 447.35196
250.12991 202.80086 447.10428
251.33594 202.81023 446.85309
252.74548 202.99954 447.56085
254.16064 203.18909 448.26401
255.1647 203.01913 447.03976
256.37488 203.02917 446.7739
257.58548 203.03935 446.50443
258.58032 202.8698 445.27176
259.78918 202.88031 444.99579
260.99844 202.89098 444.71622
262.20816 202.90181 444.43301
263.4183 202.91281 444.14621
265.08731 203.28404 445.76898
266.30359 203.29544 445.47369
267.75473 203.48706 446.12997
269.21161 203.67892 446.78134
270.67416 203.87102 447.42767
272.14246 204.06332 448.06894
273.37158 204.07568 447.75244
274.6012 204.0882 447.43222
275.58124 203.92068 446.15692
276.80927 203.93353 445.8298
277.78247 203.76627 444.54898
279.00891 203.77942 444.215
280.49652 203.97311 444.82562
281.98987 204.16704 445.43097
282.95734 204.00037 444.13696
284.45703 204.1947 444.73306
285.69144 204.20879 444.37833
286.92639 204.22305 444.01965
288.16193 204.23749 443.65707
289.677 204.43265 444.2337
290.91626 204.44745 443.86246
292.72461 204.82364 445.37036
293.97028 204.83884 444.9895
295.50604 205.03488 445.54459
296.75552 205.05042 445.15479
297.71082 204.88536 443.82266
298.9588 204.90118 443.42563
300.50745 205.09799 443.96112
301.75925 205.11414 443.55502
303.62231 205.49222 445.01465
304.88055 205.50873 444.59851
306.13934 205.52539 444.17825
307.71201 205.72316 444.686
308.97461 205.74011 444.25647
310.23773 205.75717 443.82263
312.14386 206.13657 445.24371
313.73727 206.33505 445.72818
315.01001 206.35257 445.27884
316.6124 206.55138 445.75189
317.88879 206.56909 445.29297
319.50018 206.76819 445.75452
321.11737 206.96741 446.20981
322.06073 206.80408 444.81308
323.34167 206.82208 444.33572
324.96817 207.02159 444.77496
325.90485 206.85825 443.36804
327.53741 207.05788 443.79645
329.17569 207.25757 444.21838
330.81958 207.45734 444.63382
332.46912 207.65715 445.04282
336.29068 208.94693 450.93323
340.8772 210.60059 458.63153
345.51187 212.25482 466.30606
349.82556 213.72787 473.0451
354.18201 215.20139 479.76202
355.58591 215.2206 479.1825
356.61279 215.05779 477.69006
358.01398 215.07661 477.10208
360.56219 215.64108 479.22711
360.81592 215.11363 475.91199
362.99194 215.49579 477.11707
364.7879 215.69572 477.4104
366.19568 215.71332 476.79544
367.99866 215.91267 477.07593
369.40802 215.92953 476.45047
373.62378 217.22127 482.10489
377.4722 218.33072 486.84134
376.88205 217.43539 481.70975
376.67325 216.72147 477.47983
379.73511 217.46512 480.39871
379.91699 216.9321 477.06143
379.24768 216.03354 471.94626
382.32654 216.77538 474.84235
-43.672348 209.80289 436.07541
-43.609482 210.34489 439.35388
-41.898804 210.1468 439.05884
-40.192337 209.94821 438.75726
-38.892654 209.93396 439.34579
-37.192398 209.7345 439.03238
-35.496704 209.53464 438.71234
-34.200104 209.51917 439.28595
-32.511169 209.31866 438.95395
-31.216187 209.30251 439.51785
-30.307266 209.47064 440.98111
-28.625122 209.26932 440.63269
-26.948059 209.06781 440.27774
-26.033035 209.23514 441.73019
-23.985168 208.84882 440.45605
-23.067307 209.01573 441.90088
-21.403152 208.81366 441.5228
-20.112152 208.79585 442.04956
-18.456116 208.59366 441.65942
-17.167999 208.57568 442.1763
-15.160416 208.18918 440.8595
-14.235214 208.35538 442.28125
-12.950409 208.33728 442.78387
-11.665863 208.31915 443.28207
-10.381653 208.30101 443.77591
-9.4443207 208.46692 445.18518
-7.8143005 208.26477 444.75049
-6.872406 208.43065 446.15295
-5.2485046 208.22864 445.70746
-3.6303253 208.02675 445.25565
-1.6846466 207.64113 443.87277
-0.74189758 207.80719 445.25885
0.86160278 207.6057 444.78922
2.1339874 207.5881 445.24097
3.7285004 207.38692 444.75995
4.6772003 207.55324 446.13165
6.5827484 207.16867 444.70984
7.8477325 207.15158 445.1427
9.7362976 206.76747 443.70703
10.994904 206.7507 444.1297
12.559708 206.55057 443.61429
13.510406 206.71756 444.96255
15.068817 206.51776 444.43707
16.023682 206.68497 445.77878
17.279449 206.6689 446.18073
18.828232 206.46967 445.64038
20.371185 206.27063 445.09427
21.61998 206.2551 445.48233
23.153885 206.05649 444.92566
24.398911 206.04132 445.30484
25.643387 206.02629 445.67999
26.887283 206.01144 446.05121
28.13063 205.99677 446.41843
29.373398 205.98225 446.78171
30.885559 205.78485 446.19565
31.857338 205.95374 447.49637
33.098473 205.93974 447.8479
34.601105 205.74298 447.24792
35.838562 205.72934 447.59088
37.075485 205.71591 447.92999
38.566032 205.51978 447.31558
39.799301 205.50671 447.6463
41.280952 205.31102 447.02219
42.510582 205.29834 447.34464
43.739731 205.28581 447.66327
45.209427 205.09076 447.02512
46.434967 205.07861 447.3356
47.424141 205.24933 448.59689
49.117836 204.87222 446.99042
50.108704 205.04326 448.2449
51.332359 205.0318 448.54062
52.55555 205.02054 448.83267
54.001129 204.82687 448.16342
55.22084 204.81598 448.44754
56.657715 204.62274 447.76926
57.873962 204.61218 448.04553
59.08979 204.60181 448.31827
60.305214 204.5916 448.58737
61.520233 204.58154 448.85291
62.734856 204.57166 449.1149
64.151085 204.37956 448.41107
65.561714 204.18768 447.70267
67.163589 203.81363 446.02628
68.366295 203.80447 446.27203
69.760254 203.61319 445.5499
70.770645 203.78665 446.75311
71.972305 203.77795 446.98843
72.805984 204.13393 449.15216
74.012161 204.1255 449.38159
75.218002 204.11725 449.60757
76.423523 204.10913 449.83017
77.802162 203.91901 449.08151
79.004486 203.91121 449.29672
80.206482 203.90356 449.50864
81.57386 203.71394 448.74789
82.772705 203.7066 448.95251
84.131744 203.51732 448.18372
85.011627 203.87444 450.32227
86.212212 203.86752 450.51727
87.41256 203.86072 450.70886
88.612625 203.85408 450.89719
89.664879 204.0296 452.05432
91.15699 203.65919 450.29126
92.353737 203.65298 450.46918
93.550247 203.6469 450.64383
94.746536 203.64093 450.81512
95.807953 203.81708 451.95721
97.006378 203.81137 452.12231
98.20459 203.80579 452.28409
99.402603 203.80035 452.44263
100.6004 203.79504 452.59787
101.91973 203.60797 451.77411
103.23371 203.42102 450.94644
104.42578 203.41611 451.09125
105.73164 203.22946 450.25613
106.92078 203.22479 450.39423
108.10973 203.22028 450.52908
109.29852 203.21585 450.66071
110.48715 203.21156 450.78909
111.67564 203.20737 450.91425
112.76544 203.38512 452.01462
113.86026 203.56297 453.11234
115.1468 203.37735 452.24957
116.2465 203.5554 453.34131
117.43941 203.55179 453.45105
118.6322 203.54829 453.5575
119.82486 203.54491 453.66083
121.09789 203.35989 452.78091
122.28773 203.35674 452.87762
123.47748 203.35367 452.97113
124.6671 203.35075 453.06155
125.85663 203.34793 453.14871
126.97845 203.52695 454.21381
128.10532 203.70604 455.27606
129.23726 203.88525 456.33548
130.31436 204.24625 458.3736
131.40167 204.60733 460.40912
132.55394 204.78683 461.46024
133.71129 204.9664 462.50842
134.92328 204.96439 462.57156
136.0882 205.1442 463.61377
137.25819 205.32407 464.65302
138.47514 205.32239 464.70682
139.69205 205.32079 464.75735
140.9456 205.13763 463.82199
142.15982 205.13626 463.86609
143.40556 204.95332 462.92404
144.61713 204.95215 462.96158
145.82864 204.95111 462.99597
147.04012 204.95015 463.02716
148.25157 204.94928 463.05511
149.46298 204.94855 463.0799
150.65823 205.12955 464.08475
151.85861 205.31064 465.08646
153.07512 205.31021 465.10175
154.30003 205.1282 464.13049
155.50809 205.30963 465.12271
156.72455 205.30948 465.12839
157.94174 205.12781 464.14752
159.15564 205.12788 464.14682
160.37398 205.30969 465.12625
161.58345 205.12833 464.13577
162.78781 204.94705 463.14218
163.98703 204.76587 462.14542
165.16641 204.40314 460.16229
166.35283 204.22217 459.15939
167.51425 203.85965 457.1702
168.68787 203.67888 456.16129
169.85635 203.49817 455.1492
171.07487 203.68091 456.1001
172.23831 203.50044 455.082
173.39662 203.32007 454.06085
174.58514 203.32144 454.01947
175.73586 203.14125 452.99234
176.88147 202.96115 451.96225
178.065 202.96283 451.91165
179.29417 203.1463 452.84024
180.48041 203.14819 452.78329
181.616 202.96851 451.74115
182.8531 203.15228 452.65994
184.03955 203.1545 452.59357
185.16765 202.9751 451.54245
186.35168 202.97751 451.46994
187.53583 202.98004 451.39426
188.72006 202.98267 451.31549
189.90439 202.98541 451.23355
191.01749 202.80652 450.16769
192.19945 202.80945 450.07965
193.45799 202.99426 450.96878
194.64275 202.99744 450.87424
195.82762 203.0007 450.77646
196.92841 202.82233 449.6958
198.11096 202.82584 449.59201
199.29364 202.82944 449.48499
200.38451 202.65137 448.39575
201.47037 202.4734 447.30383
202.74539 202.65915 448.16632
203.92606 202.66322 448.04691
205.10687 202.66739 447.92422
206.39267 202.85353 448.77612
207.79117 203.22166 450.60175
208.98021 203.22623 450.4686
210.16942 203.23091 450.33234
211.3588 203.23572 450.19278
212.54837 203.24065 450.05002
213.85843 203.42761 450.87994
214.80518 203.06897 448.77911
216.11821 203.2562 449.60226
217.18053 203.0797 448.47162
218.36848 203.08524 448.3129
219.55667 203.09093 448.15103
220.74509 203.09673 447.98584
221.79533 202.92068 446.8439
223.12256 203.10873 447.64566
224.4552 203.29697 448.44339
225.50098 203.12128 447.2923
226.98801 203.49184 449.05469
228.18298 203.49847 448.86896
229.22437 203.32318 447.70874
230.4173 203.33009 447.51678
231.6105 203.33713 447.32147
232.80399 203.34433 447.12286
233.8335 203.16953 445.95135
234.85812 202.99484 444.77747
236.38617 203.36676 446.50684
237.40878 203.19234 445.32663
238.42654 203.01804 444.14401
239.79382 203.20828 444.89325
241.16663 203.39871 445.63812
242.18015 203.22482 444.44623
243.55878 203.41559 445.18335
245.13054 203.78882 446.8812
246.33266 203.79768 446.6442
247.72794 203.98904 447.36795
248.93335 203.99823 447.12347
250.13916 204.0076 446.87552
251.34535 204.01709 446.62408
252.7551 204.2092 447.33118
254.17041 204.40147 448.03354
255.17459 204.22906 446.80954
256.38495 204.23927 446.54343
257.8093 204.43211 447.23343
258.80692 204.26015 446.00046
259.79971 204.08829 444.76505
261.23053 204.28169 445.44312
262.44302 204.29272 445.15906
263.65594 204.30392 444.8714
265.32779 204.68057 446.49225
266.54681 204.69214 446.19595
267.76636 204.70392 445.89606
269.46045 205.08127 447.50073
270.68616 205.09344 447.19211
272.15463 205.28853 447.83258
273.38391 205.30106 447.51578
274.61371 205.31378 447.19522
275.59387 205.14383 445.92007
276.56934 204.974 444.64258
277.54007 204.80428 443.36261
279.28006 205.18347 444.92633
280.77045 205.37999 445.5354
282.00339 205.39377 445.19196
283.50275 205.59071 445.79108
285.00787 205.7879 446.38486
285.97659 205.61917 445.08325
287.21436 205.63367 444.72348
288.45264 205.64833 444.35974
289.69153 205.66318 443.99207
290.93097 205.67816 443.62042
292.45526 205.87656 444.18585
293.98538 206.0752 444.7457
295.52133 206.27405 445.29987
296.47882 206.10648 443.9711
298.02118 206.30571 444.51553
299.27197 206.32176 444.11722
300.52332 206.33798 443.71484
302.078 206.53781 444.24359
303.94391 206.92136 445.7009
304.89691 206.75458 444.35001
306.15582 206.77142 443.92932
307.41531 206.78841 443.50443
308.67535 206.80551 443.07532
310.25458 207.00642 443.57196
311.83966 207.20752 444.06256
313.43054 207.40878 444.547
315.02722 207.61023 445.02527
315.97131 207.44418 443.64499
317.90622 207.82977 445.03806
319.18317 207.84775 444.5744
320.79779 208.04973 445.02966
321.73853 207.88391 443.634
323.35931 208.08606 444.07861
324.98587 208.28835 444.51685
326.27032 208.30664 444.02939
327.55511 208.32494 443.53748
329.19339 208.5274 443.95847
331.19312 208.91412 445.28925
332.84528 209.11673 445.6962
336.66968 210.42505 451.58136
341.62289 212.28679 460.18646
345.53024 213.59613 466.02957
349.47498 214.90587 471.85294
354.20062 216.58487 479.47604
355.6044 216.60416 478.89612
357.00812 216.62329 478.31137
358.41174 216.64221 477.72195
361.34494 217.39922 480.74927
362.37372 217.23318 479.24155
362.62143 216.69751 475.9252
363.63361 216.53067 474.41501
367.39145 217.6564 479.20776
367.61914 217.11948 475.88556
370.61896 217.87535 478.85471
374.84235 219.18546 484.5014
379.10211 220.49547 490.12677
378.11551 219.40213 484.09805
377.505 218.49277 478.97296
377.69006 217.95233 475.64032
379.92938 218.33582 476.76645
378.42542 217.05399 469.87421
378.98077 216.69604 467.43845
-43.683578 211.08582 435.80222
-42.39032 211.07339 436.40182
-41.911301 211.43533 438.78479
-40.610474 211.42172 439.37881
-39.30864 211.40756 439.96872
-37.606186 211.20555 439.65729
-36.305359 211.19049 440.2377
-34.609406 210.9877 439.91428
-32.526352 210.59729 438.68347
-31.620865 210.76843 440.1496
-29.936646 210.56473 439.80753
-28.641251 210.548 440.36313
-26.964401 210.34386 440.00897
-25.671158 210.32666 440.55475
-24.001923 210.12218 440.18857
-23.084274 210.29166 441.63318
-21.420273 210.0869 441.25607
-20.129425 210.06903 441.78323
-18.47345 209.86411 441.39398
-17.18544 209.84604 441.91125
-15.537735 209.64105 441.51007
-14.609955 209.80969 442.93265
-12.968002 209.60466 442.52054
-12.0354 209.77315 443.9364
-10.399338 209.56815 443.51346
-9.4620361 209.73653 444.92258
-7.4880524 209.34497 443.56857
-6.2075653 209.32675 444.04868
-4.9275055 209.30859 444.52441
-3.6478424 209.29047 444.99576
-1.7020569 208.89944 443.61444
-0.75926208 209.06793 445.00037
0.84431458 208.86365 444.53174
2.1167603 208.84589 444.98395
3.7114258 208.64188 444.50385
4.9802399 208.62433 444.9465
6.8832855 208.23438 443.5253
8.1457214 208.21715 443.95773
9.7197418 208.01382 443.45425
10.978455 207.99686 443.87732
12.543442 207.7939 443.36282
13.494232 207.9633 444.71094
14.751266 207.94675 445.12158
16.007751 207.93033 445.52805
17.263687 207.91406 445.93036
18.519028 207.89793 446.32858
20.064804 207.69608 445.78424
21.604736 207.49442 445.23416
22.853104 207.47885 445.61856
24.100906 207.46344 445.99896
25.628632 207.26239 445.43353
26.594879 207.43309 446.74759
28.116196 207.23248 446.1727
29.359131 207.21777 446.53635
30.601532 207.20323 446.89606
31.843391 207.18886 447.2518
33.34938 206.98907 446.65732
34.58754 206.9751 447.00452
35.82515 206.96127 447.34784
37.062241 206.94763 447.68729
38.553009 206.7487 447.0737
39.78643 206.73544 447.40479
41.019341 206.72238 447.73206
42.498093 206.52409 447.10425
43.727386 206.51138 447.42325
44.956177 206.49887 447.73853
46.423004 206.30121 447.09668
47.648209 206.28909 447.40384
49.106239 206.09186 446.75262
50.327911 206.08008 447.05167
51.549133 206.0685 447.34702
52.544449 206.24225 448.59518
53.990196 206.04584 447.92679
55.210075 206.03476 448.21121
56.429512 206.02386 448.492
57.863548 205.82803 447.81027
59.079552 205.8175 448.08322
60.295135 205.80713 448.3526
61.510315 205.79692 448.61841
62.72509 205.7869 448.88068
64.141502 205.59203 448.17758
65.552338 205.39737 447.46985
66.957565 205.20294 446.75763
68.163033 205.1936 447.00412
69.559769 204.99954 446.2832
70.761917 204.99057 446.52225
71.777298 205.1666 447.72275
72.797523 205.34276 448.92078
74.003853 205.3342 449.15042
75.209839 205.32581 449.37668
76.415512 205.31757 449.59943
77.794327 205.12471 448.85144
79.167641 204.93204 448.09912
80.367203 204.92429 448.31073
81.566475 204.91669 448.51895
82.76545 204.90921 448.72375
83.964149 204.90189 448.92523
85.16256 204.89474 449.12338
86.36071 204.8877 449.31812
87.405838 205.06548 450.48041
88.606056 205.05872 450.66885
89.953575 204.86749 449.88235
91.150703 204.86102 450.06375
92.347595 204.85469 450.24182
93.684059 204.66393 449.44379
94.877884 204.6579 449.6149
95.936829 204.83655 450.75632
97.132813 204.83075 450.92114
98.328568 204.8251 451.08279
99.524117 204.81958 451.24112
100.59515 204.99869 452.37112
102.03635 204.62442 450.57269
103.22873 204.61929 450.72092
104.42092 204.6143 450.86584
105.72693 204.42497 450.03134
106.91618 204.42023 450.16956
107.99642 204.60007 451.28128
109.18791 204.59557 451.41333
110.48293 204.40677 450.56473
111.5704 204.58691 451.66769
112.6629 204.76718 452.76797
113.9523 204.57877 451.90921
115.04966 204.75925 453.00354
116.24282 204.75546 453.11661
117.52407 204.56741 452.24747
118.71439 204.56387 452.35382
119.9046 204.56042 452.45697
121.09467 204.5571 452.55698
122.28464 204.55389 452.65378
123.47447 204.55081 452.74744
124.59146 204.73213 453.81799
125.85385 204.54494 452.92514
127.111 204.35788 452.02875
128.29787 204.35522 452.1095
129.42218 204.53699 453.16797
130.61143 204.53455 453.24261
131.68597 204.9008 455.27646
132.77075 205.26715 457.30774
133.91789 205.44931 458.35501
135.11971 205.44728 458.41763
136.27443 205.62964 459.45889
137.47868 205.62782 459.51529
138.68288 205.62611 459.56854
139.8477 205.80878 460.60074
141.05437 205.80728 460.64771
142.26096 205.80589 460.6915
143.4991 205.62036 459.74976
144.67403 205.80344 460.76959
145.90695 205.6181 459.82129
147.11081 205.61714 459.85229
148.31465 205.61627 459.8801
149.49973 205.79977 460.88748
150.70609 205.79912 460.90903
151.89885 205.9828 461.91019
153.10774 205.98233 461.92529
154.32504 205.79776 460.95447
155.52548 205.98175 461.94614
156.73763 205.79739 460.96896
157.94463 205.61311 459.98856
159.15019 205.79742 460.97073
160.35649 205.79759 460.9668
161.55579 205.61365 459.97693
162.75952 205.61401 459.96671
163.939 205.24602 457.98773
165.10818 204.87811 456.00565
166.28441 204.69455 455.00336
167.43564 204.32684 453.01535
168.62149 204.32774 452.98965
169.80737 204.32874 452.96088
171.02086 204.51407 453.91141
172.2094 204.51526 453.87625
173.39796 204.51657 453.83801
174.55128 204.33371 452.8143
175.73738 204.33522 452.76987
176.8831 204.15256 451.74023
178.06674 204.15428 451.68964
179.34161 204.52464 453.59952
180.48236 204.34229 452.56067
181.66878 204.34433 452.50052
182.85526 204.34647 452.43723
184.04182 204.34872 452.37082
185.17001 204.16676 451.32007
186.41519 204.35352 452.22852
187.53841 204.17178 451.17181
188.72275 204.17445 451.09293
189.90718 204.17725 451.01089
191.02039 203.9958 449.94547
192.20245 203.99881 449.85733
193.38464 204.00191 449.76602
194.64598 204.18948 450.65128
195.83096 204.19281 450.55347
196.93187 204.0119 449.47324
198.20131 204.19983 450.34827
199.29732 204.01915 449.26221
200.38829 203.83855 448.17334
201.47427 203.65805 447.08185
202.7494 203.84647 447.94373
203.83051 203.66617 446.84637
205.11111 203.85484 447.70139
206.39703 204.04364 448.55264
207.79568 204.41702 450.37717
208.98483 204.42168 450.24399
210.17416 204.42642 450.10751
211.36368 204.43134 449.9679
212.55338 204.43634 449.82498
213.74326 204.44148 449.67886
214.68753 204.07774 447.57922
215.87263 204.0831 447.42725
217.05795 204.08862 447.27206
218.3741 204.27879 448.08771
219.4292 204.10001 446.95187
220.61514 204.1059 446.7869
221.93971 204.29651 447.59171
223.12869 204.3027 447.41983
224.46149 204.49361 448.21692
225.65353 204.50006 448.03806
226.99457 204.6913 448.82736
228.03839 204.5134 447.67038
229.2312 204.52029 447.4816
230.26778 204.34262 446.31921
231.45854 204.34976 446.12415
232.81125 204.54176 446.89514
233.84088 204.3645 445.724
235.0325 204.37207 445.51892
236.39386 204.56458 446.27856
237.4166 204.3877 445.09866
238.43448 204.21091 443.91632
239.62471 204.21907 443.69818
240.99509 204.41222 444.44287
242.18854 204.42068 444.21744
243.75235 204.79906 445.91898
245.13931 204.99277 446.65045
246.53177 205.18669 447.37741
247.92981 205.3808 448.09988
249.138 205.39017 447.85468
250.34657 205.39969 447.60596
251.35492 205.2244 446.39163
252.76483 205.41924 447.09796
253.97455 205.42926 446.83865
254.97626 205.25438 445.61545
256.3952 205.4498 446.30948
257.8197 205.6454 446.99872
258.81747 205.47098 445.76596
259.81042 205.29671 444.53079
261.24146 205.49289 445.2081
262.23004 205.31888 443.96689
263.44052 205.33023 443.67953
265.10995 205.71222 445.29971
266.32657 205.72397 445.00381
267.77811 205.92117 445.65851
269.47244 206.30392 447.2619
270.6983 206.31625 446.95297
271.92468 206.3288 446.64029
273.39645 206.52689 447.27548
274.62643 206.53979 446.95465
275.60675 206.3674 445.67966
276.83511 206.38063 445.35187
277.80859 206.20853 444.07144
279.0354 206.22208 443.73676
280.52338 206.42139 444.34567
282.01715 206.62091 444.94931
283.51666 206.82068 445.54758
285.02203 207.02069 446.1405
286.26202 207.03522 445.78348
287.50256 207.04994 445.42255
288.46729 206.87909 444.11481
290.26437 207.26569 445.63101
291.22757 207.09512 444.31604
292.75467 207.29639 444.87976
294.28763 207.49786 445.43793
295.53683 207.51367 445.05148
296.49438 207.34366 443.72281
298.03699 207.54573 444.26633
298.99042 207.37598 442.93118
300.5394 207.5784 443.46484
301.79147 207.59497 443.05795
303.04413 207.61166 442.64691
304.60538 207.81467 443.1647
306.17249 208.01788 443.67661
307.11877 207.84882 442.3201
309.00824 208.23862 443.75211
310.27161 208.25607 443.31744
312.1781 208.64633 444.73553
313.77173 208.85043 445.21808
315.04465 208.86832 444.76791
316.31802 208.88629 444.31339
317.92383 209.09082 444.77924
318.86627 208.92245 443.39148
320.47833 209.12721 443.84677
321.75626 209.14548 443.37396
323.03461 209.16379 442.89679
325.00372 209.5555 444.25488
326.63599 209.76064 444.6857
327.573 209.59238 443.27469
329.21127 209.79759 443.6947
330.85516 210.00287 444.10822
332.86313 210.39505 445.42993
337.04889 211.90877 452.22449
341.6412 213.60995 459.91003
345.91516 215.12476 466.6604
349.8627 216.453 472.47842
353.8476 217.78162 478.27652
355.62292 217.98805 478.60547
357.02643 218.00723 478.02039
357.67029 217.65186 475.61868
360.59796 218.41931 478.64566
361.23602 218.06335 476.23672
360.69977 217.14517 471.12015
364.4313 218.28664 475.92551
368.19427 219.42816 480.71234
368.42676 218.88333 477.38919
370.23627 219.08749 477.65985
373.25354 219.85355 480.61365
376.29114 220.61931 483.55325
376.50433 220.07233 480.21893
376.7005 219.52457 476.88733
379.34961 220.1013 478.9097
382.01318 220.67749 480.92029
380.93848 219.56474 474.91498
381.50882 219.20142 472.47287
-44.107635 212.55893 436.41583
-43.222794 212.73685 437.90869
-42.331406 212.91406 439.39996
-40.623383 212.71053 439.10104
-38.919662 212.5065 438.79568
-37.620087 212.492 439.3804
-35.922577 212.28708 439.06314
-34.229675 212.08177 438.73938
-32.933289 212.06604 439.30923
-32.025558 212.23981 440.77628
-30.338989 212.03349 440.43622
-29.041229 212.01675 440.99326
-26.980743 211.62015 439.7363
-26.066284 211.79269 441.18835
-24.018738 211.39581 439.91718
-23.101334 211.56789 441.36163
-21.437424 211.36043 440.98535
-20.146744 211.3425 441.51291
-17.760422 210.75577 439.30179
-16.840439 210.92722 440.72983
-15.195435 210.71954 440.32852
-13.913177 210.70129 440.8353
-12.631149 210.683 441.33771
-11.701294 210.85403 442.75241
-10.417114 210.83563 443.24707
-9.1332855 210.81721 443.7374
-7.16185 210.42029 442.38382
-6.2253265 210.59119 443.78409
-4.9452209 210.57286 444.26025
-3.3295898 210.36545 443.80945
-1.7196503 210.15814 443.35229
-0.77684021 210.3291 444.73813
0.49884033 210.31104 445.19598
1.7740173 210.29306 445.64954
3.3714294 210.08621 445.17136
4.9630432 209.87955 444.68707
6.5488586 209.67303 444.19662
8.12883 209.46672 443.70016
9.7029724 209.26059 443.19766
10.652344 209.43219 444.5531
12.220108 209.22639 444.04047
13.173645 209.39819 445.38931
14.433456 209.38139 445.80121
15.991638 209.17613 445.27353
16.951431 209.34824 446.61252
18.50322 209.14333 446.07483
20.340149 208.75012 444.59351
21.589249 208.73419 444.98236
22.837799 208.7184 445.36707
24.08577 208.70279 445.74783
25.613678 208.49895 445.18335
26.580048 208.67206 446.49728
28.101547 208.46863 445.92328
29.072083 208.642 447.2308
30.587242 208.43898 446.64734
31.829262 208.42441 447.00345
33.070747 208.41002 447.35565
34.311684 208.39581 447.70395
35.811562 208.19363 447.10107
37.048813 208.17981 447.44089
38.53978 207.97806 446.82819
39.773369 207.96463 447.15961
41.006462 207.95135 447.48718
42.485405 207.75027 446.86026
43.714867 207.7374 447.17963
44.943848 207.7247 447.49515
46.410851 207.52425 446.85419
47.636253 207.51193 447.16159
49.094475 207.31192 446.51123
50.316315 207.29997 446.81058
51.537697 207.28821 447.10623
52.533157 207.46442 448.35422
53.979103 207.2652 447.68661
55.19915 207.25397 447.97128
56.418762 207.24289 448.25232
57.637939 207.23199 448.52979
58.856712 207.22127 448.80359
60.075066 207.21071 449.07382
61.500237 207.0127 448.38037
62.715187 207.0025 448.64285
64.131783 206.80489 447.94055
65.542786 206.60748 447.23361
66.948204 206.41029 446.52209
68.153831 206.40082 446.76886
69.3591 206.39151 447.01208
70.564003 206.38237 447.25189
71.768555 206.37338 447.48822
72.788925 206.552 448.68594
73.995399 206.5433 448.9158
75.201553 206.53477 449.14221
76.407364 206.5264 449.36523
77.786362 206.33081 448.61792
79.159836 206.13541 447.86633
80.191254 206.31487 449.0459
81.55896 206.1198 448.28656
82.75808 206.11221 448.49161
83.956924 206.10477 448.69324
85.155479 206.0975 448.89154
86.353767 206.09036 449.08649
87.551788 206.08336 449.27808
88.749565 206.07649 449.46628
89.94706 206.06979 449.65125
91.144318 206.06322 449.83282
92.341339 206.05679 450.01108
93.538124 206.05049 450.186
94.734673 206.04434 450.35767
95.931 206.03831 450.52597
97.12709 206.03244 450.69104
98.452484 205.83957 449.87903
99.518661 206.02109 451.01129
100.71414 206.01559 451.16644
102.03117 205.82315 450.3436
103.22367 205.81795 450.49197
104.41599 205.81287 450.63708
105.72212 205.62085 449.80319
106.9115 205.61603 449.9415
108.1007 205.61134 450.07657
109.28974 205.60678 450.2084
110.47861 205.60233 450.33704
111.66733 205.59801 450.46246
112.75735 205.78079 451.56207
113.94835 205.7767 451.6813
115.13918 205.77274 451.79739
116.3299 205.76889 451.91025
117.52046 205.76517 452.01993
118.71091 205.76154 452.12631
119.90121 205.75806 452.22964
121.0914 205.75468 452.32971
122.28148 205.7514 452.42657
123.47144 205.74826 452.52032
124.66129 205.74522 452.61078
125.92123 205.55539 451.71832
127.1083 205.55258 451.80231
128.29527 205.5499 451.88315
129.48215 205.54732 451.96085
130.72884 205.35797 451.05484
131.85565 205.54248 452.10672
133.04228 205.54025 452.17499
134.17667 205.72496 453.22101
135.41531 205.53606 452.30194
136.5547 205.72101 453.34201
137.69917 205.90604 454.37912
138.93248 205.71747 453.45038
140.04268 206.08957 455.46307
141.23657 206.08806 455.50955
142.43042 206.08667 455.55295
143.62422 206.08536 455.59314
144.78896 206.27103 456.61218
146.01169 206.0831 455.66415
147.20537 206.08212 455.69489
148.37772 206.2681 456.70465
149.59264 206.08047 455.74695
150.77008 206.26666 456.75055
151.95265 206.45294 457.75104
153.15137 206.45248 457.76614
154.35005 206.45213 457.77808
155.54874 206.45189 457.78683
156.7507 206.26492 456.81003
157.94751 206.07806 455.83011
159.14104 206.07813 455.82941
160.33458 206.07829 455.82553
161.52112 205.89175 454.83615
162.70253 205.70529 453.84369
163.8788 205.51895 452.84818
165.06467 205.51955 452.83185
166.25056 205.52023 452.81241
167.43648 205.52104 452.78983
168.62244 205.52194 452.7641
169.83342 205.70978 453.71735
171.02202 205.71091 453.68533
172.21065 205.7121 453.65009
173.36659 205.52658 452.62997
174.55275 205.52802 452.58859
175.70108 205.3427 451.56244
176.88477 205.34433 451.51492
178.06851 205.34607 451.46423
179.29791 205.53479 452.39182
180.48434 205.53674 452.33472
181.67087 205.53882 452.27457
182.85745 205.54099 452.21118
184.04413 205.54327 452.14468
185.23088 205.54567 452.07507
186.41772 205.54816 452.00226
187.54103 205.36388 450.94598
188.72548 205.36661 450.86703
189.84128 205.18253 449.80499
191.02335 205.18546 449.71994
192.13161 205.00159 448.6521
193.38782 205.19167 449.54034
194.57021 205.19495 449.4458
195.75273 205.19833 449.34811
196.93538 205.20184 449.24725
198.11815 205.20547 449.14325
199.21169 205.02223 448.05774
200.39215 205.02609 447.9476
201.47821 204.84305 446.85645
202.75348 205.03412 447.71774
203.93439 205.03833 447.59808
205.2177 205.22968 448.45224
206.50632 205.42114 449.30261
207.80026 205.61276 450.14929
208.98955 205.61749 450.01596
210.06642 205.43527 448.9035
211.36864 205.62732 449.73962
212.4407 205.44534 448.62131
213.62813 205.45056 448.47537
214.69284 205.2688 447.35156
215.87808 205.27428 447.19949
216.93546 205.09274 446.07016
218.24916 205.28558 446.88547
219.43503 205.29146 446.72366
220.62111 205.29744 446.5585
221.8074 205.30356 446.39008
222.99396 205.30983 446.21841
224.32431 205.50345 447.01526
225.51389 205.50998 446.83658
226.70375 205.51668 446.65463
228.0452 205.71077 447.44
229.08423 205.53049 446.28085
230.11833 205.35034 445.11917
231.46576 205.54489 445.89371
232.65692 205.55229 445.6951
233.84839 205.55984 445.49319
235.04015 205.56757 445.28793
236.23219 205.57541 445.07925
237.42453 205.58342 444.86725
238.61719 205.59155 444.65176
239.81018 205.59988 444.43298
241.18329 205.79578 445.17648
242.37952 205.80441 444.95038
243.76109 206.00067 445.68552
245.14821 206.19714 446.41623
246.54086 206.3938 447.14246
247.74625 206.40311 446.901
249.14742 206.60016 447.61868
250.15813 206.42227 446.40765
251.36462 206.4321 446.1557
252.77473 206.62968 446.86124
253.98462 206.63986 446.60172
255.19489 206.65021 446.33862
256.40558 206.66071 446.0719
257.83029 206.8591 446.76044
258.82819 206.68225 445.52789
260.04013 206.69327 445.25052
261.03107 206.51669 444.01257
262.24127 206.52805 443.72855
263.67859 206.72739 444.39661
265.12155 206.92694 445.05975
266.33832 206.93886 444.76352
268.02457 207.32675 446.37119
269.48462 207.52699 447.01944
270.71069 207.53952 446.71021
271.93719 207.55225 446.39722
273.40918 207.75313 447.03162
274.39175 207.57817 445.75992
275.36963 207.40335 444.48587
276.59552 207.41675 444.15845
277.56656 207.24219 442.87891
278.79089 207.25591 442.54459
280.27643 207.45798 443.15335
281.76776 207.66028 443.75684
282.99896 207.67459 443.40955
284.76779 208.06561 444.94772
285.73416 207.89203 443.64722
286.9696 207.90688 443.28741
288.48206 208.11028 443.86612
290.27939 208.5023 445.38089
291.24274 208.32935 444.0661
293.05432 208.72186 445.56894
294.30313 208.7377 445.1861
295.8421 208.94223 445.73764
296.51019 208.5813 443.47079
298.05295 208.78616 444.01334
299.30402 208.80263 443.61423
300.85583 209.0079 444.14609
302.11069 209.02472 443.73795
303.67154 209.23039 444.25891
304.93018 209.24751 443.84161
306.50006 209.45357 444.35162
307.44907 209.28214 442.99435
309.02539 209.48849 443.4942
310.28885 209.50615 443.05914
312.19547 209.90182 444.47568
313.46527 209.91975 444.03027
315.06223 210.1268 444.50662
316.33569 210.14496 444.05173
317.94159 210.35229 444.51666
319.21869 210.37062 444.05212
320.83344 210.57819 444.50543
322.11407 210.59666 444.03125
323.73767 210.80444 444.47293
325.36694 211.01231 444.9082
326.30615 210.84158 443.50064
327.59094 210.86017 443.0079
329.22925 211.06815 443.42694
330.51727 211.0867 442.92444
332.52258 211.48422 444.24564
337.06708 213.20853 451.9494
341.65961 214.93344 459.62955
346.30026 216.65897 467.28595
350.25055 218.00571 473.09857
354.23816 219.35283 478.89124
356.01605 219.56198 479.21817
357.04483 219.39148 477.72513
358.06812 219.22067 476.22952
360.61584 219.80884 478.34845
360.86841 219.25778 475.03726
362.26801 219.27588 474.43408
364.44812 219.67346 475.6279
367.03149 220.2608 477.71216
367.25549 219.70793 474.39389
369.05658 219.91452 474.66733
370.86212 220.12067 474.93381
375.90216 221.84708 482.35272
376.9248 221.67224 480.80844
379.57721 222.25731 482.83212
383.06763 223.2222 486.62659
384.51129 223.23566 485.95419
383.86847 222.29724 480.83362
385.29565 222.30899 480.15894
-44.531509 214.03738 437.02448
-43.644714 214.21812 438.51801
-42.751343 214.39816 440.01007
-40.636108 213.99945 438.81934
-39.335388 213.98563 439.40961
-38.033707 213.97125 439.99579
-35.936874 213.5712 438.78326
-34.638885 213.55594 439.35873
-33.34024 213.54024 439.92999
-32.041031 213.52417 440.49704
-30.741333 213.50774 441.05981
-29.057358 213.29855 440.71521
-27.378357 213.08914 440.36401
-26.082962 213.07188 440.91159
-24.411453 212.86206 440.54831
-23.491623 213.03668 441.99362
-21.825226 212.82652 441.61942
-19.796188 212.42404 440.32886
-18.143127 212.21379 439.94052
-16.858017 212.1956 440.45752
-14.853134 211.79309 439.14413
-13.930923 211.96686 440.56433
-12.648941 211.94846 441.06714
-11.719162 212.12199 442.48166
-10.435059 212.10349 442.97681
-9.1512299 212.08495 443.46756
-7.5237274 211.87451 443.0347
-6.5845795 212.04785 444.43582
-4.9631195 211.83752 443.99225
-3.3473969 211.62732 443.54239
-1.7373962 211.41725 443.08627
-0.79457092 211.59067 444.47195
0.4811554 211.57243 444.93027
1.7564392 211.55426 445.38422
3.6767426 211.15305 443.98013
4.9457092 211.13515 444.42371
6.5316315 210.92584 443.9343
8.1117554 210.71671 443.43875
9.6860504 210.50778 442.93726
10.635483 210.68182 444.29257
12.2034 210.47321 443.78091
13.157043 210.64743 445.12964
14.416977 210.63045 445.54196
15.676392 210.61359 445.95007
16.935226 210.59689 446.35406
18.487198 210.38916 445.81735
19.742279 210.3728 446.21231
21.285187 210.1655 445.66495
22.53653 210.14948 446.0509
23.787292 210.13364 446.43286
25.318008 209.92694 445.87012
26.565018 209.91147 446.24326
28.086716 209.7052 445.67017
29.330017 209.69009 446.03452
30.842735 209.48428 445.45123
32.082314 209.46954 445.80692
33.321327 209.455 446.15872
34.297691 209.63141 447.45267
35.538277 209.61719 447.79739
36.778328 209.60312 448.13828
38.272102 209.39856 447.52719
39.760132 209.19423 446.91077
40.993385 209.18079 447.23874
42.472542 208.9769 446.61261
43.702179 208.96384 446.93228
44.931328 208.95096 447.2482
46.159988 208.93823 447.56027
47.624115 208.7352 446.91577
49.082535 208.53241 446.2662
50.073822 208.71075 447.52011
51.297989 208.69876 447.81668
52.521698 208.68698 448.10959
53.96785 208.485 447.44281
54.967773 208.66394 448.68448
56.407845 208.46234 448.00912
57.627197 208.45128 448.28683
58.846115 208.4404 448.561
60.064644 208.42967 448.83145
61.490013 208.22891 448.13879
62.909782 208.02834 447.44138
64.121902 208.01817 447.70001
65.533081 207.81802 446.99387
66.938698 207.61806 446.28308
67.950226 207.79855 447.4924
