ply
format ascii 1.0
comment PCL generated
element vertex 1593
property float x
property float y
property float z
element camera 0
property float view_px
property float view_py
property float view_pz
property float x_axisx
property float x_axisy
property float x_axisz
property float y_axisx
property float y_axisy
property float y_axisz
property float z_axisx
property float z_axisy
property float z_axisz
property float focal
property float scalex
property float scaley
property float centerx
property float centery
property int viewportx
property int viewporty
property float k1
property float k2
end_header
276.26154 220.28488 444.68143
277.49713 220.30029 444.3483
279.24469 220.74443 445.8967
280.7449 220.97458 446.49628
282.25092 221.20499 447.09055
283.76266 221.43564 447.67935
284.74774 221.2377 446.38321
285.99695 221.25435 446.02359
286.97519 221.05667 444.72174
287.9487 220.8591 443.41745
289.19424 220.87619 443.04739
290.99918 221.32265 444.5451
291.96902 221.12552 443.23032
293.50351 221.35782 443.78168
295.33112 221.80505 445.26077
296.87982 222.03783 445.7998
297.84918 221.84129 444.46954
299.4043 222.07446 444.99869
300.6673 222.09299 444.59189
301.32977 221.68184 442.32245
302.58856 221.70053 441.90903
304.15363 221.93434 442.41898
305.41605 221.95331 441.99634
306.99005 222.18744 442.49518
308.88361 222.63686 443.9129
310.78821 223.08652 445.32266
312.06573 223.10605 444.87854
313.34375 223.12567 444.43015
314.62219 223.14532 443.97742
315.57401 222.94974 442.60025
316.85059 222.96944 442.13989
318.79218 223.41992 443.51172
320.07477 223.43973 443.04074
321.35773 223.45952 442.56543
322.98126 223.69481 443.00113
324.61035 223.93013 443.43045
325.89941 223.94989 442.94016
327.53693 224.18521 443.35773
329.53088 224.63617 444.68008
331.18201 224.87146 445.08374
332.4823 224.89096 444.57178
337.01276 226.85239 452.2283
341.59106 228.81435 459.86124
345.85297 230.56091 466.56448
349.79041 232.09195 472.341
354.13446 233.83917 479.00146
356.28763 234.29083 480.22369
357.32654 234.09422 478.73209
358.7373 234.11322 478.13849
360.52774 234.34787 478.43967
361.55731 234.14993 476.93762
362.58093 233.95142 475.43329
363.98663 233.96848 474.8226
366.17313 234.41742 475.99701
367.5824 234.43338 475.37518
370.17889 235.09749 477.42609
371.99265 235.32846 477.68314
373.81042 235.5587 477.9335
376.0361 236.00455 479.06607
378.27081 236.44963 480.18967
379.69583 236.46106 479.53143
381.94284 236.90434 480.63947
383.78387 237.13022 480.85471
385.21088 237.13857 480.18082
386.63562 237.14575 479.50317
-45.447464 227.35791 435.76031
-44.564041 227.56854 437.25015
-42.85759 227.34024 436.96613
-41.560135 227.33003 437.56357
-39.858414 227.10005 437.26846
-38.960754 227.30711 438.74707
-37.659073 227.29448 439.33298
-36.751053 227.5 440.80734
-35.052353 227.26718 440.49301
-34.137024 227.47136 441.96164
-32.441818 227.2374 441.6369
-30.751144 227.00296 441.30566
-29.446655 226.98677 441.86612
-28.141556 226.97012 442.42233
-26.459717 226.73444 442.07401
-24.78273 226.49841 441.71915
-23.481644 226.48068 442.26041
-21.443695 226.02559 440.99005
-20.1474 226.00731 441.52057
-18.487946 225.77032 441.1409
-17.194031 225.75156 441.66171
-16.257706 225.95099 443.08615
-14.961044 225.93179 443.59933
-13.312073 225.69415 443.19812
-12.018204 225.67471 443.70157
-10.724426 225.65515 444.20065
-9.0864716 225.41733 443.78229
-8.1374054 225.61572 445.1857
-6.8442383 225.59593 445.67172
-5.2149048 225.35805 445.23721
-3.5911713 225.12021 444.79639
-1.9730682 224.88245 444.3493
-0.032150269 224.42685 442.97687
1.2461853 224.4072 443.43637
2.8473053 224.16972 442.97055
4.4427338 223.93237 442.4986
5.7145691 223.91293 442.94333
6.6708069 224.11124 444.30746
8.5695343 223.65654 442.89532
9.5275269 223.855 444.25192
11.104813 223.61827 443.75327
12.371765 223.59927 444.17587
13.336243 223.79791 445.52246
14.904129 223.56165 445.00861
16.169571 223.54301 445.41867
17.140457 223.74191 446.75531
18.407516 223.72351 447.15793
19.962814 223.48792 446.62396
21.226166 223.46985 447.01752
22.772507 223.23468 446.47284
24.593903 222.78253 444.98764
25.847778 222.76508 445.36652
27.376724 222.53061 444.80484
28.626923 222.51349 445.1748
30.146912 222.27948 444.60281
31.125732 222.47978 445.9028
32.639427 222.24619 445.32126
33.884911 222.22981 445.67456
34.870049 222.43054 446.96487
36.117111 222.41452 447.31107
37.87278 221.96494 445.76843
38.861641 222.16617 447.04846
40.104568 222.15073 447.38214
41.593666 221.9187 446.76746
42.832977 221.90366 447.09271
44.07177 221.88884 447.41422
45.310089 221.87419 447.73184
46.784149 221.6431 447.09839
48.252502 221.41226 446.45987
49.484169 221.39825 446.76477
50.943741 221.16788 446.11676
52.397629 220.93777 445.46375
53.622681 220.92441 445.75626
54.62677 221.12769 446.996
56.071472 220.89825 446.33008
57.07991 221.10185 447.56369
58.305847 221.0892 447.84195
59.321251 221.29312 449.07001
60.756439 221.06454 448.3876
61.981117 221.05249 448.655
63.205406 221.0406 448.91867
64.828659 220.59642 447.2674
66.046951 220.58496 447.52277
67.264854 220.57373 447.77463
68.482384 220.56265 448.02289
69.888824 220.3356 447.30972
70.916344 220.54106 448.50873
72.316879 220.31442 447.78741
73.711845 220.08801 447.06168
74.922401 220.0779 447.29123
76.132629 220.06796 447.51727
77.342514 220.0582 447.7399
78.552078 220.04863 447.95905
79.592834 220.25522 449.13644
80.804375 220.24594 449.34906
82.015602 220.23688 449.55829
83.387238 220.01205 448.80096
84.75341 219.78743 448.03928
85.958572 219.7789 448.23734
87.163475 219.77054 448.43188
88.368088 219.76236 448.62314
89.572426 219.75433 448.81097
90.776527 219.74648 448.99539
92.122932 219.52298 448.21048
93.323929 219.51547 448.38779
94.387276 219.72388 449.52844
95.725189 219.50092 448.73233
96.925461 219.49388 448.8996
98.125511 219.487 449.06354
99.325356 219.48027 449.22406
100.52496 219.47372 449.38138
101.72437 219.4673 449.53531
102.80426 219.67671 450.65509
104.00584 219.67061 450.8028
105.32137 219.44899 449.97733
106.63155 219.22754 449.14792
107.82738 219.22191 449.28513
109.12944 219.00081 448.44833
110.42616 218.77988 447.6077
111.61632 218.7747 447.73453
112.80632 218.76965 447.85806
113.99617 218.76477 447.97833
115.18585 218.76003 448.09543
116.3754 218.7554 448.20923
117.5648 218.75095 448.31985
118.75405 218.74661 448.42722
119.94318 218.74243 448.53137
121.21275 218.52289 447.65915
122.32104 218.73447 448.73004
123.58521 218.51521 447.85098
124.77126 218.51157 447.94205
125.9572 218.50809 448.02997
127.14304 218.50473 448.11472
128.39388 218.28604 447.22189
129.5144 218.49838 448.27454
130.75989 218.27997 447.375
131.88538 218.4926 448.42169
133.12555 218.27444 447.5155
134.36047 218.05646 446.6059
135.49088 218.26944 447.64328
136.67343 218.26715 447.70242
137.85591 218.26497 447.75839
139.03831 218.26291 447.81125
140.22067 218.261 447.86093
141.43974 218.04379 446.93158
142.61942 218.04213 446.97482
143.79903 218.04059 447.01495
144.94957 218.25456 448.02798
146.15814 218.0379 447.08572
147.31375 218.25212 448.09268
148.47447 218.46646 449.09656
149.69653 218.03479 447.16837
150.87593 218.034 447.18961
152.05533 218.03333 447.20773
153.23468 218.03281 447.22272
154.42249 217.817 446.25803
155.59338 218.03209 447.24326
156.77272 218.03192 447.24884
157.95204 218.03189 447.25125
159.12952 217.81659 446.27399
160.30629 217.8168 446.27017
161.48305 217.81711 446.26315
162.65984 217.81757 446.25308
163.83664 217.81816 446.2399
165.01346 217.81885 446.22351
166.22491 218.25044 448.15674
167.38705 218.03601 447.15768
168.56653 218.03709 447.1319
169.77109 218.25369 448.07916
170.95322 218.255 448.047
172.10519 218.04108 447.03564
173.28484 218.04265 446.99719
174.46452 218.04436 446.95566
175.64429 218.04619 446.91098
176.7836 217.83273 445.88748
177.96089 217.83481 445.83661
179.1839 218.05244 446.75806
180.36391 218.05478 446.70074
181.54399 218.05725 446.64032
182.72415 218.05986 446.57672
183.96034 218.27802 447.48483
185.14325 218.28088 447.41473
186.32626 218.28387 447.34149
187.50935 218.28702 447.26505
188.75882 218.50574 448.15967
189.9447 218.50916 448.07672
191.13069 218.51268 447.99054
192.39079 218.73184 448.87491
193.57959 218.73566 448.7821
194.76851 218.73961 448.68616
195.95757 218.74368 448.58694
197.14674 218.74791 448.48453
198.24918 218.53674 447.40628
199.43605 218.54123 447.29767
200.53102 218.33032 446.21371
201.81026 218.55064 447.0708
203.09479 218.77112 447.9241
204.28487 218.7762 447.80234
205.4751 218.78143 447.67734
206.77045 219.00238 448.51984
207.96362 219.0079 448.388
209.04684 218.79794 447.28268
210.35048 219.01938 448.11453
211.42891 218.80969 447.00327
212.62024 218.8158 446.85867
213.81177 218.82205 446.71078
215.12654 219.04413 447.52823
216.19545 218.83499 446.40509
217.51582 219.05743 447.2153
218.8416 219.28006 448.02155
220.03937 219.28712 447.85641
221.10141 219.07855 446.72104
222.43564 219.3017 447.51614
223.63416 219.30923 447.341
224.54541 218.88525 445.2309
225.88556 219.10895 446.01529
227.23117 219.33279 446.79547
228.43071 219.34099 446.60687
229.63052 219.34933 446.41486
230.9873 219.57376 447.18326
232.19028 219.58249 446.98404
233.39352 219.59134 446.7814
234.59711 219.6004 446.57541
235.80096 219.60963 446.36594
237.00514 219.61902 446.15302
238.03737 219.41257 444.97556
239.41443 219.63834 445.71677
240.6196 219.64825 445.4935
241.82507 219.65837 445.26678
242.84825 219.45255 444.07739
244.23708 219.67911 444.80276
245.4436 219.68976 444.56549
246.65048 219.70056 444.32468
248.05081 219.9278 445.03748
249.65236 220.37149 446.70221
250.86818 220.38293 446.44919
251.88351 220.1783 445.23715
253.09752 220.19009 444.97751
254.31192 220.20207 444.71426
255.73541 220.43062 445.40121
257.16455 220.65941 446.08337
258.38541 220.67201 445.80811
259.82324 220.90128 446.48123
261.04755 220.91428 446.198
262.27234 220.92749 445.9111
263.27322 220.72438 444.67044
264.49628 220.73795 444.37674
265.71979 220.75171 444.07938
266.94379 220.76567 443.77826
268.16824 220.77982 443.47342
269.63058 221.01083 444.11172
270.61859 220.80869 442.85242
272.08716 221.04016 443.48187
273.31616 221.05511 443.16125
274.54565 221.07025 442.83679
275.77567 221.08559 442.50848
277.51245 221.53485 444.06198
279.26028 221.98442 445.60873
280.76071 222.21738 446.20734
282.26694 222.45062 446.80063
283.7789 222.68407 447.38837
284.76413 222.48372 446.09244
286.01349 222.50055 445.73242
286.99188 222.30045 444.43076
287.96552 222.10045 443.12668
289.48804 222.3349 443.69223
291.01639 222.56961 444.2522
292.55054 222.80455 444.80652
293.80573 222.82245 444.42154
295.92358 223.49249 446.83099
297.18774 223.5108 446.4353
298.15985 223.31184 445.10434
299.42249 223.33041 444.70123
300.98352 223.56659 445.22348
301.64871 223.15041 442.95395
302.60699 222.95175 441.61145
304.17224 223.18834 442.1203
305.74323 223.42511 442.62317
307.32001 223.66208 443.12006
309.21637 224.11694 444.53513
310.80734 224.35428 445.01898
312.40405 224.59177 445.49673
313.68475 224.61156 445.04694
314.64148 224.4135 443.67233
315.92032 224.43333 443.21484
316.86987 224.23523 441.83453
318.81158 224.6911 443.20462
320.09412 224.711 442.73318
321.37701 224.73087 442.25742
323.00055 224.96887 442.69202
324.62964 225.20689 443.12024
325.91861 225.22673 442.62952
327.20776 225.24646 442.1344
329.19901 225.7027 443.45612
330.84735 225.94061 443.85974
332.14481 225.96008 443.34842
336.67276 227.94518 450.99976
341.24854 229.93076 458.62756
345.50781 231.69833 465.32632
349.44257 233.24771 471.09903
354.1535 235.23447 478.65817
356.3064 235.69128 479.87869
357.71979 235.7106 479.28836
359.13275 235.72949 478.69333
360.92542 235.96667 478.9924
361.95709 235.76593 477.48956
363.36835 235.78342 476.88089
364.77875 235.80029 476.26764
366.57916 236.03548 476.54413
368.38385 236.27005 476.81381
370.98499 236.94179 478.86026
372.80328 237.17509 479.11423
374.22418 237.18871 478.47214
376.45166 237.6394 479.60211
377.87476 237.65131 478.94925
379.29617 237.66225 478.2923
381.12762 237.8912 478.51584
383.37683 238.33818 479.61624
384.80005 238.34592 478.94379
386.22092 238.35246 478.26758
-46.280518 229.09418 437.20132
-45.392883 229.30792 438.69284
-43.682129 229.07745 438.41187
-41.97496 228.84608 438.12482
-40.271439 228.61386 437.83157
-38.971863 228.60237 438.42142
-37.670959 228.59012 439.00745
-36.368851 228.57713 439.5896
-35.065643 228.56345 440.16776
-34.540497 228.99194 442.52988
-32.843185 228.75555 442.20706
-31.534607 228.74002 442.77417
-30.225327 228.72398 443.33713
-28.536484 228.48616 442.99734
-26.852371 228.24796 442.65103
-25.173126 228.00943 442.29831
-23.498764 227.77057 441.93909
-21.829391 227.53145 441.57336
-20.530746 227.5132 442.10529
-18.868881 227.27359 441.72775
-17.572556 227.25485 442.25
-16.276123 227.23587 442.76788
-14.979675 227.21671 443.28149
-13.683228 227.19736 443.79074
-12.38681 227.17783 444.29559
-10.743469 226.93738 443.8847
-9.4499969 226.91766 444.37988
-8.1566467 226.89786 444.87064
-6.5244293 226.65729 444.4426
-4.8977814 226.41672 444.00821
-3.2767029 226.17621 443.56754
-1.6612244 225.93576 443.12054
-0.051376343 225.69539 442.6673
1.2269745 225.67561 443.12723
2.8281708 225.43539 442.66251
4.1031189 225.41573 443.11292
5.3776703 225.39609 443.55899
6.3365631 225.59689 444.92395
7.9255066 225.35704 444.43842
9.198761 225.33762 444.87173
10.778839 225.09808 444.37506
12.048492 225.07889 444.79907
13.317673 225.05981 445.21887
14.586365 225.04086 445.63446
16.151306 224.80194 445.11655
17.122284 225.0033 446.45303
18.389465 224.98471 446.85611
19.944931 224.74634 446.32324
21.208435 224.72807 446.71722
22.754959 224.49011 446.17365
24.576569 224.03253 444.69016
26.108841 223.79507 444.13443
27.359741 223.77759 444.50882
28.610107 223.76028 444.87927
29.85994 223.74316 445.24567
31.109253 223.72623 445.60809
32.358047 223.70943 445.96649
33.606323 223.69284 446.32095
34.85408 223.67642 446.67148
36.101318 223.66019 447.01801
37.602654 223.42467 446.41882
38.84626 223.40884 446.75684
40.089348 223.39322 447.09094
41.331955 223.37778 447.42117
42.818176 223.14316 446.80289
44.057144 223.12814 447.12479
45.295654 223.11331 447.44278
46.769936 222.87941 446.8103
48.238495 222.64578 446.17279
49.470375 222.63156 446.478
50.930153 222.39842 445.83099
52.158463 222.38464 446.12814
53.609505 222.15196 445.47174
54.613739 222.3577 446.7113
55.840714 222.34451 446.99731
57.067261 222.3315 447.2796
58.293381 222.3187 447.55826
59.308952 222.52505 448.78601
60.744362 222.29367 448.10449
61.969231 222.28143 448.37216
63.193695 222.26941 448.6362
64.817177 221.81982 446.98639
66.03566 221.80821 447.24207
67.253746 221.7968 447.4942
68.663361 221.56677 446.78604
70.067398 221.33699 446.07327
71.092484 221.54492 447.27139
72.306496 221.53427 447.50882
73.701675 221.30511 446.78391
74.733513 221.51352 447.97299
75.946503 221.50342 448.1998
77.159172 221.4935 448.42313
78.371506 221.48376 448.64297
79.583527 221.47418 448.85931
80.795242 221.46478 449.07217
82.169968 221.23703 448.31958
83.378479 221.228 448.52509
84.744827 221.00064 447.76428
85.950165 220.992 447.96255
87.308174 220.76503 447.1936
88.510361 220.75673 447.38461
89.712296 220.7486 447.57224
90.913956 220.74063 447.75644
92.25795 220.51443 446.97198
93.316505 220.72522 448.11487
94.51741 220.71774 448.289
95.583252 220.9288 449.42627
96.918518 220.70329 448.62723
98.118744 220.69629 448.79129
99.318726 220.68948 448.95209
100.394 220.90112 450.07742
101.71804 220.6763 449.26364
102.79808 220.88821 450.383
103.99982 220.882 450.53082
105.3155 220.6577 449.70615
106.51427 220.65181 449.84705
107.71284 220.64606 449.98465
109.01764 220.42226 449.14886
110.21327 220.41684 449.27966
111.40875 220.41154 449.40714
112.70271 220.18823 448.56042
113.89528 220.18323 448.68106
115.08769 220.17841 448.79855
116.27995 220.17371 448.91275
117.47208 220.16916 449.02368
118.66405 220.16476 449.13141
119.8559 220.16049 449.2359
121.12819 219.93826 448.36459
122.3172 219.9343 448.4624
123.50607 219.93045 448.55704
124.7677 219.70866 447.6752
125.95377 219.70511 447.76321
127.13974 219.70169 447.84802
128.32561 219.69841 447.92963
129.51137 219.69527 448.00806
130.69704 219.69226 448.08328
131.82523 219.90741 449.12961
133.0681 219.68663 448.22424
134.25351 219.68402 448.28989
135.43884 219.68152 448.35239
136.67119 219.46115 447.43692
137.85379 219.45895 447.49298
138.99442 219.67487 448.52094
140.17947 219.67291 448.57071
141.40125 219.45306 447.64212
142.58362 219.45139 447.68555
143.76593 219.44983 447.7258
144.94821 219.44838 447.76288
146.13045 219.44707 447.79681
147.31265 219.44589 447.82761
148.4735 219.66281 448.83093
149.67694 219.44391 447.8797
150.85904 219.4431 447.901
152.04114 219.44241 447.91919
153.22319 219.44186 447.93417
154.40524 219.44144 447.94604
155.5873 219.44116 447.9548
156.76932 219.44098 447.96039
157.95135 219.44095 447.96286
159.13153 219.22305 446.98618
160.31099 219.22327 446.98233
161.49747 219.44157 447.95129
162.66994 219.22406 446.96518
163.84944 219.22464 446.9519
165.02896 219.22537 446.93552
166.22581 219.44418 447.89172
167.40796 219.44516 447.86902
168.59013 219.44626 447.84311
169.77235 219.44748 447.81406
170.95461 219.44884 447.78189
172.1369 219.4503 447.74649
173.31924 219.4519 447.70798
174.50165 219.45364 447.66629
175.6841 219.45551 447.62149
176.82611 219.2395 446.59842
178.04918 219.45963 447.52234
179.23183 219.46188 447.46802
180.41454 219.46426 447.41058
181.59734 219.4668 447.34991
182.7802 219.46944 447.2861
183.9072 219.25418 446.24478
185.14619 219.47513 447.14896
186.32933 219.47818 447.07559
187.57625 219.69942 447.97296
188.82843 219.92081 448.86676
190.01701 219.92426 448.78348
191.20572 219.92786 448.69702
192.46854 220.14969 449.58051
193.58347 219.93549 448.51453
194.77252 219.93948 448.4184
195.96172 219.94363 448.31912
197.15105 219.94794 448.21664
198.3405 219.95238 448.1109
199.44061 219.7388 447.03012
200.62778 219.7435 446.91815
201.90973 219.96652 447.77426
203.09979 219.97154 447.65564
204.29001 219.97668 447.53369
205.58276 220.20018 448.37903
206.88087 220.42386 449.22058
207.96921 220.21124 448.11838
209.16269 220.217 447.98309
210.35638 220.2229 447.8446
211.55023 220.22896 447.70279
212.74431 220.23517 447.55771
213.93857 220.24153 447.4093
215.2561 220.46635 448.22571
216.32773 220.25473 447.10269
217.52261 220.26154 446.94431
218.71774 220.26855 446.78275
219.9131 220.2757 446.61777
221.10869 220.28299 446.44952
222.44308 220.50887 447.24387
223.64175 220.51651 447.06851
224.6969 220.30588 445.92462
225.89349 220.31386 445.74301
227.3882 220.75891 447.48676
228.59048 220.76724 447.29752
229.79306 220.77574 447.10495
231.15262 221.00293 447.87204
232.35835 221.01178 447.67221
233.72629 221.23938 448.43124
234.77071 221.03001 447.26218
235.97733 221.0394 447.052
237.01459 220.83034 445.87747
238.21927 220.84004 445.66086
239.42426 220.84995 445.4408
240.62958 220.86002 445.21729
242.01532 221.08896 445.94922
243.22391 221.09943 445.7182
244.24759 220.8913 444.52563
245.45428 220.9021 444.28812
246.85184 221.13188 445.00406
248.06189 221.14307 444.75894
249.46799 221.37331 445.46625
250.87967 221.60376 446.16888
252.09607 221.61557 445.91199
253.10936 221.40863 444.6972
254.53006 221.63974 445.38736
255.95636 221.87109 446.07281
256.96567 221.66467 444.84827
258.39804 221.89645 445.52527
259.40298 221.69038 444.29468
260.84143 221.92262 444.96317
262.06381 221.93599 444.67661
263.06223 221.73039 443.43671
264.50986 221.96329 444.09229
265.73358 221.97723 443.79453
266.72552 221.77216 442.54544
268.1824 222.00571 443.18787
269.64496 222.23953 443.82523
270.8732 222.2543 443.51184
272.3446 222.4886 444.13959
273.57642 222.50377 443.81787
275.05664 222.73856 444.43591
276.0415 222.53467 443.16293
277.52802 222.7699 443.77191
279.02026 223.0054 444.37555
280.51831 223.24115 444.97388
282.02206 223.47713 445.56677
283.53165 223.71338 446.15427
284.51437 223.51057 444.85931
285.76132 223.52756 444.49963
287.00873 223.54471 444.13586
287.98254 223.34227 442.832
289.50525 223.57954 443.39648
290.7543 223.59723 443.02078
292.28598 223.83493 443.57483
293.5387 223.85297 443.19019
295.65417 224.53105 445.59818
296.91589 224.5495 445.20285
297.88544 224.34805 443.87286
299.14551 224.36674 443.47015
300.7041 224.60571 443.99219
301.3667 224.18439 441.7243
302.62567 224.20341 441.30997
304.19101 224.44279 441.81769
306.37921 225.12292 444.1702
307.65024 225.14243 443.73972
309.54941 225.60275 445.15216
311.14313 225.8429 445.634
312.74255 226.08319 446.10968
314.02597 226.10315 445.65851
314.98529 225.90262 444.28311
315.93976 225.70206 442.90536
316.88928 225.50142 441.52518
318.83099 225.96265 442.89349
320.11356 225.98264 442.4216
321.73413 226.22336 442.86047
323.01996 226.24333 442.37897
324.64899 226.48404 442.80609
325.93787 226.50394 442.31491
327.57526 226.7446 442.73032
328.51605 226.54335 441.31943
330.51263 227.00482 442.633
332.5199 227.46628 443.93805
337.05066 229.4751 451.58206
341.26752 231.26329 458.29675
345.89114 233.27301 465.89456
349.82849 234.84079 471.66116
353.80286 236.40878 477.40799
355.95276 236.87073 478.62796
358.11295 237.33243 479.83893
359.52814 237.35123 479.24249
361.323 237.59088 479.53946
362.73962 237.60873 478.93274
363.77002 237.40462 477.42575
364.79437 237.19987 475.91666
366.59412 237.43739 476.19226
368.79163 237.89578 477.35333
370.9986 238.35358 478.50546
372.81613 238.58913 478.75861
374.23615 238.60234 478.11649
376.86679 239.27946 480.1326
377.88489 239.06927 478.59222
378.89597 238.85806 477.05026
381.13568 239.31075 478.15833
382.96918 239.5407 478.37491
383.97137 239.3261 476.82251
384.96594 239.11026 475.26892
-46.286514 230.39224 436.87073
-45.399963 230.60918 438.36148
-43.690231 230.37659 438.08109
-42.389359 230.36728 438.68085
-40.684082 230.13286 438.38947
-39.382706 230.12177 438.98053
-38.079956 230.10986 439.56781
-36.775955 230.0972 440.15121
-35.470779 230.0838 440.73062
-34.554169 230.29379 442.19943
-33.24437 230.27908 442.772
-31.933746 230.26376 443.34048
-30.240692 230.02394 443.00797
-28.552307 229.78369 442.6691
-26.868622 229.54303 442.32373
-25.189758 229.302 441.97195
-23.515762 229.06065 441.61371
-21.84671 228.819 441.24899
-20.182663 228.57709 440.87778
-18.886765 228.55869 441.40469
-17.230331 228.31635 441.02179
-15.936798 228.29742 441.539
-14.643204 228.27832 442.05194
-13.349579 228.259 442.56049
-12.405792 228.46307 443.97461
-10.762527 228.21992 443.56473
-9.469162 228.2002 444.06033
-8.1759338 228.18034 444.55154
-6.8829041 228.16042 445.03842
-5.2536011 227.91711 444.60611
-3.6298828 227.67386 444.16751
-2.011734 227.43065 443.72263
-0.39920044 227.1875 443.27145
0.88179016 227.1676 443.73282
2.1624603 227.14769 444.18982
3.7633057 226.90475 443.72195
5.35849 226.66196 443.24792
6.6326599 226.64226 443.69025
7.9064178 226.62263 444.12833
9.1797485 226.60307 444.5621
10.759949 226.36075 444.06653
12.029709 226.3414 444.491
12.996948 226.54494 445.83813
14.56778 226.30304 445.3273
15.83609 226.28406 445.7392
16.809814 226.48781 447.07629
18.371231 226.24641 446.55038
19.926865 226.00522 446.01862
21.190521 225.98679 446.41302
22.737213 225.74603 445.87057
24.559052 225.283 444.38876
25.813232 225.26517 444.76849
27.342575 225.02509 444.20898
28.320068 225.22995 445.51578
29.572708 225.2126 445.88342
30.824821 225.19542 446.24698
32.076424 225.17842 446.6066
33.589989 224.93939 446.02325
34.837929 224.92279 446.37415
36.085358 224.90637 446.72113
37.84153 224.44592 445.18176
38.830688 224.65202 446.46136
40.323349 224.41417 445.85327
41.563507 224.39859 446.18326
42.803192 224.38316 446.50925
44.042351 224.36795 446.83151
45.281052 224.35294 447.14987
46.755562 224.11623 446.5184
48.224335 223.87979 445.8819
49.456375 223.86542 446.18753
50.916382 223.62946 445.54147
52.370705 223.39375 444.89038
53.596153 223.38002 445.1835
54.600555 223.5882 446.42279
56.045692 223.35315 445.75873
57.269829 223.34001 446.04074
58.280746 223.54868 447.27078
59.506638 223.53589 447.54605
60.939659 223.30174 446.86487
62.162102 223.28938 447.13229
63.384171 223.27719 447.39603
65.005272 222.82225 445.74725
66.0242 223.03195 446.95773
67.242485 223.02039 447.21011
68.460381 223.009 447.45898
69.867226 222.77641 446.74762
70.895073 222.98679 447.94595
72.29599 222.75461 447.22647
73.50985 222.744 447.4606
74.723373 222.73355 447.69116
75.936539 222.72331 447.91824
77.149376 222.71324 448.14185
78.361893 222.70337 448.36194
79.405556 222.91486 449.53909
80.785965 222.68413 448.79172
81.997551 222.67477 449.00137
83.369568 222.44446 448.24573
84.736115 222.21436 447.48569
86.097183 221.98447 446.72144
87.29982 221.97586 446.91602
88.502182 221.96744 447.10727
89.704262 221.9592 447.29517
90.906097 221.95111 447.47955
92.250275 221.72217 446.69589
93.308975 221.93546 447.83838
94.510056 221.92786 448.0127
95.710876 221.92044 448.18365
96.911469 221.91321 448.35135
98.111832 221.9061 448.51563
99.311981 221.89917 448.67657
100.51191 221.8924 448.83417
101.71162 221.88579 448.98846
102.91113 221.87932 449.1394
104.11043 221.87302 449.28708
105.4237 221.64603 448.46283
106.62003 221.64005 448.60358
107.81618 221.63422 448.74103
109.11855 221.40775 447.90573
110.31175 221.40225 448.03638
111.50479 221.39688 448.16367
112.69767 221.39166 448.28775
113.89038 221.38661 448.40857
115.17644 221.16095 447.55533
116.27534 221.37692 448.64047
117.55594 221.15158 447.78024
118.65971 221.36783 448.85941
119.8517 221.36349 448.96402
121.12415 221.1386 448.09335
122.31329 221.13455 448.19131
123.50232 221.13065 448.28601
124.69122 221.12692 448.37756
125.95029 220.90259 447.49298
127.1364 220.89912 447.57788
128.25726 221.11646 448.63272
129.50829 220.89259 447.73813
130.63412 221.1102 448.78696
131.82242 221.10725 448.85922
133.06543 220.88382 447.9545
134.25098 220.88115 448.02023
135.43643 220.87863 448.08282
136.6689 220.65562 447.168
137.85164 220.65338 447.22412
138.99239 220.87187 448.25153
140.13823 221.09048 449.27597
141.36272 220.86801 448.34805
142.54779 220.8663 448.39163
143.73282 220.86469 448.43201
144.91779 220.86322 448.46921
146.10274 220.86188 448.50323
147.28763 220.86069 448.53412
148.4725 220.85962 448.56186
149.67607 220.63808 447.61124
150.85831 220.63727 447.63257
152.04053 220.63657 447.65073
153.22272 220.63602 447.66583
154.40489 220.63559 447.6777
155.58119 220.85587 448.66177
156.76593 220.85568 448.66736
157.95067 220.85565 448.6698
159.13353 220.63516 447.69379
160.3157 220.63538 447.68988
161.49786 220.63571 447.68283
162.67047 220.41559 446.69736
163.8501 220.4162 446.68408
165.02974 220.41693 446.66766
166.22673 220.63837 447.62332
167.38911 220.41876 446.62537
168.59131 220.64047 447.57462
169.77365 220.64171 447.54553
170.95602 220.64308 447.51328
172.13846 220.64459 447.47784
173.32092 220.64621 447.43933
174.53879 220.86859 448.37234
175.68604 220.64987 447.35272
176.86867 220.6519 447.30469
178.09445 220.87469 448.22791
179.23415 220.65637 447.19913
180.41699 220.65878 447.14157
181.59991 220.66135 447.0809
182.78291 220.66403 447.017
183.966 220.66684 446.94992
185.14917 220.6698 446.87967
186.33244 220.67291 446.80624
187.5795 220.8968 447.70294
188.83182 221.12085 448.59604
190.02055 221.12437 448.51273
191.28082 221.34872 449.3989
192.47235 221.35254 449.30896
193.66402 221.35648 449.21579
194.85579 221.36057 449.11938
195.96594 221.14407 448.04788
197.23973 221.36914 448.9169
198.345 221.15292 447.83939
199.53476 221.15758 447.73032
200.63257 220.94159 446.64697
201.91467 221.1673 447.50238
203.10487 221.17239 447.38358
204.39505 221.39842 448.23172
205.58815 221.40381 448.10614
206.78143 221.40936 447.97733
208.08246 221.63588 448.81454
209.27869 221.64175 448.67889
210.47508 221.64775 448.53986
211.67169 221.65392 448.39761
212.8685 221.66025 448.25204
214.06549 221.66672 448.10315
215.26271 221.67334 447.95099
216.33447 221.45921 446.82834
217.52953 221.46616 446.66989
218.72481 221.47324 446.50806
219.92032 221.48051 446.34296
221.11606 221.48792 446.17444
222.31204 221.49551 446.00266
223.50827 221.50325 445.82748
224.561 221.29013 444.68439
225.9015 221.51923 445.46707
227.24747 221.74857 446.24567
228.44736 221.75702 446.05667
229.80164 221.98672 446.82721
231.16139 222.21666 447.59357
232.20795 222.00449 446.4313
233.57349 222.23482 447.18994
234.94449 222.46535 447.94421
235.98679 222.25368 446.77255
237.19391 222.26337 446.55869
238.22903 222.052 445.3815
239.4342 222.06204 445.16116
240.63971 222.07224 444.93732
242.02565 222.30397 445.66849
243.23444 222.31458 445.43719
244.44356 222.32538 445.20239
245.65305 222.33635 444.96408
247.05341 222.56891 445.67859
248.26622 222.58029 445.43262
249.67514 222.81332 446.13849
250.89133 222.8251 445.88489
252.10791 222.83707 445.62766
253.32489 222.84921 445.36688
254.54228 222.86157 445.10248
255.96881 223.0957 445.78699
257.18964 223.10847 445.51474
258.41086 223.12143 445.2388
259.63254 223.13458 444.95923
260.85464 223.14793 444.67599
262.07718 223.16147 444.38904
263.07578 222.95345 443.14948
264.52362 223.18915 443.80408
265.74753 223.20328 443.50595
266.97189 223.21759 443.20413
268.43161 223.45401 443.84497
269.897 223.69067 444.48062
271.12802 223.70563 444.16617
272.84497 224.16476 445.7366
273.59152 223.73615 443.52579
275.07202 223.97375 444.14285
276.05704 223.76744 442.87012
277.54376 224.00548 443.47803
279.03622 224.24377 444.08066
280.53445 224.48233 444.67792
282.29956 224.94336 446.2092
283.54822 224.96022 445.85626
284.53107 224.75494 444.56143
286.04718 224.99445 445.13846
287.29742 225.01184 444.77356
288.27399 224.80701 443.46909
289.7995 225.04712 444.03171
291.33087 225.28748 444.58875
292.58588 225.30557 444.20691
293.8414 225.32385 443.82108
295.38489 225.56482 444.36264
296.64407 225.5834 443.96771
297.90381 225.60214 443.56866
299.164 225.621 443.16547
300.72278 225.86276 443.6864
301.686 225.65913 442.34668
303.25101 225.9012 442.85751
304.51587 225.92059 442.4368
306.39838 226.38586 443.86127
307.98068 226.62848 444.35413
309.56876 226.87125 444.84097
311.16257 227.11417 445.32172
312.44293 227.13416 444.87524
314.04553 227.37732 445.34464
315.00488 227.17427 443.96939
316.61359 227.41757 444.42831
317.8981 227.43771 443.96365
319.51544 227.68115 444.41101
320.4682 227.478 443.02142
322.0914 227.72147 443.45816
323.03937 227.51813 442.06183
324.66833 227.76154 442.48788
325.95709 227.78145 441.99622
327.59442 228.02478 442.41058
328.88611 228.04449 441.90921
330.88525 228.51126 443.22
332.18231 228.53073 442.70789
336.71051 230.56317 450.34662
340.92477 232.37238 457.0567
345.18146 234.18192 463.74524
349.48044 235.99179 470.41196
353.82169 237.80193 477.0567
355.97125 238.269 478.27496
358.50598 238.95972 480.38382
359.9234 238.97839 479.78601
362.10068 239.44452 480.97827
363.13916 239.23817 479.47278
364.55719 239.25528 478.86017
365.19788 238.82358 476.45526
366.99963 239.06345 476.72882
368.8056 239.30267 476.9957
371.01184 239.76535 478.14636
372.82855 240.00314 478.39877
374.64911 240.24013 478.64459
376.87744 240.70047 479.77069
378.30121 240.7114 479.11667
379.31384 240.49704 477.57425
380.73114 240.5058 476.91345
382.56088 240.73776 477.1308
383.5592 240.51987 475.58051
384.13 240.07635 473.14963
-46.705215 231.91698 437.41827
-45.817154 232.1371 438.90942
-44.105774 231.9024 438.63074
-42.803284 231.89359 439.23166
-41.096298 231.65701 438.94214
-39.793167 231.64635 439.53442
-38.091125 231.4081 439.23383
-37.18277 231.62253 440.70758
-35.483459 231.38277 440.39682
-34.567535 231.5957 441.86505
-32.871414 231.35461 441.54391
-31.179749 231.11299 441.21649
-29.874176 231.09744 441.77872
-28.188919 230.8548 441.43961
-26.508362 230.61172 441.09409
-25.206253 230.59476 441.6416
-23.903656 230.57738 442.18488
-21.863907 230.10678 440.92059
-20.565948 230.08875 441.45325
-18.904572 229.84402 441.07767
-17.248367 229.59909 440.69577
-15.955093 229.58026 441.21338
-14.661743 229.56119 441.72668
-13.368332 229.5419 442.23569
-12.074921 229.52243 442.74036
-10.781586 229.50281 443.24069
-9.4883728 229.48306 443.73676
-7.8534241 229.23715 443.31625
-6.5631409 229.21724 443.80261
-5.273056 229.19724 444.28455
-3.649353 228.95126 443.84708
-2.0312195 228.70535 443.40332
-0.41864014 228.45947 442.95322
1.1882629 228.2137 442.49698
2.7895508 227.96802 442.03455
4.0645447 227.9481 442.48584
5.6571198 227.70261 442.01205
6.9287109 227.68282 442.45392
8.1998749 227.6631 442.89154
9.4706116 227.64345 443.32492
10.740921 227.62387 443.75403
11.706039 227.82983 445.10431
12.978058 227.81039 445.52594
14.249603 227.79108 445.9433
15.520676 227.77188 446.35651
16.791245 227.75279 446.76553
18.061325 227.73384 447.17035
20.197525 227.0394 444.77954
21.458679 227.02084 445.17358
22.719315 227.00243 445.56354
24.541367 226.534 444.08353
26.074051 226.29089 443.52991
27.325226 226.27307 443.90524
28.302856 226.48039 445.21188
29.826065 226.23792 444.64383
30.807922 226.4455 445.94394
32.059708 226.42828 446.30392
33.573502 226.18646 445.72165
34.821594 226.16968 446.07303
36.069221 226.15306 446.42035
37.825623 225.68719 444.88272
38.814934 225.89572 446.16208
40.058395 225.87973 446.49704
41.548164 225.63927 445.88535
43.032181 225.39908 445.26846
44.027367 225.60831 446.53448
45.505196 225.36856 445.90848
46.740982 225.35358 446.22278
47.976288 225.33881 446.53326
49.211143 225.3242 446.8399
50.673981 225.08542 446.1955
51.905296 225.07126 446.49399
53.136147 225.05728 446.78876
54.36657 225.04352 447.07974
55.378517 225.25424 448.31693
56.826057 225.01657 447.6507
58.267952 224.77917 446.97958
59.494034 224.76622 447.25519
60.719704 224.75345 447.5271
62.14991 224.51675 446.84268
63.372147 224.50439 447.10678
64.793755 224.26816 446.41336
66.012604 224.25621 446.66965
67.231056 224.24448 446.92239
68.64109 224.00891 446.21603
69.856194 223.99757 446.46109
70.884209 224.21039 447.65909
72.285332 223.97546 446.94049
73.499382 223.96469 447.17487
74.713066 223.95412 447.40576
75.750076 224.1676 448.59161
77.139435 223.9335 447.85699
78.352135 223.92348 448.07733
79.39595 224.13745 449.25415
80.776566 223.90396 448.50757
81.988319 223.89447 448.71747
83.360542 223.66141 447.96265
84.727272 223.42856 447.20352
85.932945 223.41965 447.40222
87.138351 223.41089 447.59747
88.493874 223.17865 446.82632
89.696129 223.17027 447.01443
90.898109 223.16208 447.19913
92.099846 223.15404 447.3804
93.301331 223.14616 447.55829
94.365112 223.36206 448.69778
95.568695 223.35452 448.86932
96.772041 223.34714 449.03751
98.104836 223.11638 448.23636
99.305145 223.10933 448.39743
100.50522 223.10245 448.55527
101.70509 223.09573 448.70972
103.02411 222.86569 447.89346
104.22098 222.85931 448.04102
105.41766 222.85309 448.18515
106.61414 222.84702 448.32608
107.91943 222.61768 447.49512
109.00655 222.83534 448.59802
110.30634 222.60632 447.75989
111.49952 222.60089 447.88739
112.69254 222.5956 448.0116
113.78931 222.81384 449.10254
115.0781 222.58545 448.25021
116.27065 222.58063 448.36472
117.46306 222.57593 448.47592
118.65532 222.57138 448.58389
119.84744 222.56699 448.6886
121.03944 222.56271 448.79007
122.30933 222.3353 447.91669
123.49849 222.33133 448.01154
124.7604 222.10422 447.1311
125.94675 222.10056 447.21927
127.13299 222.09703 447.30432
128.31912 222.09364 447.38611
129.50516 222.09039 447.46469
130.63112 222.31053 448.513
131.81955 222.30754 448.58533
133.00789 222.3047 448.65451
134.24838 222.07877 447.74713
135.43398 222.0762 447.80981
136.61949 222.07379 447.86929
137.80495 222.07147 447.92551
138.94839 222.29254 448.95248
140.09694 222.51373 449.97656
141.32414 222.2886 449.04941
142.54613 222.06366 448.11893
143.73128 222.06201 448.1593
144.9164 222.06053 448.19656
146.10146 222.05919 448.23068
147.2865 222.05795 448.26157
148.47148 222.05687 448.28934
149.65645 222.05591 448.3139
150.84138 222.05507 448.3353
152.0399 221.83119 447.37891
153.21121 222.0538 448.36865
154.39609 222.05338 448.38058
155.58096 222.05304 448.38931
156.76582 222.05289 448.39496
157.94997 222.27603 449.37219
159.13554 222.05292 448.39667
160.32042 222.05313 448.39282
161.50529 222.05348 448.38577
162.68059 221.83078 447.40085
163.86293 221.83139 447.38754
165.04527 221.83214 447.37106
166.22765 221.83301 447.35138
167.41005 221.83401 447.32861
168.61496 222.05832 448.27713
169.77496 221.8364 447.2735
170.95747 221.8378 447.24124
172.14003 221.83932 447.20581
173.32263 221.84097 447.16718
174.54063 222.06598 448.09958
175.68799 221.8447 447.08051
176.87077 221.84677 447.03247
178.09668 222.07217 447.95499
179.23651 221.85127 446.9267
180.41949 221.85374 446.86914
181.60254 221.85635 446.80835
182.78568 221.85907 446.74438
183.91293 221.6387 445.70413
185.15221 221.86496 446.60696
186.33562 221.8681 446.53348
187.51912 221.87138 446.45676
188.83528 222.32135 448.32187
190.02414 222.32495 448.23849
191.21312 222.32864 448.15176
192.40222 222.33252 448.06195
193.66803 222.55981 448.94061
194.78078 222.34065 447.87259
195.88849 222.12161 446.80176
197.15985 222.34937 447.67032
198.26266 222.1306 446.59351
199.44997 222.13531 446.4845
200.54535 221.91681 445.40195
201.91969 222.36856 447.22699
203.11005 222.37372 447.10809
204.40036 222.60245 447.95544
205.59363 222.60791 447.82971
206.89204 222.83698 448.6698
208.08824 222.84277 448.53726
209.17445 222.62526 447.43292
210.48117 222.85483 448.2623
211.79326 223.08456 449.08771
212.9928 223.091 448.94165
214.07205 222.87408 447.82507
215.26941 222.88083 447.6727
216.34132 222.66418 446.55048
217.53653 222.67122 446.39178
218.60114 222.45486 445.26398
219.79422 222.46222 445.099
220.98753 222.46973 444.93073
222.3197 222.70102 445.72385
223.51611 222.70889 445.54846
224.56897 222.49327 444.40576
225.90967 222.72513 445.18768
227.25581 222.95718 445.96545
228.45586 222.96576 445.77621
229.81033 223.19821 446.54596
231.32703 223.65463 448.27338
232.53569 223.66379 448.07263
233.74466 223.6731 447.86841
234.95393 223.6826 447.6608
235.99637 223.46846 446.48947
237.03394 223.25446 445.31561
238.23895 223.26443 445.09848
239.44431 223.27463 444.8779
240.64998 223.285 444.65384
242.03613 223.51949 445.38409
243.24509 223.53024 445.15253
244.63971 223.76517 445.87424
245.85199 223.77631 445.6351
247.25516 224.01169 446.34821
248.47078 224.02325 446.10147
249.88251 224.25906 446.80585
251.10149 224.27104 446.55139
252.52182 224.50732 447.24698
253.54065 224.29555 446.03165
254.7608 224.30809 445.76633
255.98141 224.32083 445.49744
257.20242 224.33377 445.22485
258.42383 224.34689 444.94858
259.42911 224.13594 443.71854
260.86801 224.37376 444.3851
262.09076 224.38748 444.09781
263.31393 224.4014 443.80682
264.53757 224.41553 443.51212
265.99133 224.65427 444.16068
266.98621 224.44434 442.91144
268.44611 224.68353 443.55121
269.91174 224.923 444.18591
271.38312 225.16272 444.81549
272.86017 225.40271 445.43988
274.0976 225.41832 445.116
275.33557 225.43413 444.78833
276.32336 225.22542 443.51511
277.81293 225.46631 444.12131
279.05234 225.48267 443.78189
280.55078 225.72406 444.37817
282.05502 225.96568 444.96899
283.565 226.20755 445.55435
284.81436 226.22476 445.19699
286.06427 226.24216 444.83566
287.3147 226.25974 444.47037
288.56564 226.27747 444.10098
289.81714 226.29538 443.72766
291.34866 226.53856 444.28357
292.60382 226.55682 443.90131
294.14429 226.80045 444.44669
295.69061 227.04428 444.98639
296.66248 226.83781 443.66003
297.62958 226.63144 442.3313
299.18268 226.87576 442.85693
300.44354 226.89493 442.44913
301.40421 226.68878 441.11047
302.96671 226.93359 441.62103
304.53497 227.17857 442.12564
306.41763 227.64929 443.5484
308.00006 227.89468 444.04013
309.58826 228.14021 444.52582
311.18213 228.38589 445.0054
312.46255 228.40601 444.55847
313.74338 228.42616 444.10727
315.02454 228.44635 443.6517
316.96045 228.91821 445.0271
317.58795 228.48674 442.72772
319.20267 228.73285 443.17496
320.48779 228.75305 442.7012
322.11099 228.99921 443.13681
323.05884 228.7933 441.74072
325.03088 229.26546 443.07733
326.3222 229.28545 442.58426
327.96204 229.53146 442.99646
329.25623 229.55122 442.49368
330.90417 229.79706 442.89413
332.55743 230.04276 443.28809
337.08838 232.09891 450.91931
340.94363 233.70282 456.71829
345.56464 235.75977 464.30438
349.49921 237.3642 470.06204
353.84036 239.19527 476.70102
356.36194 239.89398 478.81766
358.89899 240.59247 480.92307
360.31848 240.61096 480.32379
361.73737 240.62892 479.71994
363.15555 240.64635 479.11157
364.57294 240.66315 478.49875
365.21289 240.22592 476.095
367.40485 240.69482 477.25977
369.60626 241.1631 478.41562
371.42084 241.4039 478.67273
373.23935 241.64392 478.92325
375.46307 242.10992 480.0545
377.29163 242.34819 480.29071
379.12372 242.58551 480.52051
380.14044 242.36795 478.97635
381.1499 242.14925 477.43079
382.98102 242.38315 477.64642
384.39783 242.38889 476.97586
384.97253 241.93942 474.54413
-47.123276 233.4467 437.96066
-45.823074 233.44057 438.56973
-44.112793 233.20386 438.29166
-42.81131 233.19559 438.89246
-41.508087 233.18631 439.48962
-39.402908 232.71729 438.30859
-38.499374 232.93562 439.78433
-37.194321 232.92371 440.36902
-35.495743 232.6817 440.05899
-34.580566 232.89763 441.5267
-32.885101 232.65424 441.20642
-31.194016 232.41026 440.87985
-29.889038 232.39496 441.44229
-28.2043 232.14993 441.10406
-26.5242 231.90445 440.75946
-25.222549 231.88768 441.30725
-23.549316 231.64139 440.95093
-21.880966 231.39474 440.5882
-20.21756 231.1478 440.21902
-18.559189 230.90062 439.84348
-16.905884 230.65318 439.46149
-15.61554 230.63446 439.97845
-14.680237 230.84433 441.39746
-13.387054 230.82507 441.90686
-12.44368 231.03442 443.32037
-10.800674 230.78604 442.91269
-9.5075836 230.76627 443.40915
-8.2145996 230.74637 443.90125
-6.9217682 230.72635 444.38898
-5.2925568 230.47769 443.95895
-3.6688538 230.22903 443.52255
-2.0507355 229.98044 443.07993
-0.43817139 229.73184 442.63098
1.4947052 229.25494 441.25854
3.0933685 229.00656 440.79626
4.3657532 228.9866 441.24707
5.9557343 228.7384 440.7735
7.2247162 228.71854 441.2149
8.4933014 228.69873 441.65204
9.7614441 228.67899 442.08499
11.02916 228.65933 442.51373
11.991669 228.86783 443.86298
13.261139 228.8483 444.28415
14.530136 228.82886 444.70117
15.798676 228.80954 445.11395
16.772537 229.01825 446.45071
18.334274 228.77127 445.92706
20.179169 228.29665 444.46768
21.44046 228.27791 444.86218
22.984863 228.03157 444.32111
24.523514 227.78545 443.77429
25.778015 227.76724 444.15491
27.031982 227.74921 444.53149
28.285461 227.73132 444.90402
29.808899 227.48602 444.33704
30.790863 227.69608 445.63699
32.042793 227.67871 445.99747
33.556808 227.43405 445.4162
34.805107 227.41705 445.76794
36.052864 227.4003 446.11584
37.55484 227.15634 445.51978
38.798996 227.13994 445.85898
40.042633 227.12375 446.19431
41.532623 226.88049 445.58371
43.016869 226.63751 444.96783
44.012215 226.84915 446.23358
45.49025 226.6066 445.60867
46.726227 226.59143 445.92331
47.961731 226.57648 446.23416
49.19677 226.56171 446.54123
50.431343 226.54715 446.84451
51.891342 226.30576 446.19666
53.122383 226.29163 446.49179
54.352982 226.27768 446.78317
55.583153 226.26393 447.0708
56.812889 226.25038 447.35474
58.042168 226.23705 447.63504
59.271049 226.22388 447.91153
60.707108 225.98413 447.23288
62.137543 225.74463 446.54938
63.359978 225.73212 446.81375
64.98156 225.26637 445.16809
66.000824 225.48099 446.37793
67.219475 225.46909 446.63095
68.629715 225.23074 445.92554
70.034378 224.99263 445.21545
71.059952 225.20795 446.4126
72.274521 225.19684 446.65085
73.488747 225.18591 446.88553
74.702621 225.17519 447.1167
75.739792 225.39114 448.30222
76.955597 225.38074 448.52679
78.342247 225.14407 447.789
79.554779 225.13411 448.0062
80.767029 225.1243 448.21979
82.142334 224.88828 447.46976
83.351364 224.87886 447.67603
84.7183 224.64326 446.91769
85.924156 224.6342 447.11661
87.129723 224.62534 447.31213
88.485428 224.39035 446.54187
89.835678 224.15558 445.76736
90.890015 224.37354 446.91504
92.091919 224.36536 447.0965
93.293564 224.35739 447.27466
94.357498 224.57578 448.41373
95.561249 224.56812 448.58548
96.764755 224.56062 448.75388
97.968033 224.55328 448.91885
99.298203 224.31999 448.11478
100.49844 224.313 448.27274
101.69848 224.30618 448.42737
103.01765 224.07344 447.61197
104.09792 224.29303 448.72668
105.29733 224.2867 448.8714
106.60815 224.05447 448.04504
107.91362 223.82242 447.21484
109.00089 224.0426 448.31729
110.30082 223.81091 447.47995
111.49416 223.80536 447.60751
112.58865 224.026 448.70102
113.78423 224.02075 448.82239
114.97966 224.01569 448.94049
116.26588 223.78479 448.08542
117.45844 223.78001 448.19672
118.65085 223.77539 448.30481
119.92632 223.54498 447.43909
121.11587 223.54068 447.54047
122.38333 223.31061 446.6676
123.57005 223.30658 446.7623
124.75666 223.3027 446.85382
125.94315 223.29898 446.94211
127.12953 223.29539 447.02719
128.31581 223.29196 447.1091
129.43942 223.51451 448.15988
130.62808 223.51135 448.23557
131.81664 223.50833 448.30801
133.00511 223.50543 448.37726
134.19351 223.50269 448.44327
135.38182 223.50006 448.50613
136.57005 223.49759 448.56583
137.75821 223.49527 448.62228
138.9463 223.49307 448.67557
140.09497 223.71681 449.69904
141.32231 223.48907 448.77258
142.54443 223.26147 447.84271
143.72972 223.25984 447.88321
144.88591 223.48412 448.89423
146.10017 223.25694 447.95459
147.30923 223.02991 447.01166
148.47046 223.25458 448.01331
149.65556 223.2536 448.0379
150.84062 223.25275 448.05936
152.03928 223.02625 447.10352
153.21071 223.25146 448.09274
154.38727 223.47681 449.0788
155.57486 223.4765 449.08762
156.76242 223.47632 449.09326
157.95 223.47629 449.0957
159.13756 223.47635 449.09497
160.32071 223.25079 448.11688
161.50571 223.25116 448.10986
162.68114 223.02585 447.12555
163.8636 223.02647 447.11221
165.04608 223.02722 447.0957
166.22859 223.02811 447.07599
167.41112 223.02911 447.05319
168.59369 223.03027 447.02722
169.77629 223.03156 446.99805
170.93132 222.80719 445.992
172.14162 223.03452 446.93024
173.35715 223.26202 447.8653
174.54251 223.26385 447.82339
175.72792 223.26581 447.77826
176.91341 223.26791 447.73004
178.09895 223.27014 447.67859
179.23891 223.04669 446.65091
180.42203 223.04919 446.59323
181.5544 222.82599 445.55954
182.78848 223.0546 446.46835
183.97185 223.05753 446.40115
185.15529 223.06058 446.33072
186.33884 223.06377 446.25717
187.58618 223.29297 447.15244
188.83879 223.52234 448.04419
190.0278 223.52597 447.96069
191.21692 223.52975 447.87393
192.40616 223.53368 447.784
193.5955 223.53772 447.6908
194.78499 223.54195 447.59442
195.89284 223.32036 446.52408
197.16435 223.5508 447.39191
198.26732 223.3295 446.31558
199.45476 223.33429 446.20648
200.55028 223.11325 445.12442
202.01947 223.79628 447.91763
203.11528 223.57553 446.82901
204.30594 223.58093 446.7067
205.49677 223.58649 446.58109
206.79276 223.81824 447.42068
207.87894 223.59805 446.32007
209.18047 223.83012 447.15256
210.48737 224.06238 447.98111
211.68427 224.06874 447.8385
212.88138 224.07526 447.6926
213.95819 223.85583 446.57681
215.15312 223.86266 446.42459
216.34828 223.86964 446.2691
217.54366 223.87677 446.1102
218.6084 223.65793 444.98279
219.80164 223.66541 444.81766
220.99512 223.67302 444.64914
222.18886 223.68082 444.47733
223.38281 223.68878 444.30209
224.72086 223.92319 445.08698
226.06435 224.15779 445.86771
227.26428 224.16632 445.68161
228.61607 224.40132 446.45432
229.97333 224.63654 447.22281
231.33606 224.87198 447.98703
232.70427 225.10764 448.74692
233.91602 225.11711 448.54208
234.9635 224.90036 447.37369
236.0061 224.68375 446.20276
237.21356 224.69373 445.98837
238.24902 224.4774 444.81186
239.2796 224.26123 443.63281
240.48285 224.27171 443.40897
242.04675 224.7355 445.09604
243.25589 224.7464 444.86417
244.65074 224.9841 445.58502
245.67526 224.7688 444.38992
247.26657 225.23355 446.05774
248.48238 225.24527 445.8107
249.89432 225.48389 446.51416
251.11349 225.49602 446.2594
252.53403 225.73509 446.95404
253.75661 225.74765 446.6915
254.77341 225.53357 445.47342
255.99417 225.54648 445.20413
257.21539 225.5596 444.93124
258.43701 225.57291 444.65466
259.44244 225.3595 443.42493
260.88153 225.6001 444.09045
262.32632 225.84097 444.7511
263.55231 225.8551 444.45914
265.00583 226.09648 445.1105
266.46503 226.33809 445.75677
